# .PCD v.7 - Point Cloud Data file format
FIELDS x y z vp_x vp_y vp_z
SIZE 4 4 4 4 4 4
TYPE F F F F F F
COUNT 1 1 1 1 1 1
WIDTH 1484
HEIGHT 1
VIEWPOINT 0 -1.20013 0 1 0 0 0
POINTS 1484
DATA ascii
24.591 -9.314 15.32 -0 -1.2 0
26.1 1.04 14.873 -0 -1.2 0
25.826 -5.744 14.78 -0 -1.2 0
25.75 -6.261 14.741 -0 -1.2 0
25.665 -6.776 14.698 -0 -1.2 0
25.574 -7.289 14.651 -0 -1.2 0
25.474 -7.8 14.598 -0 -1.2 0
25.367 -8.31 14.541 -0 -1.2 0
26.644 -1.583 14.032 -0 -1.2 0
26.63 -2.107 14.03 -0 -1.2 0
26.609 -2.629 14.025 -0 -1.2 0
26.232 -6.27 13.862 -0 -1.2 0
26.145 -6.784 13.821 -0 -1.2 0
26.052 -7.297 13.778 -0 -1.2 0
25.95 -7.809 13.729 -0 -1.2 0
25.723 -8.826 13.62 -0 -1.2 0
25.465 -9.832 13.493 -0 -1.2 0
24.856 -11.813 13.193 -0 -1.2 0
27.037 -3.161 13.105 -0 -1.2 0
26.998 -3.683 13.092 -0 -1.2 0
26.952 -4.205 13.075 -0 -1.2 0
26.896 -4.725 13.054 -0 -1.2 0
26.834 -5.244 13.029 -0 -1.2 0
26.762 -5.762 12.999 -0 -1.2 0
26.683 -6.279 12.967 -0 -1.2 0
26.595 -6.793 12.929 -0 -1.2 0
26.5 -7.306 12.889 -0 -1.2 0
26.396 -7.818 12.844 -0 -1.2 0
26.165 -8.834 12.743 -0 -1.2 0
25.448 -11.331 12.423 -0 -1.2 0
24.737 -13.273 12.099 -0 -1.2 0
24.54 -13.75 12.009 -0 -1.2 0
24.335 -14.222 11.915 -0 -1.2 0
27.57 -1.079 12.118 -0 -1.2 0
27.564 -1.602 12.122 -0 -1.2 0
27.55 -2.127 12.121 -0 -1.2 0
27.527 -2.649 12.117 -0 -1.2 0
27.496 -3.172 12.108 -0 -1.2 0
27.457 -3.694 12.097 -0 -1.2 0
27.409 -4.216 12.082 -0 -1.2 0
27.353 -4.736 12.063 -0 -1.2 0
27.289 -5.255 12.041 -0 -1.2 0
26.901 -6.244 11.881 -0 -1.2 0
27.046 -6.804 11.951 -0 -1.2 0
26.492 -7.211 11.712 -0 -1.2 0
26.843 -7.828 11.873 -0 -1.2 0
26.73 -8.337 11.829 -0 -1.2 0
24.746 -14.232 11.023 -0 -1.2 0
27.954 -0.044 11.154 -0 -1.2 0
27.964 -0.567 11.163 -0 -1.2 0
27.967 -1.09 11.171 -0 -1.2 0
27.96 -1.613 11.175 -0 -1.2 0
27.946 -2.137 11.174 -0 -1.2 0
27.923 -2.66 11.171 -0 -1.2 0
27.632 -3.163 11.061 -0 -1.2 0
27.851 -3.704 11.155 -0 -1.2 0
27.802 -4.226 11.142 -0 -1.2 0
27.746 -4.746 11.124 -0 -1.2 0
27.681 -5.266 11.105 -0 -1.2 0
27.607 -5.783 11.081 -0 -1.2 0
27.132 -6.225 10.897 -0 -1.2 0
27.434 -6.814 11.024 -0 -1.2 0
27.336 -7.327 10.991 -0 -1.2 0
27.228 -7.838 10.953 -0 -1.2 0
27.114 -8.347 10.914 -0 -1.2 0
26.99 -8.855 10.87 -0 -1.2 0
25.1 -14.241 10.179 -0 -1.2 0
24.881 -14.711 10.096 -0 -1.2 0
23.675 -16.989 9.642 -0 -1.2 0
22.582 -18.725 9.225 -0 -1.2 0
28.309 -2.149 10.215 -0 -1.2 0
28.286 -2.671 10.213 -0 -1.2 0
28.254 -3.194 10.208 -0 -1.2 0
28.214 -3.715 10.199 -0 -1.2 0
28.164 -4.237 10.188 -0 -1.2 0
28.106 -4.757 10.173 -0 -1.2 0
28.041 -5.277 10.156 -0 -1.2 0
27.706 -5.75 10.041 -0 -1.2 0
27.883 -6.311 10.111 -0 -1.2 0
27.79 -6.825 10.084 -0 -1.2 0
27.691 -7.338 10.055 -0 -1.2 0
27.582 -7.849 10.021 -0 -1.2 0
27.464 -8.358 9.986 -0 -1.2 0
27.34 -8.866 9.946 -0 -1.2 0
27.206 -9.37 9.904 -0 -1.2 0
24.241 -16.551 8.924 -0 -1.2 0
23.981 -16.998 8.836 -0 -1.2 0
28.673 -0.068 9.146 -0 -1.2 0
28.683 -0.591 9.155 -0 -1.2 0
28.686 -1.114 9.163 -0 -1.2 0
28.679 -1.637 9.167 -0 -1.2 0
28.664 -2.161 9.168 -0 -1.2 0
28.641 -2.684 9.168 -0 -1.2 0
28.296 -5.275 9.091 -0 -1.2 0
28.315 -5.807 9.103 -0 -1.2 0
28.231 -6.323 9.083 -0 -1.2 0
28.138 -6.838 9.059 -0 -1.2 0
28.037 -7.351 9.034 -0 -1.2 0
27.926 -7.862 9.004 -0 -1.2 0
27.807 -8.371 8.974 -0 -1.2 0
27.545 -9.382 8.902 -0 -1.2 0
27.402 -9.884 8.863 -0 -1.2 0
24.797 -16.112 8.11 -0 -1.2 0
24.542 -16.562 8.035 -0 -1.2 0
23.732 -17.887 7.793 -0 -1.2 0
29.938 1.398 1.983 -0 -1.2 0
21.549 -21.383 -5.359 -0 -1.2 0
22.324 -20.214 -6.397 -0 -1.2 0
22.374 -19.825 -7.311 -0 -1.2 0
21.747 -20.631 -7.078 -0 -1.2 0
20.509 -21.811 -7.399 -0 -1.2 0
20.236 -21.826 -8.075 -0 -1.2 0
21.463 -19.874 -9.558 -0 -1.2 0
21.166 -20.279 -9.411 -0 -1.2 0
20.826 -20.295 -10.109 -0 -1.2 0
20.528 -20.695 -9.949 -0 -1.2 0
19.913 -21.475 -9.618 -0 -1.2 0
21.032 -19.495 -11.122 -0 -1.2 0
20.752 -19.906 -10.958 -0 -1.2 0
20.466 -20.311 -10.79 -0 -1.2 0
20.613 -19.513 -11.852 -0 -1.2 0
20.338 -19.923 -11.679 -0 -1.2 0
20.057 -20.328 -11.501 -0 -1.2 0
20.718 -18.692 -12.873 -0 -1.2 0
20.462 -19.113 -12.697 -0 -1.2 0
20.2 -19.529 -12.518 -0 -1.2 0
19.931 -19.939 -12.334 -0 -1.2 0
19.656 -20.344 -12.148 -0 -1.2 0
20.021 -19.13 -13.358 -0 -1.2 0
19.765 -19.545 -13.169 -0 -1.2 0
19.502 -19.955 -12.977 -0 -1.2 0
19.233 -20.36 -12.781 -0 -1.2 0
17.803 -22.291 -11.744 -0 -1.2 0
19.268 -19.56 -13.864 -0 -1.2 0
19.012 -19.97 -13.662 -0 -1.2 0
17.931 -21.55 -12.815 -0 -1.2 0
17.358 -22.304 -12.368 -0 -1.2 0
17.751 -21.177 -13.63 -0 -1.2 0
17.48 -21.563 -13.403 -0 -1.2 0
17.203 -21.943 -13.172 -0 -1.2 0
16.922 -22.317 -12.937 -0 -1.2 0
17.273 -21.192 -14.208 -0 -1.2 0
17.009 -21.578 -13.972 -0 -1.2 0
16.74 -21.958 -13.731 -0 -1.2 0
16.467 -22.331 -13.487 -0 -1.2 0
22.142 -0.629 -20.359 -0 -1.2 0
22.155 -1.675 -20.342 -0 -1.2 0
22.152 -2.198 -20.325 -0 -1.2 0
22.142 -2.722 -20.301 -0 -1.2 0
22.124 -3.244 -20.271 -0 -1.2 0
22.101 -3.766 -20.235 -0 -1.2 0
22.07 -4.286 -20.192 -0 -1.2 0
22.034 -4.807 -20.144 -0 -1.2 0
21.99 -5.326 -20.089 -0 -1.2 0
21.939 -5.844 -20.028 -0 -1.2 0
21.819 -6.874 -19.888 -0 -1.2 0
16.221 -21.974 -14.315 -0 -1.2 0
15.956 -22.347 -14.06 -0 -1.2 0
21.471 -1.173 -21.069 -0 -1.2 0
21.474 -1.695 -21.058 -0 -1.2 0
21.471 -2.218 -21.04 -0 -1.2 0
21.462 -2.742 -21.015 -0 -1.2 0
21.445 -3.264 -20.985 -0 -1.2 0
21.423 -3.786 -20.947 -0 -1.2 0
21.393 -4.306 -20.904 -0 -1.2 0
21.358 -4.827 -20.853 -0 -1.2 0
21.316 -5.346 -20.797 -0 -1.2 0
21.267 -5.864 -20.735 -0 -1.2 0
21.212 -6.379 -20.665 -0 -1.2 0
21.15 -6.894 -20.591 -0 -1.2 0
20.747 -9.437 -20.121 -0 -1.2 0
15.731 -21.988 -14.83 -0 -1.2 0
15.474 -22.361 -14.567 -0 -1.2 0
20.773 -1.715 -21.748 -0 -1.2 0
20.771 -2.238 -21.729 -0 -1.2 0
20.762 -2.762 -21.704 -0 -1.2 0
20.746 -3.284 -21.672 -0 -1.2 0
20.725 -3.806 -21.634 -0 -1.2 0
20.696 -4.326 -21.59 -0 -1.2 0
20.662 -4.847 -21.538 -0 -1.2 0
20.622 -5.366 -21.481 -0 -1.2 0
20.575 -5.883 -21.417 -0 -1.2 0
20.522 -6.399 -21.345 -0 -1.2 0
20.462 -6.914 -21.268 -0 -1.2 0
20.397 -7.426 -21.184 -0 -1.2 0
20.325 -7.937 -21.093 -0 -1.2 0
20.248 -8.445 -20.997 -0 -1.2 0
20.163 -8.952 -20.894 -0 -1.2 0
19.652 -11.445 -20.284 -0 -1.2 0
14.978 -22.375 -15.056 -0 -1.2 0
19.981 -0.691 -22.481 -0 -1.2 0
19.991 -1.214 -22.476 -0 -1.2 0
19.994 -1.737 -22.464 -0 -1.2 0
19.992 -2.26 -22.445 -0 -1.2 0
19.984 -2.783 -22.42 -0 -1.2 0
19.968 -3.305 -22.388 -0 -1.2 0
19.948 -3.827 -22.349 -0 -1.2 0
19.922 -4.348 -22.302 -0 -1.2 0
19.888 -4.868 -22.25 -0 -1.2 0
19.85 -5.387 -22.191 -0 -1.2 0
19.805 -5.905 -22.124 -0 -1.2 0
19.754 -6.42 -22.051 -0 -1.2 0
19.697 -6.935 -21.972 -0 -1.2 0
19.565 -7.958 -21.792 -0 -1.2 0
19.491 -8.466 -21.693 -0 -1.2 0
19.133 -10.477 -21.229 -0 -1.2 0
19.03 -10.973 -21.097 -0 -1.2 0
18.92 -11.465 -20.958 -0 -1.2 0
14.899 -21.639 -16.119 -0 -1.2 0
14.665 -22.018 -15.844 -0 -1.2 0
14.426 -22.39 -15.563 -0 -1.2 0
19.245 -1.234 -23.117 -0 -1.2 0
19.248 -1.757 -23.105 -0 -1.2 0
19.246 -2.279 -23.086 -0 -1.2 0
19.238 -2.803 -23.06 -0 -1.2 0
19.224 -3.325 -23.027 -0 -1.2 0
19.205 -3.847 -22.987 -0 -1.2 0
19.18 -4.367 -22.94 -0 -1.2 0
19.148 -4.888 -22.886 -0 -1.2 0
19.111 -5.407 -22.825 -0 -1.2 0
19.068 -5.924 -22.757 -0 -1.2 0
19.019 -6.44 -22.683 -0 -1.2 0
18.964 -6.954 -22.6 -0 -1.2 0
18.107 -11.974 -21.411 -0 -1.2 0
17.991 -12.46 -21.256 -0 -1.2 0
14.127 -22.032 -16.305 -0 -1.2 0
13.898 -22.404 -16.017 -0 -1.2 0
18.47 -1.777 -23.73 -0 -1.2 0
18.468 -2.3 -23.711 -0 -1.2 0
18.461 -2.823 -23.684 -0 -1.2 0
18.447 -3.345 -23.651 -0 -1.2 0
18.429 -3.867 -23.609 -0 -1.2 0
18.405 -4.387 -23.562 -0 -1.2 0
18.375 -4.908 -23.506 -0 -1.2 0
18.34 -5.427 -23.444 -0 -1.2 0
18.299 -5.944 -23.375 -0 -1.2 0
18.253 -6.46 -23.297 -0 -1.2 0
18.2 -6.974 -23.214 -0 -1.2 0
18.143 -7.486 -23.124 -0 -1.2 0
18.012 -8.505 -22.921 -0 -1.2 0
16.191 -16.231 -20.326 -0 -1.2 0
15.357 -18.43 -19.179 -0 -1.2 0
13.567 -22.047 -16.755 -0 -1.2 0
13.347 -22.419 -16.459 -0 -1.2 0
17.595 -0.754 -24.391 -0 -1.2 0
17.605 -1.276 -24.386 -0 -1.2 0
17.609 -1.799 -24.374 -0 -1.2 0
17.607 -2.322 -24.354 -0 -1.2 0
17.601 -2.846 -24.327 -0 -1.2 0
17.588 -3.368 -24.292 -0 -1.2 0
17.571 -3.889 -24.251 -0 -1.2 0
17.549 -4.41 -24.201 -0 -1.2 0
17.52 -4.93 -24.145 -0 -1.2 0
17.487 -5.449 -24.082 -0 -1.2 0
17.448 -5.966 -24.01 -0 -1.2 0
17.405 -6.482 -23.932 -0 -1.2 0
17.241 -8.019 -23.653 -0 -1.2 0
16.123 -13.936 -21.9 -0 -1.2 0
14.302 -19.292 -19.193 -0 -1.2 0
13.746 -20.515 -18.379 -0 -1.2 0
12.947 -22.063 -17.218 -0 -1.2 0
12.737 -22.435 -16.914 -0 -1.2 0
12.356 -22.078 -17.627 -0 -1.2 0
12.157 -22.45 -17.317 -0 -1.2 0
15.95 -1.841 -25.487 -0 -1.2 0
15.949 -2.364 -25.466 -0 -1.2 0
15.944 -2.888 -25.439 -0 -1.2 0
15.934 -3.409 -25.403 -0 -1.2 0
15.918 -3.931 -25.36 -0 -1.2 0
15.898 -4.451 -25.308 -0 -1.2 0
15.873 -4.972 -25.25 -0 -1.2 0
15.844 -5.49 -25.184 -0 -1.2 0
15.81 -6.008 -25.11 -0 -1.2 0
15.727 -7.037 -24.938 -0 -1.2 0
15.624 -8.059 -24.738 -0 -1.2 0
14.931 -12.538 -23.464 -0 -1.2 0
11.937 -21.716 -18.329 -0 -1.2 0
11.562 -22.464 -17.7 -0 -1.2 0
15.014 -1.34 -26.057 -0 -1.2 0
15.019 -1.863 -26.045 -0 -1.2 0
15.018 -2.386 -26.024 -0 -1.2 0
15.014 -2.91 -25.995 -0 -1.2 0
15.005 -3.431 -25.96 -0 -1.2 0
14.99 -3.953 -25.915 -0 -1.2 0
14.972 -4.474 -25.864 -0 -1.2 0
14.736 -4.938 -25.434 -0 -1.2 0
14.728 -5.454 -25.402 -0 -1.2 0
14.89 -6.03 -25.66 -0 -1.2 0
14.157 -12.074 -24.155 -0 -1.2 0
13.974 -13.04 -23.799 -0 -1.2 0
14.093 0.208 -26.535 -0 -1.2 0
14.124 -0.838 -26.549 -0 -1.2 0
14.137 -2.407 -26.512 -0 -1.2 0
14.133 -2.93 -26.483 -0 -1.2 0
14.125 -3.452 -26.446 -0 -1.2 0
14.111 -3.974 -26.401 -0 -1.2 0
13.907 -4.45 -25.997 -0 -1.2 0
13.818 -5.978 -25.768 -0 -1.2 0
13.984 -6.565 -26.056 -0 -1.2 0
13.946 -7.079 -25.964 -0 -1.2 0
13.903 -7.591 -25.864 -0 -1.2 0
13.857 -8.101 -25.755 -0 -1.2 0
13.489 -11.112 -24.942 -0 -1.2 0
12.068 -17.655 -22.003 -0 -1.2 0
10.278 -22.495 -18.437 -0 -1.2 0
13.196 0.188 -26.991 -0 -1.2 0
13.213 -0.335 -27.004 -0 -1.2 0
13.217 -3.994 -26.857 -0 -1.2 0
12.874 -7.011 -26.027 -0 -1.2 0
12.878 -7.537 -26.013 -0 -1.2 0
12.706 -7.971 -25.643 -0 -1.2 0
12.067 -14.502 -24.059 -0 -1.2 0
9.642 -22.509 -18.761 -0 -1.2 0
12.224 0.166 -27.445 -0 -1.2 0
12.24 -0.357 -27.457 -0 -1.2 0
12.252 -0.88 -27.462 -0 -1.2 0
12.26 -1.403 -27.457 -0 -1.2 0
12.033 -1.91 -26.924 -0 -1.2 0
12.046 -2.425 -26.93 -0 -1.2 0
12.007 -2.933 -26.82 -0 -1.2 0
12.248 -4.015 -27.31 -0 -1.2 0
12.109 -7.12 -26.86 -0 -1.2 0
12.072 -7.632 -26.755 -0 -1.2 0
10.385 -18.123 -22.496 -0 -1.2 0
9.24 -21.777 -19.758 -0 -1.2 0
9.097 -22.154 -19.423 -0 -1.2 0
8.953 -22.524 -19.082 -0 -1.2 0
11.316 0.149 -27.832 -0 -1.2 0
11.342 -4.033 -27.696 -0 -1.2 0
11.216 -7.138 -27.24 -0 -1.2 0
11.183 -7.649 -27.134 -0 -1.2 0
10.548 -13.055 -25.315 -0 -1.2 0
8.702 -21.408 -20.376 -0 -1.2 0
8.574 -21.79 -20.042 -0 -1.2 0
8.442 -22.167 -19.702 -0 -1.2 0
8.309 -22.537 -19.356 -0 -1.2 0
10.396 0.132 -28.189 -0 -1.2 0
10.224 -1.942 -27.616 -0 -1.2 0
10.233 -2.456 -27.614 -0 -1.2 0
10.238 -2.97 -27.603 -0 -1.2 0
10.244 -3.485 -27.594 -0 -1.2 0
10.295 -4.013 -27.706 -0 -1.2 0
10.311 -7.154 -27.591 -0 -1.2 0
9.686 -13.608 -25.567 -0 -1.2 0
9.617 -14.081 -25.356 -0 -1.2 0
7.899 -21.802 -20.305 -0 -1.2 0
7.779 -22.178 -19.96 -0 -1.2 0
7.656 -22.548 -19.609 -0 -1.2 0
9.392 0.115 -28.538 -0 -1.2 0
9.325 -7.17 -27.935 -0 -1.2 0
9.27 -8.191 -27.711 -0 -1.2 0
7.474 -20.651 -21.57 -0 -1.2 0
7.373 -21.045 -21.24 -0 -1.2 0
7.269 -21.433 -20.904 -0 -1.2 0
7.163 -21.815 -20.563 -0 -1.2 0
7.056 -22.191 -20.213 -0 -1.2 0
6.945 -22.56 -19.859 -0 -1.2 0
8.427 0.1 -28.838 -0 -1.2 0
6.991 -19.446 -22.76 -0 -1.2 0
6.733 -20.663 -21.801 -0 -1.2 0
6.642 -21.057 -21.468 -0 -1.2 0
6.55 -21.445 -21.129 -0 -1.2 0
6.456 -21.826 -20.783 -0 -1.2 0
6.36 -22.202 -20.431 -0 -1.2 0
6.261 -22.571 -20.072 -0 -1.2 0
7.477 -4.097 -28.97 -0 -1.2 0
7.154 -11.72 -27.202 -0 -1.2 0
6.623 -15.185 -24.898 -0 -1.2 0
6.346 -18.619 -23.586 -0 -1.2 0
6.203 -19.459 -22.977 -0 -1.2 0
6.13 -19.869 -22.661 -0 -1.2 0
6.054 -20.275 -22.338 -0 -1.2 0
5.977 -20.675 -22.01 -0 -1.2 0
5.897 -21.069 -21.673 -0 -1.2 0
5.816 -21.456 -21.331 -0 -1.2 0
5.734 -21.837 -20.982 -0 -1.2 0
5.649 -22.213 -20.627 -0 -1.2 0
5.562 -22.582 -20.265 -0 -1.2 0
6.393 -0.978 -29.38 -0 -1.2 0
6.41 -2.546 -29.341 -0 -1.2 0
6.41 -4.113 -29.222 -0 -1.2 0
6.341 -7.728 -28.634 -0 -1.2 0
6.178 -11.244 -27.62 -0 -1.2 0
6.147 -11.735 -27.442 -0 -1.2 0
5.631 -15.03 -24.818 -0 -1.2 0
5.547 -15.933 -24.367 -0 -1.2 0
5.634 -17.334 -24.663 -0 -1.2 0
5.581 -17.773 -24.381 -0 -1.2 0
5.524 -18.205 -24.092 -0 -1.2 0
5.467 -18.633 -23.795 -0 -1.2 0
5.408 -19.055 -23.491 -0 -1.2 0
5.347 -19.471 -23.179 -0 -1.2 0
5.285 -19.882 -22.862 -0 -1.2 0
5.221 -20.288 -22.536 -0 -1.2 0
5.155 -20.687 -22.205 -0 -1.2 0
5.088 -21.081 -21.866 -0 -1.2 0
5.019 -21.468 -21.521 -0 -1.2 0
4.949 -21.849 -21.169 -0 -1.2 0
4.878 -22.224 -20.81 -0 -1.2 0
4.805 -22.594 -20.445 -0 -1.2 0
5.391 -0.992 -29.579 -0 -1.2 0
5.398 -1.515 -29.576 -0 -1.2 0
5.405 -2.038 -29.562 -0 -1.2 0
5.23 -11.258 -27.81 -0 -1.2 0
5.021 -14.622 -26.375 -0 -1.2 0
4.734 -16.599 -24.626 -0 -1.2 0
4.783 -17.347 -24.834 -0 -1.2 0
4.739 -17.785 -24.55 -0 -1.2 0
4.692 -18.217 -24.259 -0 -1.2 0
4.645 -18.644 -23.96 -0 -1.2 0
4.596 -19.066 -23.654 -0 -1.2 0
4.546 -19.483 -23.34 -0 -1.2 0
4.494 -19.893 -23.021 -0 -1.2 0
4.441 -20.299 -22.693 -0 -1.2 0
4.386 -20.698 -22.359 -0 -1.2 0
4.33 -21.092 -22.018 -0 -1.2 0
4.273 -21.479 -21.67 -0 -1.2 0
4.215 -21.86 -21.316 -0 -1.2 0
4.155 -22.235 -20.956 -0 -1.2 0
4.095 -22.604 -20.589 -0 -1.2 0
4.382 -1.006 -29.745 -0 -1.2 0
4.389 -1.529 -29.742 -0 -1.2 0
4.396 -2.052 -29.728 -0 -1.2 0
4.403 -3.098 -29.675 -0 -1.2 0
4.406 -3.62 -29.635 -0 -1.2 0
4.406 -4.141 -29.587 -0 -1.2 0
4.405 -4.661 -29.528 -0 -1.2 0
4.373 -7.755 -28.992 -0 -1.2 0
4.236 -12.25 -27.597 -0 -1.2 0
4.115 -14.634 -26.526 -0 -1.2 0
4.086 -15.099 -26.286 -0 -1.2 0
3.854 -16.483 -24.565 -0 -1.2 0
3.927 -17.358 -24.975 -0 -1.2 0
3.892 -17.796 -24.69 -0 -1.2 0
3.855 -18.228 -24.397 -0 -1.2 0
3.818 -18.656 -24.097 -0 -1.2 0
3.779 -19.077 -23.789 -0 -1.2 0
3.74 -19.494 -23.474 -0 -1.2 0
3.698 -19.904 -23.152 -0 -1.2 0
3.656 -20.31 -22.823 -0 -1.2 0
3.613 -20.709 -22.487 -0 -1.2 0
3.568 -21.102 -22.144 -0 -1.2 0
3.523 -21.489 -21.795 -0 -1.2 0
3.476 -21.87 -21.439 -0 -1.2 0
3.429 -22.245 -21.076 -0 -1.2 0
3.38 -22.614 -20.707 -0 -1.2 0
3.291 -1.022 -29.885 -0 -1.2 0
3.297 -1.545 -29.881 -0 -1.2 0
3.304 -2.068 -29.868 -0 -1.2 0
3.313 -3.114 -29.815 -0 -1.2 0
3.316 -3.636 -29.775 -0 -1.2 0
3.318 -4.157 -29.725 -0 -1.2 0
3.319 -4.677 -29.667 -0 -1.2 0
3.31 -7.26 -29.241 -0 -1.2 0
3.254 -10.792 -28.272 -0 -1.2 0
3.243 -11.286 -28.099 -0 -1.2 0
3.151 -14.179 -26.883 -0 -1.2 0
3.133 -14.649 -26.652 -0 -1.2 0
3.113 -15.114 -26.411 -0 -1.2 0
3.045 -15.353 -25.763 -0 -1.2 0
2.998 -15.673 -25.288 -0 -1.2 0
3.025 -16.93 -25.373 -0 -1.2 0
3.001 -17.372 -25.094 -0 -1.2 0
2.976 -17.81 -24.807 -0 -1.2 0
2.949 -18.242 -24.512 -0 -1.2 0
2.923 -18.669 -24.211 -0 -1.2 0
2.879 -18.989 -23.767 -0 -1.2 0
2.867 -19.507 -23.586 -0 -1.2 0
2.837 -19.917 -23.262 -0 -1.2 0
2.806 -20.322 -22.932 -0 -1.2 0
2.775 -20.721 -22.594 -0 -1.2 0
2.743 -21.114 -22.25 -0 -1.2 0
2.71 -21.501 -21.898 -0 -1.2 0
2.676 -21.882 -21.54 -0 -1.2 0
2.642 -22.257 -21.176 -0 -1.2 0
2.607 -22.625 -20.805 -0 -1.2 0
2.279 -1.561 -29.975 -0 -1.2 0
2.286 -2.084 -29.962 -0 -1.2 0
2.296 -3.13 -29.909 -0 -1.2 0
2.3 -3.652 -29.868 -0 -1.2 0
2.303 -4.173 -29.819 -0 -1.2 0
2.307 -4.693 -29.76 -0 -1.2 0
2.271 -5.146 -29.209 -0 -1.2 0
2.31 -5.731 -29.617 -0 -1.2 0
2.311 -6.248 -29.531 -0 -1.2 0
2.311 -6.762 -29.437 -0 -1.2 0
2.31 -7.276 -29.333 -0 -1.2 0
2.309 -7.787 -29.22 -0 -1.2 0
2.307 -8.296 -29.099 -0 -1.2 0
2.247 -8.611 -28.247 -0 -1.2 0
2.3 -9.308 -28.831 -0 -1.2 0
2.296 -9.811 -28.683 -0 -1.2 0
2.291 -10.31 -28.526 -0 -1.2 0
2.286 -10.807 -28.361 -0 -1.2 0
2.28 -11.301 -28.187 -0 -1.2 0
2.273 -11.792 -28.005 -0 -1.2 0
2.265 -12.28 -27.814 -0 -1.2 0
2.256 -12.764 -27.616 -0 -1.2 0
2.248 -13.243 -27.408 -0 -1.2 0
2.239 -13.721 -27.192 -0 -1.2 0
2.228 -14.194 -26.967 -0 -1.2 0
2.217 -14.663 -26.735 -0 -1.2 0
2.206 -15.128 -26.495 -0 -1.2 0
2.192 -15.589 -26.246 -0 -1.2 0
2.18 -16.045 -25.989 -0 -1.2 0
2.166 -16.497 -25.725 -0 -1.2 0
2.152 -16.944 -25.453 -0 -1.2 0
2.137 -17.386 -25.173 -0 -1.2 0
2.121 -17.823 -24.885 -0 -1.2 0
2.106 -18.255 -24.59 -0 -1.2 0
2.088 -18.682 -24.287 -0 -1.2 0
2.07 -19.103 -23.978 -0 -1.2 0
2.053 -19.52 -23.66 -0 -1.2 0
2.034 -19.93 -23.335 -0 -1.2 0
2.014 -20.335 -23.003 -0 -1.2 0
1.994 -20.734 -22.665 -0 -1.2 0
1.974 -21.126 -22.32 -0 -1.2 0
1.953 -21.513 -21.967 -0 -1.2 0
1.931 -21.894 -21.609 -0 -1.2 0
1.909 -22.268 -21.243 -0 -1.2 0
1.886 -22.636 -20.871 -0 -1.2 0
1.253 -1.053 -30.038 -0 -1.2 0
1.259 -1.576 -30.035 -0 -1.2 0
1.266 -2.099 -30.021 -0 -1.2 0
1.277 -3.145 -29.968 -0 -1.2 0
1.283 -3.667 -29.928 -0 -1.2 0
1.287 -4.188 -29.879 -0 -1.2 0
1.292 -4.708 -29.819 -0 -1.2 0
1.297 -5.228 -29.752 -0 -1.2 0
1.3 -5.746 -29.675 -0 -1.2 0
1.304 -6.263 -29.59 -0 -1.2 0
1.306 -6.777 -29.494 -0 -1.2 0
1.309 -7.291 -29.391 -0 -1.2 0
1.311 -7.802 -29.279 -0 -1.2 0
1.313 -8.311 -29.157 -0 -1.2 0
1.314 -8.818 -29.026 -0 -1.2 0
1.316 -9.323 -28.887 -0 -1.2 0
1.316 -9.825 -28.74 -0 -1.2 0
1.316 -10.325 -28.583 -0 -1.2 0
1.316 -10.821 -28.418 -0 -1.2 0
1.315 -11.316 -28.244 -0 -1.2 0
1.314 -11.806 -28.061 -0 -1.2 0
1.313 -12.294 -27.87 -0 -1.2 0
1.312 -12.778 -27.67 -0 -1.2 0
1.309 -13.257 -27.462 -0 -1.2 0
1.307 -13.735 -27.245 -0 -1.2 0
1.304 -14.208 -27.021 -0 -1.2 0
1.3 -14.677 -26.788 -0 -1.2 0
1.297 -15.141 -26.547 -0 -1.2 0
1.293 -15.602 -26.298 -0 -1.2 0
1.287 -16.058 -26.04 -0 -1.2 0
1.283 -16.51 -25.776 -0 -1.2 0
1.278 -16.957 -25.503 -0 -1.2 0
1.272 -17.399 -25.223 -0 -1.2 0
1.266 -17.836 -24.934 -0 -1.2 0
1.26 -18.267 -24.638 -0 -1.2 0
1.252 -18.695 -24.335 -0 -1.2 0
1.245 -19.116 -24.025 -0 -1.2 0
1.238 -19.532 -23.707 -0 -1.2 0
1.23 -19.942 -23.381 -0 -1.2 0
1.221 -20.347 -23.049 -0 -1.2 0
1.212 -20.745 -22.71 -0 -1.2 0
1.203 -21.138 -22.363 -0 -1.2 0
1.194 -21.524 -22.011 -0 -1.2 0
1.184 -21.905 -21.651 -0 -1.2 0
1.174 -22.279 -21.285 -0 -1.2 0
1.164 -22.647 -20.912 -0 -1.2 0
0.159 -1.069 -30.064 -0 -1.2 0
0.165 -1.592 -30.06 -0 -1.2 0
0.223 -6.278 -29.614 -0 -1.2 0
0.228 -6.793 -29.519 -0 -1.2 0
0.235 -7.306 -29.416 -0 -1.2 0
0.24 -7.817 -29.303 -0 -1.2 0
0.247 -8.326 -29.181 -0 -1.2 0
0.252 -8.833 -29.051 -0 -1.2 0
0.258 -9.338 -28.911 -0 -1.2 0
0.264 -9.84 -28.763 -0 -1.2 0
0.269 -10.34 -28.606 -0 -1.2 0
0.275 -10.836 -28.441 -0 -1.2 0
0.28 -11.33 -28.267 -0 -1.2 0
0.285 -11.821 -28.084 -0 -1.2 0
0.29 -12.308 -27.893 -0 -1.2 0
0.297 -12.792 -27.693 -0 -1.2 0
0.302 -13.272 -27.484 -0 -1.2 0
0.306 -13.749 -27.268 -0 -1.2 0
0.311 -14.222 -27.043 -0 -1.2 0
0.316 -14.691 -26.81 -0 -1.2 0
0.321 -15.155 -26.568 -0 -1.2 0
0.326 -15.616 -26.32 -0 -1.2 0
0.33 -16.072 -26.062 -0 -1.2 0
0.334 -16.524 -25.797 -0 -1.2 0
0.339 -16.97 -25.524 -0 -1.2 0
0.344 -17.412 -25.244 -0 -1.2 0
0.347 -17.849 -24.954 -0 -1.2 0
0.352 -18.28 -24.658 -0 -1.2 0
0.355 -18.707 -24.355 -0 -1.2 0
0.36 -19.128 -24.044 -0 -1.2 0
0.363 -19.544 -23.726 -0 -1.2 0
0.366 -19.954 -23.401 -0 -1.2 0
0.37 -20.359 -23.068 -0 -1.2 0
0.373 -20.757 -22.729 -0 -1.2 0
0.376 -21.15 -22.381 -0 -1.2 0
0.38 -21.536 -22.029 -0 -1.2 0
0.383 -21.916 -21.669 -0 -1.2 0
0.386 -22.29 -21.302 -0 -1.2 0
0.389 -22.658 -20.929 -0 -1.2 0
-0.761 -7.32 -29.403 -0 -1.2 0
-0.752 -7.831 -29.291 -0 -1.2 0
-0.742 -8.34 -29.168 -0 -1.2 0
-0.732 -8.847 -29.038 -0 -1.2 0
-0.722 -9.351 -28.899 -0 -1.2 0
-0.712 -9.854 -28.751 -0 -1.2 0
-0.701 -10.353 -28.594 -0 -1.2 0
-0.69 -10.85 -28.428 -0 -1.2 0
-0.679 -11.344 -28.254 -0 -1.2 0
-0.668 -11.834 -28.072 -0 -1.2 0
-0.656 -12.322 -27.88 -0 -1.2 0
-0.644 -12.805 -27.68 -0 -1.2 0
-0.632 -13.285 -27.472 -0 -1.2 0
-0.62 -13.762 -27.257 -0 -1.2 0
-0.608 -14.235 -27.031 -0 -1.2 0
-0.596 -14.704 -26.798 -0 -1.2 0
-0.583 -15.168 -26.558 -0 -1.2 0
-0.57 -15.629 -26.308 -0 -1.2 0
-0.557 -16.084 -26.051 -0 -1.2 0
-0.545 -16.536 -25.786 -0 -1.2 0
-0.531 -16.982 -25.513 -0 -1.2 0
-0.517 -17.424 -25.232 -0 -1.2 0
-0.504 -17.861 -24.943 -0 -1.2 0
-0.49 -18.292 -24.647 -0 -1.2 0
-0.476 -18.719 -24.344 -0 -1.2 0
-0.461 -19.14 -24.033 -0 -1.2 0
-0.447 -19.556 -23.716 -0 -1.2 0
-0.433 -19.965 -23.39 -0 -1.2 0
-0.419 -20.37 -23.057 -0 -1.2 0
-0.404 -20.768 -22.718 -0 -1.2 0
-0.389 -21.16 -22.371 -0 -1.2 0
-0.375 -21.546 -22.019 -0 -1.2 0
-0.359 -21.926 -21.659 -0 -1.2 0
-0.344 -22.3 -21.292 -0 -1.2 0
-0.329 -22.668 -20.919 -0 -1.2 0
-1.688 -9.867 -28.706 -0 -1.2 0
-1.672 -10.366 -28.549 -0 -1.2 0
-1.656 -10.862 -28.384 -0 -1.2 0
-1.639 -11.356 -28.209 -0 -1.2 0
-1.622 -11.846 -28.027 -0 -1.2 0
-1.604 -12.334 -27.836 -0 -1.2 0
-1.586 -12.818 -27.637 -0 -1.2 0
-1.568 -13.297 -27.43 -0 -1.2 0
-1.548 -13.775 -27.213 -0 -1.2 0
-1.529 -14.247 -26.988 -0 -1.2 0
-1.509 -14.716 -26.755 -0 -1.2 0
-1.488 -15.18 -26.515 -0 -1.2 0
-1.467 -15.64 -26.266 -0 -1.2 0
-1.446 -16.096 -26.01 -0 -1.2 0
-1.424 -16.548 -25.744 -0 -1.2 0
-1.402 -16.994 -25.472 -0 -1.2 0
-1.379 -17.435 -25.192 -0 -1.2 0
-1.356 -17.872 -24.903 -0 -1.2 0
-1.332 -18.303 -24.608 -0 -1.2 0
-1.309 -18.73 -24.305 -0 -1.2 0
-1.284 -19.151 -23.994 -0 -1.2 0
-1.259 -19.566 -23.678 -0 -1.2 0
-1.234 -19.976 -23.352 -0 -1.2 0
-1.209 -20.38 -23.02 -0 -1.2 0
-1.182 -20.778 -22.682 -0 -1.2 0
-1.156 -21.17 -22.335 -0 -1.2 0
-1.129 -21.556 -21.983 -0 -1.2 0
-1.103 -21.936 -21.623 -0 -1.2 0
-1.075 -22.31 -21.257 -0 -1.2 0
-1.048 -22.678 -20.885 -0 -1.2 0
-2.766 -9.378 -28.767 -0 -1.2 0
-2.746 -9.88 -28.619 -0 -1.2 0
-2.725 -10.379 -28.463 -0 -1.2 0
-2.703 -10.876 -28.298 -0 -1.2 0
-2.68 -11.37 -28.125 -0 -1.2 0
-2.657 -11.859 -27.943 -0 -1.2 0
-2.632 -12.347 -27.753 -0 -1.2 0
-2.607 -12.831 -27.554 -0 -1.2 0
-2.581 -13.31 -27.346 -0 -1.2 0
-2.554 -13.787 -27.131 -0 -1.2 0
-2.527 -14.259 -26.907 -0 -1.2 0
-2.499 -14.728 -26.674 -0 -1.2 0
-2.469 -15.192 -26.435 -0 -1.2 0
-2.44 -15.653 -26.186 -0 -1.2 0
-2.409 -16.108 -25.931 -0 -1.2 0
-2.378 -16.559 -25.666 -0 -1.2 0
-2.346 -17.006 -25.395 -0 -1.2 0
-2.313 -17.447 -25.115 -0 -1.2 0
-2.28 -17.884 -24.827 -0 -1.2 0
-2.245 -18.315 -24.533 -0 -1.2 0
-2.211 -18.741 -24.231 -0 -1.2 0
-2.175 -19.162 -23.921 -0 -1.2 0
-2.139 -19.577 -23.604 -0 -1.2 0
-2.102 -19.987 -23.281 -0 -1.2 0
-2.064 -20.391 -22.95 -0 -1.2 0
-2.026 -20.789 -22.611 -0 -1.2 0
-1.987 -21.181 -22.267 -0 -1.2 0
-1.948 -21.567 -21.916 -0 -1.2 0
-1.908 -21.946 -21.557 -0 -1.2 0
-1.868 -22.32 -21.192 -0 -1.2 0
-1.827 -22.687 -20.821 -0 -1.2 0
-3.873 -6.846 -29.253 -0 -1.2 0
-3.854 -7.359 -29.149 -0 -1.2 0
-3.834 -7.87 -29.038 -0 -1.2 0
-3.812 -8.379 -28.917 -0 -1.2 0
-3.789 -8.885 -28.787 -0 -1.2 0
-3.766 -9.39 -28.649 -0 -1.2 0
-3.741 -9.892 -28.503 -0 -1.2 0
-3.714 -10.391 -28.346 -0 -1.2 0
-3.687 -10.887 -28.182 -0 -1.2 0
-3.659 -11.381 -28.01 -0 -1.2 0
-3.629 -11.871 -27.828 -0 -1.2 0
-3.598 -12.359 -27.639 -0 -1.2 0
-3.567 -12.842 -27.44 -0 -1.2 0
-3.534 -13.321 -27.234 -0 -1.2 0
-3.5 -13.799 -27.019 -0 -1.2 0
-3.465 -14.271 -26.796 -0 -1.2 0
-3.429 -14.739 -26.565 -0 -1.2 0
-3.392 -15.203 -26.326 -0 -1.2 0
-3.353 -15.664 -26.078 -0 -1.2 0
-3.314 -16.119 -25.824 -0 -1.2 0
-3.274 -16.57 -25.56 -0 -1.2 0
-3.233 -17.016 -25.29 -0 -1.2 0
-3.191 -17.457 -25.012 -0 -1.2 0
-3.148 -17.894 -24.725 -0 -1.2 0
-3.104 -18.325 -24.431 -0 -1.2 0
-3.059 -18.752 -24.13 -0 -1.2 0
-3.013 -19.172 -23.822 -0 -1.2 0
-2.966 -19.587 -23.506 -0 -1.2 0
-2.918 -19.996 -23.185 -0 -1.2 0
-2.869 -20.401 -22.855 -0 -1.2 0
-2.819 -20.798 -22.517 -0 -1.2 0
-2.769 -21.19 -22.174 -0 -1.2 0
-2.718 -21.576 -21.824 -0 -1.2 0
-2.666 -21.955 -21.467 -0 -1.2 0
-2.614 -22.329 -21.104 -0 -1.2 0
-2.56 -22.696 -20.734 -0 -1.2 0
-5.04 -0.611 -29.632 -0 -1.2 0
-5.036 -1.134 -29.637 -0 -1.2 0
-5.023 -2.18 -29.62 -0 -1.2 0
-4.946 -5.308 -29.352 -0 -1.2 0
-4.928 -5.826 -29.276 -0 -1.2 0
-4.909 -6.343 -29.191 -0 -1.2 0
-4.887 -6.857 -29.097 -0 -1.2 0
-4.865 -7.37 -28.995 -0 -1.2 0
-4.841 -7.881 -28.884 -0 -1.2 0
-4.816 -8.39 -28.764 -0 -1.2 0
-4.788 -8.896 -28.635 -0 -1.2 0
-4.761 -9.401 -28.497 -0 -1.2 0
-4.731 -9.903 -28.351 -0 -1.2 0
-4.699 -10.402 -28.196 -0 -1.2 0
-4.667 -10.898 -28.033 -0 -1.2 0
-4.633 -11.392 -27.86 -0 -1.2 0
-4.597 -11.882 -27.68 -0 -1.2 0
-4.56 -12.369 -27.491 -0 -1.2 0
-4.522 -12.853 -27.294 -0 -1.2 0
-4.482 -13.332 -27.088 -0 -1.2 0
-4.441 -13.809 -26.875 -0 -1.2 0
-4.399 -14.281 -26.654 -0 -1.2 0
-4.355 -14.75 -26.423 -0 -1.2 0
-4.31 -15.213 -26.185 -0 -1.2 0
-4.263 -15.674 -25.94 -0 -1.2 0
-4.215 -16.129 -25.685 -0 -1.2 0
-4.166 -16.58 -25.424 -0 -1.2 0
-4.116 -17.026 -25.154 -0 -1.2 0
-4.065 -17.467 -24.877 -0 -1.2 0
-4.011 -17.904 -24.593 -0 -1.2 0
-3.958 -18.335 -24.301 -0 -1.2 0
-3.902 -18.761 -24.001 -0 -1.2 0
-3.846 -19.181 -23.694 -0 -1.2 0
-3.789 -19.596 -23.381 -0 -1.2 0
-3.731 -20.006 -23.06 -0 -1.2 0
-3.67 -20.409 -22.732 -0 -1.2 0
-3.609 -20.807 -22.396 -0 -1.2 0
-3.547 -21.199 -22.055 -0 -1.2 0
-3.484 -21.584 -21.707 -0 -1.2 0
-3.42 -21.964 -21.351 -0 -1.2 0
-3.355 -22.337 -20.99 -0 -1.2 0
-3.289 -22.704 -20.622 -0 -1.2 0
-6.04 -5.319 -29.145 -0 -1.2 0
-6.02 -5.837 -29.069 -0 -1.2 0
-5.998 -6.353 -28.985 -0 -1.2 0
-5.973 -6.867 -28.892 -0 -1.2 0
-5.948 -7.38 -28.79 -0 -1.2 0
-5.919 -7.891 -28.679 -0 -1.2 0
-5.89 -8.4 -28.56 -0 -1.2 0
-5.858 -8.907 -28.433 -0 -1.2 0
-5.825 -9.411 -28.295 -0 -1.2 0
-5.79 -9.913 -28.15 -0 -1.2 0
-5.753 -10.412 -27.997 -0 -1.2 0
-5.715 -10.908 -27.834 -0 -1.2 0
-5.675 -11.402 -27.663 -0 -1.2 0
-5.633 -11.892 -27.484 -0 -1.2 0
-5.589 -12.379 -27.296 -0 -1.2 0
-5.544 -12.863 -27.1 -0 -1.2 0
-5.497 -13.342 -26.896 -0 -1.2 0
-5.448 -13.819 -26.684 -0 -1.2 0
-5.398 -14.291 -26.463 -0 -1.2 0
-5.346 -14.759 -26.236 -0 -1.2 0
-5.292 -15.223 -25.999 -0 -1.2 0
-5.237 -15.683 -25.754 -0 -1.2 0
-5.18 -16.138 -25.503 -0 -1.2 0
-5.121 -16.589 -25.242 -0 -1.2 0
-5.062 -17.035 -24.975 -0 -1.2 0
-5 -17.476 -24.7 -0 -1.2 0
-4.936 -17.913 -24.417 -0 -1.2 0
-4.872 -18.343 -24.127 -0 -1.2 0
-4.806 -18.77 -23.83 -0 -1.2 0
-4.739 -19.19 -23.525 -0 -1.2 0
-4.67 -19.605 -23.213 -0 -1.2 0
-4.599 -20.014 -22.895 -0 -1.2 0
-4.527 -20.418 -22.569 -0 -1.2 0
-4.454 -20.815 -22.236 -0 -1.2 0
-4.38 -21.207 -21.897 -0 -1.2 0
-4.304 -21.592 -21.551 -0 -1.2 0
-4.227 -21.972 -21.198 -0 -1.2 0
-4.149 -22.345 -20.84 -0 -1.2 0
-4.069 -22.712 -20.474 -0 -1.2 0
-6.974 -6.876 -28.665 -0 -1.2 0
-6.766 -9.922 -27.929 -0 -1.2 0
-6.725 -10.421 -27.775 -0 -1.2 0
-6.682 -10.917 -27.614 -0 -1.2 0
-6.635 -11.411 -27.445 -0 -1.2 0
-6.587 -11.9 -27.267 -0 -1.2 0
-6.538 -12.388 -27.081 -0 -1.2 0
-6.486 -12.871 -26.887 -0 -1.2 0
-6.432 -13.35 -26.684 -0 -1.2 0
-6.377 -13.827 -26.473 -0 -1.2 0
-6.319 -14.299 -26.254 -0 -1.2 0
-6.259 -14.767 -26.029 -0 -1.2 0
-6.198 -15.231 -25.794 -0 -1.2 0
-6.134 -15.691 -25.551 -0 -1.2 0
-6.069 -16.146 -25.301 -0 -1.2 0
-6.001 -16.597 -25.043 -0 -1.2 0
-5.933 -17.043 -24.778 -0 -1.2 0
-5.862 -17.484 -24.505 -0 -1.2 0
-5.789 -17.92 -24.224 -0 -1.2 0
-5.715 -18.351 -23.936 -0 -1.2 0
-5.639 -18.777 -23.641 -0 -1.2 0
-5.561 -19.197 -23.339 -0 -1.2 0
-5.482 -19.612 -23.029 -0 -1.2 0
-5.4 -20.021 -22.713 -0 -1.2 0
-5.318 -20.425 -22.39 -0 -1.2 0
-5.233 -20.822 -22.06 -0 -1.2 0
-5.147 -21.214 -21.723 -0 -1.2 0
-5.06 -21.599 -21.379 -0 -1.2 0
-4.971 -21.978 -21.03 -0 -1.2 0
-4.88 -22.351 -20.674 -0 -1.2 0
-4.788 -22.718 -20.311 -0 -1.2 0
-7.735 -9.93 -27.673 -0 -1.2 0
-7.689 -10.429 -27.521 -0 -1.2 0
-7.64 -10.925 -27.362 -0 -1.2 0
-7.588 -11.419 -27.194 -0 -1.2 0
-7.534 -11.908 -27.018 -0 -1.2 0
-7.478 -12.396 -26.833 -0 -1.2 0
-7.42 -12.879 -26.641 -0 -1.2 0
-7.36 -13.358 -26.44 -0 -1.2 0
-7.297 -13.835 -26.231 -0 -1.2 0
-7.232 -14.306 -26.014 -0 -1.2 0
-7.165 -14.775 -25.789 -0 -1.2 0
-7.096 -15.238 -25.557 -0 -1.2 0
-7.024 -15.698 -25.316 -0 -1.2 0
-6.95 -16.154 -25.069 -0 -1.2 0
-6.874 -16.604 -24.813 -0 -1.2 0
-6.796 -17.05 -24.55 -0 -1.2 0
-6.717 -17.491 -24.279 -0 -1.2 0
-6.634 -17.927 -24.001 -0 -1.2 0
-6.551 -18.358 -23.716 -0 -1.2 0
-6.464 -18.784 -23.423 -0 -1.2 0
-6.377 -19.204 -23.124 -0 -1.2 0
-6.287 -19.619 -22.817 -0 -1.2 0
-6.195 -20.028 -22.503 -0 -1.2 0
-6.101 -20.431 -22.184 -0 -1.2 0
-6.006 -20.829 -21.856 -0 -1.2 0
-5.908 -21.22 -21.523 -0 -1.2 0
-5.809 -21.605 -21.182 -0 -1.2 0
-5.708 -21.984 -20.835 -0 -1.2 0
-5.605 -22.357 -20.482 -0 -1.2 0
-5.502 -22.724 -20.123 -0 -1.2 0
-8.987 -7.406 -27.984 -0 -1.2 0
-8.949 -7.916 -27.876 -0 -1.2 0
-8.907 -8.425 -27.76 -0 -1.2 0
-8.864 -8.932 -27.635 -0 -1.2 0
-8.817 -9.436 -27.502 -0 -1.2 0
-8.767 -9.938 -27.36 -0 -1.2 0
-8.716 -10.437 -27.211 -0 -1.2 0
-8.661 -10.933 -27.053 -0 -1.2 0
-8.603 -11.426 -26.887 -0 -1.2 0
-8.416 -12.886 -26.339 -0 -1.2 0
-8.349 -13.365 -26.141 -0 -1.2 0
-8.278 -13.842 -25.934 -0 -1.2 0
-8.205 -14.314 -25.719 -0 -1.2 0
-8.13 -14.782 -25.497 -0 -1.2 0
-8.053 -15.246 -25.268 -0 -1.2 0
-7.973 -15.706 -25.03 -0 -1.2 0
-7.89 -16.161 -24.784 -0 -1.2 0
-7.805 -16.612 -24.531 -0 -1.2 0
-7.042 -20.034 -22.247 -0 -1.2 0
-6.936 -20.438 -21.931 -0 -1.2 0
-6.829 -20.835 -21.607 -0 -1.2 0
-6.72 -21.226 -21.276 -0 -1.2 0
-6.608 -21.611 -20.94 -0 -1.2 0
-6.494 -21.99 -20.598 -0 -1.2 0
-6.379 -22.363 -20.249 -0 -1.2 0
-6.262 -22.73 -19.892 -0 -1.2 0
-10.221 -0.13 -28.252 -0 -1.2 0
-10.029 -6.385 -27.841 -0 -1.2 0
-9.994 -6.899 -27.752 -0 -1.2 0
-9.955 -7.412 -27.653 -0 -1.2 0
-9.913 -7.923 -27.547 -0 -1.2 0
-9.868 -8.432 -27.431 -0 -1.2 0
-9.82 -8.938 -27.308 -0 -1.2 0
-9.769 -9.443 -27.177 -0 -1.2 0
-9.715 -9.945 -27.036 -0 -1.2 0
-9.658 -10.444 -26.888 -0 -1.2 0
-9.598 -10.939 -26.732 -0 -1.2 0
-9.535 -11.433 -26.568 -0 -1.2 0
-9.402 -12.41 -26.214 -0 -1.2 0
-9.098 -14.32 -25.414 -0 -1.2 0
-8.843 -15.712 -24.732 -0 -1.2 0
-8.659 -16.618 -24.239 -0 -1.2 0
-8.562 -17.063 -23.981 -0 -1.2 0
-7.703 -20.443 -21.668 -0 -1.2 0
-7.585 -20.84 -21.349 -0 -1.2 0
-7.464 -21.231 -21.022 -0 -1.2 0
-7.341 -21.616 -20.689 -0 -1.2 0
-7.216 -21.995 -20.351 -0 -1.2 0
-7.089 -22.368 -20.005 -0 -1.2 0
-6.96 -22.735 -19.654 -0 -1.2 0
-11.167 0.385 -27.869 -0 -1.2 0
-11.173 -0.136 -27.89 -0 -1.2 0
-11.175 -0.66 -27.902 -0 -1.2 0
-11.173 -1.184 -27.907 -0 -1.2 0
-11.169 -1.707 -27.902 -0 -1.2 0
-11.16 -2.229 -27.89 -0 -1.2 0
-11.148 -2.752 -27.868 -0 -1.2 0
-11.133 -3.275 -27.838 -0 -1.2 0
-11.114 -3.797 -27.8 -0 -1.2 0
-11.093 -4.318 -27.753 -0 -1.2 0
-11.068 -4.838 -27.698 -0 -1.2 0
-11.039 -5.357 -27.634 -0 -1.2 0
-11.007 -5.875 -27.562 -0 -1.2 0
-10.971 -6.391 -27.482 -0 -1.2 0
-10.933 -6.905 -27.393 -0 -1.2 0
-10.891 -7.418 -27.296 -0 -1.2 0
-10.846 -7.929 -27.19 -0 -1.2 0
-10.797 -8.438 -27.077 -0 -1.2 0
-10.745 -8.944 -26.956 -0 -1.2 0
-10.69 -9.448 -26.825 -0 -1.2 0
-10.57 -10.449 -26.541 -0 -1.2 0
-10.505 -10.945 -26.387 -0 -1.2 0
-10.437 -11.439 -26.224 -0 -1.2 0
-10.366 -11.928 -26.053 -0 -1.2 0
-10.292 -12.415 -25.875 -0 -1.2 0
-9.587 -16.172 -24.171 -0 -1.2 0
-9.163 -17.945 -23.141 -0 -1.2 0
-8.185 -21.236 -20.747 -0 -1.2 0
-8.051 -21.621 -20.419 -0 -1.2 0
-7.914 -22 -20.084 -0 -1.2 0
-7.634 -22.739 -19.397 -0 -1.2 0
-12.18 -0.142 -27.465 -0 -1.2 0
-12.177 -1.712 -27.477 -0 -1.2 0
-12.169 -2.235 -27.464 -0 -1.2 0
-12.156 -2.758 -27.443 -0 -1.2 0
-12.141 -3.281 -27.413 -0 -1.2 0
-12.121 -3.802 -27.376 -0 -1.2 0
-12.098 -4.323 -27.329 -0 -1.2 0
-12.071 -4.843 -27.274 -0 -1.2 0
-12.04 -5.363 -27.212 -0 -1.2 0
-12.006 -5.881 -27.141 -0 -1.2 0
-11.968 -6.397 -27.062 -0 -1.2 0
-11.927 -6.911 -26.974 -0 -1.2 0
-11.881 -7.424 -26.879 -0 -1.2 0
-11.833 -7.935 -26.774 -0 -1.2 0
-11.234 -12.421 -25.478 -0 -1.2 0
-9.09 -20.849 -20.744 -0 -1.2 0
-8.653 -22.004 -19.772 -0 -1.2 0
-8.348 -22.743 -19.095 -0 -1.2 0
-13.104 -1.194 -27.054 -0 -1.2 0
-13.1 -1.717 -27.049 -0 -1.2 0
-13.091 -2.24 -27.036 -0 -1.2 0
-13.078 -2.762 -27.016 -0 -1.2 0
-13.062 -3.286 -26.986 -0 -1.2 0
-13.041 -3.807 -26.948 -0 -1.2 0
-13.016 -4.328 -26.903 -0 -1.2 0
-12.988 -4.848 -26.849 -0 -1.2 0
-12.955 -5.368 -26.788 -0 -1.2 0
-12.92 -5.885 -26.717 -0 -1.2 0
-12.879 -6.401 -26.64 -0 -1.2 0
-12.835 -6.916 -26.553 -0 -1.2 0
-12.787 -7.428 -26.459 -0 -1.2 0
-12.735 -7.939 -26.356 -0 -1.2 0
-12.555 -9.458 -26.001 -0 -1.2 0
-12.181 -11.938 -25.252 -0 -1.2 0
-14.007 -0.15 -26.58 -0 -1.2 0
-13.998 -2.244 -26.578 -0 -1.2 0
-13.985 -2.766 -26.558 -0 -1.2 0
-13.968 -3.29 -26.528 -0 -1.2 0
-13.946 -3.811 -26.491 -0 -1.2 0
-13.92 -4.332 -26.447 -0 -1.2 0
-13.891 -4.852 -26.393 -0 -1.2 0
-13.856 -5.371 -26.333 -0 -1.2 0
-13.818 -5.889 -26.263 -0 -1.2 0
-13.775 -6.405 -26.186 -0 -1.2 0
-13.729 -6.919 -26.101 -0 -1.2 0
-13.677 -7.432 -26.009 -0 -1.2 0
-13.623 -7.943 -25.908 -0 -1.2 0
-12.747 -13.39 -24.288 -0 -1.2 0
-11.814 -17.081 -22.545 -0 -1.2 0
-14.984 -1.724 -26.052 -0 -1.2 0
-14.976 -2.247 -26.039 -0 -1.2 0
-14.962 -2.77 -26.018 -0 -1.2 0
-14.945 -3.293 -25.99 -0 -1.2 0
-14.922 -3.814 -25.954 -0 -1.2 0
-14.894 -4.335 -25.91 -0 -1.2 0
-14.863 -4.855 -25.858 -0 -1.2 0
-14.827 -5.375 -25.797 -0 -1.2 0
-14.787 -5.892 -25.73 -0 -1.2 0
-14.741 -6.409 -25.654 -0 -1.2 0
-14.691 -6.923 -25.571 -0 -1.2 0
-14.638 -7.436 -25.479 -0 -1.2 0
-14.579 -7.946 -25.381 -0 -1.2 0
-14.449 -8.961 -25.16 -0 -1.2 0
-14.377 -9.466 -25.038 -0 -1.2 0
-10.336 -22.752 -18.087 -0 -1.2 0
-15.879 -0.681 -25.521 -0 -1.2 0
-15.879 -1.204 -25.524 -0 -1.2 0
-15.874 -1.727 -25.52 -0 -1.2 0
-15.866 -2.25 -25.507 -0 -1.2 0
-15.852 -2.772 -25.486 -0 -1.2 0
-15.833 -3.296 -25.459 -0 -1.2 0
-15.81 -3.817 -25.423 -0 -1.2 0
-15.781 -4.338 -25.379 -0 -1.2 0
-15.748 -4.858 -25.328 -0 -1.2 0
-15.71 -5.377 -25.269 -0 -1.2 0
-15.667 -5.895 -25.203 -0 -1.2 0
-15.62 -6.411 -25.128 -0 -1.2 0
-15.568 -6.925 -25.047 -0 -1.2 0
-15.511 -7.438 -24.957 -0 -1.2 0
-15.449 -7.949 -24.86 -0 -1.2 0
-15.383 -8.457 -24.755 -0 -1.2 0
-15.157 -9.97 -24.396 -0 -1.2 0
-14.79 -11.947 -23.814 -0 -1.2 0
-14.579 -12.917 -23.48 -0 -1.2 0
-14.105 -14.812 -22.724 -0 -1.2 0
-11.925 -20.86 -19.242 -0 -1.2 0
-16.737 -2.251 -24.944 -0 -1.2 0
-16.722 -2.774 -24.924 -0 -1.2 0
-16.702 -3.297 -24.897 -0 -1.2 0
-16.679 -3.819 -24.861 -0 -1.2 0
-16.649 -4.34 -24.818 -0 -1.2 0
-16.615 -4.859 -24.769 -0 -1.2 0
-16.575 -5.379 -24.71 -0 -1.2 0
-16.53 -5.897 -24.646 -0 -1.2 0
-16.481 -6.413 -24.572 -0 -1.2 0
-18.464 -1.73 -23.714 -0 -1.2 0
-18.166 -2.235 -23.331 -0 -1.2 0
-18.439 -2.775 -23.682 -0 -1.2 0
-18.418 -3.299 -23.655 -0 -1.2 0
-18.393 -3.82 -23.622 -0 -1.2 0
-18.361 -4.341 -23.581 -0 -1.2 0
-18.323 -4.861 -23.533 -0 -1.2 0
-18.28 -5.38 -23.477 -0 -1.2 0
-18.231 -5.898 -23.414 -0 -1.2 0
-18.053 -7.441 -23.185 -0 -1.2 0
-17.982 -7.952 -23.094 -0 -1.2 0
-17.906 -8.46 -22.996 -0 -1.2 0
-17.104 -12.437 -21.964 -0 -1.2 0
-15.102 -18.395 -19.391 -0 -1.2 0
-14.325 -20.063 -18.391 -0 -1.2 0
-19.252 -1.729 -23.079 -0 -1.2 0
-19.242 -2.252 -23.067 -0 -1.2 0
-19.227 -2.775 -23.048 -0 -1.2 0
-19.205 -3.298 -23.021 -0 -1.2 0
-19.179 -3.819 -22.989 -0 -1.2 0
-19.146 -4.34 -22.948 -0 -1.2 0
-19.107 -4.86 -22.902 -0 -1.2 0
-19.063 -5.38 -22.847 -0 -1.2 0
-19.012 -5.897 -22.786 -0 -1.2 0
-18.956 -6.414 -22.718 -0 -1.2 0
-18.894 -6.928 -22.643 -0 -1.2 0
-18.827 -7.441 -22.562 -0 -1.2 0
-18.301 -10.471 -21.928 -0 -1.2 0
-13.358 -22.755 -15.982 -0 -1.2 0
-20.076 -1.728 -22.366 -0 -1.2 0
-20.066 -2.251 -22.354 -0 -1.2 0
-20.051 -2.773 -22.336 -0 -1.2 0
-20.029 -3.297 -22.31 -0 -1.2 0
-20.001 -3.818 -22.278 -0 -1.2 0
-19.967 -4.339 -22.238 -0 -1.2 0
-19.926 -4.859 -22.192 -0 -1.2 0
-19.881 -5.379 -22.14 -0 -1.2 0
-19.828 -5.896 -22.08 -0 -1.2 0
-19.77 -6.412 -22.014 -0 -1.2 0
-19.706 -6.926 -21.941 -0 -1.2 0
-19.636 -7.439 -21.862 -0 -1.2 0
-19.559 -7.95 -21.775 -0 -1.2 0
-19.478 -8.459 -21.683 -0 -1.2 0
-19.389 -8.965 -21.584 -0 -1.2 0
-19.09 -10.47 -21.246 -0 -1.2 0
-18.979 -10.966 -21.121 -0 -1.2 0
-18.738 -11.948 -20.85 -0 -1.2 0
-18.039 -14.345 -20.066 -0 -1.2 0
-17.883 -14.813 -19.89 -0 -1.2 0
-17.553 -15.736 -19.521 -0 -1.2 0
-13.941 -22.754 -15.477 -0 -1.2 0
-20.825 -1.726 -21.671 -0 -1.2 0
-20.814 -2.249 -21.659 -0 -1.2 0
-20.799 -2.771 -21.641 -0 -1.2 0
-20.776 -3.295 -21.616 -0 -1.2 0
-20.747 -3.816 -21.585 -0 -1.2 0
-20.713 -4.337 -21.546 -0 -1.2 0
-20.671 -4.857 -21.501 -0 -1.2 0
-20.624 -5.377 -21.45 -0 -1.2 0
-20.569 -5.894 -21.392 -0 -1.2 0
-20.51 -6.41 -21.328 -0 -1.2 0
-20.443 -6.924 -21.257 -0 -1.2 0
-20.371 -7.437 -21.18 -0 -1.2 0
-20.292 -7.948 -21.096 -0 -1.2 0
-20.207 -8.457 -21.006 -0 -1.2 0
-20.115 -8.963 -20.91 -0 -1.2 0
-20.019 -9.467 -20.806 -0 -1.2 0
-19.691 -10.964 -20.46 -0 -1.2 0
-19.569 -11.457 -20.331 -0 -1.2 0
-14.73 -22.387 -15.256 -0 -1.2 0
-14.471 -22.753 -14.985 -0 -1.2 0
-21.557 -1.723 -20.944 -0 -1.2 0
-21.547 -2.246 -20.932 -0 -1.2 0
-21.531 -2.769 -20.914 -0 -1.2 0
-21.507 -3.292 -20.889 -0 -1.2 0
-21.477 -3.813 -20.858 -0 -1.2 0
-21.442 -4.334 -20.821 -0 -1.2 0
-21.399 -4.854 -20.777 -0 -1.2 0
-21.35 -5.374 -20.728 -0 -1.2 0
-21.294 -5.891 -20.671 -0 -1.2 0
-21.232 -6.408 -20.61 -0 -1.2 0
-21.164 -6.922 -20.54 -0 -1.2 0
-21.089 -7.435 -20.466 -0 -1.2 0
-21.008 -7.945 -20.384 -0 -1.2 0
-20.826 -8.96 -20.204 -0 -1.2 0
-20.726 -9.465 -20.103 -0 -1.2 0
-20.619 -9.967 -19.998 -0 -1.2 0
-20.13 -11.944 -19.514 -0 -1.2 0
-19.992 -12.431 -19.378 -0 -1.2 0
-19.849 -12.914 -19.236 -0 -1.2 0
-15.52 -22.012 -14.99 -0 -1.2 0
-15.258 -22.385 -14.732 -0 -1.2 0
-14.99 -22.751 -14.47 -0 -1.2 0
-22.317 -1.72 -20.133 -0 -1.2 0
-22.306 -2.242 -20.121 -0 -1.2 0
-22.29 -2.765 -20.104 -0 -1.2 0
-22.266 -3.288 -20.079 -0 -1.2 0
-22.236 -3.81 -20.049 -0 -1.2 0
-22.199 -4.331 -20.014 -0 -1.2 0
-22.155 -4.851 -19.971 -0 -1.2 0
-22.105 -5.37 -19.923 -0 -1.2 0
-22.047 -5.888 -19.868 -0 -1.2 0
-21.983 -6.404 -19.808 -0 -1.2 0
-21.913 -6.918 -19.742 -0 -1.2 0
-21.751 -7.942 -19.591 -0 -1.2 0
-21.66 -8.45 -19.507 -0 -1.2 0
-21.46 -9.461 -19.32 -0 -1.2 0
-21.349 -9.963 -19.218 -0 -1.2 0
-21.233 -10.462 -19.11 -0 -1.2 0
-21.11 -10.958 -18.996 -0 -1.2 0
-20.98 -11.451 -18.877 -0 -1.2 0
-20.238 -13.866 -18.194 -0 -1.2 0
-16.344 -21.631 -14.639 -0 -1.2 0
-15.805 -22.382 -14.148 -0 -1.2 0
-15.528 -22.748 -13.896 -0 -1.2 0
-22.995 -1.715 -19.355 -0 -1.2 0
-22.985 -2.238 -19.343 -0 -1.2 0
-22.968 -2.761 -19.326 -0 -1.2 0
-22.944 -3.284 -19.303 -0 -1.2 0
-22.913 -3.805 -19.273 -0 -1.2 0
-22.875 -4.326 -19.239 -0 -1.2 0
-22.83 -4.846 -19.197 -0 -1.2 0
-22.777 -5.366 -19.151 -0 -1.2 0
-22.719 -5.883 -19.098 -0 -1.2 0
-22.653 -6.4 -19.04 -0 -1.2 0
-22.581 -6.914 -18.976 -0 -1.2 0
-22.501 -7.427 -18.906 -0 -1.2 0
-22.415 -7.938 -18.83 -0 -1.2 0
-22.321 -8.446 -18.749 -0 -1.2 0
-22.222 -8.953 -18.661 -0 -1.2 0
-22.116 -9.457 -18.569 -0 -1.2 0
-22.002 -9.959 -18.47 -0 -1.2 0
-21.882 -10.458 -18.367 -0 -1.2 0
-21.756 -10.953 -18.256 -0 -1.2 0
-21.622 -11.447 -18.141 -0 -1.2 0
-21.024 -13.385 -17.625 -0 -1.2 0
-16.294 -22.379 -13.588 -0 -1.2 0
-16.008 -22.745 -13.345 -0 -1.2 0
-23.366 -5.879 -18.303 -0 -1.2 0
-23.298 -6.395 -18.247 -0 -1.2 0
-23.225 -6.909 -18.185 -0 -1.2 0
-23.142 -7.422 -18.118 -0 -1.2 0
-23.054 -7.933 -18.044 -0 -1.2 0
-22.958 -8.441 -17.966 -0 -1.2 0
-22.856 -8.948 -17.882 -0 -1.2 0
-22.507 -10.453 -17.598 -0 -1.2 0
-21.946 -12.419 -17.144 -0 -1.2 0
-21.454 -13.857 -16.749 -0 -1.2 0
-16.764 -22.375 -13.009 -0 -1.2 0
-16.471 -22.742 -12.776 -0 -1.2 0
-24.322 -1.704 -17.661 -0 -1.2 0
-24.312 -2.227 -17.65 -0 -1.2 0
-24.294 -2.75 -17.634 -0 -1.2 0
-24.269 -3.273 -17.611 -0 -1.2 0
-24.236 -3.794 -17.583 -0 -1.2 0
-24.197 -4.315 -17.551 -0 -1.2 0
-24.149 -4.835 -17.513 -0 -1.2 0
-24.094 -5.355 -17.47 -0 -1.2 0
-24.033 -5.872 -17.421 -0 -1.2 0
-23.964 -6.389 -17.367 -0 -1.2 0
-23.888 -6.903 -17.307 -0 -1.2 0
-23.804 -7.416 -17.243 -0 -1.2 0
-23.713 -7.927 -17.173 -0 -1.2 0
-23.614 -8.435 -17.098 -0 -1.2 0
-23.51 -8.942 -17.017 -0 -1.2 0
-23.397 -9.446 -16.932 -0 -1.2 0
-23.277 -9.948 -16.842 -0 -1.2 0
-23.151 -10.447 -16.746 -0 -1.2 0
-22.876 -11.436 -16.539 -0 -1.2 0
-22.414 -12.896 -16.192 -0 -1.2 0
-18.122 -21.234 -13.011 -0 -1.2 0
-17.836 -21.619 -12.801 -0 -1.2 0
-17.545 -21.998 -12.587 -0 -1.2 0
-17.248 -22.371 -12.368 -0 -1.2 0
-16.948 -22.737 -12.146 -0 -1.2 0
-24.888 -2.743 -16.785 -0 -1.2 0
-24.864 -3.267 -16.763 -0 -1.2 0
-24.83 -3.788 -16.736 -0 -1.2 0
-24.79 -4.309 -16.705 -0 -1.2 0
-24.741 -4.829 -16.668 -0 -1.2 0
-24.685 -5.348 -16.627 -0 -1.2 0
-24.623 -5.866 -16.58 -0 -1.2 0
-24.552 -6.382 -16.528 -0 -1.2 0
-24.474 -6.897 -16.471 -0 -1.2 0
-24.388 -7.41 -16.41 -0 -1.2 0
-24.295 -7.92 -16.342 -0 -1.2 0
-24.194 -8.429 -16.271 -0 -1.2 0
-24.087 -8.936 -16.193 -0 -1.2 0
-23.85 -9.942 -16.026 -0 -1.2 0
-23.583 -10.937 -15.837 -0 -1.2 0
-23.439 -11.43 -15.736 -0 -1.2 0
-23.131 -12.407 -15.52 -0 -1.2 0
-19.139 -20.441 -12.759 -0 -1.2 0
-18.858 -20.838 -12.567 -0 -1.2 0
-18.571 -21.229 -12.369 -0 -1.2 0
-18.279 -21.614 -12.169 -0 -1.2 0
-17.981 -21.993 -11.965 -0 -1.2 0
-17.677 -22.366 -11.756 -0 -1.2 0
-17.369 -22.733 -11.545 -0 -1.2 0
-25.483 -1.691 -15.943 -0 -1.2 0
-25.454 -2.736 -15.916 -0 -1.2 0
-25.428 -3.259 -15.895 -0 -1.2 0
-25.394 -3.781 -15.869 -0 -1.2 0
-25.353 -4.302 -15.84 -0 -1.2 0
-25.304 -4.822 -15.804 -0 -1.2 0
-25.247 -5.341 -15.764 -0 -1.2 0
-25.183 -5.859 -15.719 -0 -1.2 0
-25.11 -6.375 -15.67 -0 -1.2 0
-25.031 -6.89 -15.615 -0 -1.2 0
-24.943 -7.403 -15.557 -0 -1.2 0
-24.849 -7.913 -15.492 -0 -1.2 0
-24.746 -8.422 -15.424 -0 -1.2 0
-24.636 -8.929 -15.35 -0 -1.2 0
-24.518 -9.433 -15.272 -0 -1.2 0
-24.394 -9.935 -15.19 -0 -1.2 0
-24.261 -10.434 -15.103 -0 -1.2 0
-24.121 -10.93 -15.011 -0 -1.2 0
-23.974 -11.424 -14.914 -0 -1.2 0
-20.135 -19.623 -12.439 -0 -1.2 0
-19.579 -20.435 -12.083 -0 -1.2 0
-19.292 -20.833 -11.9 -0 -1.2 0
-18.999 -21.224 -11.713 -0 -1.2 0
-18.7 -21.609 -11.522 -0 -1.2 0
-18.395 -21.988 -11.329 -0 -1.2 0
-18.085 -22.361 -11.13 -0 -1.2 0
-17.77 -22.728 -10.929 -0 -1.2 0
-26.04 -2.205 -14.988 -0 -1.2 0
-26.021 -2.728 -14.974 -0 -1.2 0
-25.995 -3.251 -14.953 -0 -1.2 0
-25.96 -3.772 -14.928 -0 -1.2 0
-25.918 -4.293 -14.9 -0 -1.2 0
-25.868 -4.813 -14.866 -0 -1.2 0
-25.81 -5.333 -14.828 -0 -1.2 0
-25.745 -5.851 -14.785 -0 -1.2 0
-25.671 -6.367 -14.738 -0 -1.2 0
-25.59 -6.881 -14.686 -0 -1.2 0
-25.5 -7.394 -14.63 -0 -1.2 0
-25.404 -7.905 -14.569 -0 -1.2 0
-25.299 -8.414 -14.504 -0 -1.2 0
-25.187 -8.92 -14.434 -0 -1.2 0
-22.609 -16.151 -12.881 -0 -1.2 0
-21.651 -17.925 -12.313 -0 -1.2 0
-21.396 -18.355 -12.162 -0 -1.2 0
-20.865 -19.201 -11.848 -0 -1.2 0
-20.589 -19.616 -11.685 -0 -1.2 0
-20.021 -20.429 -11.349 -0 -1.2 0
-19.727 -20.826 -11.177 -0 -1.2 0
-19.427 -21.218 -11 -0 -1.2 0
-19.122 -21.603 -10.82 -0 -1.2 0
-18.811 -21.982 -10.638 -0 -1.2 0
-18.493 -22.355 -10.451 -0 -1.2 0
-18.171 -22.722 -10.261 -0 -1.2 0
-26.545 -1.674 -14.106 -0 -1.2 0
-26.535 -2.196 -14.095 -0 -1.2 0
-26.516 -2.719 -14.081 -0 -1.2 0
-26.49 -3.243 -14.061 -0 -1.2 0
-26.454 -3.764 -14.037 -0 -1.2 0
-26.411 -4.285 -14.01 -0 -1.2 0
-26.361 -4.805 -13.977 -0 -1.2 0
-26.302 -5.325 -13.941 -0 -1.2 0
-26.235 -5.842 -13.9 -0 -1.2 0
-26.16 -6.359 -13.856 -0 -1.2 0
-26.078 -6.873 -13.806 -0 -1.2 0
-25.986 -7.386 -13.753 -0 -1.2 0
-25.888 -7.897 -13.695 -0 -1.2 0
-25.781 -8.406 -13.634 -0 -1.2 0
-25.667 -8.912 -13.568 -0 -1.2 0
-25.545 -9.417 -13.498 -0 -1.2 0
-25.415 -9.919 -13.424 -0 -1.2 0
-25.278 -10.418 -13.346 -0 -1.2 0
-22.568 -17.04 -11.839 -0 -1.2 0
-22.321 -17.481 -11.703 -0 -1.2 0
-21.807 -18.348 -11.421 -0 -1.2 0
-21.539 -18.774 -11.274 -0 -1.2 0
-21.266 -19.194 -11.125 -0 -1.2 0
-20.985 -19.609 -10.971 -0 -1.2 0
-20.698 -20.018 -10.815 -0 -1.2 0
-20.406 -20.422 -10.654 -0 -1.2 0
-20.107 -20.82 -10.492 -0 -1.2 0
-19.802 -21.211 -10.325 -0 -1.2 0
-19.49 -21.597 -10.156 -0 -1.2 0
-19.173 -21.976 -9.984 -0 -1.2 0
-18.85 -22.349 -9.807 -0 -1.2 0
-18.522 -22.716 -9.629 -0 -1.2 0
-27 -2.187 -13.186 -0 -1.2 0
-26.98 -2.71 -13.172 -0 -1.2 0
-26.954 -3.233 -13.153 -0 -1.2 0
-26.918 -3.755 -13.13 -0 -1.2 0
-26.874 -4.276 -13.104 -0 -1.2 0
-26.823 -4.796 -13.073 -0 -1.2 0
-26.763 -5.316 -13.039 -0 -1.2 0
-26.695 -5.833 -13 -0 -1.2 0
-26.619 -6.35 -12.958 -0 -1.2 0
-26.535 -6.864 -12.91 -0 -1.2 0
-26.443 -7.377 -12.861 -0 -1.2 0
-26.343 -7.888 -12.806 -0 -1.2 0
-26.234 -8.397 -12.748 -0 -1.2 0
-26.118 -8.903 -12.685 -0 -1.2 0
-25.994 -9.408 -12.619 -0 -1.2 0
-25.862 -9.91 -12.55 -0 -1.2 0
-24.117 -14.756 -11.646 -0 -1.2 0
-23.448 -16.135 -11.304 -0 -1.2 0
-23.211 -16.586 -11.183 -0 -1.2 0
-22.966 -17.032 -11.059 -0 -1.2 0
-22.715 -17.473 -10.931 -0 -1.2 0
-22.191 -18.34 -10.666 -0 -1.2 0
-21.92 -18.767 -10.529 -0 -1.2 0
-21.356 -19.602 -10.244 -0 -1.2 0
-21.065 -20.011 -10.097 -0 -1.2 0
-20.767 -20.415 -9.947 -0 -1.2 0
-20.463 -20.813 -9.794 -0 -1.2 0
-20.153 -21.204 -9.638 -0 -1.2 0
-19.836 -21.59 -9.479 -0 -1.2 0
-19.513 -21.969 -9.318 -0 -1.2 0
-19.185 -22.342 -9.152 -0 -1.2 0
-18.851 -22.709 -8.985 -0 -1.2 0
-27.476 -1.654 -12.2 -0 -1.2 0
-27.465 -2.177 -12.189 -0 -1.2 0
-27.446 -2.699 -12.175 -0 -1.2 0
-27.419 -3.223 -12.157 -0 -1.2 0
-27.383 -3.744 -12.135 -0 -1.2 0
-27.338 -4.265 -12.11 -0 -1.2 0
-27.286 -4.785 -12.081 -0 -1.2 0
-27.225 -5.305 -12.049 -0 -1.2 0
-27.157 -5.823 -12.012 -0 -1.2 0
-27.079 -6.339 -11.972 -0 -1.2 0
-26.993 -6.854 -11.928 -0 -1.2 0
-26.9 -7.367 -11.881 -0 -1.2 0
-26.798 -7.878 -11.83 -0 -1.2 0
-26.688 -8.387 -11.776 -0 -1.2 0
-26.57 -8.893 -11.717 -0 -1.2 0
-26.444 -9.398 -11.656 -0 -1.2 0
-26.31 -9.9 -11.591 -0 -1.2 0
-26.167 -10.399 -11.523 -0 -1.2 0
-26.017 -10.895 -11.45 -0 -1.2 0
-25.859 -11.389 -11.374 -0 -1.2 0
-25.694 -11.879 -11.295 -0 -1.2 0
-25.149 -13.329 -11.037 -0 -1.2 0
-24.952 -13.806 -10.944 -0 -1.2 0
-24.748 -14.278 -10.849 -0 -1.2 0
-24.536 -14.747 -10.749 -0 -1.2 0
-23.856 -16.126 -10.431 -0 -1.2 0
-23.366 -17.023 -10.203 -0 -1.2 0
-22.848 -17.901 -9.964 -0 -1.2 0
-22.578 -18.332 -9.839 -0 -1.2 0
-21.729 -19.594 -9.447 -0 -1.2 0
-21.432 -20.003 -9.311 -0 -1.2 0
-21.13 -20.407 -9.171 -0 -1.2 0
-20.82 -20.805 -9.03 -0 -1.2 0
-20.505 -21.196 -8.884 -0 -1.2 0
-20.183 -21.582 -8.737 -0 -1.2 0
-19.854 -21.961 -8.588 -0 -1.2 0
-19.52 -22.335 -8.434 -0 -1.2 0
-19.181 -22.702 -8.279 -0 -1.2 0
-27.877 -1.643 -11.254 -0 -1.2 0
-27.847 -2.689 -11.23 -0 -1.2 0
-27.819 -3.212 -11.213 -0 -1.2 0
-27.783 -3.734 -11.192 -0 -1.2 0
-27.738 -4.255 -11.168 -0 -1.2 0
-27.686 -4.775 -11.14 -0 -1.2 0
-27.624 -5.295 -11.11 -0 -1.2 0
-27.555 -5.812 -11.075 -0 -1.2 0
-27.476 -6.329 -11.038 -0 -1.2 0
-27.389 -6.843 -10.997 -0 -1.2 0
-27.294 -7.356 -10.953 -0 -1.2 0
-27.19 -7.867 -10.905 -0 -1.2 0
-27.079 -8.376 -10.855 -0 -1.2 0
-26.96 -8.883 -10.801 -0 -1.2 0
-26.832 -9.388 -10.743 -0 -1.2 0
-26.696 -9.89 -10.682 -0 -1.2 0
-26.551 -10.389 -10.618 -0 -1.2 0
-26.399 -10.885 -10.55 -0 -1.2 0
-26.239 -11.379 -10.48 -0 -1.2 0
-26.071 -11.869 -10.406 -0 -1.2 0
-25.894 -12.356 -10.329 -0 -1.2 0
-25.71 -12.84 -10.249 -0 -1.2 0
-25.519 -13.319 -10.166 -0 -1.2 0
-25.319 -13.796 -10.08 -0 -1.2 0
-25.112 -14.268 -9.991 -0 -1.2 0
-24.897 -14.737 -9.899 -0 -1.2 0
-24.674 -15.201 -9.803 -0 -1.2 0
-23.963 -16.568 -9.5 -0 -1.2 0
-23.71 -17.014 -9.392 -0 -1.2 0
-23.452 -17.455 -9.283 -0 -1.2 0
-23.185 -17.892 -9.17 -0 -1.2 0
-22.911 -18.323 -9.055 -0 -1.2 0
-22.631 -18.75 -8.936 -0 -1.2 0
-22.344 -19.17 -8.815 -0 -1.2 0
-22.05 -19.585 -8.692 -0 -1.2 0
-21.749 -19.995 -8.565 -0 -1.2 0
-21.442 -20.399 -8.436 -0 -1.2 0
-21.128 -20.797 -8.305 -0 -1.2 0
-20.808 -21.188 -8.17 -0 -1.2 0
-20.481 -21.574 -8.034 -0 -1.2 0
-20.149 -21.954 -7.895 -0 -1.2 0
-19.809 -22.327 -7.753 -0 -1.2 0
-19.465 -22.694 -7.609 -0 -1.2 0
-28.246 -1.632 -10.295 -0 -1.2 0
-28.236 -2.155 -10.285 -0 -1.2 0
-28.216 -2.678 -10.272 -0 -1.2 0
-28.188 -3.201 -10.255 -0 -1.2 0
-28.152 -3.723 -10.236 -0 -1.2 0
-28.106 -4.244 -10.213 -0 -1.2 0
-28.053 -4.764 -10.187 -0 -1.2 0
-27.99 -5.284 -10.159 -0 -1.2 0
-27.92 -5.801 -10.126 -0 -1.2 0
-27.84 -6.318 -10.092 -0 -1.2 0
-27.752 -6.832 -10.053 -0 -1.2 0
-27.657 -7.345 -10.012 -0 -1.2 0
-27.552 -7.857 -9.967 -0 -1.2 0
-27.439 -8.365 -9.92 -0 -1.2 0
-27.318 -8.872 -9.87 -0 -1.2 0
-27.188 -9.377 -9.816 -0 -1.2 0
-27.051 -9.879 -9.76 -0 -1.2 0
-26.904 -10.378 -9.701 -0 -1.2 0
-26.75 -10.875 -9.639 -0 -1.2 0
-26.588 -11.369 -9.573 -0 -1.2 0
-26.418 -11.858 -9.505 -0 -1.2 0
-26.239 -12.346 -9.434 -0 -1.2 0
-26.053 -12.83 -9.36 -0 -1.2 0
-25.858 -13.309 -9.284 -0 -1.2 0
-25.656 -13.786 -9.204 -0 -1.2 0
-25.446 -14.258 -9.122 -0 -1.2 0
-25.229 -14.727 -9.037 -0 -1.2 0
-25.003 -15.191 -8.949 -0 -1.2 0
-24.77 -15.652 -8.859 -0 -1.2 0
-24.531 -16.107 -8.765 -0 -1.2 0
-24.282 -16.559 -8.669 -0 -1.2 0
