# .PCD v.7 - Point Cloud Data file format
FIELDS x y z vp_x vp_y vp_z
SIZE 4 4 4 4 4 4
TYPE F F F F F F
COUNT 1 1 1 1 1 1
WIDTH 1690
HEIGHT 1
VIEWPOINT 0 -1.20013 0 1 0 0 0
POINTS 1690
DATA ascii
2.239 -3.839 10 -0 -1.2 0
4.372 -6.861 19.466 -0 -1.2 0
4.386 -7.246 19.495 -0 -1.2 0
4.395 -7.631 19.506 -0 -1.2 0
1.76 -3.829 7.827 -0 -1.2 0
1.72 -3.912 7.642 -0 -1.2 0
1.745 -4.103 7.737 -0 -1.2 0
4.143 -8.691 18.288 -0 -1.2 0
4.083 -8.942 17.993 -0 -1.2 0
2.221 -5.732 9.778 -0 -1.2 0
1.673 -4.72 7.363 -0 -1.2 0
0.305 0.038 1.308 -0 -1.2 0
0.314 0.033 1.341 -0 -1.2 0
0.324 0.033 1.381 -0 -1.2 0
0.335 0.033 1.421 -0 -1.2 0
0.345 0.032 1.462 -0 -1.2 0
0.356 0.029 1.503 -0 -1.2 0
0.368 0.031 1.551 -0 -1.2 0
0.381 0.033 1.6 -0 -1.2 0
0.392 0.026 1.642 -0 -1.2 0
0.407 0.03 1.7 -0 -1.2 0
0.422 0.033 1.758 -0 -1.2 0
0.435 0.029 1.809 -0 -1.2 0
0.453 0.034 1.876 -0 -1.2 0
0.468 0.03 1.935 -0 -1.2 0
0.487 0.031 2.004 -0 -1.2 0
0.504 0.029 2.072 -0 -1.2 0
0.524 0.032 2.15 -0 -1.2 0
0.545 0.031 2.228 -0 -1.2 0
0.567 0.032 2.316 -0 -1.2 0
0.592 0.034 2.412 -0 -1.2 0
0.62 0.039 2.518 -0 -1.2 0
0.647 0.039 2.625 -0 -1.2 0
0.678 0.04 2.741 -0 -1.2 0
0.711 0.042 2.867 -0 -1.2 0
0.744 0.039 2.994 -0 -1.2 0
0.779 0.035 3.131 -0 -1.2 0
0.82 0.033 3.286 -0 -1.2 0
0.87 0.039 3.479 -0 -1.2 0
0.918 0.035 3.663 -0 -1.2 0
0.978 0.04 3.895 -0 -1.2 0
1.043 0.042 4.147 -0 -1.2 0
1.112 0.037 4.409 -0 -1.2 0
1.202 0.046 4.756 -0 -1.2 0
1.306 0.053 5.152 -0 -1.2 0
1.409 0.045 5.55 -0 -1.2 0
1.535 0.041 6.034 -0 -1.2 0
1.689 0.039 6.625 -0 -1.2 0
1.898 0.048 7.428 -0 -1.2 0
2.162 0.06 8.443 -0 -1.2 0
2.512 0.075 9.788 -0 -1.2 0
2.955 0.079 11.491 -0 -1.2 0
3.263 -0.022 12.666 -0 -1.2 0
3.593 -0.161 13.927 -0 -1.2 0
5.149 -0.108 19.905 -0 -1.2 0
4.059 -0.6 15.69 -0 -1.2 0
5.175 -0.817 19.962 -0 -1.2 0
3.742 -1.152 14.437 -0 -1.2 0
5.162 -1.526 19.87 -0 -1.2 0
5.206 -1.886 20.014 -0 -1.2 0
5.215 -2.245 20.025 -0 -1.2 0
5.221 -2.604 20.03 -0 -1.2 0
5.229 -2.964 20.039 -0 -1.2 0
5.236 -3.325 20.041 -0 -1.2 0
5.243 -3.688 20.047 -0 -1.2 0
5.251 -4.054 20.056 -0 -1.2 0
5.256 -4.419 20.05 -0 -1.2 0
5.261 -4.787 20.046 -0 -1.2 0
5.266 -5.158 20.046 -0 -1.2 0
5.275 -5.534 20.059 -0 -1.2 0
2.801 -3.632 10.67 -0 -1.2 0
2.614 -3.643 9.95 -0 -1.2 0
2.451 -3.656 9.327 -0 -1.2 0
2.496 -3.881 9.486 -0 -1.2 0
2.43 -3.98 9.224 -0 -1.2 0
2.129 -3.77 8.081 -0 -1.2 0
2.063 -3.836 7.824 -0 -1.2 0
2.123 -4.073 8.039 -0 -1.2 0
2.102 -4.199 7.951 -0 -1.2 0
2.055 -4.596 7.747 -0 -1.2 0
2.03 -4.71 7.642 -0 -1.2 0
1.992 -4.799 7.493 -0 -1.2 0
1.89 -4.756 7.103 -0 -1.2 0
2.577 -6.325 9.643 -0 -1.2 0
2.569 -6.525 9.603 -0 -1.2 0
2.519 -7.292 9.365 -0 -1.2 0
0.349 0.047 1.32 -0 -1.2 0
0.359 0.041 1.353 -0 -1.2 0
0.372 0.049 1.4 -0 -1.2 0
0.38 0.034 1.425 -0 -1.2 0
0.392 0.033 1.466 -0 -1.2 0
0.404 0.031 1.506 -0 -1.2 0
0.416 0.026 1.547 -0 -1.2 0
0.433 0.034 1.603 -0 -1.2 0
0.447 0.034 1.652 -0 -1.2 0
0.464 0.038 1.709 -0 -1.2 0
0.479 0.035 1.759 -0 -1.2 0
0.499 0.042 1.825 -0 -1.2 0
0.516 0.041 1.884 -0 -1.2 0
0.534 0.037 1.943 -0 -1.2 0
0.554 0.039 2.011 -0 -1.2 0
0.573 0.031 2.07 -0 -1.2 0
0.595 0.034 2.147 -0 -1.2 0
0.621 0.037 2.233 -0 -1.2 0
0.644 0.034 2.311 -0 -1.2 0
0.678 0.046 2.423 -0 -1.2 0
0.706 0.046 2.52 -0 -1.2 0
0.738 0.046 2.626 -0 -1.2 0
0.774 0.051 2.75 -0 -1.2 0
0.806 0.045 2.857 -0 -1.2 0
0.847 0.045 2.991 -0 -1.2 0
0.89 0.045 3.135 -0 -1.2 0
0.933 0.039 3.28 -0 -1.2 0
0.99 0.046 3.471 -0 -1.2 0
1.047 0.045 3.663 -0 -1.2 0
1.12 0.055 3.912 -0 -1.2 0
1.193 0.054 4.152 -0 -1.2 0
1.275 0.055 4.43 -0 -1.2 0
1.383 0.067 4.793 -0 -1.2 0
1.498 0.071 5.176 -0 -1.2 0
1.615 0.063 5.57 -0 -1.2 0
1.764 0.063 6.068 -0 -1.2 0
1.943 0.063 6.672 -0 -1.2 0
2.186 0.075 7.487 -0 -1.2 0
2.494 0.09 8.521 -0 -1.2 0
2.896 0.106 9.872 -0 -1.2 0
3.419 0.116 11.626 -0 -1.2 0
4.159 0.128 14.108 -0 -1.2 0
4.735 0.01 16.038 -0 -1.2 0
4.657 -0.292 15.757 -0 -1.2 0
4.977 -0.539 16.82 -0 -1.2 0
5.677 -0.804 19.154 -0 -1.2 0
5.688 -1.147 19.174 -0 -1.2 0
6.575 -1.554 22.129 -0 -1.2 0
6.584 -1.953 22.136 -0 -1.2 0
6.595 -2.353 22.155 -0 -1.2 0
6.459 -2.718 21.68 -0 -1.2 0
6.355 -3.077 21.314 -0 -1.2 0
6.485 -3.511 21.723 -0 -1.2 0
6.543 -3.93 21.897 -0 -1.2 0
6.553 -4.334 21.911 -0 -1.2 0
6.562 -4.74 21.918 -0 -1.2 0
6.573 -5.15 21.937 -0 -1.2 0
3.179 -3.238 10.647 -0 -1.2 0
3.021 -3.315 10.113 -0 -1.2 0
3.006 -3.491 10.055 -0 -1.2 0
2.864 -3.555 9.577 -0 -1.2 0
2.943 -3.808 9.829 -0 -1.2 0
2.902 -3.951 9.681 -0 -1.2 0
2.731 -3.955 9.109 -0 -1.2 0
2.455 -3.817 8.187 -0 -1.2 0
2.486 -4.014 8.284 -0 -1.2 0
2.433 -4.109 8.099 -0 -1.2 0
2.597 -4.661 8.621 -0 -1.2 0
2.648 -4.911 8.78 -0 -1.2 0
2.38 -4.682 7.893 -0 -1.2 0
2.031 -4.285 6.741 -0 -1.2 0
2.226 -4.756 7.372 -0 -1.2 0
2.218 -4.899 7.336 -0 -1.2 0
2.924 -6.348 9.631 -0 -1.2 0
2.901 -6.963 9.524 -0 -1.2 0
2.75 -6.865 9.019 -0 -1.2 0
2.954 -8.023 9.646 -0 -1.2 0
2.661 -7.55 8.687 -0 -1.2 0
2.817 -8.95 9.138 -0 -1.2 0
2.356 -7.869 7.646 -0 -1.2 0
2.39 -8.204 7.743 -0 -1.2 0
2.328 -8.251 7.532 -0 -1.2 0
0.389 0.048 1.324 -0 -1.2 0
0.402 0.05 1.363 -0 -1.2 0
0.415 0.05 1.403 -0 -1.2 0
0.428 0.049 1.442 -0 -1.2 0
0.439 0.04 1.475 -0 -1.2 0
0.455 0.044 1.523 -0 -1.2 0
0.467 0.034 1.556 -0 -1.2 0
0.483 0.036 1.604 -0 -1.2 0
0.502 0.042 1.66 -0 -1.2 0
0.519 0.039 1.709 -0 -1.2 0
0.538 0.042 1.766 -0 -1.2 0
0.56 0.048 1.832 -0 -1.2 0
0.576 0.042 1.882 -0 -1.2 0
0.599 0.045 1.948 -0 -1.2 0
0.621 0.046 2.015 -0 -1.2 0
0.644 0.044 2.083 -0 -1.2 0
0.667 0.041 2.151 -0 -1.2 0
0.698 0.049 2.244 -0 -1.2 0
0.724 0.046 2.321 -0 -1.2 0
0.761 0.058 2.432 -0 -1.2 0
0.79 0.052 2.519 -0 -1.2 0
0.826 0.053 2.624 -0 -1.2 0
0.864 0.054 2.738 -0 -1.2 0
0.905 0.055 2.862 -0 -1.2 0
0.95 0.055 2.995 -0 -1.2 0
0.999 0.056 3.137 -0 -1.2 0
1.047 0.05 3.281 -0 -1.2 0
1.104 0.05 3.452 -0 -1.2 0
1.174 0.056 3.66 -0 -1.2 0
1.259 0.069 3.915 -0 -1.2 0
1.333 0.062 4.134 -0 -1.2 0
1.431 0.068 4.427 -0 -1.2 0
1.552 0.08 4.787 -0 -1.2 0
1.695 0.095 5.212 -0 -1.2 0
1.829 0.089 5.612 -0 -1.2 0
2.004 0.092 6.132 -0 -1.2 0
2.211 0.094 6.749 -0 -1.2 0
2.491 0.109 7.583 -0 -1.2 0
2.854 0.131 8.663 -0 -1.2 0
3.316 0.15 10.037 -0 -1.2 0
3.959 0.177 11.952 -0 -1.2 0
5.309 0.326 15.975 -0 -1.2 0
5.307 0.034 15.958 -0 -1.2 0
5.297 -0.258 15.916 -0 -1.2 0
7.725 -0.29 23.137 -0 -1.2 0
7.743 -0.71 23.174 -0 -1.2 0
7.709 -1.132 23.051 -0 -1.2 0
7.879 -1.561 23.538 -0 -1.2 0
7.884 -1.989 23.534 -0 -1.2 0
7.896 -2.42 23.552 -0 -1.2 0
7.903 -2.851 23.553 -0 -1.2 0
7.914 -3.284 23.565 -0 -1.2 0
7.855 -3.696 23.374 -0 -1.2 0
7.861 -4.127 23.373 -0 -1.2 0
7.867 -4.561 23.373 -0 -1.2 0
3.815 -2.975 11.385 -0 -1.2 0
3.788 -3.169 11.295 -0 -1.2 0
3.703 -3.326 11.036 -0 -1.2 0
3.148 -3.163 9.394 -0 -1.2 0
3.433 -3.543 10.225 -0 -1.2 0
3.022 -3.414 9.007 -0 -1.2 0
2.905 -3.487 8.656 -0 -1.2 0
3.2 -3.916 9.514 -0 -1.2 0
3.328 -4.22 9.882 -0 -1.2 0
2.765 -4.005 8.215 -0 -1.2 0
2.697 -4.414 7.997 -0 -1.2 0
2.609 -4.462 7.732 -0 -1.2 0
2.271 -4.159 6.741 -0 -1.2 0
2.197 -4.194 6.518 -0 -1.2 0
2.339 -4.546 6.924 -0 -1.2 0
2.315 -4.659 6.848 -0 -1.2 0
2.19 -4.605 6.479 -0 -1.2 0
3.019 -6.792 8.849 -0 -1.2 0
3.121 -7.211 9.133 -0 -1.2 0
3.07 -7.335 8.974 -0 -1.2 0
3.13 -7.696 9.14 -0 -1.2 0
3.047 -7.753 8.891 -0 -1.2 0
3.04 -7.978 8.862 -0 -1.2 0
3.014 -8.663 8.753 -0 -1.2 0
2.633 -7.919 7.651 -0 -1.2 0
2.891 -8.859 8.377 -0 -1.2 0
2.578 -8.243 7.475 -0 -1.2 0
2.497 -8.25 7.233 -0 -1.2 0
0.431 0.056 1.334 -0 -1.2 0
0.446 0.058 1.372 -0 -1.2 0
0.46 0.057 1.411 -0 -1.2 0
0.475 0.057 1.451 -0 -1.2 0
0.49 0.055 1.49 -0 -1.2 0
0.502 0.046 1.523 -0 -1.2 0
0.52 0.048 1.57 -0 -1.2 0
0.538 0.049 1.618 -0 -1.2 0
0.556 0.049 1.666 -0 -1.2 0
0.577 0.053 1.722 -0 -1.2 0
0.598 0.055 1.779 -0 -1.2 0
0.619 0.056 1.836 -0 -1.2 0
0.641 0.055 1.893 -0 -1.2 0
0.663 0.052 1.951 -0 -1.2 0
0.687 0.053 2.018 -0 -1.2 0
0.712 0.051 2.084 -0 -1.2 0
0.744 0.057 2.168 -0 -1.2 0
0.772 0.057 2.244 -0 -1.2 0
0.804 0.057 2.329 -0 -1.2 0
0.842 0.064 2.43 -0 -1.2 0
0.881 0.068 2.533 -0 -1.2 0
0.919 0.068 2.636 -0 -1.2 0
0.959 0.065 2.741 -0 -1.2 0
1.004 0.066 2.863 -0 -1.2 0
1.054 0.067 2.994 -0 -1.2 0
1.106 0.065 3.135 -0 -1.2 0
1.164 0.064 3.286 -0 -1.2 0
1.227 0.063 3.455 -0 -1.2 0
1.307 0.072 3.67 -0 -1.2 0
1.395 0.078 3.903 -0 -1.2 0
1.479 0.074 4.129 -0 -1.2 0
1.598 0.087 4.447 -0 -1.2 0
1.592 0 4.429 -0 -1.2 0
1.597 -0.079 4.437 -0 -1.2 0
1.603 -0.156 4.452 -0 -1.2 0
1.61 -0.233 4.467 -0 -1.2 0
1.616 -0.312 4.48 -0 -1.2 0
1.622 -0.39 4.492 -0 -1.2 0
1.637 -0.464 4.53 -0 -1.2 0
3.815 0.217 10.361 -0 -1.2 0
4.603 0.261 12.467 -0 -1.2 0
6.308 0.142 17.006 -0 -1.2 0
6.301 -0.172 16.975 -0 -1.2 0
9.32 -0.185 25.026 -0 -1.2 0
9.333 -0.646 25.045 -0 -1.2 0
9.334 -1.107 25.027 -0 -1.2 0
9.429 -1.573 25.264 -0 -1.2 0
9.434 -2.039 25.26 -0 -1.2 0
9.437 -2.505 25.249 -0 -1.2 0
9.439 -2.971 25.238 -0 -1.2 0
9.446 -3.44 25.239 -0 -1.2 0
9.464 -3.913 25.269 -0 -1.2 0
9.472 -4.386 25.272 -0 -1.2 0
9.477 -4.86 25.269 -0 -1.2 0
4.091 -2.914 10.98 -0 -1.2 0
9.493 -5.817 25.274 -0 -1.2 0
3.481 -2.988 9.352 -0 -1.2 0
9.516 -6.793 25.301 -0 -1.2 0
3.387 -3.277 9.092 -0 -1.2 0
3.424 -3.476 9.182 -0 -1.2 0
9.122 -7.962 24.204 -0 -1.2 0
3.356 -3.773 8.989 -0 -1.2 0
3.967 -4.684 10.583 -0 -1.2 0
3.064 -4.019 8.199 -0 -1.2 0
3.067 -4.187 8.202 -0 -1.2 0
2.89 -4.162 7.731 -0 -1.2 0
2.886 -4.316 7.713 -0 -1.2 0
2.942 -4.544 7.857 -0 -1.2 0
2.665 -4.364 7.125 -0 -1.2 0
2.543 -4.355 6.799 -0 -1.2 0
2.508 -4.455 6.702 -0 -1.2 0
2.489 -4.574 6.645 -0 -1.2 0
2.588 -4.872 6.901 -0 -1.2 0
2.467 -4.84 6.576 -0 -1.2 0
2.578 -5.171 6.861 -0 -1.2 0
3.618 -7.077 9.561 -0 -1.2 0
3.39 -6.915 8.963 -0 -1.2 0
3.318 -7.23 8.758 -0 -1.2 0
3.129 -7.09 8.258 -0 -1.2 0
3.35 -7.755 8.823 -0 -1.2 0
3.34 -7.974 8.786 -0 -1.2 0
3.299 -8.132 8.672 -0 -1.2 0
3.044 -7.81 8.004 -0 -1.2 0
2.91 -7.735 7.651 -0 -1.2 0
2.912 -7.97 7.645 -0 -1.2 0
2.879 -8.127 7.552 -0 -1.2 0
2.977 -8.624 7.797 -0 -1.2 0
2.899 -8.673 7.585 -0 -1.2 0
0.473 0.057 1.335 -0 -1.2 0
0.489 0.058 1.373 -0 -1.2 0
0.508 0.065 1.418 -0 -1.2 0
0.524 0.065 1.457 -0 -1.2 0
0.535 0.049 1.482 -0 -1.2 0
0.554 0.053 1.528 -0 -1.2 0
0.571 0.049 1.568 -0 -1.2 0
0.59 0.05 1.615 -0 -1.2 0
0.61 0.05 1.662 -0 -1.2 0
0.633 0.054 1.718 -0 -1.2 0
0.653 0.051 1.766 -0 -1.2 0
0.677 0.051 1.822 -0 -1.2 0
0.704 0.056 1.886 -0 -1.2 0
0.731 0.058 1.951 -0 -1.2 0
0.758 0.059 2.016 -0 -1.2 0
0.786 0.057 2.082 -0 -1.2 0
0.817 0.058 2.157 -0 -1.2 0
0.851 0.062 2.24 -0 -1.2 0
0.883 0.058 2.315 -0 -1.2 0
0.929 0.069 2.424 -0 -1.2 0
0.967 0.069 2.517 -0 -1.2 0
1.014 0.073 2.628 -0 -1.2 0
1.057 0.07 2.73 -0 -1.2 0
1.107 0.071 2.851 -0 -1.2 0
1.158 0.068 2.972 -0 -1.2 0
1.216 0.067 3.111 -0 -1.2 0
1.281 0.069 3.269 -0 -1.2 0
1.344 0.061 3.418 -0 -1.2 0
1.442 0.079 3.655 -0 -1.2 0
1.538 0.086 3.885 -0 -1.2 0
1.639 0.087 4.126 -0 -1.2 0
1.673 0.032 4.207 -0 -1.2 0
1.674 -0.046 4.206 -0 -1.2 0
1.678 -0.121 4.213 -0 -1.2 0
1.682 -0.197 4.219 -0 -1.2 0
1.685 -0.274 4.224 -0 -1.2 0
1.687 -0.35 4.226 -0 -1.2 0
1.689 -0.426 4.228 -0 -1.2 0
1.942 -0.41 4.833 -0 -1.2 0
4.287 0.253 10.47 -0 -1.2 0
5.265 0.325 12.811 -0 -1.2 0
9.032 0.534 21.835 -0 -1.2 0
9.004 0.12 21.754 -0 -1.2 0
4.473 -3.107 10.801 -0 -1.2 0
3.866 -3.185 9.348 -0 -1.2 0
3.718 -3.275 8.989 -0 -1.2 0
3.679 -3.595 8.886 -0 -1.2 0
3.906 -3.937 9.42 -0 -1.2 0
4.354 -4.475 10.473 -0 -1.2 0
4.237 -4.586 10.188 -0 -1.2 0
4.226 -4.783 10.156 -0 -1.2 0
3.368 -4.19 8.121 -0 -1.2 0
3.326 -4.316 8.018 -0 -1.2 0
3.338 -4.495 8.041 -0 -1.2 0
2.819 -4.247 6.807 -0 -1.2 0
2.728 -4.285 6.587 -0 -1.2 0
2.669 -4.356 6.444 -0 -1.2 0
3.831 -6.01 9.169 -0 -1.2 0
2.626 -4.587 6.334 -0 -1.2 0
2.703 -4.842 6.51 -0 -1.2 0
2.883 -5.259 6.925 -0 -1.2 0
3.751 -6.753 8.955 -0 -1.2 0
3.604 -6.742 8.604 -0 -1.2 0
3.42 -7.08 8.152 -0 -1.2 0
3.809 -8.016 9.05 -0 -1.2 0
3.616 -7.898 8.592 -0 -1.2 0
3.307 -7.532 7.864 -0 -1.2 0
3.28 -7.706 7.795 -0 -1.2 0
3.267 -8.151 7.749 -0 -1.2 0
3.483 -8.886 8.242 -0 -1.2 0
3.087 -8.225 7.315 -0 -1.2 0
3.065 -8.419 7.258 -0 -1.2 0
0.512 0.063 1.341 -0 -1.2 0
0.524 0.051 1.366 -0 -1.2 0
0.541 0.051 1.404 -0 -1.2 0
0.561 0.057 1.448 -0 -1.2 0
0.576 0.049 1.481 -0 -1.2 0
0.597 0.053 1.526 -0 -1.2 0
0.618 0.055 1.572 -0 -1.2 0
0.639 0.055 1.619 -0 -1.2 0
0.657 0.049 1.658 -0 -1.2 0
0.682 0.053 1.713 -0 -1.2 0
0.704 0.05 1.76 -0 -1.2 0
0.731 0.056 1.823 -0 -1.2 0
0.757 0.055 1.879 -0 -1.2 0
0.783 0.052 1.935 -0 -1.2 0
0.812 0.052 2 -0 -1.2 0
0.845 0.056 2.072 -0 -1.2 0
0.879 0.057 2.146 -0 -1.2 0
0.912 0.057 2.219 -0 -1.2 0
0.954 0.061 2.31 -0 -1.2 0
0.999 0.068 2.409 -0 -1.2 0
1.04 0.068 2.501 -0 -1.2 0
1.082 0.063 2.593 -0 -1.2 0
1.132 0.064 2.703 -0 -1.2 0
1.179 0.057 2.805 -0 -1.2 0
1.245 0.066 2.949 -0 -1.2 0
1.304 0.061 3.078 -0 -1.2 0
1.374 0.063 3.234 -0 -1.2 0
1.457 0.069 3.415 -0 -1.2 0
1.548 0.073 3.615 -0 -1.2 0
1.648 0.077 3.833 -0 -1.2 0
1.76 0.081 4.079 -0 -1.2 0
1.76 0.004 4.079 -0 -1.2 0
1.766 -0.07 4.086 -0 -1.2 0
1.769 -0.145 4.093 -0 -1.2 0
1.772 -0.22 4.098 -0 -1.2 0
1.78 -0.291 4.112 -0 -1.2 0
1.782 -0.366 4.114 -0 -1.2 0
1.793 -0.438 4.134 -0 -1.2 0
2.133 -0.398 4.883 -0 -1.2 0
4.691 0.268 10.515 -0 -1.2 0
5.713 0.328 12.762 -0 -1.2 0
10.141 0.588 22.488 -0 -1.2 0
10.125 0.158 22.436 -0 -1.2 0
10.063 -0.272 22.286 -0 -1.2 0
10.085 -0.692 22.321 -0 -1.2 0
10.079 -1.114 22.294 -0 -1.2 0
5.33 -3.336 11.803 -0 -1.2 0
4.746 -3.291 10.524 -0 -1.2 0
4.846 -3.545 10.736 -0 -1.2 0
4.204 -3.398 9.331 -0 -1.2 0
4.971 -4.256 10.988 -0 -1.2 0
4.934 -4.45 10.9 -0 -1.2 0
4.847 -4.605 10.705 -0 -1.2 0
4.785 -4.774 10.561 -0 -1.2 0
4.759 -4.97 10.5 -0 -1.2 0
3.674 -4.244 8.141 -0 -1.2 0
4.944 -5.579 10.885 -0 -1.2 0
3.536 -4.453 7.833 -0 -1.2 0
3.676 -4.762 8.128 -0 -1.2 0
3.296 -4.696 7.298 -0 -1.2 0
4.772 -6.572 10.475 -0 -1.2 0
3.185 -4.89 7.049 -0 -1.2 0
3.167 -5.029 7.003 -0 -1.2 0
3.007 -4.982 6.653 -0 -1.2 0
3.104 -5.273 6.857 -0 -1.2 0
3.11 -5.45 6.867 -0 -1.2 0
2.758 -5.098 6.104 -0 -1.2 0
2.641 -5.073 5.85 -0 -1.2 0
2.568 -5.106 5.687 -0 -1.2 0
3.795 -7.287 8.308 -0 -1.2 0
3.668 -7.3 8.032 -0 -1.2 0
3.981 -8.332 8.684 -0 -1.2 0
3.907 -8.449 8.518 -0 -1.2 0
3.865 -8.624 8.42 -0 -1.2 0
3.449 -8.038 7.527 -0 -1.2 0
3.644 -8.691 7.933 -0 -1.2 0
3.574 -8.803 7.777 -0 -1.2 0
3.305 -8.46 7.198 -0 -1.2 0
0.544 0.049 1.329 -0 -1.2 0
0.562 0.05 1.366 -0 -1.2 0
0.581 0.051 1.403 -0 -1.2 0
0.602 0.057 1.447 -0 -1.2 0
0.624 0.062 1.492 -0 -1.2 0
0.643 0.058 1.53 -0 -1.2 0
0.662 0.054 1.568 -0 -1.2 0
0.685 0.055 1.614 -0 -1.2 0
0.705 0.048 1.653 -0 -1.2 0
0.731 0.052 1.707 -0 -1.2 0
0.755 0.049 1.753 -0 -1.2 0
0.782 0.049 1.808 -0 -1.2 0
0.812 0.054 1.87 -0 -1.2 0
0.84 0.051 1.927 -0 -1.2 0
0.871 0.051 1.99 -0 -1.2 0
0.903 0.05 2.054 -0 -1.2 0
0.943 0.056 2.133 -0 -1.2 0
0.983 0.059 2.214 -0 -1.2 0
1.019 0.056 2.287 -0 -1.2 0
1.067 0.063 2.385 -0 -1.2 0
1.112 0.062 2.475 -0 -1.2 0
1.162 0.062 2.574 -0 -1.2 0
1.211 0.059 2.674 -0 -1.2 0
1.265 0.056 2.783 -0 -1.2 0
1.331 0.06 2.917 -0 -1.2 0
1.398 0.059 3.052 -0 -1.2 0
1.474 0.061 3.204 -0 -1.2 0
1.558 0.063 3.374 -0 -1.2 0
1.656 0.069 3.571 -0 -1.2 0
1.767 0.075 3.795 -0 -1.2 0
1.887 0.078 4.036 -0 -1.2 0
1.879 -0.003 4.02 -0 -1.2 0
1.885 -0.077 4.026 -0 -1.2 0
1.888 -0.152 4.033 -0 -1.2 0
1.888 -0.228 4.029 -0 -1.2 0
1.891 -0.302 4.033 -0 -1.2 0
1.893 -0.376 4.036 -0 -1.2 0
1.917 -0.442 4.081 -0 -1.2 0
2.3 -0.397 4.854 -0 -1.2 0
5.046 0.264 10.409 -0 -1.2 0
6.331 0.366 13.004 -0 -1.2 0
7.386 -0.548 15.1 -0 -1.2 0
7.383 -0.835 15.088 -0 -1.2 0
7.37 -1.121 15.052 -0 -1.2 0
5.71 -3.12 11.643 -0 -1.2 0
5.655 -3.549 11.519 -0 -1.2 0
4.53 -3.418 9.254 -0 -1.2 0
5.455 -4.12 11.098 -0 -1.2 0
4.889 -4.002 9.96 -0 -1.2 0
4.923 -4.225 10.023 -0 -1.2 0
5.504 -5.059 11.167 -0 -1.2 0
4.813 -4.76 9.785 -0 -1.2 0
3.994 -4.298 8.147 -0 -1.2 0
4.042 -4.512 8.236 -0 -1.2 0
3.725 -4.403 7.601 -0 -1.2 0
3.779 -4.619 7.704 -0 -1.2 0
3.552 -4.563 7.247 -0 -1.2 0
3.452 -4.621 7.045 -0 -1.2 0
3.446 -4.774 7.028 -0 -1.2 0
3.355 -4.831 6.843 -0 -1.2 0
3.326 -4.958 6.782 -0 -1.2 0
3.207 -4.973 6.54 -0 -1.2 0
3.237 -5.169 6.594 -0 -1.2 0
3.226 -5.316 6.567 -0 -1.2 0
2.918 -5.055 5.955 -0 -1.2 0
2.941 -5.241 5.996 -0 -1.2 0
2.775 -5.149 5.664 -0 -1.2 0
2.726 -5.225 5.563 -0 -1.2 0
3.581 -6.752 7.24 -0 -1.2 0
3.55 -6.904 7.171 -0 -1.2 0
3.599 -7.198 7.261 -0 -1.2 0
4 -8.381 8.032 -0 -1.2 0
3.752 -8.162 7.54 -0 -1.2 0
3.554 -8.257 7.138 -0 -1.2 0
3.588 -8.577 7.197 -0 -1.2 0
0.577 0.048 1.327 -0 -1.2 0
0.597 0.05 1.364 -0 -1.2 0
0.617 0.051 1.4 -0 -1.2 0
0.633 0.043 1.43 -0 -1.2 0
0.655 0.048 1.474 -0 -1.2 0
0.679 0.052 1.518 -0 -1.2 0
0.703 0.053 1.564 -0 -1.2 0
0.728 0.054 1.609 -0 -1.2 0
0.748 0.048 1.647 -0 -1.2 0
0.777 0.052 1.7 -0 -1.2 0
0.801 0.049 1.746 -0 -1.2 0
0.829 0.048 1.799 -0 -1.2 0
0.858 0.047 1.853 -0 -1.2 0
0.888 0.045 1.908 -0 -1.2 0
0.925 0.051 1.977 -0 -1.2 0
0.959 0.049 2.04 -0 -1.2 0
0.996 0.05 2.112 -0 -1.2 0
1.039 0.054 2.191 -0 -1.2 0
1.082 0.055 2.271 -0 -1.2 0
1.132 0.061 2.367 -0 -1.2 0
1.18 0.061 2.456 -0 -1.2 0
1.233 0.061 2.553 -0 -1.2 0
1.286 0.057 2.651 -0 -1.2 0
1.338 0.05 2.75 -0 -1.2 0
1.409 0.054 2.882 -0 -1.2 0
1.48 0.055 3.015 -0 -1.2 0
1.56 0.055 3.164 -0 -1.2 0
1.653 0.061 3.341 -0 -1.2 0
1.758 0.067 3.534 -0 -1.2 0
1.88 0.076 3.762 -0 -1.2 0
2.002 0.076 3.993 -0 -1.2 0
1.999 -0.002 3.984 -0 -1.2 0
2.004 -0.077 3.991 -0 -1.2 0
2.009 -0.152 3.997 -0 -1.2 0
2.012 -0.226 4.002 -0 -1.2 0
2.011 -0.303 3.997 -0 -1.2 0
2.013 -0.377 4 -0 -1.2 0
2.043 -0.442 4.053 -0 -1.2 0
2.412 -0.408 4.744 -0 -1.2 0
4.841 0.125 9.301 -0 -1.2 0
6.597 0.33 12.593 -0 -1.2 0
7.728 0.289 14.703 -0 -1.2 0
7.718 0.002 14.677 -0 -1.2 0
7.715 -0.282 14.662 -0 -1.2 0
7.725 -0.566 14.671 -0 -1.2 0
7.722 -0.849 14.657 -0 -1.2 0
7.703 -1.132 14.613 -0 -1.2 0
5.803 -3.476 10.989 -0 -1.2 0
5.132 -3.391 9.736 -0 -1.2 0
5.557 -3.795 10.522 -0 -1.2 0
2.986 -2.644 5.748 -0 -1.2 0
3.034 -2.786 5.833 -0 -1.2 0
5.258 -4.255 9.948 -0 -1.2 0
5.121 -4.372 9.686 -0 -1.2 0
5.068 -4.537 9.583 -0 -1.2 0
5.734 -5.225 10.807 -0 -1.2 0
4.302 -4.355 8.156 -0 -1.2 0
4.17 -4.424 7.907 -0 -1.2 0
4.214 -4.633 7.984 -0 -1.2 0
4.551 -5.11 8.598 -0 -1.2 0
3.792 -4.592 7.195 -0 -1.2 0
3.946 -4.906 7.473 -0 -1.2 0
3.593 -4.716 6.821 -0 -1.2 0
3.591 -4.873 6.81 -0 -1.2 0
3.603 -5.047 6.827 -0 -1.2 0
3.923 -5.585 7.409 -0 -1.2 0
4.214 -6.121 7.939 -0 -1.2 0
3.231 -5.082 6.13 -0 -1.2 0
3.032 -4.979 5.763 -0 -1.2 0
2.953 -5.021 5.613 -0 -1.2 0
2.898 -5.091 5.508 -0 -1.2 0
2.991 -5.378 5.675 -0 -1.2 0
4.204 -7.376 7.881 -0 -1.2 0
4.061 -7.38 7.615 -0 -1.2 0
4.227 -7.875 7.908 -0 -1.2 0
4.147 -7.981 7.754 -0 -1.2 0
4.098 -8.14 7.66 -0 -1.2 0
3.591 -7.47 6.731 -0 -1.2 0
3.475 -7.476 6.514 -0 -1.2 0
4.058 -8.828 7.564 -0 -1.2 0
3.736 -8.449 6.973 -0 -1.2 0
0.61 0.048 1.326 -0 -1.2 0
0.634 0.057 1.368 -0 -1.2 0
0.658 0.063 1.411 -0 -1.2 0
0.673 0.049 1.434 -0 -1.2 0
0.693 0.047 1.471 -0 -1.2 0
0.718 0.051 1.514 -0 -1.2 0
0.739 0.047 1.551 -0 -1.2 0
0.765 0.048 1.596 -0 -1.2 0
0.791 0.047 1.641 -0 -1.2 0
0.82 0.051 1.692 -0 -1.2 0
0.846 0.048 1.738 -0 -1.2 0
0.877 0.048 1.79 -0 -1.2 0
0.903 0.042 1.836 -0 -1.2 0
0.938 0.045 1.897 -0 -1.2 0
0.97 0.04 1.951 -0 -1.2 0
1.009 0.043 2.02 -0 -1.2 0
1.049 0.045 2.09 -0 -1.2 0
1.09 0.043 2.16 -0 -1.2 0
1.138 0.049 2.246 -0 -1.2 0
1.189 0.051 2.332 -0 -1.2 0
1.235 0.046 2.412 -0 -1.2 0
1.289 0.047 2.508 -0 -1.2 0
1.35 0.048 2.612 -0 -1.2 0
1.409 0.046 2.717 -0 -1.2 0
1.48 0.046 2.839 -0 -1.2 0
1.554 0.046 2.969 -0 -1.2 0
1.639 0.047 3.116 -0 -1.2 0
1.743 0.056 3.298 -0 -1.2 0
1.857 0.065 3.496 -0 -1.2 0
1.977 0.067 3.704 -0 -1.2 0
2.116 0.074 3.946 -0 -1.2 0
2.151 0.015 4.005 -0 -1.2 0
2.146 -0.066 3.995 -0 -1.2 0
2.151 -0.14 4.002 -0 -1.2 0
2.151 -0.219 3.998 -0 -1.2 0
2.154 -0.293 4.001 -0 -1.2 0
2.157 -0.369 4.004 -0 -1.2 0
2.174 -0.439 4.031 -0 -1.2 0
2.505 -0.423 4.608 -0 -1.2 0
4.963 0.082 8.899 -0 -1.2 0
6.957 0.319 12.376 -0 -1.2 0
8.077 0.265 14.321 -0 -1.2 0
8.066 -0.018 14.295 -0 -1.2 0
8.063 -0.3 14.281 -0 -1.2 0
8.078 -0.581 14.298 -0 -1.2 0
8.075 -0.861 14.283 -0 -1.2 0
8.035 -1.141 14.205 -0 -1.2 0
5.452 -3.023 9.656 -0 -1.2 0
5.069 -3.065 8.986 -0 -1.2 0
4.989 -3.212 8.845 -0 -1.2 0
5.744 -3.742 10.141 -0 -1.2 0
4.881 -3.516 8.647 -0 -1.2 0
3.093 -2.729 5.561 -0 -1.2 0
4.854 -3.858 8.592 -0 -1.2 0
3.143 -2.985 5.639 -0 -1.2 0
2.73 -2.833 4.927 -0 -1.2 0
6.441 -5.498 11.3 -0 -1.2 0
5.327 -4.932 9.381 -0 -1.2 0
5.113 -4.974 9.005 -0 -1.2 0
5.412 -5.415 9.513 -0 -1.2 0
5.478 -5.686 9.619 -0 -1.2 0
4.164 -4.74 7.364 -0 -1.2 0
3.842 -4.608 6.807 -0 -1.2 0
3.767 -4.694 6.674 -0 -1.2 0
3.656 -4.74 6.48 -0 -1.2 0
3.768 -5.013 6.666 -0 -1.2 0
3.797 -5.21 6.711 -0 -1.2 0
3.369 -4.885 5.975 -0 -1.2 0
3.103 -4.719 5.517 -0 -1.2 0
3.423 -5.418 6.052 -0 -1.2 0
3.231 -5.325 5.722 -0 -1.2 0
4.922 -7.828 8.586 -0 -1.2 0
3.134 -5.504 5.548 -0 -1.2 0
3.959 -6.896 6.941 -0 -1.2 0
3.962 -7.109 6.939 -0 -1.2 0
3.816 -7.09 6.686 -0 -1.2 0
4.462 -8.625 7.762 -0 -1.2 0
3.489 -7.165 6.116 -0 -1.2 0
3.579 -7.54 6.26 -0 -1.2 0
0.64 0.041 1.318 -0 -1.2 0
0.669 0.056 1.365 -0 -1.2 0
0.683 0.043 1.388 -0 -1.2 0
0.705 0.042 1.423 -0 -1.2 0
0.731 0.047 1.465 -0 -1.2 0
0.761 0.057 1.514 -0 -1.2 0
0.784 0.052 1.552 -0 -1.2 0
0.807 0.047 1.588 -0 -1.2 0
0.83 0.041 1.625 -0 -1.2 0
0.857 0.038 1.669 -0 -1.2 0
0.893 0.047 1.727 -0 -1.2 0
0.92 0.042 1.772 -0 -1.2 0
0.953 0.041 1.823 -0 -1.2 0
0.989 0.044 1.884 -0 -1.2 0
1.022 0.039 1.937 -0 -1.2 0
1.064 0.042 2.004 -0 -1.2 0
1.097 0.034 2.058 -0 -1.2 0
1.149 0.042 2.142 -0 -1.2 0
1.197 0.044 2.219 -0 -1.2 0
1.248 0.046 2.303 -0 -1.2 0
1.297 0.041 2.381 -0 -1.2 0
1.35 0.038 2.468 -0 -1.2 0
1.413 0.038 2.57 -0 -1.2 0
1.481 0.04 2.68 -0 -1.2 0
1.56 0.044 2.808 -0 -1.2 0
1.644 0.048 2.943 -0 -1.2 0
1.723 0.043 3.073 -0 -1.2 0
1.828 0.049 3.242 -0 -1.2 0
1.938 0.051 3.421 -0 -1.2 0
2.085 0.065 3.658 -0 -1.2 0
2.221 0.066 3.878 -0 -1.2 0
2.378 0.068 4.134 -0 -1.2 0
2.375 -0.015 4.125 -0 -1.2 0
2.376 -0.097 4.124 -0 -1.2 0
2.38 -0.176 4.129 -0 -1.2 0
2.368 -0.26 4.108 -0 -1.2 0
2.367 -0.34 4.102 -0 -1.2 0
2.37 -0.419 4.104 -0 -1.2 0
2.5 -0.463 4.316 -0 -1.2 0
5.082 0.042 8.51 -0 -1.2 0
5.089 -0.125 8.516 -0 -1.2 0
5.094 -0.293 8.519 -0 -1.2 0
5.087 -0.462 8.504 -0 -1.2 0
5.089 -0.63 8.501 -0 -1.2 0
5.09 -0.797 8.498 -0 -1.2 0
5.079 -0.963 8.473 -0 -1.2 0
5.065 -1.129 8.448 -0 -1.2 0
5.061 -1.295 8.436 -0 -1.2 0
5.066 -1.461 8.439 -0 -1.2 0
5.065 -1.626 8.431 -0 -1.2 0
5.066 -1.792 8.429 -0 -1.2 0
5.061 -1.958 8.416 -0 -1.2 0
5.065 -2.125 8.417 -0 -1.2 0
5.058 -2.29 8.4 -0 -1.2 0
5.053 -2.457 8.388 -0 -1.2 0
5.058 -2.625 8.39 -0 -1.2 0
5.029 -2.785 8.34 -0 -1.2 0
5.031 -2.954 8.337 -0 -1.2 0
5.026 -3.122 8.324 -0 -1.2 0
5.024 -3.293 8.315 -0 -1.2 0
3.145 -2.566 5.294 -0 -1.2 0
3.229 -2.717 5.426 -0 -1.2 0
3.022 -2.714 5.09 -0 -1.2 0
2.932 -2.767 4.943 -0 -1.2 0
3.204 -3.039 5.377 -0 -1.2 0
5.456 -4.63 8.973 -0 -1.2 0
4.26 -3.999 7.057 -0 -1.2 0
4.194 -4.108 6.948 -0 -1.2 0
4.395 -4.582 7.257 -0 -1.2 0
4.418 -4.768 7.288 -0 -1.2 0
4.313 -4.847 7.117 -0 -1.2 0
4.179 -4.893 6.899 -0 -1.2 0
5.103 -5.949 8.362 -0 -1.2 0
4.909 -5.963 8.048 -0 -1.2 0
3.735 -4.936 6.178 -0 -1.2 0
3.503 -4.838 5.806 -0 -1.2 0
3.433 -4.909 5.69 -0 -1.2 0
3.403 -5.023 5.639 -0 -1.2 0
3.315 -5.066 5.494 -0 -1.2 0
3.416 -5.346 5.65 -0 -1.2 0
3.409 -5.494 5.633 -0 -1.2 0
5.629 -8.69 9.132 -0 -1.2 0
5.088 -8.2 8.27 -0 -1.2 0
4.03 -6.903 6.596 -0 -1.2 0
4.855 -8.364 7.887 -0 -1.2 0
4.818 -8.563 7.823 -0 -1.2 0
3.87 -7.497 6.319 -0 -1.2 0
3.82 -7.632 6.234 -0 -1.2 0
3.537 -7.349 5.785 -0 -1.2 0
0.674 0.048 1.321 -0 -1.2 0
0.693 0.042 1.349 -0 -1.2 0
0.72 0.05 1.39 -0 -1.2 0
0.739 0.042 1.418 -0 -1.2 0
0.762 0.04 1.454 -0 -1.2 0
0.785 0.037 1.49 -0 -1.2 0
0.809 0.033 1.525 -0 -1.2 0
0.841 0.041 1.574 -0 -1.2 0
0.869 0.04 1.616 -0 -1.2 0
0.893 0.032 1.653 -0 -1.2 0
0.926 0.035 1.704 -0 -1.2 0
0.96 0.036 1.754 -0 -1.2 0
0.993 0.035 1.805 -0 -1.2 0
1.027 0.032 1.856 -0 -1.2 0
1.066 0.033 1.915 -0 -1.2 0
1.105 0.031 1.975 -0 -1.2 0
1.149 0.033 2.042 -0 -1.2 0
1.194 0.032 2.109 -0 -1.2 0
1.243 0.034 2.185 -0 -1.2 0
1.302 0.041 2.275 -0 -1.2 0
1.358 0.04 2.359 -0 -1.2 0
1.413 0.037 2.444 -0 -1.2 0
1.47 0.03 2.529 -0 -1.2 0
1.541 0.031 2.638 -0 -1.2 0
1.623 0.036 2.762 -0 -1.2 0
1.701 0.033 2.88 -0 -1.2 0
1.794 0.034 3.021 -0 -1.2 0
1.894 0.034 3.172 -0 -1.2 0
2.009 0.037 3.347 -0 -1.2 0
2.167 0.055 3.587 -0 -1.2 0
2.299 0.051 3.788 -0 -1.2 0
2.475 0.059 4.055 -0 -1.2 0
2.672 0.066 4.356 -0 -1.2 0
2.898 0.071 4.698 -0 -1.2 0
3.145 0.071 5.074 -0 -1.2 0
3.458 0.077 5.55 -0 -1.2 0
3.886 0.1 6.2 -0 -1.2 0
4.375 0.113 6.943 -0 -1.2 0
4.931 0.111 7.787 -0 -1.2 0
5.368 0.049 8.45 -0 -1.2 0
7.237 0.222 11.293 -0 -1.2 0
8.679 0.212 13.483 -0 -1.2 0
8.672 -0.064 13.463 -0 -1.2 0
8.662 -0.339 13.441 -0 -1.2 0
8.672 -0.612 13.447 -0 -1.2 0
8.663 -0.885 13.425 -0 -1.2 0
9.729 -1.165 15.035 -0 -1.2 0
9.197 -1.45 14.22 -0 -1.2 0
5.422 -3.016 8.439 -0 -1.2 0
5.082 -3.388 7.911 -0 -1.2 0
3.299 -2.68 5.223 -0 -1.2 0
3.428 -2.856 5.414 -0 -1.2 0
3.026 -2.746 4.807 -0 -1.2 0
3.411 -3.076 5.382 -0 -1.2 0
3.702 -3.375 5.815 -0 -1.2 0
2.957 -3.008 4.695 -0 -1.2 0
4.783 -4.387 7.425 -0 -1.2 0
4.511 -4.357 7.013 -0 -1.2 0
3.663 -3.865 5.741 -0 -1.2 0
3.668 -4.002 5.744 -0 -1.2 0
3.621 -4.097 5.67 -0 -1.2 0
3.598 -4.211 5.632 -0 -1.2 0
3.51 -4.267 5.496 -0 -1.2 0
4.09 -4.959 6.355 -0 -1.2 0
5.231 -6.267 8.05 -0 -1.2 0
5.545 -6.804 8.51 -0 -1.2 0
6.834 -8.431 10.418 -0 -1.2 0
3.348 -4.786 5.234 -0 -1.2 0
5.301 -7.216 8.126 -0 -1.2 0
3.685 -5.483 5.724 -0 -1.2 0
4.087 -6.154 6.315 -0 -1.2 0
3.493 -5.563 5.431 -0 -1.2 0
5.782 -8.827 8.807 -0 -1.2 0
5.287 -8.671 8.06 -0 -1.2 0
5.215 -8.832 7.947 -0 -1.2 0
4.03 -7.258 6.195 -0 -1.2 0
3.972 -7.379 6.104 -0 -1.2 0
0.7 0.042 1.31 -0 -1.2 0
0.723 0.043 1.344 -0 -1.2 0
0.747 0.044 1.378 -0 -1.2 0
0.771 0.043 1.412 -0 -1.2 0
0.791 0.035 1.441 -0 -1.2 0
0.816 0.032 1.475 -0 -1.2 0
0.841 0.028 1.51 -0 -1.2 0
0.873 0.036 1.558 -0 -1.2 0
0.908 0.041 1.607 -0 -1.2 0
0.933 0.033 1.642 -0 -1.2 0
0.962 0.031 1.684 -0 -1.2 0
0.997 0.031 1.734 -0 -1.2 0
1.028 0.025 1.778 -0 -1.2 0
1.062 0.022 1.827 -0 -1.2 0
1.103 0.024 1.885 -0 -1.2 0
1.144 0.022 1.942 -0 -1.2 0
1.19 0.024 2.009 -0 -1.2 0
1.236 0.023 2.074 -0 -1.2 0
1.288 0.025 2.149 -0 -1.2 0
1.345 0.028 2.23 -0 -1.2 0
1.403 0.028 2.312 -0 -1.2 0
1.46 0.025 2.395 -0 -1.2 0
1.519 0.019 2.478 -0 -1.2 0
1.588 0.016 2.577 -0 -1.2 0
1.669 0.018 2.691 -0 -1.2 0
1.76 0.022 2.822 -0 -1.2 0
1.841 0.015 2.938 -0 -1.2 0
1.95 0.019 3.092 -0 -1.2 0
2.075 0.025 3.271 -0 -1.2 0
2.23 0.039 3.491 -0 -1.2 0
2.378 0.041 3.704 -0 -1.2 0
2.55 0.044 3.95 -0 -1.2 0
2.739 0.044 4.22 -0 -1.2 0
2.969 0.049 4.547 -0 -1.2 0
3.217 0.046 4.899 -0 -1.2 0
3.526 0.049 5.342 -0 -1.2 0
3.911 0.055 5.889 -0 -1.2 0
4.459 0.083 6.674 -0 -1.2 0
5.085 0.096 7.567 -0 -1.2 0
5.576 0.041 8.265 -0 -1.2 0
7.116 0.143 10.464 -0 -1.2 0
9.066 0.21 13.247 -0 -1.2 0
9.976 -0.564 14.522 -0 -1.2 0
9.899 -0.867 14.401 -0 -1.2 0
5.562 -3.155 8.148 -0 -1.2 0
6.605 -3.753 9.618 -0 -1.2 0
5.702 -3.564 8.334 -0 -1.2 0
3.498 -2.706 5.218 -0 -1.2 0
3.46 -2.798 5.162 -0 -1.2 0
3.367 -2.858 5.027 -0 -1.2 0
3.466 -3.023 5.163 -0 -1.2 0
3.081 -2.904 4.617 -0 -1.2 0
3.074 -3.001 4.605 -0 -1.2 0
3.067 -3.098 4.592 -0 -1.2 0
3.268 -3.342 4.871 -0 -1.2 0
3.332 -3.502 4.956 -0 -1.2 0
3.726 -3.923 5.507 -0 -1.2 0
3.862 -4.165 5.694 -0 -1.2 0
6.293 -6.364 9.093 -0 -1.2 0
4.386 -4.907 6.418 -0 -1.2 0
3.518 -4.27 5.2 -0 -1.2 0
5.87 -6.663 8.481 -0 -1.2 0
5.549 -6.568 8.026 -0 -1.2 0
4.364 -5.554 6.367 -0 -1.2 0
4.375 -5.74 6.378 -0 -1.2 0
6.443 -8.241 9.251 -0 -1.2 0
4.249 -5.955 6.191 -0 -1.2 0
3.552 -5.295 5.218 -0 -1.2 0
3.62 -5.534 5.307 -0 -1.2 0
5.272 -7.841 7.593 -0 -1.2 0
5.38 -8.23 7.736 -0 -1.2 0
5.02 -7.982 7.229 -0 -1.2 0
5.037 -8.252 7.246 -0 -1.2 0
4.944 -8.365 7.111 -0 -1.2 0
4.852 -8.475 6.974 -0 -1.2 0
4.047 -7.444 5.858 -0 -1.2 0
3.858 -7.352 5.591 -0 -1.2 0
0.728 0.036 1.3 -0 -1.2 0
0.753 0.037 1.333 -0 -1.2 0
0.781 0.045 1.371 -0 -1.2 0
0.807 0.045 1.405 -0 -1.2 0
0.823 0.029 1.426 -0 -1.2 0
0.848 0.027 1.46 -0 -1.2 0
0.879 0.029 1.5 -0 -1.2 0
0.913 0.037 1.547 -0 -1.2 0
0.939 0.031 1.581 -0 -1.2 0
0.971 0.03 1.622 -0 -1.2 0
1.002 0.026 1.665 -0 -1.2 0
1.038 0.027 1.713 -0 -1.2 0
1.075 0.027 1.761 -0 -1.2 0
1.107 0.019 1.803 -0 -1.2 0
1.149 0.02 1.86 -0 -1.2 0
1.191 0.019 1.916 -0 -1.2 0
1.24 0.021 1.98 -0 -1.2 0
1.287 0.021 2.045 -0 -1.2 0
1.342 0.023 2.116 -0 -1.2 0
1.391 0.017 2.181 -0 -1.2 0
1.462 0.027 2.276 -0 -1.2 0
1.522 0.023 2.357 -0 -1.2 0
1.589 0.022 2.446 -0 -1.2 0
1.656 0.016 2.534 -0 -1.2 0
1.735 0.014 2.639 -0 -1.2 0
1.819 0.012 2.751 -0 -1.2 0
1.915 0.012 2.879 -0 -1.2 0
2.023 0.013 3.023 -0 -1.2 0
2.143 0.014 3.182 -0 -1.2 0
2.297 0.026 3.389 -0 -1.2 0
2.448 0.027 3.589 -0 -1.2 0
2.621 0.029 3.82 -0 -1.2 0
2.808 0.026 4.068 -0 -1.2 0
3.059 0.037 4.403 -0 -1.2 0
3.312 0.035 4.74 -0 -1.2 0
3.619 0.034 5.147 -0 -1.2 0
3.996 0.036 5.65 -0 -1.2 0
4.524 0.056 6.353 -0 -1.2 0
5.196 0.077 7.247 -0 -1.2 0
5.971 0.08 8.279 -0 -1.2 0
7.195 0.115 9.909 -0 -1.2 0
9.025 0.165 12.347 -0 -1.2 0
7.431 -3.28 10.129 -0 -1.2 0
7.339 -3.468 10.001 -0 -1.2 0
6.073 -3.598 8.313 -0 -1.2 0
3.628 -2.685 5.084 -0 -1.2 0
3.461 -2.716 4.862 -0 -1.2 0
3.3 -2.739 4.647 -0 -1.2 0
3.301 -2.841 4.645 -0 -1.2 0
3.203 -2.888 4.514 -0 -1.2 0
3.168 -2.967 4.465 -0 -1.2 0
3.855 -3.507 5.365 -0 -1.2 0
4.466 -4.041 6.162 -0 -1.2 0
3.522 -3.522 4.919 -0 -1.2 0
4.05 -4.031 5.609 -0 -1.2 0
5.333 -5.16 7.285 -0 -1.2 0
3.51 -3.869 4.894 -0 -1.2 0
3.768 -4.209 5.228 -0 -1.2 0
3.763 -4.338 5.218 -0 -1.2 0
4.415 -5.072 6.066 -0 -1.2 0
6.173 -6.914 8.355 -0 -1.2 0
4.572 -5.555 6.261 -0 -1.2 0
4.779 -5.944 6.526 -0 -1.2 0
4.596 -5.936 6.284 -0 -1.2 0
4.294 -5.784 5.885 -0 -1.2 0
4.491 -6.187 6.135 -0 -1.2 0
4.359 -6.217 5.96 -0 -1.2 0
3.791 -5.698 5.218 -0 -1.2 0
5.382 -7.91 7.274 -0 -1.2 0
5.843 -8.767 7.864 -0 -1.2 0
5.011 -7.892 6.78 -0 -1.2 0
5.406 -8.697 7.284 -0 -1.2 0
5.073 -8.472 6.848 -0 -1.2 0
4.872 -8.421 6.581 -0 -1.2 0
0.755 0.03 1.285 -0 -1.2 0
0.78 0.031 1.317 -0 -1.2 0
0.806 0.032 1.35 -0 -1.2 0
0.833 0.032 1.382 -0 -1.2 0
0.859 0.03 1.414 -0 -1.2 0
0.885 0.028 1.447 -0 -1.2 0
0.916 0.031 1.486 -0 -1.2 0
0.943 0.027 1.519 -0 -1.2 0
0.976 0.026 1.56 -0 -1.2 0
1.008 0.025 1.599 -0 -1.2 0
1.04 0.022 1.639 -0 -1.2 0
1.078 0.024 1.686 -0 -1.2 0
1.106 0.012 1.721 -0 -1.2 0
1.15 0.016 1.775 -0 -1.2 0
1.193 0.017 1.83 -0 -1.2 0
1.237 0.016 1.884 -0 -1.2 0
1.282 0.014 1.941 -0 -1.2 0
1.332 0.013 2.003 -0 -1.2 0
1.389 0.016 2.072 -0 -1.2 0
1.451 0.019 2.151 -0 -1.2 0
1.514 0.02 2.228 -0 -1.2 0
1.577 0.017 2.307 -0 -1.2 0
1.641 0.012 2.386 -0 -1.2 0
1.721 0.015 2.487 -0 -1.2 0
1.798 0.01 2.581 -0 -1.2 0
1.886 0.008 2.691 -0 -1.2 0
1.98 0.005 2.807 -0 -1.2 0
2.098 0.01 2.955 -0 -1.2 0
2.194 -0.003 3.074 -0 -1.2 0
2.361 0.012 3.282 -0 -1.2 0
2.512 0.012 3.469 -0 -1.2 0
2.681 0.01 3.679 -0 -1.2 0
2.875 0.01 3.921 -0 -1.2 0
3.125 0.018 4.232 -0 -1.2 0
3.407 0.025 4.582 -0 -1.2 0
3.701 0.018 4.949 -0 -1.2 0
4.102 0.025 5.446 -0 -1.2 0
4.683 0.055 6.17 -0 -1.2 0
5.204 0.039 6.818 -0 -1.2 0
6.005 0.049 7.814 -0 -1.2 0
7.294 0.094 9.419 -0 -1.2 0
9.31 0.167 11.926 -0 -1.2 0
11.948 0.196 15.207 -0 -1.2 0
6.989 -3.647 8.944 -0 -1.2 0
6.694 -3.731 8.574 -0 -1.2 0
3.825 -2.698 5.033 -0 -1.2 0
3.797 -2.796 4.996 -0 -1.2 0
3.417 -2.721 4.526 -0 -1.2 0
3.424 -2.826 4.531 -0 -1.2 0
3.418 -2.924 4.521 -0 -1.2 0
3.244 -2.927 4.305 -0 -1.2 0
3.643 -3.27 4.793 -0 -1.2 0
3.783 -3.473 4.962 -0 -1.2 0
4.136 -3.829 5.392 -0 -1.2 0
4.188 -3.998 5.452 -0 -1.2 0
4.06 -4.039 5.291 -0 -1.2 0
4.022 -4.144 5.242 -0 -1.2 0
3.855 -4.142 5.034 -0 -1.2 0
3.727 -4.166 4.874 -0 -1.2 0
3.799 -4.359 4.959 -0 -1.2 0
3.742 -4.44 4.887 -0 -1.2 0
4.505 -5.299 5.813 -0 -1.2 0
4.476 -5.436 5.773 -0 -1.2 0
4.45 -5.578 5.738 -0 -1.2 0
4.413 -5.709 5.688 -0 -1.2 0
4.867 -6.385 6.235 -0 -1.2 0
4.04 -5.631 5.226 -0 -1.2 0
4.29 -6.095 5.526 -0 -1.2 0
4.246 -6.222 5.468 -0 -1.2 0
4.063 -6.172 5.241 -0 -1.2 0
5.811 -8.663 7.352 -0 -1.2 0
5.278 -8.201 6.7 -0 -1.2 0
5.249 -8.409 6.658 -0 -1.2 0
0.789 0.038 1.282 -0 -1.2 0
0.808 0.026 1.302 -0 -1.2 0
0.838 0.033 1.339 -0 -1.2 0
0.861 0.027 1.365 -0 -1.2 0
0.888 0.026 1.397 -0 -1.2 0
0.921 0.029 1.434 -0 -1.2 0
0.949 0.026 1.466 -0 -1.2 0
0.976 0.021 1.498 -0 -1.2 0
1.009 0.022 1.538 -0 -1.2 0
1.043 0.021 1.576 -0 -1.2 0
1.077 0.017 1.615 -0 -1.2 0
1.111 0.013 1.654 -0 -1.2 0
1.145 0.008 1.694 -0 -1.2 0
1.19 0.012 1.747 -0 -1.2 0
1.23 0.008 1.794 -0 -1.2 0
1.276 0.008 1.847 -0 -1.2 0
1.333 0.016 1.914 -0 -1.2 0
1.38 0.011 1.968 -0 -1.2 0
1.433 0.009 2.029 -0 -1.2 0
1.492 0.008 2.098 -0 -1.2 0
1.562 0.014 2.181 -0 -1.2 0
1.628 0.012 2.257 -0 -1.2 0
1.695 0.007 2.334 -0 -1.2 0
1.779 0.01 2.432 -0 -1.2 0
1.858 0.006 2.524 -0 -1.2 0
1.943 0.001 2.623 -0 -1.2 0
2.041 -0.001 2.736 -0 -1.2 0
2.146 -0.005 2.858 -0 -1.2 0
2.27 -0.006 3.003 -0 -1.2 0
2.413 -0.003 3.169 -0 -1.2 0
2.576 0 3.358 -0 -1.2 0
2.757 0.002 3.57 -0 -1.2 0
2.947 -0.001 3.79 -0 -1.2 0
3.194 0.003 4.077 -0 -1.2 0
3.48 0.009 4.41 -0 -1.2 0
3.774 0.001 4.751 -0 -1.2 0
4.171 0.007 5.214 -0 -1.2 0
4.769 0.038 5.91 -0 -1.2 0
5.324 0.029 6.554 -0 -1.2 0
6.371 0.083 7.773 -0 -1.2 0
7.803 0.141 9.439 -0 -1.2 0
9.504 0.159 11.419 -0 -1.2 0
11.904 0.16 14.209 -0 -1.2 0
14.569 0.054 17.304 -0 -1.2 0
14.388 -0.343 17.085 -0 -1.2 0
7.626 -3.761 9.142 -0 -1.2 0
6.879 -3.687 8.275 -0 -1.2 0
3.765 -2.709 4.678 -0 -1.2 0
3.635 -2.754 4.525 -0 -1.2 0
3.573 -2.826 4.451 -0 -1.2 0
3.417 -2.847 4.27 -0 -1.2 0
3.453 -2.966 4.31 -0 -1.2 0
3.481 -3.084 4.339 -0 -1.2 0
3.532 -3.219 4.396 -0 -1.2 0
3.502 -3.307 4.359 -0 -1.2 0
4.114 -3.828 5.058 -0 -1.2 0
4.083 -3.935 5.02 -0 -1.2 0
4.224 -4.167 5.177 -0 -1.2 0
4.265 -4.336 5.222 -0 -1.2 0
4.206 -4.428 5.15 -0 -1.2 0
3.875 -4.289 4.769 -0 -1.2 0
5.629 -5.96 6.771 -0 -1.2 0
4.496 -5.122 5.472 -0 -1.2 0
4.669 -5.445 5.666 -0 -1.2 0
4.615 -5.56 5.6 -0 -1.2 0
4.258 -5.366 5.19 -0 -1.2 0
4.243 -5.51 5.169 -0 -1.2 0
4.36 -5.801 5.297 -0 -1.2 0
4.254 -5.853 5.173 -0 -1.2 0
4.008 -5.734 4.89 -0 -1.2 0
3.909 -5.781 4.774 -0 -1.2 0
3.907 -5.945 4.768 -0 -1.2 0
5.59 -8.329 6.669 -0 -1.2 0
5.824 -8.902 6.927 -0 -1.2 0
5.256 -8.377 6.28 -0 -1.2 0
5.112 -8.421 6.111 -0 -1.2 0
0.812 0.025 1.26 -0 -1.2 0
0.845 0.034 1.295 -0 -1.2 0
0.872 0.035 1.325 -0 -1.2 0
0.895 0.028 1.351 -0 -1.2 0
0.924 0.027 1.382 -0 -1.2 0
0.953 0.025 1.412 -0 -1.2 0
0.981 0.022 1.443 -0 -1.2 0
1.016 0.022 1.48 -0 -1.2 0
1.045 0.017 1.511 -0 -1.2 0
1.079 0.016 1.55 -0 -1.2 0
1.12 0.019 1.593 -0 -1.2 0
1.155 0.015 1.631 -0 -1.2 0
1.191 0.01 1.67 -0 -1.2 0
1.227 0.003 1.709 -0 -1.2 0
1.274 0.005 1.76 -0 -1.2 0
1.328 0.01 1.818 -0 -1.2 0
1.376 0.008 1.87 -0 -1.2 0
1.43 0.008 1.929 -0 -1.2 0
1.491 0.011 1.995 -0 -1.2 0
1.546 0.007 2.055 -0 -1.2 0
1.62 0.013 2.134 -0 -1.2 0
1.688 0.01 2.208 -0 -1.2 0
1.763 0.009 2.289 -0 -1.2 0
1.851 0.013 2.384 -0 -1.2 0
1.933 0.009 2.473 -0 -1.2 0
2.022 0.004 2.57 -0 -1.2 0
2.117 -0.001 2.673 -0 -1.2 0
2.233 -0.001 2.798 -0 -1.2 0
2.362 -0.002 2.937 -0 -1.2 0
2.466 -0.019 3.049 -0 -1.2 0
2.667 -0.001 3.267 -0 -1.2 0
2.843 -0.003 3.459 -0 -1.2 0
3.059 0.001 3.693 -0 -1.2 0
3.304 0.002 3.956 -0 -1.2 0
3.581 0.003 4.258 -0 -1.2 0
3.887 -0.002 4.589 -0 -1.2 0
4.26 -0.006 4.992 -0 -1.2 0
4.715 -0.01 5.484 -0 -1.2 0
5.58 0.047 6.422 -0 -1.2 0
6.838 0.131 7.786 -0 -1.2 0
8.18 0.164 9.24 -0 -1.2 0
9.776 0.162 10.966 -0 -1.2 0
12.503 0.193 13.919 -0 -1.2 0
14.998 0.068 16.618 -0 -1.2 0
14.932 -0.319 16.538 -0 -1.2 0
14.97 -0.7 16.571 -0 -1.2 0
15.37 -1.083 16.996 -0 -1.2 0
7.473 -3.792 8.39 -0 -1.2 0
7.205 -3.887 8.098 -0 -1.2 0
3.699 -2.611 4.331 -0 -1.2 0
3.696 -2.709 4.323 -0 -1.2 0
3.644 -2.787 4.267 -0 -1.2 0
3.618 -2.873 4.236 -0 -1.2 0
4.168 -3.268 4.824 -0 -1.2 0
3.384 -2.946 3.982 -0 -1.2 0
3.863 -3.325 4.492 -0 -1.2 0
3.875 -3.445 4.503 -0 -1.2 0
3.91 -3.582 4.537 -0 -1.2 0
4.953 -4.409 5.65 -0 -1.2 0
4.078 -3.937 4.713 -0 -1.2 0
5.221 -4.913 5.929 -0 -1.2 0
4.101 -4.21 4.732 -0 -1.2 0
4.094 -4.336 4.722 -0 -1.2 0
5.148 -5.356 5.841 -0 -1.2 0
4.775 -5.201 5.44 -0 -1.2 0
4.931 -5.505 5.602 -0 -1.2 0
5.799 -6.498 6.521 -0 -1.2 0
4.314 -5.247 4.941 -0 -1.2 0
4.248 -5.336 4.868 -0 -1.2 0
4.16 -5.401 4.77 -0 -1.2 0
4.23 -5.636 4.841 -0 -1.2 0
4.139 -5.697 4.741 -0 -1.2 0
4.042 -5.749 4.636 -0 -1.2 0
4.393 -6.344 5.003 -0 -1.2 0
4.358 -6.485 4.961 -0 -1.2 0
5.816 -8.845 6.49 -0 -1.2 0
0.851 0.04 1.26 -0 -1.2 0
0.875 0.035 1.283 -0 -1.2 0
0.908 0.043 1.318 -0 -1.2 0
0.932 0.036 1.342 -0 -1.2 0
0.962 0.034 1.372 -0 -1.2 0
0.986 0.026 1.397 -0 -1.2 0
1.016 0.023 1.427 -0 -1.2 0
1.052 0.024 1.462 -0 -1.2 0
1.088 0.025 1.498 -0 -1.2 0
1.124 0.024 1.536 -0 -1.2 0
1.155 0.016 1.566 -0 -1.2 0
1.19 0.012 1.603 -0 -1.2 0
1.233 0.012 1.646 -0 -1.2 0
1.27 0.005 1.684 -0 -1.2 0
1.326 0.012 1.739 -0 -1.2 0
1.369 0.006 1.783 -0 -1.2 0
1.425 0.01 1.839 -0 -1.2 0
1.475 0.005 1.891 -0 -1.2 0
1.532 0.004 1.948 -0 -1.2 0
1.601 0.009 2.018 -0 -1.2 0
1.678 0.015 2.096 -0 -1.2 0
1.748 0.013 2.167 -0 -1.2 0
1.826 0.012 2.246 -0 -1.2 0
1.91 0.012 2.331 -0 -1.2 0
2.002 0.012 2.424 -0 -1.2 0
2.095 0.007 2.517 -0 -1.2 0
2.186 -0.001 2.611 -0 -1.2 0
2.306 -0.001 2.732 -0 -1.2 0
2.446 0.001 2.873 -0 -1.2 0
2.58 -0.004 3.009 -0 -1.2 0
2.762 0.002 3.193 -0 -1.2 0
2.945 0 3.377 -0 -1.2 0
3.156 0 3.592 -0 -1.2 0
3.401 0.001 3.84 -0 -1.2 0
3.703 0.006 4.145 -0 -1.2 0
3.998 -0.004 4.445 -0 -1.2 0
4.385 -0.007 4.836 -0 -1.2 0
4.946 0.01 5.403 -0 -1.2 0
5.842 0.068 6.311 -0 -1.2 0
7.118 0.148 7.603 -0 -1.2 0
8.515 0.183 9.018 -0 -1.2 0
10.07 0.169 10.591 -0 -1.2 0
12.594 0.177 13.146 -0 -1.2 0
15.724 0.105 16.313 -0 -1.2 0
15.508 -0.294 16.087 -0 -1.2 0
7.924 -4.052 8.34 -0 -1.2 0
7.916 -4.256 8.327 -0 -1.2 0
7.79 -4.62 8.193 -0 -1.2 0
3.692 -2.842 4.08 -0 -1.2 0
3.578 -2.884 3.964 -0 -1.2 0
3.669 -3.03 4.053 -0 -1.2 0
3.52 -3.047 3.902 -0 -1.2 0
4.448 -3.7 4.828 -0 -1.2 0
4.034 -3.567 4.413 -0 -1.2 0
4.492 -3.985 4.868 -0 -1.2 0
4.679 -4.246 5.053 -0 -1.2 0
4.139 -4.124 4.508 -0 -1.2 0
4.406 -4.461 4.772 -0 -1.2 0
5.396 -5.403 5.757 -0 -1.2 0
4.797 -5.071 5.156 -0 -1.2 0
4.827 -5.255 5.183 -0 -1.2 0
5.115 -5.681 5.466 -0 -1.2 0
4.954 -5.703 5.302 -0 -1.2 0
4.345 -5.278 4.694 -0 -1.2 0
4.207 -5.294 4.555 -0 -1.2 0
4.378 -5.63 4.721 -0 -1.2 0
4.406 -5.826 4.747 -0 -1.2 0
6.201 -8.035 6.521 -0 -1.2 0
6.281 -8.377 6.594 -0 -1.2 0
6.273 -8.626 6.581 -0 -1.2 0
5.73 -8.209 6.04 -0 -1.2 0
5.539 -8.21 5.847 -0 -1.2 0
0.88 0.041 1.244 -0 -1.2 0
0.91 0.043 1.273 -0 -1.2 0
0.93 0.03 1.291 -0 -1.2 0
0.965 0.037 1.325 -0 -1.2 0
0.995 0.036 1.353 -0 -1.2 0
1.02 0.027 1.377 -0 -1.2 0
1.051 0.024 1.405 -0 -1.2 0
1.088 0.025 1.441 -0 -1.2 0
1.119 0.02 1.47 -0 -1.2 0
1.163 0.025 1.51 -0 -1.2 0
1.195 0.017 1.54 -0 -1.2 0
1.232 0.013 1.576 -0 -1.2 0
1.277 0.013 1.618 -0 -1.2 0
1.315 0.006 1.654 -0 -1.2 0
1.365 0.009 1.701 -0 -1.2 0
1.417 0.008 1.75 -0 -1.2 0
1.475 0.012 1.805 -0 -1.2 0
1.526 0.007 1.853 -0 -1.2 0
1.585 0.006 1.909 -0 -1.2 0
1.657 0.011 1.977 -0 -1.2 0
1.736 0.017 2.051 -0 -1.2 0
1.803 0.011 2.115 -0 -1.2 0
1.883 0.01 2.19 -0 -1.2 0
1.97 0.011 2.273 -0 -1.2 0
2.065 0.01 2.361 -0 -1.2 0
2.16 0.006 2.452 -0 -1.2 0
2.263 0.001 2.548 -0 -1.2 0
2.38 -0.001 2.658 -0 -1.2 0
2.504 -0.007 2.775 -0 -1.2 0
2.677 0.002 2.939 -0 -1.2 0
2.851 0.003 3.103 -0 -1.2 0
3.047 0.004 3.288 -0 -1.2 0
3.266 0.004 3.494 -0 -1.2 0
3.506 0.001 3.72 -0 -1.2 0
3.825 0.009 4.021 -0 -1.2 0
4.138 0.001 4.317 -0 -1.2 0
4.538 0 4.694 -0 -1.2 0
5.033 -0.002 5.16 -0 -1.2 0
6.046 0.076 6.117 -0 -1.2 0
7.33 0.152 7.33 -0 -1.2 0
8.748 0.186 8.667 -0 -1.2 0
10.321 0.171 10.151 -0 -1.2 0
12.795 0.17 12.484 -0 -1.2 0
18.293 0.281 17.671 -0 -1.2 0
18.782 -4.631 18.049 -0 -1.2 0
8.445 -4.13 8.308 -0 -1.2 0
8.379 -4.318 8.243 -0 -1.2 0
8.513 -4.588 8.365 -0 -1.2 0
5.341 -3.41 5.394 -0 -1.2 0
4.85 -3.319 4.93 -0 -1.2 0
3.571 -2.814 3.734 -0 -1.2 0
3.692 -2.972 3.845 -0 -1.2 0
3.777 -3.117 3.923 -0 -1.2 0
7.248 -5.219 7.161 -0 -1.2 0
5.05 -4.092 5.106 -0 -1.2 0
4.361 -3.798 4.462 -0 -1.2 0
4.538 -4.039 4.625 -0 -1.2 0
4.234 -3.959 4.339 -0 -1.2 0
4.598 -4.347 4.677 -0 -1.2 0
4.461 -4.382 4.546 -0 -1.2 0
4.471 -4.525 4.553 -0 -1.2 0
6.49 -6.311 6.428 -0 -1.2 0
5.061 -5.307 5.097 -0 -1.2 0
5.316 -5.695 5.33 -0 -1.2 0
4.88 -5.474 4.923 -0 -1.2 0
4.8 -5.564 4.847 -0 -1.2 0
4.673 -5.605 4.725 -0 -1.2 0
4.533 -5.629 4.594 -0 -1.2 0
4.302 -5.55 4.377 -0 -1.2 0
4.303 -5.712 4.375 -0 -1.2 0
6.157 -7.983 6.085 -0 -1.2 0
5.93 -7.963 5.871 -0 -1.2 0
5.745 -7.981 5.696 -0 -1.2 0
0.905 0.035 1.225 -0 -1.2 0
0.936 0.037 1.251 -0 -1.2 0
0.967 0.038 1.278 -0 -1.2 0
1.004 0.045 1.31 -0 -1.2 0
1.025 0.031 1.328 -0 -1.2 0
1.062 0.035 1.361 -0 -1.2 0
1.089 0.025 1.384 -0 -1.2 0
1.126 0.027 1.417 -0 -1.2 0
1.158 0.021 1.445 -0 -1.2 0
1.203 0.027 1.484 -0 -1.2 0
1.242 0.024 1.519 -0 -1.2 0
1.281 0.02 1.553 -0 -1.2 0
1.321 0.015 1.587 -0 -1.2 0
1.367 0.013 1.627 -0 -1.2 0
1.413 0.011 1.668 -0 -1.2 0
1.466 0.01 1.714 -0 -1.2 0
1.526 0.014 1.766 -0 -1.2 0
1.58 0.009 1.813 -0 -1.2 0
1.647 0.012 1.872 -0 -1.2 0
1.708 0.008 1.925 -0 -1.2 0
1.797 0.019 2.003 -0 -1.2 0
1.866 0.013 2.063 -0 -1.2 0
1.949 0.013 2.135 -0 -1.2 0
2.032 0.009 2.209 -0 -1.2 0
2.137 0.013 2.3 -0 -1.2 0
2.228 0.006 2.38 -0 -1.2 0
2.342 0.004 2.48 -0 -1.2 0
2.462 0.001 2.584 -0 -1.2 0
2.606 0.002 2.71 -0 -1.2 0
2.763 0.003 2.848 -0 -1.2 0
2.958 0.01 3.018 -0 -1.2 0
3.168 0.014 3.202 -0 -1.2 0
3.387 0.011 3.393 -0 -1.2 0
3.65 0.013 3.622 -0 -1.2 0
3.937 0.008 3.873 -0 -1.2 0
4.297 0.01 4.189 -0 -1.2 0
4.697 0.005 4.537 -0 -1.2 0
5.417 0.049 5.167 -0 -1.2 0
6.265 0.086 5.909 -0 -1.2 0
7.602 0.165 7.079 -0 -1.2 0
9.024 0.194 8.322 -0 -1.2 0
10.645 0.182 9.738 -0 -1.2 0
13.273 0.193 12.035 -0 -1.2 0
16.635 -0.248 14.967 -0 -1.2 0
16.661 -0.63 14.984 -0 -1.2 0
18.968 -6.314 16.915 -0 -1.2 0
19.91 -7.536 17.72 -0 -1.2 0
4.819 -2.865 4.601 -0 -1.2 0
5.063 -3.08 4.812 -0 -1.2 0
5.008 -3.182 4.762 -0 -1.2 0
4.845 -3.235 4.618 -0 -1.2 0
3.786 -2.853 3.699 -0 -1.2 0
4.844 -3.481 4.614 -0 -1.2 0
4.967 -3.672 4.719 -0 -1.2 0
4.975 -3.807 4.724 -0 -1.2 0
4.38 -3.593 4.206 -0 -1.2 0
4.731 -3.926 4.508 -0 -1.2 0
5.143 -4.32 4.864 -0 -1.2 0
4.859 -4.273 4.615 -0 -1.2 0
5.56 -4.9 5.218 -0 -1.2 0
4.76 -4.482 4.525 -0 -1.2 0
7.233 -6.491 6.656 -0 -1.2 0
5.08 -5.017 4.797 -0 -1.2 0
5.48 -5.5 5.139 -0 -1.2 0
5.294 -5.515 4.977 -0 -1.2 0
5.923 -6.24 5.515 -0 -1.2 0
5.033 -5.621 4.747 -0 -1.2 0
5.11 -5.861 4.81 -0 -1.2 0
4.646 -5.581 4.41 -0 -1.2 0
4.743 -5.845 4.491 -0 -1.2 0
4.509 -5.769 4.287 -0 -1.2 0
6.186 -7.777 5.723 -0 -1.2 0
6.122 -8.186 5.661 -0 -1.2 0
0.938 0.044 1.212 -0 -1.2 0
0.97 0.046 1.237 -0 -1.2 0
0.996 0.039 1.259 -0 -1.2 0
1.029 0.039 1.285 -0 -1.2 0
1.055 0.032 1.306 -0 -1.2 0
1.094 0.036 1.338 -0 -1.2 0
1.121 0.027 1.36 -0 -1.2 0
1.154 0.022 1.387 -0 -1.2 0
1.194 0.023 1.419 -0 -1.2 0
1.24 0.028 1.456 -0 -1.2 0
1.274 0.02 1.484 -0 -1.2 0
1.314 0.016 1.517 -0 -1.2 0
1.36 0.017 1.555 -0 -1.2 0
1.407 0.015 1.593 -0 -1.2 0
1.455 0.013 1.631 -0 -1.2 0
1.51 0.012 1.677 -0 -1.2 0
1.572 0.016 1.727 -0 -1.2 0
1.634 0.017 1.777 -0 -1.2 0
1.703 0.02 1.834 -0 -1.2 0
1.767 0.016 1.885 -0 -1.2 0
1.837 0.013 1.942 -0 -1.2 0
1.929 0.02 2.017 -0 -1.2 0
2.007 0.015 2.081 -0 -1.2 0
2.101 0.016 2.157 -0 -1.2 0
2.195 0.013 2.233 -0 -1.2 0
2.303 0.012 2.321 -0 -1.2 0
2.413 0.007 2.41 -0 -1.2 0
2.545 0.008 2.518 -0 -1.2 0
2.699 0.011 2.643 -0 -1.2 0
2.854 0.01 2.769 -0 -1.2 0
3.063 0.02 2.939 -0 -1.2 0
3.28 0.024 3.115 -0 -1.2 0
3.489 0.016 3.286 -0 -1.2 0
3.784 0.025 3.525 -0 -1.2 0
4.063 0.016 3.753 -0 -1.2 0
4.436 0.018 4.056 -0 -1.2 0
4.854 0.015 4.397 -0 -1.2 0
5.466 0.033 4.893 -0 -1.2 0
6.547 0.112 5.774 -0 -1.2 0
7.81 0.172 6.801 -0 -1.2 0
9.383 0.22 8.081 -0 -1.2 0
11.122 0.216 9.495 -0 -1.2 0
13.475 0.192 11.408 -0 -1.2 0
17.234 -0.219 14.459 -0 -1.2 0
17.276 -0.603 14.488 -0 -1.2 0
19.71 -6.331 16.39 -0 -1.2 0
6.213 -3.162 5.458 -0 -1.2 0
4.912 -2.838 4.405 -0 -1.2 0
4.516 -2.802 4.082 -0 -1.2 0
5.182 -3.184 4.619 -0 -1.2 0
4.83 -3.157 4.333 -0 -1.2 0
4.655 -3.196 4.19 -0 -1.2 0
4.481 -3.227 4.049 -0 -1.2 0
5.283 -3.75 4.695 -0 -1.2 0
6.404 -4.488 5.595 -0 -1.2 0
4.947 -3.831 4.418 -0 -1.2 0
4.808 -4.009 4.304 -0 -1.2 0
6.655 -5.332 5.787 -0 -1.2 0
4.762 -4.241 4.263 -0 -1.2 0
5.916 -5.186 5.189 -0 -1.2 0
6.247 -5.598 5.452 -0 -1.2 0
5.214 -4.994 4.62 -0 -1.2 0
5.153 -5.103 4.57 -0 -1.2 0
5.375 -5.442 4.746 -0 -1.2 0
5.427 -5.654 4.784 -0 -1.2 0
5.365 -5.772 4.733 -0 -1.2 0
5.168 -5.767 4.573 -0 -1.2 0
0.964 0.045 1.194 -0 -1.2 0
0.997 0.047 1.219 -0 -1.2 0
1.024 0.041 1.24 -0 -1.2 0
1.057 0.041 1.265 -0 -1.2 0
1.091 0.04 1.29 -0 -1.2 0
1.118 0.031 1.311 -0 -1.2 0
1.152 0.028 1.336 -0 -1.2 0
1.186 0.023 1.362 -0 -1.2 0
1.227 0.025 1.393 -0 -1.2 0
1.274 0.03 1.429 -0 -1.2 0
1.309 0.022 1.455 -0 -1.2 0
1.35 0.018 1.486 -0 -1.2 0
1.392 0.012 1.517 -0 -1.2 0
1.454 0.023 1.565 -0 -1.2 0
1.497 0.014 1.597 -0 -1.2 0
1.553 0.014 1.639 -0 -1.2 0
1.616 0.018 1.687 -0 -1.2 0
1.673 0.014 1.729 -0 -1.2 0
1.744 0.017 1.784 -0 -1.2 0
1.817 0.018 1.838 -0 -1.2 0
1.882 0.011 1.887 -0 -1.2 0
1.976 0.019 1.959 -0 -1.2 0
2.064 0.018 2.025 -0 -1.2 0
2.16 0.019 2.097 -0 -1.2 0
2.257 0.016 2.171 -0 -1.2 0
2.368 0.015 2.255 -0 -1.2 0
2.48 0.01 2.34 -0 -1.2 0
2.616 0.011 2.442 -0 -1.2 0
2.767 0.013 2.557 -0 -1.2 0
2.943 0.016 2.689 -0 -1.2 0
3.149 0.024 2.846 -0 -1.2 0
3.364 0.026 3.008 -0 -1.2 0
3.572 0.016 3.165 -0 -1.2 0
3.875 0.025 3.394 -0 -1.2 0
4.17 0.019 3.617 -0 -1.2 0
4.529 0.016 3.888 -0 -1.2 0
4.976 0.019 4.226 -0 -1.2 0
5.636 0.044 4.725 -0 -1.2 0
6.732 0.121 5.555 -0 -1.2 0
8.014 0.181 6.524 -0 -1.2 0
9.679 0.237 7.784 -0 -1.2 0
11.436 0.231 9.111 -0 -1.2 0
14.118 0.236 11.138 -0 -1.2 0
18.557 -0.151 14.488 -0 -1.2 0
5.808 -2.7 4.822 -0 -1.2 0
5.692 -2.797 4.733 -0 -1.2 0
5.135 -2.744 4.312 -0 -1.2 0
5.096 -2.848 4.283 -0 -1.2 0
4.942 -2.908 4.165 -0 -1.2 0
5.221 -3.134 4.373 -0 -1.2 0
6.177 -3.663 5.089 -0 -1.2 0
5.525 -3.519 4.598 -0 -1.2 0
5.603 -3.69 4.655 -0 -1.2 0
5.463 -3.758 4.548 -0 -1.2 0
4.506 -3.508 3.829 -0 -1.2 0
4.887 -3.842 4.112 -0 -1.2 0
4.482 -3.724 3.807 -0 -1.2 0
5.639 -4.569 4.672 -0 -1.2 0
5.151 -4.401 4.305 -0 -1.2 0
4.971 -4.42 4.169 -0 -1.2 0
7.16 -6.114 5.802 -0 -1.2 0
5.546 -5.125 4.594 -0 -1.2 0
5.456 -5.216 4.525 -0 -1.2 0
5.438 -5.365 4.51 -0 -1.2 0
5.412 -5.508 4.489 -0 -1.2 0
0.986 0.039 1.17 -0 -1.2 0
1.019 0.041 1.193 -0 -1.2 0
1.053 0.042 1.217 -0 -1.2 0
1.087 0.042 1.241 -0 -1.2 0
1.115 0.035 1.26 -0 -1.2 0
1.15 0.033 1.284 -0 -1.2 0
1.185 0.03 1.309 -0 -1.2 0
1.22 0.025 1.333 -0 -1.2 0
1.262 0.026 1.362 -0 -1.2 0
1.304 0.025 1.391 -0 -1.2 0
1.339 0.017 1.416 -0 -1.2 0
1.382 0.014 1.445 -0 -1.2 0
1.437 0.02 1.486 -0 -1.2 0
1.487 0.019 1.52 -0 -1.2 0
1.538 0.016 1.555 -0 -1.2 0
1.589 0.011 1.59 -0 -1.2 0
1.654 0.015 1.636 -0 -1.2 0
1.72 0.016 1.682 -0 -1.2 0
1.794 0.019 1.733 -0 -1.2 0
1.86 0.015 1.779 -0 -1.2 0
1.935 0.013 1.831 -0 -1.2 0
2.024 0.017 1.894 -0 -1.2 0
2.115 0.017 1.957 -0 -1.2 0
2.213 0.018 2.025 -0 -1.2 0
2.312 0.015 2.095 -0 -1.2 0
2.42 0.011 2.169 -0 -1.2 0
2.55 0.014 2.261 -0 -1.2 0
2.682 0.012 2.352 -0 -1.2 0
2.838 0.013 2.461 -0 -1.2 0
3.025 0.02 2.592 -0 -1.2 0
3.23 0.026 2.734 -0 -1.2 0
3.443 0.025 2.883 -0 -1.2 0
3.657 0.016 3.032 -0 -1.2 0
3.952 0.022 3.237 -0 -1.2 0
4.256 0.017 3.45 -0 -1.2 0
4.633 0.017 3.713 -0 -1.2 0
5.092 0.02 4.033 -0 -1.2 0
5.714 0.035 4.467 -0 -1.2 0
6.946 0.135 5.326 -0 -1.2 0
8.085 0.167 6.121 -0 -1.2 0
9.871 0.239 7.367 -0 -1.2 0
11.644 0.234 8.603 -0 -1.2 0
14.386 0.244 10.514 -0 -1.2 0
18.089 -0.175 13.091 -0 -1.2 0
18.159 -0.556 13.136 -0 -1.2 0
22.989 -6.308 16.442 -0 -1.2 0
5.843 -2.658 4.527 -0 -1.2 0
5.317 -2.632 4.161 -0 -1.2 0
5.478 -2.8 4.272 -0 -1.2 0
4.852 -2.709 3.836 -0 -1.2 0
4.932 -2.847 3.89 -0 -1.2 0
7.084 -3.789 5.381 -0 -1.2 0
7.154 -3.982 5.428 -0 -1.2 0
6.261 -4.212 4.803 -0 -1.2 0
5.636 -4.035 4.369 -0 -1.2 0
5.87 -4.305 4.529 -0 -1.2 0
4.926 -3.904 3.876 -0 -1.2 0
4.996 -4.073 3.922 -0 -1.2 0
5.376 -4.446 4.183 -0 -1.2 0
5.993 -4.997 4.608 -0 -1.2 0
5.651 -5.241 4.366 -0 -1.2 0
1.015 0.047 1.155 -0 -1.2 0
1.044 0.042 1.173 -0 -1.2 0
1.078 0.043 1.195 -0 -1.2 0
1.108 0.037 1.214 -0 -1.2 0
1.137 0.029 1.232 -0 -1.2 0
1.178 0.034 1.259 -0 -1.2 0
1.207 0.024 1.278 -0 -1.2 0
1.243 0.02 1.301 -0 -1.2 0
1.279 0.015 1.325 -0 -1.2 0
1.329 0.021 1.357 -0 -1.2 0
1.372 0.019 1.384 -0 -1.2 0
1.415 0.015 1.412 -0 -1.2 0
1.472 0.022 1.449 -0 -1.2 0
