# .PCD v.7 - Point Cloud Data file format
FIELDS x y z vp_x vp_y vp_z
SIZE 4 4 4 4 4 4
TYPE F F F F F F
COUNT 1 1 1 1 1 1
WIDTH 1539
HEIGHT 1
VIEWPOINT 0 -1.20013 0 1 0 0 0
POINTS 1539
DATA ascii
-5.932 -21.292 21.322 -0 -1.2 0
-5.814 -21.676 20.986 -0 -1.2 0
-5.693 -22.053 20.643 -0 -1.2 0
-5.572 -22.424 20.295 -0 -1.2 0
-5.448 -22.789 19.94 -0 -1.2 0
-7.977 -1.242 28.884 -0 -1.2 0
-7.958 -1.764 28.881 -0 -1.2 0
-7.935 -2.287 28.871 -0 -1.2 0
-7.912 -2.809 28.852 -0 -1.2 0
-7.884 -3.332 28.823 -0 -1.2 0
-7.856 -3.853 28.786 -0 -1.2 0
-7.824 -4.374 28.74 -0 -1.2 0
-7.2 -10.994 27.353 -0 -1.2 0
-7.136 -11.487 27.188 -0 -1.2 0
-6.383 -16.212 25.08 -0 -1.2 0
-6.297 -16.662 24.825 -0 -1.2 0
-6.208 -17.107 24.564 -0 -1.2 0
-6.117 -17.546 24.295 -0 -1.2 0
-6.025 -17.982 24.019 -0 -1.2 0
-5.93 -18.411 23.734 -0 -1.2 0
-5.835 -18.836 23.443 -0 -1.2 0
-5.737 -19.255 23.145 -0 -1.2 0
-5.638 -19.668 22.839 -0 -1.2 0
-5.537 -20.076 22.527 -0 -1.2 0
-5.434 -20.478 22.208 -0 -1.2 0
-5.33 -20.874 21.883 -0 -1.2 0
-5.223 -21.265 21.55 -0 -1.2 0
-5.115 -21.648 21.211 -0 -1.2 0
-5.007 -22.026 20.865 -0 -1.2 0
-4.896 -22.398 20.513 -0 -1.2 0
-4.783 -22.763 20.155 -0 -1.2 0
-7.13 -0.684 29.119 -0 -1.2 0
-7.112 -1.207 29.126 -0 -1.2 0
-7.092 -1.73 29.124 -0 -1.2 0
-7.07 -2.252 29.113 -0 -1.2 0
-7.047 -2.774 29.094 -0 -1.2 0
-7.02 -3.297 29.065 -0 -1.2 0
-6.992 -3.818 29.028 -0 -1.2 0
-6.961 -4.339 28.982 -0 -1.2 0
-6.929 -4.858 28.926 -0 -1.2 0
-6.894 -5.378 28.863 -0 -1.2 0
-6.778 -6.924 28.619 -0 -1.2 0
-6.256 -11.943 27.243 -0 -1.2 0
-5.623 -16.182 25.295 -0 -1.2 0
-5.544 -16.632 25.04 -0 -1.2 0
-5.463 -17.077 24.776 -0 -1.2 0
-5.38 -17.517 24.505 -0 -1.2 0
-5.296 -17.952 24.226 -0 -1.2 0
-5.211 -18.382 23.94 -0 -1.2 0
-5.123 -18.807 23.648 -0 -1.2 0
-5.034 -19.226 23.347 -0 -1.2 0
-4.944 -19.64 23.039 -0 -1.2 0
-4.851 -20.048 22.724 -0 -1.2 0
-4.758 -20.451 22.403 -0 -1.2 0
-4.663 -20.848 22.075 -0 -1.2 0
-4.567 -21.238 21.74 -0 -1.2 0
-4.469 -21.623 21.398 -0 -1.2 0
-4.369 -22.001 21.05 -0 -1.2 0
-4.27 -22.373 20.695 -0 -1.2 0
-4.167 -22.739 20.334 -0 -1.2 0
-6.224 -0.133 29.084 -0 -1.2 0
-6.178 -0.654 28.963 -0 -1.2 0
-6.239 -1.171 29.342 -0 -1.2 0
-6.219 -1.694 29.34 -0 -1.2 0
-6.198 -2.216 29.33 -0 -1.2 0
-6.175 -2.739 29.31 -0 -1.2 0
-6.149 -3.262 29.281 -0 -1.2 0
-6.122 -3.783 29.244 -0 -1.2 0
-6.092 -4.303 29.197 -0 -1.2 0
-5.064 -14.773 26.215 -0 -1.2 0
-4.858 -16.15 25.489 -0 -1.2 0
-4.786 -16.601 25.231 -0 -1.2 0
-4.712 -17.046 24.966 -0 -1.2 0
-4.637 -17.486 24.694 -0 -1.2 0
-4.562 -17.922 24.413 -0 -1.2 0
-4.484 -18.352 24.125 -0 -1.2 0
-4.405 -18.778 23.83 -0 -1.2 0
-4.324 -19.197 23.527 -0 -1.2 0
-4.243 -19.612 23.218 -0 -1.2 0
-4.16 -20.02 22.901 -0 -1.2 0
-4.076 -20.423 22.578 -0 -1.2 0
-3.991 -20.82 22.248 -0 -1.2 0
-3.904 -21.211 21.91 -0 -1.2 0
-3.816 -21.596 21.566 -0 -1.2 0
-3.728 -21.975 21.216 -0 -1.2 0
-3.637 -22.347 20.859 -0 -1.2 0
-3.546 -22.713 20.495 -0 -1.2 0
-5.345 0.436 29.496 -0 -1.2 0
-5.33 -0.085 29.522 -0 -1.2 0
-5.313 -0.609 29.538 -0 -1.2 0
-5.295 -1.132 29.545 -0 -1.2 0
-5.274 -1.655 29.544 -0 -1.2 0
-5.253 -2.177 29.533 -0 -1.2 0
-5.229 -2.699 29.514 -0 -1.2 0
-5.204 -3.222 29.486 -0 -1.2 0
-5.177 -3.743 29.447 -0 -1.2 0
-5.15 -4.264 29.401 -0 -1.2 0
-4.028 -16.116 25.672 -0 -1.2 0
-3.964 -16.567 25.413 -0 -1.2 0
-3.899 -17.012 25.146 -0 -1.2 0
-3.833 -17.453 24.871 -0 -1.2 0
-3.765 -17.889 24.59 -0 -1.2 0
-3.697 -18.319 24.3 -0 -1.2 0
-3.627 -18.746 24.003 -0 -1.2 0
-3.557 -19.166 23.699 -0 -1.2 0
-3.485 -19.58 23.387 -0 -1.2 0
-3.411 -19.989 23.069 -0 -1.2 0
-3.338 -20.393 22.743 -0 -1.2 0
-3.263 -20.79 22.411 -0 -1.2 0
-3.186 -21.181 22.072 -0 -1.2 0
-3.11 -21.567 21.726 -0 -1.2 0
-3.031 -21.946 21.373 -0 -1.2 0
-2.953 -22.319 21.013 -0 -1.2 0
-2.873 -22.685 20.648 -0 -1.2 0
-3.657 -12.324 27.612 -0 -1.2 0
-3.609 -12.807 27.417 -0 -1.2 0
-3.354 -15.167 26.316 -0 -1.2 0
-3.3 -15.627 26.071 -0 -1.2 0
-3.245 -16.083 25.819 -0 -1.2 0
-3.188 -16.534 25.559 -0 -1.2 0
-3.131 -16.98 25.291 -0 -1.2 0
-3.073 -17.421 25.015 -0 -1.2 0
-3.014 -17.857 24.731 -0 -1.2 0
-2.954 -18.288 24.441 -0 -1.2 0
-2.893 -18.715 24.143 -0 -1.2 0
-2.831 -19.135 23.837 -0 -1.2 0
-2.769 -19.55 23.524 -0 -1.2 0
-2.704 -19.959 23.204 -0 -1.2 0
-2.641 -20.363 22.877 -0 -1.2 0
-2.575 -20.761 22.543 -0 -1.2 0
-2.509 -21.153 22.202 -0 -1.2 0
-2.443 -21.538 21.854 -0 -1.2 0
-2.375 -21.918 21.5 -0 -1.2 0
-2.306 -22.291 21.139 -0 -1.2 0
-2.237 -22.659 20.771 -0 -1.2 0
-3.465 -2.101 29.832 -0 -1.2 0
-3.442 -2.623 29.813 -0 -1.2 0
-3.419 -3.146 29.784 -0 -1.2 0
-3.394 -3.667 29.746 -0 -1.2 0
-3.368 -4.188 29.699 -0 -1.2 0
-3.341 -4.708 29.644 -0 -1.2 0
-2.459 -16.049 25.942 -0 -1.2 0
-2.411 -16.5 25.681 -0 -1.2 0
-2.361 -16.947 25.412 -0 -1.2 0
-2.311 -17.388 25.134 -0 -1.2 0
-2.26 -17.825 24.85 -0 -1.2 0
-2.209 -18.256 24.558 -0 -1.2 0
-2.156 -18.683 24.259 -0 -1.2 0
-2.104 -19.104 23.952 -0 -1.2 0
-2.05 -19.519 23.638 -0 -1.2 0
-1.996 -19.929 23.318 -0 -1.2 0
-1.941 -20.333 22.989 -0 -1.2 0
-1.886 -20.731 22.653 -0 -1.2 0
-1.83 -21.124 22.311 -0 -1.2 0
-1.773 -21.51 21.962 -0 -1.2 0
-1.716 -21.89 21.606 -0 -1.2 0
-1.659 -22.263 21.244 -0 -1.2 0
-1.601 -22.631 20.876 -0 -1.2 0
-2.596 0.554 29.911 -0 -1.2 0
-2.496 -2.058 29.95 -0 -1.2 0
-2.474 -2.581 29.931 -0 -1.2 0
-2.451 -3.104 29.902 -0 -1.2 0
-2.427 -3.625 29.864 -0 -1.2 0
-2.403 -4.146 29.817 -0 -1.2 0
-2.377 -4.666 29.761 -0 -1.2 0
-2.351 -5.185 29.696 -0 -1.2 0
-2.324 -5.703 29.623 -0 -1.2 0
-2.084 -9.781 28.709 -0 -1.2 0
-1.649 -15.556 26.304 -0 -1.2 0
-1.608 -16.012 26.05 -0 -1.2 0
-1.568 -16.464 25.788 -0 -1.2 0
-1.528 -16.91 25.517 -0 -1.2 0
-1.486 -17.352 25.24 -0 -1.2 0
-1.444 -17.789 24.954 -0 -1.2 0
-1.401 -18.221 24.661 -0 -1.2 0
-1.359 -18.648 24.362 -0 -1.2 0
-1.316 -19.069 24.054 -0 -1.2 0
-1.272 -19.485 23.739 -0 -1.2 0
-1.229 -19.895 23.416 -0 -1.2 0
-1.184 -20.3 23.088 -0 -1.2 0
-1.139 -20.699 22.751 -0 -1.2 0
-1.094 -21.091 22.408 -0 -1.2 0
-1.049 -21.478 22.057 -0 -1.2 0
-1.003 -21.858 21.701 -0 -1.2 0
-0.957 -22.233 21.338 -0 -1.2 0
-0.911 -22.601 20.967 -0 -1.2 0
-1.679 0.594 29.993 -0 -1.2 0
-1.555 -2.541 30.012 -0 -1.2 0
-1.532 -3.064 29.983 -0 -1.2 0
-1.509 -3.585 29.946 -0 -1.2 0
-1.485 -4.106 29.9 -0 -1.2 0
-1.462 -4.626 29.843 -0 -1.2 0
-1.141 -10.738 28.473 -0 -1.2 0
-1.022 -12.695 27.736 -0 -1.2 0
-0.802 -15.977 26.125 -0 -1.2 0
-0.769 -16.429 25.862 -0 -1.2 0
-0.736 -16.876 25.592 -0 -1.2 0
-0.703 -17.318 25.314 -0 -1.2 0
-0.67 -17.756 25.029 -0 -1.2 0
-0.636 -18.188 24.735 -0 -1.2 0
-0.602 -18.615 24.434 -0 -1.2 0
-0.568 -19.037 24.126 -0 -1.2 0
-0.534 -19.454 23.811 -0 -1.2 0
-0.5 -19.864 23.487 -0 -1.2 0
-0.466 -20.269 23.157 -0 -1.2 0
-0.431 -20.668 22.82 -0 -1.2 0
-0.396 -21.062 22.477 -0 -1.2 0
-0.361 -21.449 22.125 -0 -1.2 0
-0.326 -21.83 21.768 -0 -1.2 0
-0.291 -22.204 21.404 -0 -1.2 0
-0.256 -22.573 21.034 -0 -1.2 0
-0.624 -3.55 29.998 -0 -1.2 0
-0.601 -4.071 29.951 -0 -1.2 0
-0.578 -4.591 29.896 -0 -1.2 0
-0.555 -5.111 29.83 -0 -1.2 0
-0.189 -12.662 27.786 -0 -1.2 0
-0.012 -15.946 26.172 -0 -1.2 0
0.012 -16.398 25.909 -0 -1.2 0
0.038 -16.846 25.639 -0 -1.2 0
0.064 -17.288 25.361 -0 -1.2 0
0.09 -17.726 25.075 -0 -1.2 0
0.115 -18.158 24.781 -0 -1.2 0
0.14 -18.586 24.48 -0 -1.2 0
0.165 -19.008 24.171 -0 -1.2 0
0.191 -19.425 23.855 -0 -1.2 0
0.217 -19.836 23.532 -0 -1.2 0
0.241 -20.241 23.202 -0 -1.2 0
0.267 -20.641 22.864 -0 -1.2 0
0.293 -21.034 22.52 -0 -1.2 0
0.317 -21.422 22.169 -0 -1.2 0
0.342 -21.803 21.81 -0 -1.2 0
0.367 -22.178 21.446 -0 -1.2 0
0.392 -22.548 21.075 -0 -1.2 0
0.326 -3.51 30.025 -0 -1.2 0
0.349 -4.031 29.978 -0 -1.2 0
0.371 -4.551 29.922 -0 -1.2 0
0.724 -13.105 27.606 -0 -1.2 0
0.818 -15.453 26.454 -0 -1.2 0
0.836 -15.91 26.199 -0 -1.2 0
0.854 -16.363 25.935 -0 -1.2 0
0.871 -16.811 25.665 -0 -1.2 0
0.889 -17.253 25.386 -0 -1.2 0
0.906 -17.692 25.101 -0 -1.2 0
0.923 -18.124 24.807 -0 -1.2 0
0.939 -18.553 24.505 -0 -1.2 0
0.956 -18.975 24.196 -0 -1.2 0
0.972 -19.392 23.881 -0 -1.2 0
0.988 -19.803 23.557 -0 -1.2 0
1.003 -20.209 23.226 -0 -1.2 0
1.018 -20.609 22.889 -0 -1.2 0
1.033 -21.003 22.544 -0 -1.2 0
1.048 -21.391 22.193 -0 -1.2 0
1.062 -21.773 21.836 -0 -1.2 0
1.076 -22.149 21.47 -0 -1.2 0
1.09 -22.518 21.099 -0 -1.2 0
1.211 -3.471 30.024 -0 -1.2 0
1.232 -3.992 29.977 -0 -1.2 0
1.39 -8.115 29.277 -0 -1.2 0
1.506 -11.614 28.198 -0 -1.2 0
1.522 -12.102 28.009 -0 -1.2 0
1.55 -13.068 27.607 -0 -1.2 0
1.564 -13.546 27.392 -0 -1.2 0
1.577 -14.02 27.17 -0 -1.2 0
1.59 -14.49 26.94 -0 -1.2 0
1.602 -14.955 26.701 -0 -1.2 0
1.613 -15.418 26.454 -0 -1.2 0
1.625 -15.875 26.2 -0 -1.2 0
1.636 -16.328 25.937 -0 -1.2 0
1.646 -16.776 25.667 -0 -1.2 0
1.655 -17.219 25.388 -0 -1.2 0
1.666 -17.658 25.102 -0 -1.2 0
1.674 -18.09 24.808 -0 -1.2 0
1.682 -18.519 24.507 -0 -1.2 0
1.69 -18.942 24.199 -0 -1.2 0
1.697 -19.359 23.883 -0 -1.2 0
1.705 -19.771 23.56 -0 -1.2 0
1.711 -20.177 23.229 -0 -1.2 0
1.716 -20.578 22.892 -0 -1.2 0
1.722 -20.972 22.548 -0 -1.2 0
1.727 -21.361 22.197 -0 -1.2 0
1.731 -21.743 21.839 -0 -1.2 0
1.735 -22.119 21.475 -0 -1.2 0
1.738 -22.489 21.103 -0 -1.2 0
2.107 -3.428 29.996 -0 -1.2 0
2.127 -3.949 29.949 -0 -1.2 0
2.284 -8.581 29.121 -0 -1.2 0
2.298 -9.086 28.986 -0 -1.2 0
2.326 -10.09 28.686 -0 -1.2 0
2.369 -12.062 27.984 -0 -1.2 0
2.378 -12.547 27.787 -0 -1.2 0
2.388 -13.028 27.582 -0 -1.2 0
2.395 -13.507 27.369 -0 -1.2 0
2.403 -13.981 27.146 -0 -1.2 0
2.409 -14.451 26.917 -0 -1.2 0
2.415 -14.917 26.678 -0 -1.2 0
2.42 -15.379 26.432 -0 -1.2 0
2.424 -15.837 26.177 -0 -1.2 0
2.428 -16.29 25.915 -0 -1.2 0
2.431 -16.739 25.645 -0 -1.2 0
2.433 -17.182 25.366 -0 -1.2 0
2.434 -17.621 25.081 -0 -1.2 0
2.435 -18.054 24.788 -0 -1.2 0
2.435 -18.484 24.488 -0 -1.2 0
2.434 -18.907 24.18 -0 -1.2 0
2.432 -19.325 23.864 -0 -1.2 0
2.43 -19.737 23.542 -0 -1.2 0
2.428 -20.144 23.212 -0 -1.2 0
2.424 -20.544 22.875 -0 -1.2 0
2.419 -20.939 22.531 -0 -1.2 0
2.415 -21.328 22.18 -0 -1.2 0
2.408 -21.711 21.823 -0 -1.2 0
2.403 -22.087 21.459 -0 -1.2 0
2.395 -22.458 21.089 -0 -1.2 0
3.083 -3.379 29.935 -0 -1.2 0
3.103 -3.9 29.888 -0 -1.2 0
3.122 -4.42 29.832 -0 -1.2 0
3.14 -4.94 29.767 -0 -1.2 0
3.229 -8.025 29.191 -0 -1.2 0
3.24 -8.533 29.064 -0 -1.2 0
3.251 -9.039 28.928 -0 -1.2 0
3.26 -9.542 28.783 -0 -1.2 0
3.269 -10.043 28.629 -0 -1.2 0
3.276 -10.54 28.468 -0 -1.2 0
3.283 -11.035 28.297 -0 -1.2 0
3.288 -11.527 28.117 -0 -1.2 0
3.294 -12.016 27.929 -0 -1.2 0
3.297 -12.501 27.733 -0 -1.2 0
3.3 -12.982 27.528 -0 -1.2 0
3.302 -13.461 27.315 -0 -1.2 0
3.302 -13.935 27.094 -0 -1.2 0
3.302 -14.406 26.864 -0 -1.2 0
3.301 -14.872 26.626 -0 -1.2 0
3.298 -15.335 26.381 -0 -1.2 0
3.295 -15.793 26.127 -0 -1.2 0
3.291 -16.247 25.865 -0 -1.2 0
3.285 -16.696 25.596 -0 -1.2 0
3.28 -17.139 25.319 -0 -1.2 0
3.272 -17.579 25.034 -0 -1.2 0
3.263 -18.013 24.741 -0 -1.2 0
3.255 -18.442 24.442 -0 -1.2 0
3.245 -18.866 24.134 -0 -1.2 0
3.233 -19.284 23.82 -0 -1.2 0
3.221 -19.697 23.497 -0 -1.2 0
3.208 -20.104 23.169 -0 -1.2 0
3.194 -20.506 22.833 -0 -1.2 0
3.18 -20.901 22.491 -0 -1.2 0
3.164 -21.29 22.141 -0 -1.2 0
3.147 -21.674 21.785 -0 -1.2 0
3.13 -22.051 21.421 -0 -1.2 0
3.111 -22.422 21.052 -0 -1.2 0
3.986 -3.331 29.85 -0 -1.2 0
4.006 -3.852 29.804 -0 -1.2 0
4.024 -4.372 29.748 -0 -1.2 0
4.041 -4.892 29.684 -0 -1.2 0
4.056 -5.411 29.61 -0 -1.2 0
4.084 -6.443 29.436 -0 -1.2 0
4.095 -6.957 29.336 -0 -1.2 0
4.106 -7.468 29.227 -0 -1.2 0
4.116 -7.978 29.109 -0 -1.2 0
4.124 -8.486 28.982 -0 -1.2 0
4.132 -8.992 28.847 -0 -1.2 0
4.137 -9.496 28.702 -0 -1.2 0
4.142 -9.996 28.549 -0 -1.2 0
4.145 -10.494 28.387 -0 -1.2 0
4.148 -10.989 28.217 -0 -1.2 0
4.148 -11.481 28.038 -0 -1.2 0
4.148 -11.971 27.851 -0 -1.2 0
4.146 -12.456 27.655 -0 -1.2 0
4.143 -12.938 27.451 -0 -1.2 0
4.139 -13.417 27.239 -0 -1.2 0
4.134 -13.891 27.018 -0 -1.2 0
4.127 -14.363 26.79 -0 -1.2 0
4.119 -14.829 26.553 -0 -1.2 0
4.111 -15.292 26.308 -0 -1.2 0
4.101 -15.75 26.055 -0 -1.2 0
4.089 -16.205 25.794 -0 -1.2 0
4.076 -16.654 25.526 -0 -1.2 0
4.062 -17.098 25.249 -0 -1.2 0
4.047 -17.538 24.965 -0 -1.2 0
4.031 -17.972 24.675 -0 -1.2 0
4.013 -18.402 24.376 -0 -1.2 0
3.994 -18.826 24.069 -0 -1.2 0
3.974 -19.245 23.756 -0 -1.2 0
3.953 -19.658 23.435 -0 -1.2 0
3.931 -20.066 23.108 -0 -1.2 0
3.908 -20.468 22.772 -0 -1.2 0
3.883 -20.864 22.43 -0 -1.2 0
3.857 -21.254 22.083 -0 -1.2 0
3.83 -21.638 21.727 -0 -1.2 0
3.802 -22.015 21.366 -0 -1.2 0
3.773 -22.387 20.997 -0 -1.2 0
4.887 -3.281 29.738 -0 -1.2 0
4.905 -3.802 29.692 -0 -1.2 0
4.923 -4.322 29.636 -0 -1.2 0
4.938 -4.842 29.572 -0 -1.2 0
4.952 -5.361 29.499 -0 -1.2 0
4.965 -5.878 29.417 -0 -1.2 0
4.976 -6.393 29.326 -0 -1.2 0
4.986 -6.907 29.226 -0 -1.2 0
4.994 -7.419 29.117 -0 -1.2 0
5 -7.929 28.999 -0 -1.2 0
5.006 -8.437 28.873 -0 -1.2 0
5.01 -8.943 28.739 -0 -1.2 0
5.012 -9.447 28.595 -0 -1.2 0
5.013 -9.948 28.442 -0 -1.2 0
5.012 -10.446 28.281 -0 -1.2 0
5.009 -10.942 28.112 -0 -1.2 0
5.005 -11.433 27.934 -0 -1.2 0
5.001 -11.923 27.747 -0 -1.2 0
4.994 -12.409 27.553 -0 -1.2 0
4.985 -12.891 27.349 -0 -1.2 0
4.975 -13.37 27.138 -0 -1.2 0
4.964 -13.845 26.919 -0 -1.2 0
4.951 -14.317 26.69 -0 -1.2 0
4.937 -14.784 26.455 -0 -1.2 0
4.922 -15.247 26.212 -0 -1.2 0
4.904 -15.706 25.959 -0 -1.2 0
4.885 -16.16 25.7 -0 -1.2 0
4.866 -16.61 25.433 -0 -1.2 0
4.843 -17.055 25.157 -0 -1.2 0
4.82 -17.495 24.875 -0 -1.2 0
4.796 -17.93 24.585 -0 -1.2 0
4.77 -18.36 24.287 -0 -1.2 0
4.742 -18.785 23.982 -0 -1.2 0
4.714 -19.204 23.67 -0 -1.2 0
4.683 -19.618 23.351 -0 -1.2 0
4.652 -20.026 23.024 -0 -1.2 0
4.618 -20.429 22.691 -0 -1.2 0
4.585 -20.825 22.351 -0 -1.2 0
4.548 -21.215 22.004 -0 -1.2 0
4.511 -21.6 21.651 -0 -1.2 0
4.473 -21.978 21.291 -0 -1.2 0
4.434 -22.351 20.924 -0 -1.2 0
5.837 -3.225 29.59 -0 -1.2 0
5.855 -3.746 29.544 -0 -1.2 0
5.87 -4.267 29.489 -0 -1.2 0
5.885 -4.787 29.425 -0 -1.2 0
5.898 -5.305 29.351 -0 -1.2 0
5.909 -5.822 29.27 -0 -1.2 0
5.917 -6.338 29.18 -0 -1.2 0
5.925 -6.852 29.081 -0 -1.2 0
5.931 -7.364 28.972 -0 -1.2 0
5.934 -7.874 28.856 -0 -1.2 0
5.936 -8.382 28.73 -0 -1.2 0
5.936 -8.889 28.596 -0 -1.2 0
5.934 -9.393 28.453 -0 -1.2 0
5.931 -9.894 28.301 -0 -1.2 0
5.926 -10.392 28.142 -0 -1.2 0
5.919 -10.888 27.973 -0 -1.2 0
5.91 -11.38 27.796 -0 -1.2 0
5.9 -11.871 27.611 -0 -1.2 0
5.887 -12.357 27.417 -0 -1.2 0
5.873 -12.839 27.215 -0 -1.2 0
5.857 -13.319 27.004 -0 -1.2 0
5.84 -13.794 26.786 -0 -1.2 0
5.82 -14.266 26.56 -0 -1.2 0
5.799 -14.733 26.325 -0 -1.2 0
5.776 -15.197 26.082 -0 -1.2 0
5.751 -15.656 25.833 -0 -1.2 0
5.725 -16.111 25.575 -0 -1.2 0
5.697 -16.561 25.309 -0 -1.2 0
5.667 -17.006 25.035 -0 -1.2 0
5.636 -17.448 24.754 -0 -1.2 0
5.603 -17.883 24.465 -0 -1.2 0
5.568 -18.314 24.169 -0 -1.2 0
5.531 -18.739 23.867 -0 -1.2 0
5.494 -19.159 23.556 -0 -1.2 0
5.454 -19.573 23.238 -0 -1.2 0
5.412 -19.982 22.914 -0 -1.2 0
5.369 -20.385 22.582 -0 -1.2 0
5.324 -20.782 22.244 -0 -1.2 0
5.278 -21.173 21.899 -0 -1.2 0
5.231 -21.558 21.548 -0 -1.2 0
5.181 -21.937 21.189 -0 -1.2 0
5.13 -22.31 20.825 -0 -1.2 0
6.696 -3.169 29.429 -0 -1.2 0
6.713 -3.691 29.383 -0 -1.2 0
6.728 -4.211 29.329 -0 -1.2 0
6.741 -4.731 29.266 -0 -1.2 0
6.751 -5.25 29.194 -0 -1.2 0
6.76 -5.767 29.113 -0 -1.2 0
6.767 -6.282 29.023 -0 -1.2 0
6.772 -6.797 28.924 -0 -1.2 0
6.775 -7.309 28.817 -0 -1.2 0
6.776 -7.82 28.701 -0 -1.2 0
6.775 -8.328 28.576 -0 -1.2 0
6.771 -8.834 28.443 -0 -1.2 0
6.765 -9.339 28.302 -0 -1.2 0
6.758 -9.84 28.151 -0 -1.2 0
6.749 -10.339 27.992 -0 -1.2 0
6.737 -10.835 27.824 -0 -1.2 0
6.723 -11.328 27.649 -0 -1.2 0
6.708 -11.818 27.465 -0 -1.2 0
6.69 -12.305 27.272 -0 -1.2 0
6.671 -12.787 27.072 -0 -1.2 0
6.649 -13.268 26.863 -0 -1.2 0
6.626 -13.743 26.646 -0 -1.2 0
6.6 -14.216 26.421 -0 -1.2 0
6.573 -14.683 26.187 -0 -1.2 0
6.543 -15.148 25.947 -0 -1.2 0
6.512 -15.607 25.698 -0 -1.2 0
6.478 -16.063 25.442 -0 -1.2 0
6.443 -16.513 25.178 -0 -1.2 0
6.406 -16.959 24.906 -0 -1.2 0
6.365 -17.4 24.627 -0 -1.2 0
6.324 -17.836 24.34 -0 -1.2 0
6.281 -18.268 24.046 -0 -1.2 0
6.236 -18.693 23.745 -0 -1.2 0
6.19 -19.114 23.436 -0 -1.2 0
6.141 -19.528 23.121 -0 -1.2 0
6.09 -19.938 22.799 -0 -1.2 0
6.038 -20.342 22.469 -0 -1.2 0
5.984 -20.739 22.133 -0 -1.2 0
5.928 -21.131 21.79 -0 -1.2 0
5.87 -21.517 21.441 -0 -1.2 0
5.811 -21.896 21.085 -0 -1.2 0
5.75 -22.27 20.723 -0 -1.2 0
7.558 -3.631 29.201 -0 -1.2 0
7.572 -4.152 29.147 -0 -1.2 0
7.584 -4.672 29.084 -0 -1.2 0
7.593 -5.191 29.013 -0 -1.2 0
7.6 -5.708 28.933 -0 -1.2 0
7.604 -6.224 28.844 -0 -1.2 0
7.606 -6.739 28.747 -0 -1.2 0
7.606 -7.251 28.64 -0 -1.2 0
7.603 -7.762 28.525 -0 -1.2 0
7.599 -8.27 28.401 -0 -1.2 0
7.591 -8.777 28.27 -0 -1.2 0
7.583 -9.282 28.129 -0 -1.2 0
7.571 -9.784 27.979 -0 -1.2 0
7.557 -10.282 27.822 -0 -1.2 0
7.502 -11.763 27.299 -0 -1.2 0
7.478 -12.25 27.108 -0 -1.2 0
7.453 -12.732 26.909 -0 -1.2 0
7.426 -13.213 26.701 -0 -1.2 0
7.396 -13.689 26.486 -0 -1.2 0
7.364 -14.162 26.263 -0 -1.2 0
7.331 -14.63 26.032 -0 -1.2 0
7.294 -15.095 25.792 -0 -1.2 0
7.256 -15.555 25.546 -0 -1.2 0
7.215 -16.011 25.291 -0 -1.2 0
7.171 -16.462 25.029 -0 -1.2 0
7.126 -16.908 24.76 -0 -1.2 0
7.08 -17.351 24.483 -0 -1.2 0
7.031 -17.787 24.198 -0 -1.2 0
6.979 -18.219 23.906 -0 -1.2 0
6.925 -18.645 23.607 -0 -1.2 0
6.87 -19.066 23.301 -0 -1.2 0
6.812 -19.482 22.988 -0 -1.2 0
6.753 -19.892 22.668 -0 -1.2 0
6.691 -20.296 22.341 -0 -1.2 0
6.627 -20.695 22.007 -0 -1.2 0
6.561 -21.087 21.667 -0 -1.2 0
6.494 -21.473 21.321 -0 -1.2 0
6.424 -21.854 20.968 -0 -1.2 0
6.353 -22.228 20.608 -0 -1.2 0
8.364 -0.957 29.112 -0 -1.2 0
8.389 -1.479 29.102 -0 -1.2 0
8.411 -2.001 29.084 -0 -1.2 0
8.431 -2.525 29.057 -0 -1.2 0
8.448 -3.046 29.021 -0 -1.2 0
8.463 -3.568 28.977 -0 -1.2 0
8.474 -4.088 28.924 -0 -1.2 0
8.484 -4.609 28.862 -0 -1.2 0
8.491 -5.128 28.791 -0 -1.2 0
8.496 -5.645 28.712 -0 -1.2 0
8.497 -6.161 28.623 -0 -1.2 0
8.497 -6.676 28.527 -0 -1.2 0
8.494 -7.189 28.422 -0 -1.2 0
8.488 -7.7 28.308 -0 -1.2 0
8.479 -8.209 28.186 -0 -1.2 0
8.469 -8.715 28.055 -0 -1.2 0
8.455 -9.22 27.916 -0 -1.2 0
8.421 -10.222 27.612 -0 -1.2 0
8.4 -10.719 27.448 -0 -1.2 0
8.376 -11.212 27.275 -0 -1.2 0
8.35 -11.703 27.094 -0 -1.2 0
8.321 -12.19 26.905 -0 -1.2 0
8.29 -12.674 26.708 -0 -1.2 0
8.256 -13.155 26.503 -0 -1.2 0
8.181 -14.105 26.068 -0 -1.2 0
8.141 -14.573 25.839 -0 -1.2 0
8.096 -15.039 25.602 -0 -1.2 0
8.051 -15.499 25.358 -0 -1.2 0
8.002 -15.956 25.106 -0 -1.2 0
7.951 -16.408 24.846 -0 -1.2 0
7.899 -16.854 24.579 -0 -1.2 0
7.843 -17.297 24.304 -0 -1.2 0
7.785 -17.734 24.023 -0 -1.2 0
7.724 -18.167 23.733 -0 -1.2 0
7.662 -18.593 23.436 -0 -1.2 0
7.597 -19.015 23.134 -0 -1.2 0
7.53 -19.431 22.823 -0 -1.2 0
7.46 -19.842 22.506 -0 -1.2 0
7.389 -20.247 22.182 -0 -1.2 0
7.315 -20.646 21.852 -0 -1.2 0
7.238 -21.04 21.515 -0 -1.2 0
7.16 -21.427 21.171 -0 -1.2 0
7.079 -21.808 20.821 -0 -1.2 0
6.998 -22.183 20.465 -0 -1.2 0
9.102 0.669 28.853 -0 -1.2 0
9.135 0.146 28.87 -0 -1.2 0
9.165 -0.376 28.878 -0 -1.2 0
9.192 -0.898 28.878 -0 -1.2 0
9.217 -1.42 28.869 -0 -1.2 0
9.239 -1.943 28.851 -0 -1.2 0
9.258 -2.466 28.825 -0 -1.2 0
9.275 -2.988 28.79 -0 -1.2 0
9.288 -3.509 28.745 -0 -1.2 0
9.299 -4.03 28.694 -0 -1.2 0
9.307 -4.551 28.632 -0 -1.2 0
9.312 -5.07 28.562 -0 -1.2 0
9.314 -5.587 28.484 -0 -1.2 0
9.314 -6.103 28.397 -0 -1.2 0
9.311 -6.618 28.301 -0 -1.2 0
9.305 -7.131 28.197 -0 -1.2 0
9.295 -7.642 28.084 -0 -1.2 0
9.284 -8.152 27.963 -0 -1.2 0
9.253 -9.164 27.696 -0 -1.2 0
9.232 -9.666 27.55 -0 -1.2 0
9.184 -10.663 27.232 -0 -1.2 0
9.155 -11.157 27.062 -0 -1.2 0
9.091 -12.136 26.695 -0 -1.2 0
8.972 -13.578 26.086 -0 -1.2 0
8.927 -14.052 25.867 -0 -1.2 0
8.88 -14.521 25.64 -0 -1.2 0
8.829 -14.987 25.406 -0 -1.2 0
8.776 -15.448 25.163 -0 -1.2 0
8.722 -15.905 24.913 -0 -1.2 0
8.663 -16.357 24.656 -0 -1.2 0
8.602 -16.805 24.391 -0 -1.2 0
8.539 -17.248 24.119 -0 -1.2 0
8.474 -17.685 23.84 -0 -1.2 0
8.405 -18.119 23.554 -0 -1.2 0
8.334 -18.546 23.26 -0 -1.2 0
8.261 -18.968 22.959 -0 -1.2 0
8.185 -19.385 22.652 -0 -1.2 0
8.106 -19.797 22.338 -0 -1.2 0
8.025 -20.202 22.016 -0 -1.2 0
7.943 -20.602 21.689 -0 -1.2 0
7.856 -20.996 21.355 -0 -1.2 0
7.769 -21.384 21.014 -0 -1.2 0
7.678 -21.766 20.667 -0 -1.2 0
7.585 -22.141 20.314 -0 -1.2 0
9.922 0.727 28.594 -0 -1.2 0
9.956 0.204 28.611 -0 -1.2 0
9.986 -0.317 28.62 -0 -1.2 0
10.014 -0.84 28.62 -0 -1.2 0
10.038 -1.362 28.611 -0 -1.2 0
10.06 -1.884 28.593 -0 -1.2 0
10.079 -2.408 28.567 -0 -1.2 0
10.094 -2.93 28.532 -0 -1.2 0
10.107 -3.451 28.49 -0 -1.2 0
10.117 -3.972 28.438 -0 -1.2 0
10.123 -4.493 28.378 -0 -1.2 0
10.126 -5.012 28.309 -0 -1.2 0
10.126 -5.53 28.231 -0 -1.2 0
10.123 -6.046 28.146 -0 -1.2 0
10.117 -6.561 28.051 -0 -1.2 0
10.109 -7.074 27.948 -0 -1.2 0
10.097 -7.586 27.837 -0 -1.2 0
10.082 -8.095 27.717 -0 -1.2 0
10.043 -9.108 27.453 -0 -1.2 0
10.019 -9.61 27.308 -0 -1.2 0
9.962 -10.608 26.994 -0 -1.2 0
9.853 -12.082 26.462 -0 -1.2 0
9.811 -12.566 26.269 -0 -1.2 0
9.718 -13.525 25.859 -0 -1.2 0
9.667 -14 25.643 -0 -1.2 0
9.614 -14.469 25.418 -0 -1.2 0
9.556 -14.935 25.186 -0 -1.2 0
9.497 -15.397 24.947 -0 -1.2 0
9.434 -15.855 24.699 -0 -1.2 0
9.369 -16.307 24.445 -0 -1.2 0
9.301 -16.755 24.182 -0 -1.2 0
9.23 -17.199 23.913 -0 -1.2 0
9.156 -17.637 23.636 -0 -1.2 0
9.08 -18.071 23.353 -0 -1.2 0
9.001 -18.499 23.062 -0 -1.2 0
8.919 -18.922 22.765 -0 -1.2 0
8.835 -19.339 22.461 -0 -1.2 0
8.747 -19.751 22.15 -0 -1.2 0
8.657 -20.158 21.832 -0 -1.2 0
8.565 -20.558 21.508 -0 -1.2 0
8.47 -20.952 21.177 -0 -1.2 0
8.372 -21.341 20.84 -0 -1.2 0
8.272 -21.723 20.496 -0 -1.2 0
8.169 -22.1 20.147 -0 -1.2 0
10.891 -0.777 28.316 -0 -1.2 0
10.915 -1.3 28.308 -0 -1.2 0
10.936 -1.822 28.29 -0 -1.2 0
10.954 -2.346 28.264 -0 -1.2 0
10.969 -2.867 28.23 -0 -1.2 0
10.98 -3.389 28.188 -0 -1.2 0
10.988 -3.91 28.137 -0 -1.2 0
10.993 -4.431 28.078 -0 -1.2 0
10.994 -4.95 28.01 -0 -1.2 0
10.992 -5.468 27.933 -0 -1.2 0
10.986 -5.984 27.849 -0 -1.2 0
10.978 -6.5 27.755 -0 -1.2 0
10.951 -7.525 27.545 -0 -1.2 0
10.933 -8.034 27.427 -0 -1.2 0
10.911 -8.542 27.3 -0 -1.2 0
10.886 -9.048 27.166 -0 -1.2 0
10.858 -9.551 27.023 -0 -1.2 0
10.791 -10.549 26.713 -0 -1.2 0
10.752 -11.043 26.546 -0 -1.2 0
10.667 -12.024 26.188 -0 -1.2 0
10.619 -12.508 25.997 -0 -1.2 0
10.567 -12.991 25.798 -0 -1.2 0
10.513 -13.469 25.592 -0 -1.2 0
10.456 -13.943 25.379 -0 -1.2 0
10.396 -14.413 25.157 -0 -1.2 0
10.332 -14.88 24.927 -0 -1.2 0
10.265 -15.342 24.69 -0 -1.2 0
10.195 -15.8 24.446 -0 -1.2 0
10.122 -16.254 24.195 -0 -1.2 0
10.046 -16.702 23.936 -0 -1.2 0
9.967 -17.146 23.67 -0 -1.2 0
9.885 -17.585 23.397 -0 -1.2 0
9.8 -18.02 23.117 -0 -1.2 0
9.712 -18.448 22.83 -0 -1.2 0
9.621 -18.872 22.536 -0 -1.2 0
9.527 -19.29 22.235 -0 -1.2 0
9.43 -19.703 21.928 -0 -1.2 0
9.331 -20.11 21.614 -0 -1.2 0
9.228 -20.511 21.293 -0 -1.2 0
9.123 -20.906 20.966 -0 -1.2 0
9.015 -21.295 20.633 -0 -1.2 0
8.905 -21.679 20.294 -0 -1.2 0
8.792 -22.056 19.949 -0 -1.2 0
11.665 -0.197 28.009 -0 -1.2 0
11.718 -1.242 28.002 -0 -1.2 0
11.738 -1.765 27.985 -0 -1.2 0
11.755 -2.288 27.961 -0 -1.2 0
11.77 -2.81 27.927 -0 -1.2 0
11.779 -3.332 27.885 -0 -1.2 0
11.787 -3.853 27.836 -0 -1.2 0
11.789 -4.374 27.777 -0 -1.2 0
11.789 -4.893 27.71 -0 -1.2 0
11.785 -5.411 27.634 -0 -1.2 0
11.778 -5.928 27.551 -0 -1.2 0
11.767 -6.443 27.459 -0 -1.2 0
11.752 -6.957 27.359 -0 -1.2 0
11.734 -7.469 27.251 -0 -1.2 0
11.712 -7.979 27.134 -0 -1.2 0
11.658 -8.993 26.876 -0 -1.2 0
11.59 -9.996 26.587 -0 -1.2 0
11.508 -10.989 26.265 -0 -1.2 0
11.461 -11.482 26.092 -0 -1.2 0
11.412 -11.971 25.911 -0 -1.2 0
11.359 -12.455 25.723 -0 -1.2 0
11.302 -12.938 25.527 -0 -1.2 0
11.242 -13.417 25.323 -0 -1.2 0
11.179 -13.892 25.112 -0 -1.2 0
11.042 -14.83 24.666 -0 -1.2 0
10.969 -15.292 24.433 -0 -1.2 0
10.892 -15.751 24.192 -0 -1.2 0
10.811 -16.204 23.943 -0 -1.2 0
10.728 -16.653 23.687 -0 -1.2 0
10.642 -17.098 23.425 -0 -1.2 0
10.552 -17.537 23.155 -0 -1.2 0
10.459 -17.972 22.878 -0 -1.2 0
10.363 -18.402 22.594 -0 -1.2 0
10.264 -18.826 22.304 -0 -1.2 0
10.162 -19.245 22.007 -0 -1.2 0
10.056 -19.658 21.703 -0 -1.2 0
9.948 -20.066 21.393 -0 -1.2 0
9.837 -20.467 21.076 -0 -1.2 0
9.723 -20.863 20.753 -0 -1.2 0
9.604 -21.253 20.424 -0 -1.2 0
9.484 -21.637 20.089 -0 -1.2 0
9.362 -22.015 19.748 -0 -1.2 0
12.462 -0.658 27.692 -0 -1.2 0
12.487 -1.181 27.684 -0 -1.2 0
12.507 -1.703 27.668 -0 -1.2 0
12.524 -2.227 27.644 -0 -1.2 0
12.537 -2.749 27.612 -0 -1.2 0
12.546 -3.27 27.571 -0 -1.2 0
12.551 -3.792 27.522 -0 -1.2 0
12.553 -4.313 27.464 -0 -1.2 0
12.551 -4.832 27.399 -0 -1.2 0
12.545 -5.351 27.325 -0 -1.2 0
12.536 -5.867 27.242 -0 -1.2 0
12.522 -6.383 27.152 -0 -1.2 0
12.504 -6.897 27.054 -0 -1.2 0
12.483 -7.409 26.947 -0 -1.2 0
12.458 -7.919 26.832 -0 -1.2 0
12.43 -8.427 26.709 -0 -1.2 0
12.397 -8.934 26.578 -0 -1.2 0
12.361 -9.437 26.44 -0 -1.2 0
12.278 -10.437 26.139 -0 -1.2 0
12.231 -10.931 25.976 -0 -1.2 0
12.125 -11.914 25.627 -0 -1.2 0
12.067 -12.399 25.442 -0 -1.2 0
11.939 -13.361 25.047 -0 -1.2 0
11.87 -13.837 24.838 -0 -1.2 0
11.797 -14.307 24.622 -0 -1.2 0
11.357 -14.346 23.646 -0 -1.2 0
11.364 -14.899 23.597 -0 -1.2 0
11.557 -15.698 23.931 -0 -1.2 0
11.471 -16.152 23.685 -0 -1.2 0
11.38 -16.601 23.433 -0 -1.2 0
11.287 -17.047 23.174 -0 -1.2 0
11.19 -17.487 22.908 -0 -1.2 0
11.089 -17.922 22.635 -0 -1.2 0
10.985 -18.352 22.355 -0 -1.2 0
10.878 -18.777 22.068 -0 -1.2 0
10.768 -19.196 21.776 -0 -1.2 0
10.653 -19.611 21.476 -0 -1.2 0
10.537 -20.019 21.169 -0 -1.2 0
10.417 -20.421 20.857 -0 -1.2 0
10.293 -20.818 20.538 -0 -1.2 0
10.167 -21.209 20.213 -0 -1.2 0
10.038 -21.593 19.883 -0 -1.2 0
9.905 -21.972 19.546 -0 -1.2 0
13.275 -1.104 27.332 -0 -1.2 0
13.295 -1.627 27.318 -0 -1.2 0
13.311 -2.151 27.294 -0 -1.2 0
13.323 -2.673 27.263 -0 -1.2 0
13.331 -3.195 27.223 -0 -1.2 0
13.335 -3.716 27.176 -0 -1.2 0
13.335 -4.237 27.12 -0 -1.2 0
13.331 -4.757 27.055 -0 -1.2 0
13.322 -5.275 26.983 -0 -1.2 0
13.31 -5.792 26.902 -0 -1.2 0
13.293 -6.308 26.814 -0 -1.2 0
13.273 -6.822 26.718 -0 -1.2 0
13.249 -7.335 26.613 -0 -1.2 0
12.801 -7.629 25.665 -0 -1.2 0
12.697 -8.081 25.401 -0 -1.2 0
13.153 -8.861 26.252 -0 -1.2 0
13.113 -9.364 26.116 -0 -1.2 0
13.068 -9.866 25.972 -0 -1.2 0
12.788 -12.329 25.136 -0 -1.2 0
12.721 -12.813 24.945 -0 -1.2 0
12.65 -13.292 24.747 -0 -1.2 0
12.575 -13.769 24.543 -0 -1.2 0
12.496 -14.24 24.33 -0 -1.2 0
12.413 -14.709 24.11 -0 -1.2 0
12.327 -15.172 23.883 -0 -1.2 0
12.236 -15.632 23.649 -0 -1.2 0
12.142 -16.087 23.408 -0 -1.2 0
12.045 -16.537 23.16 -0 -1.2 0
11.943 -16.983 22.905 -0 -1.2 0
11.838 -17.424 22.642 -0 -1.2 0
11.73 -17.86 22.374 -0 -1.2 0
11.618 -18.291 22.098 -0 -1.2 0
11.503 -18.717 21.816 -0 -1.2 0
11.383 -19.137 21.528 -0 -1.2 0
11.261 -19.552 21.233 -0 -1.2 0
11.136 -19.961 20.931 -0 -1.2 0
11.006 -20.364 20.623 -0 -1.2 0
10.874 -20.762 20.309 -0 -1.2 0
10.738 -21.153 19.989 -0 -1.2 0
10.599 -21.539 19.663 -0 -1.2 0
10.457 -21.919 19.332 -0 -1.2 0
13.973 -0.513 26.993 -0 -1.2 0
13.996 -1.036 26.987 -0 -1.2 0
14.016 -1.559 26.972 -0 -1.2 0
14.032 -2.082 26.95 -0 -1.2 0
14.043 -2.604 26.92 -0 -1.2 0
14.049 -3.126 26.882 -0 -1.2 0
14.052 -3.648 26.835 -0 -1.2 0
14.05 -4.169 26.78 -0 -1.2 0
14.045 -4.689 26.718 -0 -1.2 0
14.034 -5.208 26.647 -0 -1.2 0
14.019 -5.725 26.569 -0 -1.2 0
14.001 -6.241 26.481 -0 -1.2 0
13.909 -6.727 26.257 -0 -1.2 0
13.951 -7.268 26.285 -0 -1.2 0
13.92 -7.779 26.175 -0 -1.2 0
13.884 -8.288 26.057 -0 -1.2 0
13.845 -8.795 25.931 -0 -1.2 0
13.801 -9.299 25.797 -0 -1.2 0
13.7 -10.3 25.506 -0 -1.2 0
13.644 -10.796 25.349 -0 -1.2 0
13.583 -11.29 25.184 -0 -1.2 0
13.519 -11.78 25.013 -0 -1.2 0
13.45 -12.266 24.833 -0 -1.2 0
13.377 -12.751 24.646 -0 -1.2 0
13.3 -13.23 24.451 -0 -1.2 0
13.135 -14.179 24.041 -0 -1.2 0
13.047 -14.648 23.825 -0 -1.2 0
12.954 -15.113 23.601 -0 -1.2 0
12.857 -15.573 23.371 -0 -1.2 0
12.757 -16.029 23.133 -0 -1.2 0
12.652 -16.479 22.89 -0 -1.2 0
12.544 -16.926 22.638 -0 -1.2 0
12.432 -17.367 22.38 -0 -1.2 0
12.316 -17.805 22.116 -0 -1.2 0
12.197 -18.236 21.844 -0 -1.2 0
12.074 -18.663 21.566 -0 -1.2 0
11.948 -19.083 21.283 -0 -1.2 0
11.817 -19.499 20.992 -0 -1.2 0
11.684 -19.909 20.694 -0 -1.2 0
11.545 -20.313 20.392 -0 -1.2 0
11.404 -20.711 20.083 -0 -1.2 0
11.261 -21.104 19.768 -0 -1.2 0
11.112 -21.49 19.446 -0 -1.2 0
10.962 -21.871 19.12 -0 -1.2 0
14.635 0.597 26.608 -0 -1.2 0
14.668 0.075 26.618 -0 -1.2 0
14.695 -0.447 26.621 -0 -1.2 0
14.719 -0.969 26.616 -0 -1.2 0
14.738 -1.492 26.603 -0 -1.2 0
14.752 -2.016 26.581 -0 -1.2 0
14.762 -2.538 26.552 -0 -1.2 0
14.767 -3.06 26.515 -0 -1.2 0
14.769 -3.581 26.469 -0 -1.2 0
14.765 -4.103 26.417 -0 -1.2 0
14.758 -4.623 26.355 -0 -1.2 0
14.746 -5.142 26.286 -0 -1.2 0
14.729 -5.659 26.209 -0 -1.2 0
14.708 -6.176 26.125 -0 -1.2 0
14.682 -6.69 26.033 -0 -1.2 0
14.652 -7.203 25.932 -0 -1.2 0
14.618 -7.714 25.824 -0 -1.2 0
14.029 -7.953 24.747 -0 -1.2 0
14.536 -8.731 25.584 -0 -1.2 0
14.488 -9.235 25.454 -0 -1.2 0
14.319 -10.733 25.014 -0 -1.2 0
14.185 -11.718 24.684 -0 -1.2 0
14.111 -12.205 24.507 -0 -1.2 0
14.033 -12.69 24.324 -0 -1.2 0
13.95 -13.17 24.133 -0 -1.2 0
13.865 -13.647 23.935 -0 -1.2 0
13.665 -14.016 23.543 -0 -1.2 0
13.679 -14.59 23.517 -0 -1.2 0
13.58 -15.055 23.297 -0 -1.2 0
13.477 -15.516 23.071 -0 -1.2 0
13.371 -15.972 22.838 -0 -1.2 0
13.259 -16.423 22.598 -0 -1.2 0
13.145 -16.871 22.351 -0 -1.2 0
13.025 -17.312 22.097 -0 -1.2 0
12.903 -17.75 21.837 -0 -1.2 0
12.776 -18.182 21.57 -0 -1.2 0
12.645 -18.61 21.297 -0 -1.2 0
12.51 -19.031 21.017 -0 -1.2 0
12.372 -19.448 20.732 -0 -1.2 0
12.231 -19.858 20.439 -0 -1.2 0
12.085 -20.263 20.141 -0 -1.2 0
11.935 -20.662 19.837 -0 -1.2 0
11.782 -21.055 19.527 -0 -1.2 0
11.626 -21.443 19.211 -0 -1.2 0
11.466 -21.824 18.89 -0 -1.2 0
15.477 -0.376 26.189 -0 -1.2 0
15.5 -0.899 26.184 -0 -1.2 0
15.518 -1.422 26.172 -0 -1.2 0
15.532 -1.946 26.152 -0 -1.2 0
15.541 -2.468 26.124 -0 -1.2 0
15.546 -2.99 26.088 -0 -1.2 0
15.545 -3.512 26.044 -0 -1.2 0
15.54 -4.034 25.992 -0 -1.2 0
15.531 -4.554 25.933 -0 -1.2 0
15.516 -5.073 25.866 -0 -1.2 0
15.497 -5.59 25.792 -0 -1.2 0
15.473 -6.107 25.71 -0 -1.2 0
15.338 -6.583 25.443 -0 -1.2 0
15.116 -7.019 25.036 -0 -1.2 0
15.374 -7.646 25.416 -0 -1.2 0
15.332 -8.156 25.303 -0 -1.2 0
15.284 -8.664 25.181 -0 -1.2 0
15.232 -9.169 25.053 -0 -1.2 0
15.176 -9.671 24.918 -0 -1.2 0
15.05 -10.668 24.624 -0 -1.2 0
14.98 -11.163 24.466 -0 -1.2 0
14.906 -11.654 24.3 -0 -1.2 0
14.826 -12.141 24.128 -0 -1.2 0
14.743 -12.626 23.948 -0 -1.2 0
14.655 -13.107 23.761 -0 -1.2 0
14.562 -13.585 23.567 -0 -1.2 0
14.466 -14.058 23.366 -0 -1.2 0
14.364 -14.528 23.158 -0 -1.2 0
14.259 -14.994 22.942 -0 -1.2 0
14.149 -15.455 22.72 -0 -1.2 0
14.036 -15.912 22.492 -0 -1.2 0
13.917 -16.364 22.257 -0 -1.2 0
13.794 -16.812 22.014 -0 -1.2 0
13.668 -17.255 21.766 -0 -1.2 0
13.537 -17.693 21.51 -0 -1.2 0
13.402 -18.126 21.249 -0 -1.2 0
13.263 -18.554 20.982 -0 -1.2 0
13.12 -18.976 20.707 -0 -1.2 0
12.973 -19.394 20.426 -0 -1.2 0
12.823 -19.805 20.14 -0 -1.2 0
12.669 -20.211 19.847 -0 -1.2 0
12.509 -20.611 19.549 -0 -1.2 0
12.347 -21.005 19.245 -0 -1.2 0
12.181 -21.393 18.935 -0 -1.2 0
12.012 -21.775 18.62 -0 -1.2 0
16.231 -1.359 25.751 -0 -1.2 0
16.245 -1.883 25.732 -0 -1.2 0
16.253 -2.405 25.705 -0 -1.2 0
16.255 -2.928 25.671 -0 -1.2 0
16.254 -3.45 25.629 -0 -1.2 0
16.247 -3.972 25.579 -0 -1.2 0
16.236 -4.492 25.521 -0 -1.2 0
16.219 -5.011 25.456 -0 -1.2 0
16.198 -5.529 25.383 -0 -1.2 0
16.171 -6.046 25.303 -0 -1.2 0
16.14 -6.561 25.214 -0 -1.2 0
16.104 -7.074 25.119 -0 -1.2 0
16.018 -8.096 24.906 -0 -1.2 0
15.967 -8.604 24.787 -0 -1.2 0
15.912 -9.109 24.662 -0 -1.2 0
15.717 -10.609 24.242 -0 -1.2 0
15.563 -11.596 23.925 -0 -1.2 0
15.479 -12.084 23.756 -0 -1.2 0
15.39 -12.569 23.58 -0 -1.2 0
15.297 -13.051 23.396 -0 -1.2 0
15.199 -13.529 23.206 -0 -1.2 0
15.097 -14.002 23.01 -0 -1.2 0
14.989 -14.473 22.806 -0 -1.2 0
14.878 -14.939 22.595 -0 -1.2 0
14.762 -15.401 22.377 -0 -1.2 0
14.642 -15.859 22.153 -0 -1.2 0
14.517 -16.311 21.922 -0 -1.2 0
14.387 -16.76 21.685 -0 -1.2 0
14.254 -17.203 21.441 -0 -1.2 0
14.116 -17.642 21.191 -0 -1.2 0
13.974 -18.076 20.934 -0 -1.2 0
13.827 -18.504 20.672 -0 -1.2 0
13.677 -18.927 20.403 -0 -1.2 0
13.521 -19.345 20.127 -0 -1.2 0
13.362 -19.758 19.846 -0 -1.2 0
13.2 -20.164 19.559 -0 -1.2 0
13.033 -20.565 19.266 -0 -1.2 0
12.863 -20.959 18.968 -0 -1.2 0
12.688 -21.348 18.664 -0 -1.2 0
12.51 -21.731 18.354 -0 -1.2 0
16.932 -1.3 25.31 -0 -1.2 0
16.945 -1.824 25.292 -0 -1.2 0
16.951 -2.346 25.266 -0 -1.2 0
16.953 -2.868 25.233 -0 -1.2 0
16.95 -3.39 25.192 -0 -1.2 0
16.942 -3.912 25.144 -0 -1.2 0
16.928 -4.433 25.088 -0 -1.2 0
16.91 -4.952 25.025 -0 -1.2 0
16.887 -5.47 24.953 -0 -1.2 0
16.858 -5.987 24.876 -0 -1.2 0
16.824 -6.502 24.79 -0 -1.2 0
16.785 -7.016 24.696 -0 -1.2 0
16.742 -7.528 24.596 -0 -1.2 0
16.692 -8.038 24.488 -0 -1.2 0
16.638 -8.546 24.373 -0 -1.2 0
16.58 -9.052 24.251 -0 -1.2 0
16.515 -9.555 24.12 -0 -1.2 0
16.446 -10.056 23.984 -0 -1.2 0
16.372 -10.553 23.839 -0 -1.2 0
16.294 -11.049 23.688 -0 -1.2 0
16.121 -12.029 23.365 -0 -1.2 0
16.027 -12.515 23.193 -0 -1.2 0
15.929 -12.997 23.014 -0 -1.2 0
15.825 -13.475 22.828 -0 -1.2 0
15.717 -13.949 22.634 -0 -1.2 0
15.605 -14.421 22.435 -0 -1.2 0
15.487 -14.887 22.228 -0 -1.2 0
15.364 -15.35 22.015 -0 -1.2 0
15.238 -15.808 21.795 -0 -1.2 0
15.107 -16.261 21.57 -0 -1.2 0
14.971 -16.71 21.337 -0 -1.2 0
14.83 -17.154 21.098 -0 -1.2 0
14.685 -17.594 20.853 -0 -1.2 0
14.535 -18.028 20.601 -0 -1.2 0
14.381 -18.457 20.344 -0 -1.2 0
14.223 -18.881 20.081 -0 -1.2 0
14.061 -19.299 19.811 -0 -1.2 0
13.894 -19.712 19.535 -0 -1.2 0
13.723 -20.119 19.255 -0 -1.2 0
13.548 -20.521 18.968 -0 -1.2 0
13.369 -20.916 18.675 -0 -1.2 0
13.185 -21.306 18.377 -0 -1.2 0
12.998 -21.69 18.074 -0 -1.2 0
17.677 -0.729 24.806 -0 -1.2 0
17.693 -1.252 24.796 -0 -1.2 0
17.705 -1.776 24.779 -0 -1.2 0
17.711 -2.298 24.755 -0 -1.2 0
17.711 -2.821 24.723 -0 -1.2 0
17.707 -3.343 24.683 -0 -1.2 0
17.697 -3.865 24.636 -0 -1.2 0
17.682 -4.386 24.582 -0 -1.2 0
17.661 -4.905 24.521 -0 -1.2 0
17.636 -5.423 24.452 -0 -1.2 0
17.604 -5.941 24.376 -0 -1.2 0
17.567 -6.456 24.292 -0 -1.2 0
17.525 -6.97 24.202 -0 -1.2 0
17.478 -7.482 24.104 -0 -1.2 0
17.425 -7.992 23.999 -0 -1.2 0
17.367 -8.501 23.887 -0 -1.2 0
17.304 -9.007 23.767 -0 -1.2 0
17.236 -9.51 23.641 -0 -1.2 0
17.084 -10.509 23.367 -0 -1.2 0
17 -11.005 23.219 -0 -1.2 0
16.911 -11.497 23.065 -0 -1.2 0
16.817 -11.985 22.904 -0 -1.2 0
16.718 -12.472 22.735 -0 -1.2 0
16.614 -12.954 22.56 -0 -1.2 0
16.504 -13.433 22.378 -0 -1.2 0
16.389 -13.907 22.19 -0 -1.2 0
16.27 -14.379 21.995 -0 -1.2 0
16.147 -14.846 21.793 -0 -1.2 0
16.018 -15.309 21.586 -0 -1.2 0
15.883 -15.768 21.371 -0 -1.2 0
15.745 -16.221 21.15 -0 -1.2 0
15.602 -16.671 20.923 -0 -1.2 0
15.453 -17.115 20.69 -0 -1.2 0
15.301 -17.555 20.45 -0 -1.2 0
15.143 -17.99 20.205 -0 -1.2 0
14.981 -18.42 19.953 -0 -1.2 0
14.815 -18.844 19.696 -0 -1.2 0
14.644 -19.263 19.432 -0 -1.2 0
14.469 -19.676 19.164 -0 -1.2 0
14.289 -20.084 18.889 -0 -1.2 0
14.105 -20.486 18.608 -0 -1.2 0
13.917 -20.882 18.322 -0 -1.2 0
13.724 -21.272 18.03 -0 -1.2 0
13.527 -21.657 17.734 -0 -1.2 0
18.397 -0.208 24.271 -0 -1.2 0
18.419 -0.73 24.269 -0 -1.2 0
18.435 -1.253 24.258 -0 -1.2 0
18.445 -1.777 24.241 -0 -1.2 0
18.451 -2.3 24.217 -0 -1.2 0
18.45 -2.822 24.185 -0 -1.2 0
18.444 -3.344 24.146 -0 -1.2 0
18.432 -3.867 24.1 -0 -1.2 0
18.414 -4.387 24.047 -0 -1.2 0
18.391 -4.907 23.986 -0 -1.2 0
18.363 -5.425 23.918 -0 -1.2 0
18.328 -5.942 23.844 -0 -1.2 0
18.289 -6.458 23.761 -0 -1.2 0
18.243 -6.971 23.673 -0 -1.2 0
18.193 -7.483 23.577 -0 -1.2 0
18.137 -7.994 23.474 -0 -1.2 0
18.075 -8.502 23.363 -0 -1.2 0
18.008 -9.008 23.247 -0 -1.2 0
17.935 -9.511 23.122 -0 -1.2 0
17.857 -10.013 22.992 -0 -1.2 0
17.685 -11.006 22.709 -0 -1.2 0
17.491 -11.987 22.4 -0 -1.2 0
17.386 -12.474 22.235 -0 -1.2 0
17.276 -12.955 22.063 -0 -1.2 0
17.037 -13.344 21.728 -0 -1.2 0
17.04 -13.909 21.701 -0 -1.2 0
16.72 -14.225 21.265 -0 -1.2 0
16.784 -14.848 21.313 -0 -1.2 0
16.649 -15.311 21.11 -0 -1.2 0
16.508 -15.769 20.9 -0 -1.2 0
16.362 -16.223 20.683 -0 -1.2 0
16.211 -16.673 20.46 -0 -1.2 0
16.056 -17.117 20.232 -0 -1.2 0
15.895 -17.557 19.998 -0 -1.2 0
15.73 -17.992 19.757 -0 -1.2 0
15.56 -18.421 19.511 -0 -1.2 0
15.385 -18.845 19.26 -0 -1.2 0
15.206 -19.265 19.002 -0 -1.2 0
15.022 -19.678 18.738 -0 -1.2 0
14.833 -20.086 18.47 -0 -1.2 0
14.641 -20.488 18.195 -0 -1.2 0
14.443 -20.884 17.915 -0 -1.2 0
14.241 -21.274 17.63 -0 -1.2 0
14.035 -21.658 17.34 -0 -1.2 0
19.2 -0.173 23.646 -0 -1.2 0
19.222 -0.696 23.644 -0 -1.2 0
19.238 -1.219 23.634 -0 -1.2 0
19.247 -1.743 23.616 -0 -1.2 0
19.251 -2.265 23.594 -0 -1.2 0
19.249 -2.788 23.562 -0 -1.2 0
19.241 -3.31 23.525 -0 -1.2 0
19.228 -3.832 23.479 -0 -1.2 0
19.208 -4.353 23.428 -0 -1.2 0
19.183 -4.873 23.369 -0 -1.2 0
19.116 -5.908 23.231 -0 -1.2 0
19.073 -6.424 23.151 -0 -1.2 0
19.024 -6.938 23.065 -0 -1.2 0
18.97 -7.45 22.971 -0 -1.2 0
18.614 -9.98 22.402 -0 -1.2 0
18.526 -10.478 22.268 -0 -1.2 0
18.432 -10.974 22.128 -0 -1.2 0
18.333 -11.466 21.98 -0 -1.2 0
18.228 -11.955 21.827 -0 -1.2 0
18.118 -12.442 21.666 -0 -1.2 0
18.002 -12.924 21.5 -0 -1.2 0
17.879 -13.404 21.326 -0 -1.2 0
17.753 -13.878 21.147 -0 -1.2 0
17.621 -14.35 20.961 -0 -1.2 0
17.483 -14.817 20.769 -0 -1.2 0
17.341 -15.281 20.571 -0 -1.2 0
17.193 -15.74 20.367 -0 -1.2 0
17.039 -16.194 20.157 -0 -1.2 0
16.881 -16.644 19.941 -0 -1.2 0
16.718 -17.088 19.718 -0 -1.2 0
16.549 -17.529 19.49 -0 -1.2 0
16.376 -17.964 19.256 -0 -1.2 0
16.197 -18.394 19.017 -0 -1.2 0
16.014 -18.818 18.772 -0 -1.2 0
15.825 -19.238 18.521 -0 -1.2 0
15.633 -19.652 18.264 -0 -1.2 0
15.435 -20.06 18.003 -0 -1.2 0
15.233 -20.462 17.736 -0 -1.2 0
15.026 -20.858 17.464 -0 -1.2 0
14.814 -21.249 17.187 -0 -1.2 0
14.599 -21.634 16.904 -0 -1.2 0
20.039 -0.138 22.943 -0 -1.2 0
20.061 -0.66 22.94 -0 -1.2 0
20.075 -1.183 22.931 -0 -1.2 0
20.084 -1.707 22.915 -0 -1.2 0
20.087 -2.23 22.892 -0 -1.2 0
20.084 -2.752 22.862 -0 -1.2 0
20.075 -3.275 22.826 -0 -1.2 0
20.06 -3.797 22.782 -0 -1.2 0
20.038 -4.317 22.732 -0 -1.2 0
20.011 -4.837 22.675 -0 -1.2 0
19.892 -6.389 22.464 -0 -1.2 0
19.84 -6.903 22.381 -0 -1.2 0
19.783 -7.415 22.29 -0 -1.2 0
19.719 -7.926 22.193 -0 -1.2 0
19.574 -8.941 21.979 -0 -1.2 0
19.405 -9.946 21.739 -0 -1.2 0
19.312 -10.445 21.609 -0 -1.2 0
19.213 -10.941 21.473 -0 -1.2 0
19.108 -11.433 21.331 -0 -1.2 0
18.998 -11.922 21.182 -0 -1.2 0
18.88 -12.41 21.027 -0 -1.2 0
18.759 -12.892 20.866 -0 -1.2 0
18.631 -13.372 20.697 -0 -1.2 0
18.497 -13.847 20.524 -0 -1.2 0
18.359 -14.319 20.344 -0 -1.2 0
18.214 -14.786 20.158 -0 -1.2 0
18.064 -15.25 19.966 -0 -1.2 0
17.908 -15.709 19.768 -0 -1.2 0
17.747 -16.163 19.564 -0 -1.2 0
17.581 -16.614 19.355 -0 -1.2 0
17.41 -17.059 19.14 -0 -1.2 0
17.232 -17.5 18.919 -0 -1.2 0
17.05 -17.935 18.693 -0 -1.2 0
16.864 -18.366 18.46 -0 -1.2 0
16.671 -18.79 18.224 -0 -1.2 0
16.474 -19.21 17.98 -0 -1.2 0
16.271 -19.625 17.732 -0 -1.2 0
16.064 -20.033 17.479 -0 -1.2 0
15.852 -20.436 17.22 -0 -1.2 0
15.635 -20.833 16.957 -0 -1.2 0
15.413 -21.224 16.688 -0 -1.2 0
15.187 -21.609 16.414 -0 -1.2 0
20.816 -0.105 22.242 -0 -1.2 0
20.836 -0.628 22.24 -0 -1.2 0
20.851 -1.151 22.23 -0 -1.2 0
20.86 -1.675 22.215 -0 -1.2 0
20.861 -2.197 22.193 -0 -1.2 0
20.846 -3.242 22.129 -0 -1.2 0
20.829 -3.765 22.087 -0 -1.2 0
20.806 -4.285 22.039 -0 -1.2 0
20.776 -4.806 21.984 -0 -1.2 0
20.65 -6.357 21.779 -0 -1.2 0
20.596 -6.872 21.698 -0 -1.2 0
20.534 -7.384 21.611 -0 -1.2 0
20.229 -9.414 21.197 -0 -1.2 0
20.039 -10.414 20.952 -0 -1.2 0
19.799 -11.39 20.655 -0 -1.2 0
19.041 -14.291 19.727 -0 -1.2 0
18.889 -14.758 19.548 -0 -1.2 0
18.733 -15.222 19.362 -0 -1.2 0
18.571 -15.682 19.171 -0 -1.2 0
18.402 -16.136 18.974 -0 -1.2 0
18.229 -16.587 18.771 -0 -1.2 0
18.049 -17.032 18.563 -0 -1.2 0
17.864 -17.473 18.349 -0 -1.2 0
17.674 -17.909 18.13 -0 -1.2 0
17.479 -18.34 17.905 -0 -1.2 0
17.278 -18.765 17.675 -0 -1.2 0
17.073 -19.185 17.44 -0 -1.2 0
16.861 -19.6 17.2 -0 -1.2 0
16.645 -20.009 16.955 -0 -1.2 0
16.424 -20.412 16.704 -0 -1.2 0
16.198 -20.809 16.449 -0 -1.2 0
15.966 -21.201 16.189 -0 -1.2 0
15.731 -21.586 15.925 -0 -1.2 0
21.571 -0.074 21.51 -0 -1.2 0
21.591 -0.597 21.507 -0 -1.2 0
21.605 -1.12 21.499 -0 -1.2 0
21.613 -1.644 21.484 -0 -1.2 0
21.615 -2.167 21.463 -0 -1.2 0
21.597 -3.212 21.401 -0 -1.2 0
21.578 -3.734 21.361 -0 -1.2 0
21.553 -4.255 21.314 -0 -1.2 0
21.265 -7.354 20.902 -0 -1.2 0
21.035 -8.881 20.612 -0 -1.2 0
20.945 -9.385 20.503 -0 -1.2 0
20.523 -11.375 20.006 -0 -1.2 0
20.401 -11.865 19.868 -0 -1.2 0
20.275 -12.352 19.723 -0 -1.2 0
20.141 -12.835 19.571 -0 -1.2 0
20.001 -13.315 19.416 -0 -1.2 0
19.857 -13.791 19.253 -0 -1.2 0
19.705 -14.263 19.085 -0 -1.2 0
19.547 -14.732 18.911 -0 -1.2 0
19.384 -15.196 18.732 -0 -1.2 0
19.214 -15.655 18.547 -0 -1.2 0
19.04 -16.11 18.357 -0 -1.2 0
18.859 -16.561 18.161 -0 -1.2 0
18.672 -17.007 17.96 -0 -1.2 0
18.479 -17.448 17.754 -0 -1.2 0
18.281 -17.884 17.543 -0 -1.2 0
18.079 -18.316 17.326 -0 -1.2 0
17.87 -18.741 17.103 -0 -1.2 0
17.656 -19.162 16.877 -0 -1.2 0
17.436 -19.577 16.645 -0 -1.2 0
17.211 -19.986 16.408 -0 -1.2 0
16.981 -20.389 16.166 -0 -1.2 0
16.746 -20.787 15.92 -0 -1.2 0
16.506 -21.179 15.67 -0 -1.2 0
16.261 -21.565 15.414 -0 -1.2 0
22.394 -1.613 20.668 -0 -1.2 0
22.354 -3.703 20.55 -0 -1.2 0
22.151 -6.297 20.267 -0 -1.2 0
21.586 -9.858 19.617 -0 -1.2 0
21.366 -10.853 19.379 -0 -1.2 0
21.246 -11.346 19.251 -0 -1.2 0
20.987 -12.324 18.979 -0 -1.2 0
20.55 -13.763 18.528 -0 -1.2 0
20.228 -14.704 18.2 -0 -1.2 0
19.881 -15.629 17.85 -0 -1.2 0
19.7 -16.084 17.668 -0 -1.2 0
19.511 -16.535 17.481 -0 -1.2 0
19.317 -16.981 17.287 -0 -1.2 0
19.117 -17.423 17.09 -0 -1.2 0
18.911 -17.859 16.886 -0 -1.2 0
18.699 -18.291 16.678 -0 -1.2 0
18.482 -18.717 16.465 -0 -1.2 0
18.26 -19.138 16.247 -0 -1.2 0
18.031 -19.553 16.025 -0 -1.2 0
17.798 -19.962 15.797 -0 -1.2 0
17.558 -20.366 15.565 -0 -1.2 0
17.313 -20.764 15.329 -0 -1.2 0
17.064 -21.157 15.088 -0 -1.2 0
16.809 -21.543 14.843 -0 -1.2 0
23.082 -1.062 19.899 -0 -1.2 0
23.088 -1.586 19.886 -0 -1.2 0
23.087 -2.109 19.867 -0 -1.2 0
22.83 -6.271 19.501 -0 -1.2 0
21.475 -12.783 18.127 -0 -1.2 0
21.003 -14.212 17.678 -0 -1.2 0
20.833 -14.681 17.518 -0 -1.2 0
20.285 -16.061 17.007 -0 -1.2 0
20.091 -16.513 16.827 -0 -1.2 0
19.89 -16.959 16.642 -0 -1.2 0
19.682 -17.401 16.452 -0 -1.2 0
19.469 -17.838 16.257 -0 -1.2 0
19.25 -18.27 16.057 -0 -1.2 0
19.025 -18.696 15.853 -0 -1.2 0
18.795 -19.117 15.644 -0 -1.2 0
18.559 -19.532 15.431 -0 -1.2 0
18.318 -19.942 15.212 -0 -1.2 0
18.07 -20.346 14.989 -0 -1.2 0
17.817 -20.745 14.762 -0 -1.2 0
17.559 -21.137 14.53 -0 -1.2 0
17.296 -21.524 14.295 -0 -1.2 0
21.209 -15.125 16.686 -0 -1.2 0
21.021 -15.585 16.523 -0 -1.2 0
20.827 -16.041 16.356 -0 -1.2 0
20.625 -16.493 16.182 -0 -1.2 0
20.418 -16.939 16.004 -0 -1.2 0
20.205 -17.382 15.823 -0 -1.2 0
19.985 -17.818 15.635 -0 -1.2 0
19.76 -18.25 15.444 -0 -1.2 0
19.528 -18.677 15.248 -0 -1.2 0
19.29 -19.098 15.047 -0 -1.2 0
19.047 -19.514 14.842 -0 -1.2 0
18.798 -19.924 14.633 -0 -1.2 0
18.543 -20.329 14.42 -0 -1.2 0
18.283 -20.727 14.202 -0 -1.2 0
18.017 -21.12 13.98 -0 -1.2 0
17.745 -21.507 13.754 -0 -1.2 0
20.916 -16.921 15.362 -0 -1.2 0
20.697 -17.363 15.188 -0 -1.2 0
20.471 -17.8 15.009 -0 -1.2 0
20.239 -18.232 14.826 -0 -1.2 0
20.001 -18.659 14.638 -0 -1.2 0
19.757 -19.081 14.447 -0 -1.2 0
19.506 -19.497 14.251 -0 -1.2 0
19.251 -19.907 14.051 -0 -1.2 0
18.988 -20.312 13.847 -0 -1.2 0
18.721 -20.711 13.639 -0 -1.2 0
18.447 -21.104 13.427 -0 -1.2 0
18.168 -21.492 13.21 -0 -1.2 0
22.375 -14.624 15.536 -0 -1.2 0
21.984 -15.55 15.241 -0 -1.2 0
21.779 -16.006 15.088 -0 -1.2 0
21.567 -16.458 14.93 -0 -1.2 0
21.348 -16.905 14.767 -0 -1.2 0
21.123 -17.348 14.6 -0 -1.2 0
20.891 -17.785 14.43 -0 -1.2 0
20.654 -18.218 14.254 -0 -1.2 0
20.41 -18.644 14.075 -0 -1.2 0
20.16 -19.067 13.891 -0 -1.2 0
19.904 -19.483 13.704 -0 -1.2 0
19.642 -19.893 13.513 -0 -1.2 0
19.374 -20.298 13.317 -0 -1.2 0
19.1 -20.697 13.118 -0 -1.2 0
18.819 -21.091 12.914 -0 -1.2 0
18.534 -21.479 12.708 -0 -1.2 0
23.185 -13.666 15.151 -0 -1.2 0
22.204 -15.992 14.461 -0 -1.2 0
21.986 -16.445 14.31 -0 -1.2 0
21.533 -17.334 13.996 -0 -1.2 0
21.296 -17.772 13.833 -0 -1.2 0
21.053 -18.204 13.665 -0 -1.2 0
20.804 -18.631 13.495 -0 -1.2 0
20.547 -19.054 13.32 -0 -1.2 0
20.286 -19.47 13.141 -0 -1.2 0
20.017 -19.881 12.958 -0 -1.2 0
19.743 -20.286 12.771 -0 -1.2 0
19.464 -20.685 12.582 -0 -1.2 0
19.177 -21.079 12.388 -0 -1.2 0
18.885 -21.467 12.191 -0 -1.2 0
22.195 -16.878 13.471 -0 -1.2 0
21.718 -17.759 13.165 -0 -1.2 0
21.469 -18.192 13.007 -0 -1.2 0
21.214 -18.619 12.846 -0 -1.2 0
20.952 -19.041 12.68 -0 -1.2 0
20.684 -19.458 12.511 -0 -1.2 0
20.409 -19.869 12.338 -0 -1.2 0
20.129 -20.274 12.161 -0 -1.2 0
19.843 -20.674 11.981 -0 -1.2 0
19.55 -21.068 11.798 -0 -1.2 0
19.252 -21.456 11.611 -0 -1.2 0
22.575 -16.868 12.822 -0 -1.2 0
22.088 -17.749 12.534 -0 -1.2 0
21.574 -18.609 12.231 -0 -1.2 0
21.307 -19.032 12.074 -0 -1.2 0
21.033 -19.448 11.914 -0 -1.2 0
20.753 -19.86 11.75 -0 -1.2 0
20.467 -20.265 11.583 -0 -1.2 0
20.176 -20.665 11.413 -0 -1.2 0
19.877 -21.059 11.239 -0 -1.2 0
19.573 -21.447 11.062 -0 -1.2 0
21.915 -18.601 11.605 -0 -1.2 0
21.365 -19.441 11.305 -0 -1.2 0
21.08 -19.852 11.152 -0 -1.2 0
20.789 -20.257 10.994 -0 -1.2 0
20.491 -20.657 10.834 -0 -1.2 0
20.187 -21.051 10.67 -0 -1.2 0
19.877 -21.44 10.504 -0 -1.2 0
22.794 -17.733 11.18 -0 -1.2 0
21.7 -19.434 10.635 -0 -1.2 0
21.41 -19.845 10.491 -0 -1.2 0
21.113 -20.251 10.344 -0 -1.2 0
20.811 -20.651 10.195 -0 -1.2 0
20.501 -21.045 10.043 -0 -1.2 0
20.186 -21.433 9.887 -0 -1.2 0
21.698 -19.838 9.869 -0 -1.2 0
21.396 -20.244 9.732 -0 -1.2 0
21.089 -20.644 9.593 -0 -1.2 0
20.775 -21.038 9.451 -0 -1.2 0
20.454 -21.427 9.307 -0 -1.2 0
22.844 -18.582 9.594 -0 -1.2 0
22.558 -19.005 9.476 -0 -1.2 0
21.967 -19.834 9.231 -0 -1.2 0
21.661 -20.24 9.106 -0 -1.2 0
21.349 -20.64 8.977 -0 -1.2 0
21.03 -21.034 8.846 -0 -1.2 0
20.705 -21.423 8.713 -0 -1.2 0
22.537 -19.422 8.637 -0 -1.2 0
22.233 -19.834 8.525 -0 -1.2 0
21.923 -20.239 8.41 -0 -1.2 0
21.607 -20.64 8.292 -0 -1.2 0
21.283 -21.034 8.173 -0 -1.2 0
20.953 -21.423 8.052 -0 -1.2 0
22.141 -20.241 7.768 -0 -1.2 0
21.821 -20.641 7.662 -0 -1.2 0
21.494 -21.035 7.553 -0 -1.2 0
21.161 -21.424 7.442 -0 -1.2 0
22.013 -20.644 7.027 -0 -1.2 0
21.683 -21.038 6.93 -0 -1.2 0
21.346 -21.427 6.83 -0 -1.2 0
22.846 -19.842 6.504 -0 -1.2 0
22.526 -20.248 6.422 -0 -1.2 0
22.199 -20.648 6.337 -0 -1.2 0
21.865 -21.042 6.251 -0 -1.2 0
21.524 -21.431 6.163 -0 -1.2 0
23.316 -19.436 5.907 -0 -1.2 0
22.678 -20.253 5.765 -0 -1.2 0
22.347 -20.653 5.691 -0 -1.2 0
22.011 -21.047 5.616 -0 -1.2 0
21.668 -21.436 5.539 -0 -1.2 0
25.518 -15.751 -6.559 -0 -1.2 0
25.265 -16.205 -6.498 -0 -1.2 0
25.005 -16.655 -6.436 -0 -1.2 0
24.737 -17.1 -6.373 -0 -1.2 0
24.461 -17.541 -6.308 -0 -1.2 0
24.178 -17.976 -6.241 -0 -1.2 0
23.887 -18.406 -6.172 -0 -1.2 0
23.59 -18.831 -6.102 -0 -1.2 0
23.285 -19.251 -6.03 -0 -1.2 0
22.973 -19.665 -5.957 -0 -1.2 0
22.654 -20.073 -5.882 -0 -1.2 0
22.328 -20.475 -5.806 -0 -1.2 0
21.996 -20.872 -5.728 -0 -1.2 0
21.656 -21.263 -5.648 -0 -1.2 0
21.31 -21.648 -5.567 -0 -1.2 0
25.357 -15.74 -7.255 -0 -1.2 0
25.107 -16.195 -7.188 -0 -1.2 0
24.848 -16.645 -7.117 -0 -1.2 0
24.582 -17.09 -7.046 -0 -1.2 0
24.309 -17.531 -6.973 -0 -1.2 0
24.029 -17.966 -6.898 -0 -1.2 0
23.741 -18.397 -6.82 -0 -1.2 0
23.445 -18.821 -6.74 -0 -1.2 0
23.143 -19.241 -6.659 -0 -1.2 0
22.834 -19.655 -6.577 -0 -1.2 0
22.517 -20.064 -6.492 -0 -1.2 0
22.194 -20.466 -6.406 -0 -1.2 0
21.864 -20.863 -6.317 -0 -1.2 0
21.527 -21.254 -6.228 -0 -1.2 0
21.184 -21.639 -6.137 -0 -1.2 0
25.179 -15.73 -7.936 -0 -1.2 0
24.93 -16.185 -7.861 -0 -1.2 0
24.675 -16.635 -7.784 -0 -1.2 0
24.411 -17.08 -7.703 -0 -1.2 0
24.141 -17.521 -7.622 -0 -1.2 0
23.863 -17.957 -7.538 -0 -1.2 0
23.577 -18.387 -7.452 -0 -1.2 0
23.284 -18.812 -7.363 -0 -1.2 0
22.985 -19.232 -7.274 -0 -1.2 0
22.678 -19.646 -7.181 -0 -1.2 0
22.365 -20.055 -7.088 -0 -1.2 0
22.044 -20.458 -6.992 -0 -1.2 0
21.717 -20.854 -6.894 -0 -1.2 0
21.383 -21.246 -6.794 -0 -1.2 0
21.044 -21.631 -6.693 -0 -1.2 0
24.964 -15.723 -8.664 -0 -1.2 0
24.719 -16.178 -8.581 -0 -1.2 0
24.466 -16.629 -8.495 -0 -1.2 0
24.205 -17.073 -8.407 -0 -1.2 0
23.937 -17.515 -8.316 -0 -1.2 0
23.662 -17.95 -8.223 -0 -1.2 0
23.38 -18.381 -8.128 -0 -1.2 0
23.09 -18.806 -8.03 -0 -1.2 0
