# .PCD v.7 - Point Cloud Data file format
FIELDS x y z vp_x vp_y vp_z
SIZE 4 4 4 4 4 4
TYPE F F F F F F
COUNT 1 1 1 1 1 1
WIDTH 1674
HEIGHT 1
VIEWPOINT 0 -1.20013 0 1 0 0 0
POINTS 1674
DATA ascii
0.796 -5.031 13.229 -0 -1.2 0
0.591 -4.199 9.839 -0 -1.2 0
0.51 -3.933 8.497 -0 -1.2 0
0.783 -5.719 13.024 -0 -1.2 0
0.71 -5.516 11.812 -0 -1.2 0
0.546 -4.67 9.1 -0 -1.2 0
0.572 -5.042 9.551 -0 -1.2 0
0.558 -5.134 9.316 -0 -1.2 0
0.561 -5.352 9.373 -0 -1.2 0
0.535 -5.34 8.937 -0 -1.2 0
0.504 -5.278 8.434 -0 -1.2 0
0.538 -5.756 8.996 -0 -1.2 0
0.514 -5.748 8.616 -0 -1.2 0
0.532 -6.113 8.915 -0 -1.2 0
0.528 -6.276 8.844 -0 -1.2 0
0.613 -7.362 10.264 -0 -1.2 0
0.605 -7.532 10.145 -0 -1.2 0
0.584 -7.545 9.792 -0 -1.2 0
0.645 -8.499 10.811 -0 -1.2 0
0.567 -7.844 9.512 -0 -1.2 0
0.559 -8.007 9.393 -0 -1.2 0
0.594 -8.712 9.975 -0 -1.2 0
0.6 -9.076 10.083 -0 -1.2 0
0.113 0.017 1.217 -0 -1.2 0
0.117 0.019 1.257 -0 -1.2 0
0.12 0.013 1.291 -0 -1.2 0
0.124 0.02 1.339 -0 -1.2 0
0.128 0.019 1.38 -0 -1.2 0
0.133 0.025 1.429 -0 -1.2 0
0.137 0.021 1.472 -0 -1.2 0
0.142 0.023 1.522 -0 -1.2 0
0.147 0.024 1.573 -0 -1.2 0
0.153 0.029 1.631 -0 -1.2 0
0.158 0.026 1.683 -0 -1.2 0
0.163 0.029 1.743 -0 -1.2 0
0.169 0.028 1.804 -0 -1.2 0
0.174 0.021 1.856 -0 -1.2 0
0.18 0.023 1.926 -0 -1.2 0
0.188 0.028 2.005 -0 -1.2 0
0.195 0.025 2.076 -0 -1.2 0
0.202 0.021 2.147 -0 -1.2 0
0.211 0.029 2.245 -0 -1.2 0
0.222 0.038 2.353 -0 -1.2 0
0.232 0.039 2.453 -0 -1.2 0
0.241 0.042 2.563 -0 -1.2 0
0.252 0.04 2.673 -0 -1.2 0
0.265 0.043 2.802 -0 -1.2 0
0.277 0.042 2.932 -0 -1.2 0
0.291 0.044 3.081 -0 -1.2 0
0.306 0.041 3.232 -0 -1.2 0
0.322 0.04 3.401 -0 -1.2 0
0.34 0.036 3.581 -0 -1.2 0
0.361 0.041 3.809 -0 -1.2 0
0.383 0.035 4.029 -0 -1.2 0
0.407 0.033 4.289 -0 -1.2 0
0.433 0.026 4.559 -0 -1.2 0
0.467 0.028 4.917 -0 -1.2 0
0.503 0.021 5.286 -0 -1.2 0
0.549 0.023 5.763 -0 -1.2 0
0.611 0.039 6.409 -0 -1.2 0
0.491 -0.276 5.17 -0 -1.2 0
0.491 -0.366 5.174 -0 -1.2 0
0.809 -0.029 8.484 -0 -1.2 0
0.783 -0.206 8.225 -0 -1.2 0
0.78 -0.353 8.179 -0 -1.2 0
0.782 -0.492 8.221 -0 -1.2 0
1.279 -0.333 13.398 -0 -1.2 0
1.232 -0.586 12.912 -0 -1.2 0
0.817 -0.909 8.59 -0 -1.2 0
0.768 -1.059 8.074 -0 -1.2 0
2.466 -1.412 25.802 -0 -1.2 0
2.498 -1.872 26.151 -0 -1.2 0
2.503 -2.331 26.214 -0 -1.2 0
2.499 -2.788 26.188 -0 -1.2 0
2.497 -3.246 26.175 -0 -1.2 0
2.498 -3.707 26.193 -0 -1.2 0
2.476 -4.143 25.966 -0 -1.2 0
2.471 -4.598 25.929 -0 -1.2 0
2.47 -5.06 25.933 -0 -1.2 0
2.489 -5.558 26.136 -0 -1.2 0
2.5 -6.052 26.259 -0 -1.2 0
2.498 -6.525 26.248 -0 -1.2 0
1.068 -3.615 11.262 -0 -1.2 0
0.938 -3.49 9.91 -0 -1.2 0
0.969 -3.76 10.242 -0 -1.2 0
1.308 -4.956 13.809 -0 -1.2 0
1.269 -5.091 13.396 -0 -1.2 0
0.988 -4.402 10.451 -0 -1.2 0
0.923 -4.371 9.77 -0 -1.2 0
1.189 -5.566 12.57 -0 -1.2 0
0.799 -4.258 8.468 -0 -1.2 0
0.778 -4.339 8.255 -0 -1.2 0
0.754 -4.404 8.013 -0 -1.2 0
0.856 -5.036 9.076 -0 -1.2 0
0.911 -5.496 9.667 -0 -1.2 0
0.909 -5.693 9.652 -0 -1.2 0
0.818 -5.419 8.699 -0 -1.2 0
0.783 -5.415 8.332 -0 -1.2 0
0.992 -6.815 10.544 -0 -1.2 0
1.002 -7.12 10.659 -0 -1.2 0
0.91 -6.788 9.689 -0 -1.2 0
0.922 -7.096 9.817 -0 -1.2 0
1.416 -10.71 15.058 -0 -1.2 0
1.333 -10.499 14.184 -0 -1.2 0
0.902 -7.687 9.623 -0 -1.2 0
0.89 -7.853 9.507 -0 -1.2 0
1.006 -9.025 10.738 -0 -1.2 0
0.877 -8.262 9.377 -0 -1.2 0
0.152 0.016 1.225 -0 -1.2 0
0.157 0.018 1.266 -0 -1.2 0
0.161 0.013 1.299 -0 -1.2 0
0.168 0.02 1.347 -0 -1.2 0
0.173 0.019 1.388 -0 -1.2 0
0.179 0.017 1.43 -0 -1.2 0
0.185 0.021 1.479 -0 -1.2 0
0.192 0.022 1.529 -0 -1.2 0
0.197 0.023 1.58 -0 -1.2 0
0.204 0.023 1.631 -0 -1.2 0
0.211 0.02 1.682 -0 -1.2 0
0.219 0.022 1.742 -0 -1.2 0
0.226 0.023 1.802 -0 -1.2 0
0.234 0.021 1.862 -0 -1.2 0
0.241 0.017 1.923 -0 -1.2 0
0.252 0.022 2.002 -0 -1.2 0
0.261 0.021 2.072 -0 -1.2 0
0.272 0.021 2.152 -0 -1.2 0
0.283 0.024 2.241 -0 -1.2 0
0.296 0.033 2.349 -0 -1.2 0
0.309 0.034 2.448 -0 -1.2 0
0.324 0.036 2.557 -0 -1.2 0
0.338 0.035 2.667 -0 -1.2 0
0.355 0.043 2.805 -0 -1.2 0
0.374 0.045 2.943 -0 -1.2 0
0.39 0.04 3.073 -0 -1.2 0
0.409 0.037 3.224 -0 -1.2 0
0.43 0.033 3.383 -0 -1.2 0
0.454 0.032 3.572 -0 -1.2 0
0.484 0.037 3.799 -0 -1.2 0
0.512 0.032 4.018 -0 -1.2 0
0.544 0.027 4.267 -0 -1.2 0
0.58 0.021 4.546 -0 -1.2 0
0.626 0.024 4.902 -0 -1.2 0
0.652 -0.017 5.105 -0 -1.2 0
0.731 0.016 5.727 -0 -1.2 0
0.815 0.032 6.37 -0 -1.2 0
0.625 -0.322 4.901 -0 -1.2 0
1.022 0.045 7.975 -0 -1.2 0
1.065 -0.052 8.309 -0 -1.2 0
1.396 0.088 10.879 -0 -1.2 0
0.633 -0.654 4.972 -0 -1.2 0
1.666 -0.132 12.98 -0 -1.2 0
1.651 -0.366 12.867 -0 -1.2 0
1.668 -0.583 13.007 -0 -1.2 0
3.323 -0.516 25.844 -0 -1.2 0
0.565 -1.08 4.458 -0 -1.2 0
3.317 -1.419 25.819 -0 -1.2 0
3.331 -1.874 25.939 -0 -1.2 0
3.332 -2.33 25.961 -0 -1.2 0
3.331 -2.786 25.967 -0 -1.2 0
3.336 -3.246 26.012 -0 -1.2 0
3.336 -3.705 26.021 -0 -1.2 0
3.326 -4.157 25.952 -0 -1.2 0
3.322 -4.615 25.926 -0 -1.2 0
3.319 -5.076 25.92 -0 -1.2 0
3.331 -5.559 26.023 -0 -1.2 0
3.338 -6.042 26.088 -0 -1.2 0
3.341 -6.523 26.125 -0 -1.2 0
1.943 -4.526 15.229 -0 -1.2 0
3.343 -7.492 26.163 -0 -1.2 0
1.628 -4.44 12.78 -0 -1.2 0
1.702 -4.842 13.36 -0 -1.2 0
1.323 -4.204 10.415 -0 -1.2 0
1.366 -4.508 10.747 -0 -1.2 0
1.356 -4.691 10.677 -0 -1.2 0
1.323 -4.804 10.418 -0 -1.2 0
1.433 -5.341 11.289 -0 -1.2 0
1.401 -5.466 11.039 -0 -1.2 0
1.236 -5.147 9.754 -0 -1.2 0
2.023 -8.08 15.932 -0 -1.2 0
1.254 -5.62 9.906 -0 -1.2 0
1.196 -5.613 9.459 -0 -1.2 0
1.163 -5.686 9.203 -0 -1.2 0
1.113 -5.682 8.815 -0 -1.2 0
1.053 -5.617 8.343 -0 -1.2 0
1.055 -5.82 8.367 -0 -1.2 0
1.099 -6.224 8.719 -0 -1.2 0
1.171 -6.783 9.287 -0 -1.2 0
1.218 -7.251 9.664 -0 -1.2 0
1.177 -7.273 9.341 -0 -1.2 0
1.211 -7.954 9.622 -0 -1.2 0
1.362 -9.111 10.822 -0 -1.2 0
1.291 -9.268 10.275 -0 -1.2 0
0.193 0.023 1.238 -0 -1.2 0
0.199 0.018 1.271 -0 -1.2 0
0.204 0.013 1.304 -0 -1.2 0
0.212 0.02 1.352 -0 -1.2 0
0.218 0.019 1.393 -0 -1.2 0
0.225 0.017 1.435 -0 -1.2 0
0.233 0.021 1.484 -0 -1.2 0
0.24 0.016 1.526 -0 -1.2 0
0.25 0.023 1.584 -0 -1.2 0
0.258 0.028 1.643 -0 -1.2 0
0.264 0.014 1.677 -0 -1.2 0
0.276 0.022 1.745 -0 -1.2 0
0.284 0.016 1.797 -0 -1.2 0
0.294 0.015 1.858 -0 -1.2 0
0.306 0.017 1.927 -0 -1.2 0
0.318 0.022 2.005 -0 -1.2 0
0.329 0.02 2.075 -0 -1.2 0
0.341 0.016 2.146 -0 -1.2 0
0.355 0.018 2.234 -0 -1.2 0
0.371 0.023 2.332 -0 -1.2 0
0.391 0.034 2.449 -0 -1.2 0
0.406 0.031 2.548 -0 -1.2 0
0.424 0.03 2.657 -0 -1.2 0
0.444 0.03 2.776 -0 -1.2 0
0.469 0.041 2.932 -0 -1.2 0
0.491 0.035 3.062 -0 -1.2 0
0.515 0.032 3.21 -0 -1.2 0
0.54 0.028 3.37 -0 -1.2 0
0.573 0.031 3.567 -0 -1.2 0
0.608 0.033 3.784 -0 -1.2 0
0.64 0.023 3.982 -0 -1.2 0
0.68 0.018 4.23 -0 -1.2 0
0.73 0.02 4.536 -0 -1.2 0
0.783 0.017 4.862 -0 -1.2 0
0.763 -0.097 4.736 -0 -1.2 0
0.764 -0.18 4.742 -0 -1.2 0
1.017 0.02 6.292 -0 -1.2 0
1.136 0.03 7.022 -0 -1.2 0
1.271 0.027 7.851 -0 -1.2 0
0.763 -0.511 4.746 -0 -1.2 0
0.764 -0.592 4.756 -0 -1.2 0
0.767 -0.673 4.774 -0 -1.2 0
0.766 -0.755 4.771 -0 -1.2 0
0.762 -0.838 4.746 -0 -1.2 0
2.292 -0.54 14.129 -0 -1.2 0
0.781 -0.997 4.871 -0 -1.2 0
0.781 -1.08 4.873 -0 -1.2 0
0.694 -1.156 4.339 -0 -1.2 0
0.687 -1.228 4.299 -0 -1.2 0
0.689 -1.301 4.316 -0 -1.2 0
4.075 -2.744 25.124 -0 -1.2 0
4.073 -3.187 25.121 -0 -1.2 0
4.073 -3.633 25.131 -0 -1.2 0
4.07 -4.079 25.123 -0 -1.2 0
4.069 -4.528 25.126 -0 -1.2 0
4.067 -4.978 25.122 -0 -1.2 0
4.065 -5.43 25.121 -0 -1.2 0
4.063 -5.885 25.12 -0 -1.2 0
2.124 -3.834 13.174 -0 -1.2 0
4.058 -6.804 25.114 -0 -1.2 0
4.056 -7.268 25.108 -0 -1.2 0
1.754 -3.958 10.906 -0 -1.2 0
1.918 -4.45 11.919 -0 -1.2 0
2.151 -5.118 13.373 -0 -1.2 0
1.678 -4.429 10.453 -0 -1.2 0
2.052 -5.425 12.769 -0 -1.2 0
1.839 -5.198 11.457 -0 -1.2 0
1.602 -4.866 9.999 -0 -1.2 0
2.023 -6.12 12.612 -0 -1.2 0
2.126 -6.648 13.251 -0 -1.2 0
1.365 -4.827 8.545 -0 -1.2 0
1.406 -5.125 8.802 -0 -1.2 0
1.519 -5.655 9.506 -0 -1.2 0
1.761 -6.628 11.013 -0 -1.2 0
1.451 -5.847 9.09 -0 -1.2 0
1.44 -6.014 9.024 -0 -1.2 0
1.369 -5.97 8.595 -0 -1.2 0
1.264 -5.776 7.941 -0 -1.2 0
1.588 -7.232 9.968 -0 -1.2 0
1.527 -7.226 9.586 -0 -1.2 0
1.522 -7.447 9.562 -0 -1.2 0
1.546 -7.8 9.72 -0 -1.2 0
1.601 -8.306 10.067 -0 -1.2 0
1.701 -9.659 10.715 -0 -1.2 0
0.235 0.024 1.243 -0 -1.2 0
0.24 0.012 1.27 -0 -1.2 0
0.248 0.014 1.31 -0 -1.2 0
0.258 0.021 1.358 -0 -1.2 0
0.266 0.02 1.398 -0 -1.2 0
0.275 0.018 1.439 -0 -1.2 0
0.282 0.015 1.481 -0 -1.2 0
0.292 0.017 1.53 -0 -1.2 0
0.302 0.018 1.58 -0 -1.2 0
0.313 0.017 1.63 -0 -1.2 0
0.325 0.027 1.696 -0 -1.2 0
0.334 0.017 1.739 -0 -1.2 0
0.346 0.017 1.799 -0 -1.2 0
0.358 0.016 1.858 -0 -1.2 0
0.37 0.013 1.919 -0 -1.2 0
0.386 0.018 1.996 -0 -1.2 0
0.4 0.016 2.066 -0 -1.2 0
0.415 0.017 2.145 -0 -1.2 0
0.433 0.019 2.233 -0 -1.2 0
0.453 0.024 2.331 -0 -1.2 0
0.47 0.021 2.42 -0 -1.2 0
0.494 0.028 2.536 -0 -1.2 0
0.515 0.027 2.644 -0 -1.2 0
0.537 0.023 2.753 -0 -1.2 0
0.566 0.03 2.899 -0 -1.2 0
0.595 0.033 3.046 -0 -1.2 0
0.628 0.033 3.203 -0 -1.2 0
0.659 0.029 3.361 -0 -1.2 0
0.698 0.032 3.557 -0 -1.2 0
0.741 0.034 3.772 -0 -1.2 0
0.78 0.024 3.971 -0 -1.2 0
0.828 0.017 4.206 -0 -1.2 0
0.887 0.017 4.5 -0 -1.2 0
0.955 0.018 4.844 -0 -1.2 0
1.033 0.018 5.236 -0 -1.2 0
1.124 0.016 5.687 -0 -1.2 0
0.877 -0.311 4.461 -0 -1.2 0
0.835 -0.425 4.251 -0 -1.2 0
0.827 -0.505 4.214 -0 -1.2 0
0.836 -0.572 4.263 -0 -1.2 0
0.844 -0.641 4.3 -0 -1.2 0
0.852 -0.71 4.347 -0 -1.2 0
0.859 -0.782 4.383 -0 -1.2 0
0.843 -0.862 4.299 -0 -1.2 0
0.835 -0.937 4.263 -0 -1.2 0
0.835 -1.009 4.266 -0 -1.2 0
0.839 -1.08 4.286 -0 -1.2 0
0.843 -1.154 4.306 -0 -1.2 0
0.842 -1.227 4.305 -0 -1.2 0
0.831 -1.298 4.252 -0 -1.2 0
0.822 -1.368 4.21 -0 -1.2 0
0.826 -1.442 4.233 -0 -1.2 0
0.833 -1.518 4.266 -0 -1.2 0
5.034 -4.119 25.325 -0 -1.2 0
5.021 -4.565 25.27 -0 -1.2 0
4.995 -5.002 25.15 -0 -1.2 0
5.031 -5.491 25.34 -0 -1.2 0
5.019 -5.944 25.29 -0 -1.2 0
4.978 -6.368 25.099 -0 -1.2 0
4.977 -6.832 25.1 -0 -1.2 0
4.969 -7.294 25.075 -0 -1.2 0
2.267 -4.129 11.496 -0 -1.2 0
2.554 -4.76 12.943 -0 -1.2 0
2.528 -5.218 12.829 -0 -1.2 0
2.439 -5.314 12.386 -0 -1.2 0
4.955 -10.192 25.073 -0 -1.2 0
2.398 -5.727 12.188 -0 -1.2 0
2.325 -5.826 11.825 -0 -1.2 0
2.145 -5.681 10.919 -0 -1.2 0
1.753 -5.023 8.944 -0 -1.2 0
1.759 -5.228 8.983 -0 -1.2 0
2.279 -6.712 11.616 -0 -1.2 0
1.695 -5.645 8.673 -0 -1.2 0
1.759 -6.022 8.998 -0 -1.2 0
1.722 -6.123 8.819 -0 -1.2 0
1.689 -6.23 8.656 -0 -1.2 0
1.616 -6.206 8.291 -0 -1.2 0
1.809 -7.052 9.277 -0 -1.2 0
1.735 -7.029 8.904 -0 -1.2 0
1.942 -8.003 9.963 -0 -1.2 0
1.858 -7.955 9.541 -0 -1.2 0
0.276 0.032 1.255 -0 -1.2 0
0.282 0.019 1.281 -0 -1.2 0
0.29 0.014 1.314 -0 -1.2 0
0.299 0.014 1.354 -0 -1.2 0
0.31 0.02 1.401 -0 -1.2 0
0.32 0.018 1.442 -0 -1.2 0
0.33 0.015 1.483 -0 -1.2 0
0.34 0.011 1.525 -0 -1.2 0
0.353 0.018 1.581 -0 -1.2 0
0.367 0.024 1.639 -0 -1.2 0
0.377 0.016 1.682 -0 -1.2 0
0.39 0.017 1.741 -0 -1.2 0
0.404 0.017 1.799 -0 -1.2 0
0.416 0.011 1.851 -0 -1.2 0
0.432 0.013 1.919 -0 -1.2 0
0.45 0.018 1.996 -0 -1.2 0
0.467 0.017 2.065 -0 -1.2 0
0.485 0.018 2.143 -0 -1.2 0
0.506 0.02 2.23 -0 -1.2 0
0.526 0.021 2.319 -0 -1.2 0
0.549 0.022 2.416 -0 -1.2 0
0.572 0.02 2.514 -0 -1.2 0
0.599 0.024 2.63 -0 -1.2 0
0.627 0.024 2.747 -0 -1.2 0
0.659 0.027 2.883 -0 -1.2 0
0.691 0.026 3.02 -0 -1.2 0
0.727 0.028 3.176 -0 -1.2 0
0.767 0.027 3.341 -0 -1.2 0
0.812 0.03 3.535 -0 -1.2 0
0.86 0.03 3.74 -0 -1.2 0
0.906 0.02 3.936 -0 -1.2 0
0.964 0.015 4.181 -0 -1.2 0
1.032 0.016 4.472 -0 -1.2 0
0.986 -0.11 4.283 -0 -1.2 0
0.99 -0.184 4.298 -0 -1.2 0
0.995 -0.255 4.323 -0 -1.2 0
0.998 -0.33 4.337 -0 -1.2 0
0.994 -0.408 4.321 -0 -1.2 0
0.989 -0.487 4.304 -0 -1.2 0
1.005 -0.553 4.371 -0 -1.2 0
0.986 -0.638 4.293 -0 -1.2 0
0.987 -0.711 4.3 -0 -1.2 0
0.966 -0.792 4.21 -0 -1.2 0
0.967 -0.864 4.214 -0 -1.2 0
0.944 -0.94 4.12 -0 -1.2 0
0.944 -1.01 4.123 -0 -1.2 0
0.948 -1.08 4.143 -0 -1.2 0
0.948 -1.151 4.143 -0 -1.2 0
0.957 -1.223 4.181 -0 -1.2 0
0.956 -1.294 4.178 -0 -1.2 0
0.957 -1.366 4.184 -0 -1.2 0
0.96 -1.439 4.198 -0 -1.2 0
0.967 -1.514 4.231 -0 -1.2 0
0.982 -1.596 4.301 -0 -1.2 0
0.991 -1.676 4.34 -0 -1.2 0
1 -1.757 4.378 -0 -1.2 0
5.916 -5.518 25.386 -0 -1.2 0
5.892 -5.967 25.298 -0 -1.2 0
5.843 -6.392 25.097 -0 -1.2 0
5.84 -6.859 25.099 -0 -1.2 0
5.835 -7.326 25.083 -0 -1.2 0
2.969 -4.5 12.823 -0 -1.2 0
2.91 -4.672 12.576 -0 -1.2 0
2.981 -5.007 12.887 -0 -1.2 0
3.06 -5.368 13.227 -0 -1.2 0
2.8 -5.242 12.12 -0 -1.2 0
2.712 -5.343 11.745 -0 -1.2 0
2.415 -5.087 10.478 -0 -1.2 0
2.619 -5.658 11.359 -0 -1.2 0
2.095 -4.928 9.114 -0 -1.2 0
2.085 -5.1 9.075 -0 -1.2 0
2.693 -6.528 11.697 -0 -1.2 0
2.615 -6.616 11.366 -0 -1.2 0
2.359 -6.298 10.27 -0 -1.2 0
2.031 -5.767 8.861 -0 -1.2 0
2.017 -6.139 8.807 -0 -1.2 0
2.154 -6.938 9.41 -0 -1.2 0
1.908 -6.47 8.35 -0 -1.2 0
2.395 -8.398 10.471 -0 -1.2 0
1.904 -7.111 8.352 -0 -1.2 0
0.313 0.025 1.25 -0 -1.2 0
0.321 0.02 1.282 -0 -1.2 0
0.328 0.007 1.309 -0 -1.2 0
0.343 0.022 1.363 -0 -1.2 0
0.354 0.02 1.403 -0 -1.2 0
0.362 0.012 1.436 -0 -1.2 0
0.376 0.015 1.484 -0 -1.2 0
0.387 0.011 1.525 -0 -1.2 0
0.401 0.013 1.573 -0 -1.2 0
0.413 0.012 1.623 -0 -1.2 0
0.429 0.016 1.68 -0 -1.2 0
0.444 0.018 1.738 -0 -1.2 0
0.458 0.013 1.789 -0 -1.2 0
0.474 0.011 1.848 -0 -1.2 0
0.49 0.009 1.907 -0 -1.2 0
0.511 0.013 1.983 -0 -1.2 0
0.529 0.012 2.052 -0 -1.2 0
0.55 0.013 2.129 -0 -1.2 0
0.573 0.016 2.215 -0 -1.2 0
0.598 0.016 2.303 -0 -1.2 0
0.623 0.018 2.4 -0 -1.2 0
0.65 0.017 2.497 -0 -1.2 0
0.681 0.021 2.612 -0 -1.2 0
0.715 0.025 2.736 -0 -1.2 0
0.748 0.025 2.863 -0 -1.2 0
0.785 0.024 2.998 -0 -1.2 0
0.829 0.029 3.161 -0 -1.2 0
0.871 0.025 3.317 -0 -1.2 0
0.921 0.025 3.5 -0 -1.2 0
0.979 0.028 3.712 -0 -1.2 0
1.028 0.016 3.898 -0 -1.2 0
1.081 -0.001 4.093 -0 -1.2 0
1.161 0.002 4.391 -0 -1.2 0
1.248 0 4.71 -0 -1.2 0
1.372 0.019 5.172 -0 -1.2 0
1.069 -0.305 4.054 -0 -1.2 0
1.079 -0.37 4.096 -0 -1.2 0
1.1 -0.429 4.174 -0 -1.2 0
1.113 -0.495 4.223 -0 -1.2 0
1.092 -0.579 4.147 -0 -1.2 0
1.083 -0.654 4.117 -0 -1.2 0
1.079 -0.727 4.104 -0 -1.2 0
1.149 -0.778 4.361 -0 -1.2 0
1.105 -0.862 4.202 -0 -1.2 0
1.064 -0.941 4.051 -0 -1.2 0
1.061 -1.01 4.044 -0 -1.2 0
1.064 -1.079 4.055 -0 -1.2 0
1.066 -1.149 4.064 -0 -1.2 0
1.104 -1.222 4.207 -0 -1.2 0
1.113 -1.297 4.243 -0 -1.2 0
1.119 -1.371 4.269 -0 -1.2 0
1.128 -1.448 4.302 -0 -1.2 0
1.139 -1.527 4.344 -0 -1.2 0
1.151 -1.608 4.394 -0 -1.2 0
6.8 -4.609 25.36 -0 -1.2 0
6.792 -5.538 25.353 -0 -1.2 0
6.752 -5.98 25.218 -0 -1.2 0
6.714 -6.421 25.085 -0 -1.2 0
6.711 -6.892 25.087 -0 -1.2 0
6.709 -7.367 25.089 -0 -1.2 0
3.219 -4.325 12.106 -0 -1.2 0
6.697 -8.321 25.069 -0 -1.2 0
3.123 -4.682 11.759 -0 -1.2 0
6.703 -9.315 25.116 -0 -1.2 0
2.812 -4.738 10.608 -0 -1.2 0
2.723 -4.828 10.282 -0 -1.2 0
6.68 -10.808 25.067 -0 -1.2 0
2.365 -4.698 8.957 -0 -1.2 0
2.512 -5.122 9.51 -0 -1.2 0
2.818 -5.843 10.662 -0 -1.2 0
2.908 -6.231 11.002 -0 -1.2 0
2.62 -5.936 9.93 -0 -1.2 0
2.869 -6.641 10.866 -0 -1.2 0
2.591 -6.322 9.831 -0 -1.2 0
2.301 -5.933 8.75 -0 -1.2 0
2.706 -7.533 10.288 -0 -1.2 0
2.524 -7.336 9.608 -0 -1.2 0
2.571 -7.705 9.792 -0 -1.2 0
2.768 -8.491 10.538 -0 -1.2 0
0.352 0.018 1.246 -0 -1.2 0
0.362 0.013 1.278 -0 -1.2 0
0.375 0.015 1.316 -0 -1.2 0
0.386 0.015 1.356 -0 -1.2 0
0.399 0.015 1.396 -0 -1.2 0
0.411 0.013 1.436 -0 -1.2 0
0.426 0.016 1.484 -0 -1.2 0
0.438 0.012 1.524 -0 -1.2 0
0.454 0.013 1.572 -0 -1.2 0
0.47 0.018 1.629 -0 -1.2 0
0.484 0.01 1.67 -0 -1.2 0
0.499 0.007 1.72 -0 -1.2 0
0.516 0.007 1.778 -0 -1.2 0
0.537 0.012 1.844 -0 -1.2 0
0.555 0.009 1.903 -0 -1.2 0
0.579 0.014 1.978 -0 -1.2 0
0.597 0.007 2.037 -0 -1.2 0
0.624 0.014 2.123 -0 -1.2 0
0.65 0.017 2.208 -0 -1.2 0
0.673 0.013 2.286 -0 -1.2 0
0.706 0.019 2.39 -0 -1.2 0
0.736 0.017 2.485 -0 -1.2 0
0.771 0.021 2.6 -0 -1.2 0
0.806 0.021 2.715 -0 -1.2 0
0.845 0.021 2.839 -0 -1.2 0
0.886 0.021 2.974 -0 -1.2 0
0.931 0.019 3.117 -0 -1.2 0
0.984 0.022 3.288 -0 -1.2 0
1.035 0.016 3.452 -0 -1.2 0
1.102 0.023 3.67 -0 -1.2 0
1.165 0.017 3.872 -0 -1.2 0
1.215 -0.007 4.038 -0 -1.2 0
1.194 -0.099 3.972 -0 -1.2 0
1.421 0.009 4.705 -0 -1.2 0
1.554 0.021 5.133 -0 -1.2 0
1.221 -0.297 4.065 -0 -1.2 0
1.858 0.022 6.117 -0 -1.2 0
2.024 0.004 6.653 -0 -1.2 0
2.283 0.013 7.493 -0 -1.2 0
1.183 -0.601 3.949 -0 -1.2 0
1.194 -0.665 3.985 -0 -1.2 0
1.172 -0.741 3.916 -0 -1.2 0
1.242 -0.863 4.146 -0 -1.2 0
1.254 -0.933 4.187 -0 -1.2 0
1.251 -1.005 4.18 -0 -1.2 0
1.272 -1.076 4.248 -0 -1.2 0
7.69 -1.395 25.028 -0 -1.2 0
7.708 -1.851 25.097 -0 -1.2 0
7.7 -2.305 25.082 -0 -1.2 0
7.695 -2.761 25.078 -0 -1.2 0
7.694 -3.218 25.085 -0 -1.2 0
7.691 -3.675 25.086 -0 -1.2 0
7.685 -4.133 25.078 -0 -1.2 0
7.685 -4.596 25.09 -0 -1.2 0
7.68 -5.058 25.086 -0 -1.2 0
7.679 -5.525 25.092 -0 -1.2 0
7.666 -5.988 25.064 -0 -1.2 0
7.663 -6.458 25.063 -0 -1.2 0
7.659 -6.933 25.064 -0 -1.2 0
7.656 -7.411 25.067 -0 -1.2 0
7.654 -7.894 25.07 -0 -1.2 0
7.651 -8.382 25.073 -0 -1.2 0
7.645 -8.872 25.068 -0 -1.2 0
7.64 -9.366 25.063 -0 -1.2 0
3.112 -4.654 10.291 -0 -1.2 0
7.627 -10.369 25.044 -0 -1.2 0
7.624 -10.884 25.048 -0 -1.2 0
2.859 -4.942 9.479 -0 -1.2 0
7.612 -11.926 25.036 -0 -1.2 0
7.608 -12.462 25.036 -0 -1.2 0
3.224 -6.123 10.693 -0 -1.2 0
2.719 -7.264 9.083 -0 -1.2 0
2.674 -7.395 8.94 -0 -1.2 0
0.388 0.011 1.239 -0 -1.2 0
0.402 0.014 1.277 -0 -1.2 0
0.412 0.009 1.309 -0 -1.2 0
0.426 0.009 1.348 -0 -1.2 0
0.445 0.022 1.401 -0 -1.2 0
0.458 0.02 1.44 -0 -1.2 0
0.472 0.017 1.481 -0 -1.2 0
0.486 0.013 1.521 -0 -1.2 0
0.499 0.008 1.561 -0 -1.2 0
0.519 0.013 1.617 -0 -1.2 0
0.535 0.012 1.665 -0 -1.2 0
0.555 0.014 1.722 -0 -1.2 0
0.572 0.008 1.772 -0 -1.2 0
0.595 0.013 1.837 -0 -1.2 0
0.615 0.01 1.895 -0 -1.2 0
0.638 0.01 1.961 -0 -1.2 0
0.661 0.009 2.029 -0 -1.2 0
0.694 0.02 2.121 -0 -1.2 0
0.72 0.018 2.197 -0 -1.2 0
0.743 0.009 2.266 -0 -1.2 0
0.782 0.021 2.377 -0 -1.2 0
0.815 0.019 2.472 -0 -1.2 0
0.851 0.019 2.576 -0 -1.2 0
0.89 0.02 2.691 -0 -1.2 0
0.93 0.015 2.804 -0 -1.2 0
0.978 0.019 2.945 -0 -1.2 0
1.027 0.018 3.088 -0 -1.2 0
1.083 0.018 3.248 -0 -1.2 0
1.145 0.018 3.428 -0 -1.2 0
1.22 0.025 3.645 -0 -1.2 0
1.289 0.019 3.844 -0 -1.2 0
1.368 0.012 4.071 -0 -1.2 0
1.471 0.018 4.373 -0 -1.2 0
1.58 0.016 4.685 -0 -1.2 0
1.713 0.019 5.072 -0 -1.2 0
1.861 0.017 5.498 -0 -1.2 0
2.05 0.021 6.046 -0 -1.2 0
2.246 0.01 6.613 -0 -1.2 0
2.511 0.009 7.378 -0 -1.2 0
2.948 0.047 8.643 -0 -1.2 0
3.435 0.056 10.05 -0 -1.2 0
4.127 0.072 12.053 -0 -1.2 0
4.588 -0.039 13.39 -0 -1.2 0
4.537 -0.292 13.246 -0 -1.2 0
4.493 -0.538 13.126 -0 -1.2 0
4.814 -0.752 14.06 -0 -1.2 0
8.875 -0.927 25.812 -0 -1.2 0
8.868 -1.4 25.803 -0 -1.2 0
8.89 -1.874 25.88 -0 -1.2 0
8.881 -2.348 25.865 -0 -1.2 0
8.882 -2.822 25.879 -0 -1.2 0
8.877 -3.299 25.877 -0 -1.2 0
8.869 -3.774 25.866 -0 -1.2 0
8.861 -4.251 25.857 -0 -1.2 0
8.861 -4.733 25.868 -0 -1.2 0
8.854 -5.215 25.861 -0 -1.2 0
8.852 -5.701 25.865 -0 -1.2 0
8.846 -6.188 25.862 -0 -1.2 0
8.841 -6.678 25.858 -0 -1.2 0
8.832 -7.17 25.846 -0 -1.2 0
8.827 -7.667 25.845 -0 -1.2 0
8.826 -8.172 25.852 -0 -1.2 0
8.816 -8.672 25.834 -0 -1.2 0
8.814 -9.186 25.842 -0 -1.2 0
8.806 -9.7 25.833 -0 -1.2 0
4.661 -5.916 13.748 -0 -1.2 0
5.213 -6.806 15.368 -0 -1.2 0
5.075 -6.964 14.972 -0 -1.2 0
0.428 0.019 1.245 -0 -1.2 0
0.442 0.021 1.282 -0 -1.2 0
0.454 0.016 1.314 -0 -1.2 0
0.469 0.016 1.352 -0 -1.2 0
0.483 0.016 1.39 -0 -1.2 0
0.501 0.02 1.436 -0 -1.2 0
0.516 0.017 1.477 -0 -1.2 0
0.534 0.019 1.524 -0 -1.2 0
0.55 0.014 1.563 -0 -1.2 0
0.568 0.014 1.611 -0 -1.2 0
0.59 0.018 1.666 -0 -1.2 0
0.608 0.014 1.716 -0 -1.2 0
0.627 0.009 1.764 -0 -1.2 0
0.651 0.013 1.829 -0 -1.2 0
0.674 0.011 1.886 -0 -1.2 0
0.698 0.01 1.952 -0 -1.2 0
0.727 0.014 2.026 -0 -1.2 0
0.758 0.021 2.109 -0 -1.2 0
0.788 0.018 2.184 -0 -1.2 0
0.814 0.009 2.252 -0 -1.2 0
0.856 0.021 2.362 -0 -1.2 0
0.892 0.02 2.456 -0 -1.2 0
0.928 0.015 2.551 -0 -1.2 0
0.967 0.012 2.654 -0 -1.2 0
1.014 0.013 2.776 -0 -1.2 0
1.068 0.016 2.915 -0 -1.2 0
1.125 0.018 3.064 -0 -1.2 0
1.186 0.018 3.223 -0 -1.2 0
1.257 0.022 3.409 -0 -1.2 0
1.321 0.014 3.578 -0 -1.2 0
1.407 0.016 3.802 -0 -1.2 0
1.501 0.016 4.045 -0 -1.2 0
1.615 0.022 4.343 -0 -1.2 0
1.737 0.021 4.66 -0 -1.2 0
1.877 0.02 5.025 -0 -1.2 0
2.045 0.021 5.463 -0 -1.2 0
2.242 0.022 5.978 -0 -1.2 0
2.463 0.013 6.556 -0 -1.2 0
2.796 0.029 7.423 -0 -1.2 0
3.207 0.042 8.496 -0 -1.2 0
3.773 0.062 9.971 -0 -1.2 0
4.542 0.081 11.978 -0 -1.2 0
6.087 0.191 16.008 -0 -1.2 0
5.158 -0.258 13.595 -0 -1.2 0
5.139 -0.51 13.552 -0 -1.2 0
5.176 -0.755 13.653 -0 -1.2 0
9.838 -0.919 25.825 -0 -1.2 0
9.82 -1.396 25.788 -0 -1.2 0
9.923 -1.882 26.069 -0 -1.2 0
9.934 -2.367 26.111 -0 -1.2 0
9.927 -2.851 26.107 -0 -1.2 0
9.918 -3.336 26.094 -0 -1.2 0
9.906 -3.82 26.074 -0 -1.2 0
9.823 -4.283 25.869 -0 -1.2 0
9.818 -4.769 25.871 -0 -1.2 0
9.803 -5.253 25.845 -0 -1.2 0
9.892 -5.788 26.089 -0 -1.2 0
9.885 -6.284 26.084 -0 -1.2 0
5.965 -4.525 15.809 -0 -1.2 0
5.735 -4.685 15.214 -0 -1.2 0
9.866 -7.795 26.073 -0 -1.2 0
5.706 -5.26 15.153 -0 -1.2 0
9.771 -8.758 25.851 -0 -1.2 0
5.114 -6.489 13.639 -0 -1.2 0
5.297 -7.289 14.139 -0 -1.2 0
4.966 -7.19 13.274 -0 -1.2 0
5.411 -8.062 14.458 -0 -1.2 0
5.231 -8.144 13.989 -0 -1.2 0
0.467 0.019 1.242 -0 -1.2 0
0.48 0.014 1.274 -0 -1.2 0
0.496 0.016 1.311 -0 -1.2 0
0.512 0.016 1.349 -0 -1.2 0
0.532 0.022 1.394 -0 -1.2 0
0.547 0.02 1.432 -0 -1.2 0
0.564 0.017 1.472 -0 -1.2 0
0.581 0.013 1.511 -0 -1.2 0
0.601 0.015 1.557 -0 -1.2 0
0.624 0.02 1.611 -0 -1.2 0
0.644 0.018 1.658 -0 -1.2 0
0.665 0.015 1.707 -0 -1.2 0
0.688 0.015 1.762 -0 -1.2 0
0.715 0.02 1.826 -0 -1.2 0
0.736 0.011 1.875 -0 -1.2 0
0.766 0.016 1.948 -0 -1.2 0
0.794 0.015 2.013 -0 -1.2 0
0.826 0.016 2.087 -0 -1.2 0
0.857 0.014 2.161 -0 -1.2 0
0.889 0.01 2.237 -0 -1.2 0
0.935 0.021 2.345 -0 -1.2 0
0.971 0.016 2.428 -0 -1.2 0
1.014 0.015 2.53 -0 -1.2 0
1.061 0.016 2.64 -0 -1.2 0
1.107 0.013 2.752 -0 -1.2 0
1.166 0.017 2.89 -0 -1.2 0
1.225 0.016 3.028 -0 -1.2 0
1.295 0.019 3.193 -0 -1.2 0
1.369 0.02 3.368 -0 -1.2 0
1.444 0.014 3.544 -0 -1.2 0
1.534 0.014 3.756 -0 -1.2 0
1.635 0.014 3.995 -0 -1.2 0
1.775 0.03 4.324 -0 -1.2 0
1.897 0.022 4.611 -0 -1.2 0
2.053 0.023 4.979 -0 -1.2 0
2.233 0.022 5.402 -0 -1.2 0
2.447 0.023 5.908 -0 -1.2 0
2.709 0.023 6.525 -0 -1.2 0
3.045 0.028 7.316 -0 -1.2 0
3.525 0.051 8.447 -0 -1.2 0
4.15 0.073 9.918 -0 -1.2 0
4.986 0.09 11.888 -0 -1.2 0
5.912 0.05 14.071 -0 -1.2 0
5.683 -0.246 13.538 -0 -1.2 0
5.971 -0.468 14.222 -0 -1.2 0
6.74 -0.983 16.049 -0 -1.2 0
10.853 -1.393 25.752 -0 -1.2 0
10.892 -1.88 25.856 -0 -1.2 0
10.884 -2.365 25.851 -0 -1.2 0
10.878 -2.851 25.847 -0 -1.2 0
10.871 -3.339 25.844 -0 -1.2 0
10.869 -3.827 25.852 -0 -1.2 0
10.863 -4.318 25.852 -0 -1.2 0
10.858 -4.81 25.853 -0 -1.2 0
10.85 -5.303 25.846 -0 -1.2 0
6.756 -4.023 16.167 -0 -1.2 0
10.838 -6.3 25.844 -0 -1.2 0
10.827 -6.799 25.831 -0 -1.2 0
6.557 -4.852 15.721 -0 -1.2 0
6.256 -4.975 15.014 -0 -1.2 0
6.354 -5.34 15.254 -0 -1.2 0
6.239 -5.564 14.99 -0 -1.2 0
6.179 -5.821 14.855 -0 -1.2 0
5.174 -6.088 12.492 -0 -1.2 0
5.544 -6.735 13.38 -0 -1.2 0
6.102 -7.628 14.719 -0 -1.2 0
5.568 -7.352 13.455 -0 -1.2 0
5.523 -7.908 13.364 -0 -1.2 0
0.499 0.012 1.233 -0 -1.2 0
0.519 0.022 1.276 -0 -1.2 0
0.533 0.017 1.306 -0 -1.2 0
0.553 0.024 1.35 -0 -1.2 0
0.571 0.023 1.388 -0 -1.2 0
0.591 0.028 1.433 -0 -1.2 0
0.61 0.025 1.471 -0 -1.2 0
0.627 0.02 1.51 -0 -1.2 0
0.646 0.015 1.549 -0 -1.2 0
0.674 0.027 1.61 -0 -1.2 0
0.692 0.019 1.649 -0 -1.2 0
0.717 0.021 1.704 -0 -1.2 0
0.742 0.021 1.759 -0 -1.2 0
0.769 0.021 1.814 -0 -1.2 0
0.794 0.017 1.871 -0 -1.2 0
0.824 0.017 1.934 -0 -1.2 0
0.853 0.015 1.998 -0 -1.2 0
0.891 0.022 2.08 -0 -1.2 0
0.925 0.02 2.153 -0 -1.2 0
0.959 0.016 2.227 -0 -1.2 0
1.004 0.022 2.325 -0 -1.2 0
1.051 0.025 2.425 -0 -1.2 0
1.089 0.016 2.508 -0 -1.2 0
1.144 0.021 2.626 -0 -1.2 0
1.194 0.017 2.736 -0 -1.2 0
1.254 0.018 2.863 -0 -1.2 0
1.321 0.02 3.007 -0 -1.2 0
1.4 0.026 3.179 -0 -1.2 0
1.472 0.02 3.334 -0 -1.2 0
1.552 0.015 3.508 -0 -1.2 0
1.652 0.018 3.725 -0 -1.2 0
1.761 0.017 3.961 -0 -1.2 0
1.909 0.031 4.277 -0 -1.2 0
2.051 0.03 4.586 -0 -1.2 0
2.211 0.026 4.931 -0 -1.2 0
2.4 0.023 5.34 -0 -1.2 0
2.647 0.03 5.875 -0 -1.2 0
2.941 0.035 6.509 -0 -1.2 0
3.307 0.041 7.298 -0 -1.2 0
3.84 0.067 8.449 -0 -1.2 0
4.499 0.084 9.874 -0 -1.2 0
5.415 0.103 11.851 -0 -1.2 0
6.163 0.015 13.47 -0 -1.2 0
6.138 -0.242 13.424 -0 -1.2 0
6.053 -0.504 13.246 -0 -1.2 0
6.861 -0.706 14.997 -0 -1.2 0
11.851 -0.907 25.782 -0 -1.2 0
11.824 -1.398 25.739 -0 -1.2 0
11.874 -1.891 25.86 -0 -1.2 0
11.87 -2.384 25.864 -0 -1.2 0
11.867 -2.878 25.869 -0 -1.2 0
11.855 -3.371 25.857 -0 -1.2 0
11.857 -3.868 25.873 -0 -1.2 0
11.846 -4.364 25.864 -0 -1.2 0
11.844 -4.864 25.874 -0 -1.2 0
11.831 -5.364 25.858 -0 -1.2 0
6.126 -4.09 13.498 -0 -1.2 0
6.965 -4.806 15.329 -0 -1.2 0
6.901 -5.077 15.199 -0 -1.2 0
6.553 -5.166 14.449 -0 -1.2 0
5.796 -4.953 12.808 -0 -1.2 0
7.962 -6.764 17.537 -0 -1.2 0
6.534 -6.042 14.431 -0 -1.2 0
6.478 -6.301 14.317 -0 -1.2 0
8.166 -8.049 18.011 -0 -1.2 0
6.307 -6.759 13.959 -0 -1.2 0
5.624 -6.414 12.474 -0 -1.2 0
5.47 -6.536 12.145 -0 -1.2 0
5.484 -6.823 12.183 -0 -1.2 0
5.624 -7.255 12.498 -0 -1.2 0
5.981 -7.955 13.285 -0 -1.2 0
7.173 -9.708 15.91 -0 -1.2 0
7.073 -9.965 15.699 -0 -1.2 0
5.93 -8.847 13.201 -0 -1.2 0
6.551 -10.027 14.573 -0 -1.2 0
7.045 -11.104 15.668 -0 -1.2 0
0.536 0.02 1.236 -0 -1.2 0
0.554 0.022 1.272 -0 -1.2 0
0.569 0.016 1.302 -0 -1.2 0
0.591 0.023 1.346 -0 -1.2 0
0.61 0.022 1.383 -0 -1.2 0
0.628 0.02 1.42 -0 -1.2 0
0.647 0.017 1.459 -0 -1.2 0
0.67 0.02 1.503 -0 -1.2 0
0.696 0.027 1.556 -0 -1.2 0
0.715 0.02 1.595 -0 -1.2 0
0.739 0.018 1.64 -0 -1.2 0
0.766 0.02 1.695 -0 -1.2 0
0.793 0.02 1.749 -0 -1.2 0
0.82 0.02 1.803 -0 -1.2 0
0.847 0.016 1.858 -0 -1.2 0
0.883 0.021 1.929 -0 -1.2 0
0.918 0.025 2 -0 -1.2 0
0.95 0.021 2.065 -0 -1.2 0
0.987 0.018 2.136 -0 -1.2 0
1.023 0.014 2.21 -0 -1.2 0
1.072 0.021 2.307 -0 -1.2 0
1.117 0.019 2.396 -0 -1.2 0
1.167 0.019 2.495 -0 -1.2 0
1.22 0.02 2.603 -0 -1.2 0
1.274 0.016 2.711 -0 -1.2 0
1.345 0.023 2.853 -0 -1.2 0
1.417 0.024 2.996 -0 -1.2 0
1.497 0.028 3.156 -0 -1.2 0
1.578 0.025 3.318 -0 -1.2 0
1.659 0.016 3.48 -0 -1.2 0
1.762 0.016 3.686 -0 -1.2 0
1.891 0.023 3.944 -0 -1.2 0
2.039 0.031 4.238 -0 -1.2 0
2.187 0.027 4.534 -0 -1.2 0
2.366 0.028 4.891 -0 -1.2 0
2.576 0.028 5.312 -0 -1.2 0
2.845 0.036 5.848 -0 -1.2 0
3.167 0.042 6.491 -0 -1.2 0
3.543 0.042 7.242 -0 -1.2 0
4.146 0.077 8.447 -0 -1.2 0
4.827 0.085 9.806 -0 -1.2 0
5.856 0.113 11.862 -0 -1.2 0
6.578 0.008 13.307 -0 -1.2 0
6.619 -0.241 13.394 -0 -1.2 0
6.577 -0.501 13.318 -0 -1.2 0
6.574 -0.755 13.318 -0 -1.2 0
12.827 -0.921 25.813 -0 -1.2 0
12.799 -1.418 25.771 -0 -1.2 0
12.856 -1.92 25.898 -0 -1.2 0
12.843 -2.419 25.884 -0 -1.2 0
7.923 -4.101 16.099 -0 -1.2 0
7.527 -4.254 15.313 -0 -1.2 0
7.621 -4.603 15.508 -0 -1.2 0
8.776 -5.496 17.838 -0 -1.2 0
7.979 -5.425 16.245 -0 -1.2 0
7.136 -5.262 14.556 -0 -1.2 0
8.076 -6.154 16.457 -0 -1.2 0
6.192 -5.233 12.67 -0 -1.2 0
6.309 -5.582 12.912 -0 -1.2 0
6.548 -6.038 13.402 -0 -1.2 0
6.74 -6.481 13.797 -0 -1.2 0
6.296 -6.405 12.906 -0 -1.2 0
5.793 -6.24 11.899 -0 -1.2 0
5.922 -6.627 12.165 -0 -1.2 0
6.094 -7.075 12.522 -0 -1.2 0
6.608 -7.896 13.569 -0 -1.2 0
7.346 -9.014 15.071 -0 -1.2 0
6.366 -8.265 13.095 -0 -1.2 0
6.205 -8.393 12.776 -0 -1.2 0
6.827 -9.478 14.047 -0 -1.2 0
6.7 -9.67 13.798 -0 -1.2 0
6.877 -10.263 14.166 -0 -1.2 0
6.689 -10.374 13.794 -0 -1.2 0
0.576 0.026 1.237 -0 -1.2 0
0.595 0.028 1.273 -0 -1.2 0
0.608 0.016 1.296 -0 -1.2 0
0.631 0.023 1.338 -0 -1.2 0
0.654 0.029 1.382 -0 -1.2 0
0.667 0.014 1.405 -0 -1.2 0
0.695 0.024 1.457 -0 -1.2 0
0.719 0.025 1.5 -0 -1.2 0
0.739 0.02 1.539 -0 -1.2 0
0.767 0.025 1.59 -0 -1.2 0
0.792 0.023 1.636 -0 -1.2 0
0.817 0.019 1.681 -0 -1.2 0
0.846 0.019 1.735 -0 -1.2 0
0.879 0.024 1.796 -0 -1.2 0
0.909 0.02 1.85 -0 -1.2 0
0.941 0.02 1.912 -0 -1.2 0
0.98 0.024 1.982 -0 -1.2 0
1.014 0.019 2.045 -0 -1.2 0
1.053 0.017 2.116 -0 -1.2 0
1.096 0.017 2.196 -0 -1.2 0
1.143 0.02 2.284 -0 -1.2 0
1.196 0.022 2.38 -0 -1.2 0
1.248 0.022 2.477 -0 -1.2 0
1.297 0.014 2.567 -0 -1.2 0
1.359 0.014 2.681 -0 -1.2 0
1.431 0.018 2.812 -0 -1.2 0
1.516 0.027 2.969 -0 -1.2 0
1.597 0.026 3.118 -0 -1.2 0
1.687 0.026 3.285 -0 -1.2 0
1.782 0.023 3.462 -0 -1.2 0
1.888 0.019 3.656 -0 -1.2 0
2.026 0.027 3.91 -0 -1.2 0
2.178 0.031 4.191 -0 -1.2 0
2.355 0.036 4.515 -0 -1.2 0
2.54 0.034 4.859 -0 -1.2 0
2.765 0.032 5.271 -0 -1.2 0
3.069 0.046 5.833 -0 -1.2 0
3.389 0.043 6.422 -0 -1.2 0
3.866 0.065 7.3 -0 -1.2 0
4.456 0.082 8.388 -0 -1.2 0
5.191 0.09 9.743 -0 -1.2 0
6.278 0.113 11.746 -0 -1.2 0
7.28 0.043 13.595 -0 -1.2 0
7.066 -0.248 13.209 -0 -1.2 0
6.965 -0.513 13.028 -0 -1.2 0
8.125 -0.709 15.172 -0 -1.2 0
10.098 -0.98 18.816 -0 -1.2 0
7.911 -3.624 14.848 -0 -1.2 0
9.557 -5.238 17.924 -0 -1.2 0
8.398 -5.056 15.781 -0 -1.2 0
7.443 -4.892 14.017 -0 -1.2 0
7.389 -5.154 13.925 -0 -1.2 0
7.164 -5.312 13.514 -0 -1.2 0
7.184 -5.9 13.564 -0 -1.2 0
6.74 -5.877 12.747 -0 -1.2 0
6.866 -6.252 12.989 -0 -1.2 0
7.152 -6.767 13.528 -0 -1.2 0
8.906 -8.546 16.806 -0 -1.2 0
8.343 -8.432 15.764 -0 -1.2 0
7.386 -7.91 13.988 -0 -1.2 0
7.171 -8.029 13.595 -0 -1.2 0
6.2 -7.365 11.787 -0 -1.2 0
7.417 -8.947 14.071 -0 -1.2 0
6.909 -9.061 13.136 -0 -1.2 0
7.378 -9.967 14.024 -0 -1.2 0
7.188 -10.094 13.676 -0 -1.2 0
6.753 -9.89 12.869 -0 -1.2 0
6.743 -10.228 12.86 -0 -1.2 0
0.608 0.026 1.232 -0 -1.2 0
0.626 0.02 1.26 -0 -1.2 0
0.646 0.022 1.296 -0 -1.2 0
0.667 0.022 1.331 -0 -1.2 0
0.689 0.021 1.368 -0 -1.2 0
0.71 0.019 1.404 -0 -1.2 0
0.735 0.023 1.447 -0 -1.2 0
0.764 0.031 1.497 -0 -1.2 0
0.782 0.019 1.528 -0 -1.2 0
0.812 0.025 1.579 -0 -1.2 0
0.838 0.022 1.623 -0 -1.2 0
0.864 0.018 1.668 -0 -1.2 0
0.899 0.025 1.728 -0 -1.2 0
0.93 0.023 1.78 -0 -1.2 0
0.96 0.019 1.834 -0 -1.2 0
0.996 0.019 1.895 -0 -1.2 0
1.037 0.023 1.964 -0 -1.2 0
1.072 0.018 2.026 -0 -1.2 0
1.113 0.016 2.096 -0 -1.2 0
1.159 0.016 2.174 -0 -1.2 0
1.214 0.023 2.268 -0 -1.2 0
1.269 0.025 2.362 -0 -1.2 0
1.32 0.02 2.449 -0 -1.2 0
1.376 0.017 2.546 -0 -1.2 0
1.441 0.017 2.658 -0 -1.2 0
1.517 0.019 2.787 -0 -1.2 0
1.602 0.025 2.933 -0 -1.2 0
1.693 0.027 3.089 -0 -1.2 0
1.794 0.031 3.261 -0 -1.2 0
1.905 0.033 3.45 -0 -1.2 0
2.011 0.025 3.633 -0 -1.2 0
2.152 0.029 3.874 -0 -1.2 0
2.318 0.036 4.159 -0 -1.2 0
2.505 0.04 4.478 -0 -1.2 0
2.696 0.034 4.807 -0 -1.2 0
2.948 0.039 5.238 -0 -1.2 0
3.266 0.051 5.781 -0 -1.2 0
3.743 0.091 6.598 -0 -1.2 0
4.153 0.079 7.299 -0 -1.2 0
4.748 0.086 8.318 -0 -1.2 0
5.534 0.093 9.665 -0 -1.2 0
6.724 0.12 11.702 -0 -1.2 0
7.623 0.023 13.244 -0 -1.2 0
7.709 -0.228 13.398 -0 -1.2 0
7.582 -0.504 13.187 -0 -1.2 0
7.563 -0.765 13.161 -0 -1.2 0
8.108 -4.132 14.174 -0 -1.2 0
8.628 -4.639 15.077 -0 -1.2 0
9.013 -5.126 15.748 -0 -1.2 0
6.888 -4.677 12.099 -0 -1.2 0
9.401 -6.344 16.442 -0 -1.2 0
8.89 -6.393 15.567 -0 -1.2 0
8.756 -6.986 15.353 -0 -1.2 0
8.723 -7.304 15.304 -0 -1.2 0
6.746 -6.156 11.89 -0 -1.2 0
9.676 -8.76 16.971 -0 -1.2 0
7.69 -7.492 13.539 -0 -1.2 0
7.968 -8.056 14.029 -0 -1.2 0
9.173 -9.501 16.128 -0 -1.2 0
7.417 -8.2 13.089 -0 -1.2 0
7.23 -8.336 12.772 -0 -1.2 0
7.732 -9.185 13.652 -0 -1.2 0
8.583 -10.867 15.151 -0 -1.2 0
0.638 0.019 1.219 -0 -1.2 0
0.66 0.021 1.252 -0 -1.2 0
0.682 0.023 1.288 -0 -1.2 0
0.708 0.03 1.328 -0 -1.2 0
0.726 0.021 1.358 -0 -1.2 0
0.753 0.027 1.4 -0 -1.2 0
0.779 0.03 1.442 -0 -1.2 0
0.802 0.025 1.478 -0 -1.2 0
0.824 0.02 1.515 -0 -1.2 0
0.856 0.025 1.564 -0 -1.2 0
0.884 0.022 1.608 -0 -1.2 0
0.91 0.018 1.653 -0 -1.2 0
0.947 0.025 1.711 -0 -1.2 0
0.98 0.023 1.763 -0 -1.2 0
1.012 0.019 1.815 -0 -1.2 0
1.05 0.019 1.875 -0 -1.2 0
1.087 0.017 1.936 -0 -1.2 0
1.136 0.022 2.011 -0 -1.2 0
1.173 0.016 2.072 -0 -1.2 0
1.221 0.016 2.148 -0 -1.2 0
1.28 0.022 2.24 -0 -1.2 0
1.333 0.021 2.326 -0 -1.2 0
1.391 0.02 2.419 -0 -1.2 0
1.456 0.02 2.521 -0 -1.2 0
1.524 0.02 2.631 -0 -1.2 0
1.599 0.019 2.75 -0 -1.2 0
1.694 0.028 2.901 -0 -1.2 0
1.794 0.034 3.062 -0 -1.2 0
1.89 0.03 3.215 -0 -1.2 0
2.013 0.035 3.409 -0 -1.2 0
2.124 0.027 3.588 -0 -1.2 0
2.278 0.033 3.833 -0 -1.2 0
2.453 0.039 4.113 -0 -1.2 0
2.655 0.045 4.434 -0 -1.2 0
2.862 0.041 4.764 -0 -1.2 0
3.133 0.047 5.196 -0 -1.2 0
3.462 0.055 5.721 -0 -1.2 0
4.118 0.141 6.766 -0 -1.2 0
4.449 0.096 7.294 -0 -1.2 0
5.008 0.083 8.185 -0 -1.2 0
5.884 0.099 9.583 -0 -1.2 0
7.158 0.127 11.616 -0 -1.2 0
8.009 0.012 12.976 -0 -1.2 0
8.032 -0.246 13.018 -0 -1.2 0
7.988 -0.511 12.953 -0 -1.2 0
8.659 -0.744 14.029 -0 -1.2 0
10.119 -3.342 16.421 -0 -1.2 0
10.055 -4.001 16.332 -0 -1.2 0
8.676 -3.894 14.131 -0 -1.2 0
8.641 -4.175 14.081 -0 -1.2 0
9.971 -5.337 16.229 -0 -1.2 0
9.937 -6.727 16.21 -0 -1.2 0
6.703 -5.127 11.012 -0 -1.2 0
7.32 -6.04 12.018 -0 -1.2 0
8.641 -7.264 14.154 -0 -1.2 0
11.561 -9.803 18.871 -0 -1.2 0
7.578 -7.083 12.454 -0 -1.2 0
7.706 -7.487 12.668 -0 -1.2 0
7.667 -7.761 12.612 -0 -1.2 0
7.777 -8.173 12.798 -0 -1.2 0
7.881 -8.595 12.974 -0 -1.2 0
7.528 -8.574 12.411 -0 -1.2 0
8.543 -9.956 14.061 -0 -1.2 0
8.949 -10.772 14.728 -0 -1.2 0
8.936 -11.157 14.716 -0 -1.2 0
8.205 -10.705 13.539 -0 -1.2 0
0.673 0.018 1.21 -0 -1.2 0
0.695 0.02 1.244 -0 -1.2 0
0.718 0.022 1.278 -0 -1.2 0
0.741 0.022 1.312 -0 -1.2 0
0.765 0.021 1.347 -0 -1.2 0
0.793 0.026 1.387 -0 -1.2 0
0.816 0.023 1.423 -0 -1.2 0
0.849 0.031 1.471 -0 -1.2 0
0.869 0.019 1.5 -0 -1.2 0
0.906 0.03 1.556 -0 -1.2 0
0.935 0.027 1.599 -0 -1.2 0
0.964 0.023 1.641 -0 -1.2 0
0.998 0.024 1.693 -0 -1.2 0
1.032 0.022 1.743 -0 -1.2 0
1.067 0.018 1.794 -0 -1.2 0
1.112 0.023 1.86 -0 -1.2 0
1.151 0.022 1.919 -0 -1.2 0
1.196 0.021 1.985 -0 -1.2 0
1.241 0.019 2.053 -0 -1.2 0
1.292 0.02 2.127 -0 -1.2 0
1.348 0.021 2.21 -0 -1.2 0
1.404 0.019 2.294 -0 -1.2 0
1.466 0.019 2.385 -0 -1.2 0
1.528 0.015 2.477 -0 -1.2 0
1.612 0.022 2.601 -0 -1.2 0
1.689 0.021 2.717 -0 -1.2 0
1.784 0.026 2.857 -0 -1.2 0
1.896 0.035 3.022 -0 -1.2 0
1.997 0.031 3.171 -0 -1.2 0
2.12 0.033 3.354 -0 -1.2 0
2.249 0.031 3.544 -0 -1.2 0
2.406 0.034 3.776 -0 -1.2 0
2.596 0.042 4.057 -0 -1.2 0
2.808 0.047 4.372 -0 -1.2 0
3.031 0.044 4.703 -0 -1.2 0
3.317 0.049 5.126 -0 -1.2 0
3.951 0.149 6.063 -0 -1.2 0
4.383 0.149 6.702 -0 -1.2 0
4.759 0.11 7.261 -0 -1.2 0
5.286 0.08 8.042 -0 -1.2 0
6.231 0.099 9.442 -0 -1.2 0
7.636 0.135 11.52 -0 -1.2 0
8.756 0.046 13.183 -0 -1.2 0
8.881 -0.213 13.373 -0 -1.2 0
8.65 -0.504 13.037 -0 -1.2 0
15.659 -0.503 23.418 -0 -1.2 0
9.358 -3.671 14.158 -0 -1.2 0
9.284 -3.947 14.056 -0 -1.2 0
10.422 -4.973 15.765 -0 -1.2 0
9.923 -5.111 15.029 -0 -1.2 0
11.625 -6.968 17.591 -0 -1.2 0
10.353 -6.675 15.7 -0 -1.2 0
10.325 -7.015 15.667 -0 -1.2 0
7.608 -5.981 11.619 -0 -1.2 0
9.453 -7.511 14.386 -0 -1.2 0
8.962 -7.831 13.667 -0 -1.2 0
7.922 -7.339 12.116 -0 -1.2 0
9.554 -8.998 14.571 -0 -1.2 0
8.16 -8.151 12.486 -0 -1.2 0
7.878 -8.216 12.071 -0 -1.2 0
7.86 -8.513 12.05 -0 -1.2 0
11.171 -12.117 17.037 -0 -1.2 0
9.602 -10.96 14.688 -0 -1.2 0
9.007 -10.728 13.8 -0 -1.2 0
9.031 -11.145 13.845 -0 -1.2 0
8.854 -11.34 13.588 -0 -1.2 0
9.461 -12.478 14.513 -0 -1.2 0
8.602 -11.837 13.226 -0 -1.2 0
0.705 0.018 1.201 -0 -1.2 0
0.733 0.027 1.24 -0 -1.2 0
0.757 0.028 1.273 -0 -1.2 0
0.777 0.021 1.3 -0 -1.2 0
0.806 0.027 1.34 -0 -1.2 0
0.839 0.038 1.386 -0 -1.2 0
0.859 0.028 1.415 -0 -1.2 0
0.884 0.023 1.45 -0 -1.2 0
0.923 0.036 1.504 -0 -1.2 0
0.944 0.023 1.533 -0 -1.2 0
0.979 0.026 1.581 -0 -1.2 0
1.01 0.023 1.623 -0 -1.2 0
1.045 0.023 1.672 -0 -1.2 0
1.081 0.021 1.722 -0 -1.2 0
1.122 0.023 1.779 -0 -1.2 0
1.163 0.022 1.836 -0 -1.2 0
1.205 0.021 1.894 -0 -1.2 0
1.257 0.025 1.966 -0 -1.2 0
1.299 0.018 2.025 -0 -1.2 0
1.352 0.019 2.098 -0 -1.2 0
1.416 0.024 2.186 -0 -1.2 0
1.47 0.018 2.26 -0 -1.2 0
1.534 0.017 2.35 -0 -1.2 0
1.61 0.021 2.455 -0 -1.2 0
1.681 0.016 2.553 -0 -1.2 0
1.769 0.02 2.675 -0 -1.2 0
1.868 0.024 2.812 -0 -1.2 0
1.983 0.033 2.973 -0 -1.2 0
2.096 0.032 3.128 -0 -1.2 0
2.23 0.037 3.313 -0 -1.2 0
2.371 0.036 3.507 -0 -1.2 0
2.534 0.039 3.735 -0 -1.2 0
2.727 0.044 4.002 -0 -1.2 0
2.95 0.049 4.309 -0 -1.2 0
3.189 0.048 4.642 -0 -1.2 0
3.517 0.062 5.095 -0 -1.2 0
4.174 0.157 6.004 -0 -1.2 0
4.637 0.16 6.645 -0 -1.2 0
5.066 0.126 7.24 -0 -1.2 0
5.536 0.076 7.892 -0 -1.2 0
6.566 0.102 9.319 -0 -1.2 0
8.011 0.131 11.32 -0 -1.2 0
9.154 0.036 12.905 -0 -1.2 0
9.05 -0.244 12.768 -0 -1.2 0
9.06 -0.511 12.789 -0 -1.2 0
10.096 -3.454 14.287 -0 -1.2 0
10.009 -3.738 14.174 -0 -1.2 0
12.358 -4.74 17.45 -0 -1.2 0
9.404 -4.154 13.345 -0 -1.2 0
9.505 -4.483 13.493 -0 -1.2 0
12.064 -5.777 17.066 -0 -1.2 0
10.443 -5.475 14.814 -0 -1.2 0
9.999 -5.607 14.202 -0 -1.2 0
10.1 -5.977 14.35 -0 -1.2 0
10.892 -6.717 15.464 -0 -1.2 0
10.83 -7.04 15.385 -0 -1.2 0
10.863 -7.42 15.439 -0 -1.2 0
8.972 -6.615 12.801 -0 -1.2 0
8.998 -7.25 12.854 -0 -1.2 0
9.017 -7.579 12.886 -0 -1.2 0
9.026 -7.908 12.907 -0 -1.2 0
9.854 -8.893 14.074 -0 -1.2 0
7.968 -7.685 11.435 -0 -1.2 0
9.972 -9.73 14.257 -0 -1.2 0
8.208 -8.506 11.786 -0 -1.2 0
8.23 -8.847 11.824 -0 -1.2 0
8.364 -9.305 12.018 -0 -1.2 0
10.653 -12.001 15.25 -0 -1.2 0
9.193 -10.88 13.204 -0 -1.2 0
8.821 -10.856 12.688 -0 -1.2 0
9.246 -11.731 13.296 -0 -1.2 0
0.735 0.018 1.191 -0 -1.2 0
0.759 0.02 1.223 -0 -1.2 0
0.785 0.022 1.255 -0 -1.2 0
0.815 0.029 1.294 -0 -1.2 0
0.84 0.028 1.327 -0 -1.2 0
0.87 0.032 1.366 -0 -1.2 0
0.896 0.029 1.4 -0 -1.2 0
0.927 0.031 1.44 -0 -1.2 0
0.958 0.031 1.48 -0 -1.2 0
0.989 0.03 1.521 -0 -1.2 0
1.02 0.027 1.562 -0 -1.2 0
1.053 0.023 1.604 -0 -1.2 0
1.089 0.023 1.651 -0 -1.2 0
1.127 0.021 1.7 -0 -1.2 0
1.17 0.023 1.755 -0 -1.2 0
1.213 0.022 1.812 -0 -1.2 0
1.256 0.021 1.868 -0 -1.2 0
1.3 0.016 1.925 -0 -1.2 0
1.355 0.018 1.996 -0 -1.2 0
1.41 0.019 2.068 -0 -1.2 0
1.476 0.024 2.154 -0 -1.2 0
1.533 0.018 2.226 -0 -1.2 0
1.605 0.021 2.321 -0 -1.2 0
1.679 0.021 2.416 -0 -1.2 0
1.753 0.016 2.512 -0 -1.2 0
1.844 0.019 2.63 -0 -1.2 0
1.942 0.02 2.757 -0 -1.2 0
2.063 0.029 2.914 -0 -1.2 0
2.185 0.031 3.072 -0 -1.2 0
2.331 0.038 3.262 -0 -1.2 0
2.478 0.038 3.453 -0 -1.2 0
2.648 0.04 3.674 -0 -1.2 0
2.862 0.05 3.95 -0 -1.2 0
3.081 0.049 4.235 -0 -1.2 0
3.326 0.046 4.553 -0 -1.2 0
3.961 0.155 5.375 -0 -1.2 0
4.401 0.168 5.946 -0 -1.2 0
4.859 0.162 6.541 -0 -1.2 0
5.385 0.147 7.224 -0 -1.2 0
5.784 0.074 7.744 -0 -1.2 0
6.859 0.099 9.137 -0 -1.2 0
8.335 0.122 11.053 -0 -1.2 0
9.844 0.065 13.013 -0 -1.2 0
9.767 -0.222 12.918 -0 -1.2 0
9.765 -0.499 12.923 -0 -1.2 0
11.074 -0.732 14.627 -0 -1.2 0
11.109 -1.046 14.679 -0 -1.2 0
11.141 -1.363 14.728 -0 -1.2 0
11.139 -1.68 14.733 -0 -1.2 0
11.129 -1.996 14.725 -0 -1.2 0
11.192 -2.322 14.815 -0 -1.2 0
11.181 -2.64 14.807 -0 -1.2 0
10.856 -3.221 14.399 -0 -1.2 0
10.787 -3.52 14.315 -0 -1.2 0
11.255 -4.285 14.94 -0 -1.2 0
9.717 -4.134 12.94 -0 -1.2 0
9.718 -4.715 12.953 -0 -1.2 0
9.757 -5.024 13.011 -0 -1.2 0
9.922 -5.395 13.234 -0 -1.2 0
11.274 -6.331 15.009 -0 -1.2 0
10.592 -6.343 14.123 -0 -1.2 0
9.873 -6.295 13.189 -0 -1.2 0
12.875 -9.136 17.147 -0 -1.2 0
10.498 -7.994 14.038 -0 -1.2 0
10.448 -8.312 13.98 -0 -1.2 0
8.483 -7.236 11.407 -0 -1.2 0
8.75 -7.734 11.762 -0 -1.2 0
10.015 -9.055 13.434 -0 -1.2 0
8.425 -8.086 11.348 -0 -1.2 0
10.603 -10.296 14.224 -0 -1.2 0
7.943 -8.27 10.727 -0 -1.2 0
8.303 -8.914 11.209 -0 -1.2 0
7.956 -8.894 10.759 -0 -1.2 0
9.67 -10.972 13.029 -0 -1.2 0
9.469 -11.15 12.772 -0 -1.2 0
0.768 0.018 1.179 -0 -1.2 0
0.794 0.019 1.21 -0 -1.2 0
0.825 0.027 1.247 -0 -1.2 0
0.852 0.028 1.279 -0 -1.2 0
0.877 0.027 1.311 -0 -1.2 0
0.915 0.038 1.356 -0 -1.2 0
0.931 0.022 1.377 -0 -1.2 0
0.964 0.023 1.416 -0 -1.2 0
1.001 0.03 1.461 -0 -1.2 0
1.034 0.029 1.5 -0 -1.2 0
1.067 0.026 1.541 -0 -1.2 0
1.1 0.022 1.58 -0 -1.2 0
1.139 0.022 1.627 -0 -1.2 0
1.183 0.026 1.681 -0 -1.2 0
1.222 0.022 1.729 -0 -1.2 0
1.267 0.021 1.782 -0 -1.2 0
1.313 0.02 1.837 -0 -1.2 0
1.364 0.019 1.899 -0 -1.2 0
1.41 0.013 1.955 -0 -1.2 0
1.467 0.012 2.025 -0 -1.2 0
1.543 0.023 2.116 -0 -1.2 0
1.607 0.021 2.193 -0 -1.2 0
1.671 0.016 2.271 -0 -1.2 0
1.748 0.015 2.364 -0 -1.2 0
1.837 0.019 2.471 -0 -1.2 0
1.921 0.014 2.573 -0 -1.2 0
2.023 0.015 2.695 -0 -1.2 0
2.149 0.024 2.848 -0 -1.2 0
2.283 0.03 3.01 -0 -1.2 0
2.447 0.043 3.208 -0 -1.2 0
2.582 0.033 3.371 -0 -1.2 0
2.766 0.038 3.594 -0 -1.2 0
2.989 0.048 3.864 -0 -1.2 0
3.218 0.047 4.14 -0 -1.2 0
3.499 0.052 4.479 -0 -1.2 0
4.169 0.16 5.287 -0 -1.2 0
4.591 0.164 5.796 -0 -1.2 0
5 0.139 6.292 -0 -1.2 0
5.676 0.153 7.109 -0 -1.2 0
6.023 0.066 7.53 -0 -1.2 0
7.037 0.073 8.755 -0 -1.2 0
5.998 -0.264 7.506 -0 -1.2 0
6.01 -0.426 7.525 -0 -1.2 0
11.704 -2.331 14.448 -0 -1.2 0
11.698 -2.652 14.447 -0 -1.2 0
11.643 -2.965 14.389 -0 -1.2 0
11.674 -3.293 14.434 -0 -1.2 0
11.695 -3.622 14.466 -0 -1.2 0
11.699 -3.95 14.479 -0 -1.2 0
11.668 -4.27 14.448 -0 -1.2 0
11.104 -4.43 13.77 -0 -1.2 0
11.584 -4.905 14.36 -0 -1.2 0
11.568 -5.232 14.348 -0 -1.2 0
11.597 -5.578 14.39 -0 -1.2 0
9.935 -5.223 12.373 -0 -1.2 0
11.697 -6.305 14.526 -0 -1.2 0
11.688 -6.65 14.524 -0 -1.2 0
10.444 -6.371 13.015 -0 -1.2 0
10.609 -6.778 13.222 -0 -1.2 0
9.086 -6.522 11.375 -0 -1.2 0
13.769 -9.777 17.107 -0 -1.2 0
11.689 -8.837 14.573 -0 -1.2 0
11.656 -9.196 14.54 -0 -1.2 0
8.623 -7.362 10.833 -0 -1.2 0
8.606 -7.641 10.819 -0 -1.2 0
9.042 -8.287 11.361 -0 -1.2 0
8.628 -8.258 10.86 -0 -1.2 0
8.578 -8.522 10.805 -0 -1.2 0
8.519 -8.781 10.739 -0 -1.2 0
9.562 -10.085 12.029 -0 -1.2 0
8.869 -9.765 11.183 -0 -1.2 0
8.694 -9.931 10.976 -0 -1.2 0
9.304 -10.926 11.735 -0 -1.2 0
10.146 -12.661 12.79 -0 -1.2 0
0.802 0.024 1.171 -0 -1.2 0
0.829 0.026 1.202 -0 -1.2 0
0.856 0.027 1.232 -0 -1.2 0
0.884 0.028 1.263 -0 -1.2 0
0.911 0.026 1.295 -0 -1.2 0
0.939 0.024 1.327 -0 -1.2 0
0.972 0.027 1.364 -0 -1.2 0
1.005 0.029 1.402 -0 -1.2 0
1.039 0.029 1.44 -0 -1.2 0
1.073 0.028 1.479 -0 -1.2 0
1.108 0.025 1.518 -0 -1.2 0
1.142 0.021 1.557 -0 -1.2 0
1.183 0.021 1.602 -0 -1.2 0
1.229 0.025 1.654 -0 -1.2 0
1.269 0.021 1.7 -0 -1.2 0
1.31 0.015 1.747 -0 -1.2 0
1.363 0.019 1.807 -0 -1.2 0
1.417 0.018 1.867 -0 -1.2 0
1.47 0.016 1.928 -0 -1.2 0
1.53 0.017 1.996 -0 -1.2 0
1.608 0.026 2.084 -0 -1.2 0
1.669 0.02 2.152 -0 -1.2 0
1.736 0.015 2.229 -0 -1.2 0
1.821 0.018 2.325 -0 -1.2 0
1.907 0.018 2.423 -0 -1.2 0
2 0.016 2.529 -0 -1.2 0
2.107 0.017 2.649 -0 -1.2 0
2.231 0.022 2.79 -0 -1.2 0
2.382 0.035 2.961 -0 -1.2 0
2.541 0.041 3.14 -0 -1.2 0
2.694 0.038 3.313 -0 -1.2 0
2.872 0.036 3.515 -0 -1.2 0
3.103 0.046 3.777 -0 -1.2 0
3.342 0.045 4.047 -0 -1.2 0
3.822 0.11 4.589 -0 -1.2 0
4.316 0.154 5.148 -0 -1.2 0
4.76 0.158 5.651 -0 -1.2 0
5.264 0.154 6.221 -0 -1.2 0
5.959 0.163 7.009 -0 -1.2 0
5.978 0.01 7.033 -0 -1.2 0
5.975 -0.146 7.033 -0 -1.2 0
6.089 -0.288 7.165 -0 -1.2 0
6.036 -0.452 7.109 -0 -1.2 0
6.048 -0.609 7.126 -0 -1.2 0
14.431 -4.89 16.712 -0 -1.2 0
14.589 -5.33 16.899 -0 -1.2 0
11.266 -4.981 13.13 -0 -1.2 0
13.187 -6.016 15.328 -0 -1.2 0
14.896 -7.077 17.286 -0 -1.2 0
9.725 -5.267 11.391 -0 -1.2 0
11.999 -6.594 13.994 -0 -1.2 0
11.949 -6.919 13.944 -0 -1.2 0
11.888 -7.239 13.883 -0 -1.2 0
8.348 -5.646 9.838 -0 -1.2 0
9.521 -6.578 11.187 -0 -1.2 0
9.514 -6.865 11.186 -0 -1.2 0
12.072 -8.803 14.124 -0 -1.2 0
9.508 -7.456 11.192 -0 -1.2 0
9.352 -7.65 11.021 -0 -1.2 0
9.929 -8.38 11.689 -0 -1.2 0
10.367 -9.048 12.2 -0 -1.2 0
10.544 -9.54 12.41 -0 -1.2 0
9.154 -8.736 10.82 -0 -1.2 0
9.164 -9.066 10.839 -0 -1.2 0
8.872 -9.126 10.508 -0 -1.2 0
8.542 -9.138 10.135 -0 -1.2 0
10.007 -10.905 11.832 -0 -1.2 0
9.862 -11.14 11.673 -0 -1.2 0
11.25 -13.006 13.286 -0 -1.2 0
10.917 -13.091 12.91 -0 -1.2 0
0.83 0.024 1.158 -0 -1.2 0
0.858 0.026 1.187 -0 -1.2 0
0.886 0.026 1.217 -0 -1.2 0
0.92 0.033 1.253 -0 -1.2 0
0.943 0.026 1.278 -0 -1.2 0
0.971 0.024 1.308 -0 -1.2 0
1.012 0.033 1.351 -0 -1.2 0
1.046 0.035 1.387 -0 -1.2 0
1.076 0.029 1.418 -0 -1.2 0
1.111 0.027 1.456 -0 -1.2 0
1.147 0.024 1.495 -0 -1.2 0
1.188 0.027 1.538 -0 -1.2 0
1.224 0.021 1.576 -0 -1.2 0
1.266 0.019 1.621 -0 -1.2 0
1.314 0.02 1.672 -0 -1.2 0
1.362 0.019 1.724 -0 -1.2 0
1.411 0.018 1.775 -0 -1.2 0
1.466 0.017 1.834 -0 -1.2 0
1.528 0.02 1.899 -0 -1.2 0
1.583 0.016 1.958 -0 -1.2 0
1.658 0.021 2.038 -0 -1.2 0
1.727 0.019 2.111 -0 -1.2 0
1.815 0.026 2.205 -0 -1.2 0
1.885 0.017 2.279 -0 -1.2 0
1.974 0.016 2.374 -0 -1.2 0
2.071 0.015 2.476 -0 -1.2 0
2.187 0.019 2.6 -0 -1.2 0
2.317 0.025 2.737 -0 -1.2 0
2.461 0.03 2.89 -0 -1.2 0
2.63 0.039 3.07 -0 -1.2 0
2.802 0.041 3.252 -0 -1.2 0
2.994 0.043 3.456 -0 -1.2 0
3.213 0.044 3.69 -0 -1.2 0
3.493 0.054 3.987 -0 -1.2 0
4.057 0.139 4.584 -0 -1.2 0
4.482 0.155 5.035 -0 -1.2 0
4.935 0.157 5.516 -0 -1.2 0
5.477 0.156 6.092 -0 -1.2 0
6.021 0.129 6.67 -0 -1.2 0
6.006 -0.026 6.657 -0 -1.2 0
6.009 -0.178 6.665 -0 -1.2 0
6.031 -0.327 6.691 -0 -1.2 0
6.011 -0.482 6.673 -0 -1.2 0
6.056 -0.63 6.724 -0 -1.2 0
6.094 -0.78 6.768 -0 -1.2 0
14.348 -4 15.607 -0 -1.2 0
14.315 -4.365 15.579 -0 -1.2 0
14.182 -4.705 15.445 -0 -1.2 0
14.608 -5.586 15.916 -0 -1.2 0
14.667 -5.997 15.988 -0 -1.2 0
11.686 -5.311 12.808 -0 -1.2 0
11.262 -5.463 12.359 -0 -1.2 0
11.087 -5.699 12.179 -0 -1.2 0
10.779 -5.869 11.856 -0 -1.2 0
8.421 -5.053 9.332 -0 -1.2 0
10.253 -6.214 11.303 -0 -1.2 0
8.771 -5.721 9.719 -0 -1.2 0
8.674 -5.92 9.62 -0 -1.2 0
10.723 -7.386 11.828 -0 -1.2 0
9.301 -6.826 10.306 -0 -1.2 0
12.103 -8.934 13.328 -0 -1.2 0
11.252 -8.726 12.419 -0 -1.2 0
13.847 -10.935 15.224 -0 -1.2 0
9.413 -8.068 10.451 -0 -1.2 0
10.238 -9.018 11.349 -0 -1.2 0
8.849 -8.23 9.855 -0 -1.2 0
9.09 -8.733 10.122 -0 -1.2 0
9.175 -9.123 10.221 -0 -1.2 0
9.536 -9.778 10.619 -0 -1.2 0
0.86 0.024 1.144 -0 -1.2 0
0.889 0.026 1.173 -0 -1.2 0
0.913 0.021 1.197 -0 -1.2 0
0.947 0.027 1.23 -0 -1.2 0
0.977 0.026 1.261 -0 -1.2 0
1.007 0.024 1.29 -0 -1.2 0
1.037 0.021 1.319 -0 -1.2 0
1.084 0.035 1.366 -0 -1.2 0
1.114 0.029 1.397 -0 -1.2 0
1.145 0.022 1.427 -0 -1.2 0
1.187 0.025 1.469 -0 -1.2 0
1.225 0.021 1.506 -0 -1.2 0
1.268 0.021 1.549 -0 -1.2 0
1.317 0.024 1.598 -0 -1.2 0
1.361 0.02 1.642 -0 -1.2 0
1.411 0.019 1.691 -0 -1.2 0
1.467 0.022 1.747 -0 -1.2 0
1.518 0.017 1.798 -0 -1.2 0
1.582 0.02 1.862 -0 -1.2 0
1.646 0.02 1.925 -0 -1.2 0
1.717 0.02 1.996 -0 -1.2 0
1.796 0.022 2.073 -0 -1.2 0
1.873 0.022 2.151 -0 -1.2 0
1.952 0.017 2.229 -0 -1.2 0
2.052 0.019 2.328 -0 -1.2 0
2.151 0.018 2.426 -0 -1.2 0
2.265 0.019 2.539 -0 -1.2 0
2.399 0.024 2.672 -0 -1.2 0
2.548 0.029 2.82 -0 -1.2 0
2.717 0.035 2.988 -0 -1.2 0
2.894 0.037 3.164 -0 -1.2 0
3.107 0.044 3.375 -0 -1.2 0
3.334 0.044 3.6 -0 -1.2 0
3.797 0.112 4.059 -0 -1.2 0
4.187 0.133 4.446 -0 -1.2 0
4.626 0.149 4.882 -0 -1.2 0
5.102 0.152 5.355 -0 -1.2 0
5.678 0.155 5.926 -0 -1.2 0
6.409 0.16 6.652 -0 -1.2 0
6.083 -0.053 6.333 -0 -1.2 0
6.037 -0.209 6.291 -0 -1.2 0
6.053 -0.502 6.313 -0 -1.2 0
6.253 -1.088 6.524 -0 -1.2 0
11.266 -3.868 11.563 -0 -1.2 0
10.609 -3.975 10.914 -0 -1.2 0
10.974 -4.638 11.29 -0 -1.2 0
10.02 -4.589 10.341 -0 -1.2 0
12.068 -5.625 12.398 -0 -1.2 0
10.038 -5.124 10.37 -0 -1.2 0
9.16 -5.014 9.496 -0 -1.2 0
13.372 -7.193 13.727 -0 -1.2 0
11.896 -6.842 12.253 -0 -1.2 0
9.047 -5.709 9.399 -0 -1.2 0
8.993 -5.933 9.35 -0 -1.2 0
10.296 -6.934 10.667 -0 -1.2 0
10.415 -7.303 10.792 -0 -1.2 0
10.604 -7.728 10.989 -0 -1.2 0
9.604 -7.385 9.989 -0 -1.2 0
10.086 -8.009 10.48 -0 -1.2 0
13.028 -10.444 13.454 -0 -1.2 0
9.791 -8.416 10.196 -0 -1.2 0
9.438 -8.453 9.847 -0 -1.2 0
9.276 -8.628 9.69 -0 -1.2 0
10.198 -9.725 10.629 -0 -1.2 0
10.898 -10.693 11.345 -0 -1.2 0
9.702 -9.972 10.141 -0 -1.2 0
9.623 -10.243 10.068 -0 -1.2 0
11.882 -12.843 12.368 -0 -1.2 0
0.891 0.031 1.133 -0 -1.2 0
0.921 0.033 1.162 -0 -1.2 0
0.946 0.026 1.185 -0 -1.2 0
0.982 0.033 1.218 -0 -1.2 0
1.007 0.026 1.242 -0 -1.2 0
1.037 0.023 1.27 -0 -1.2 0
1.08 0.032 1.309 -0 -1.2 0
1.11 0.028 1.339 -0 -1.2 0
1.148 0.028 1.374 -0 -1.2 0
1.179 0.021 1.403 -0 -1.2 0
1.224 0.024 1.444 -0 -1.2 0
1.268 0.026 1.485 -0 -1.2 0
1.312 0.025 1.526 -0 -1.2 0
1.35 0.018 1.563 -0 -1.2 0
1.402 0.019 1.611 -0 -1.2 0
1.447 0.013 1.653 -0 -1.2 0
1.512 0.021 1.714 -0 -1.2 0
1.565 0.016 1.762 -0 -1.2 0
1.623 0.014 1.817 -0 -1.2 0
1.71 0.028 1.897 -0 -1.2 0
1.769 0.019 1.954 -0 -1.2 0
1.85 0.021 2.028 -0 -1.2 0
1.937 0.024 2.109 -0 -1.2 0
2.019 0.019 2.185 -0 -1.2 0
2.114 0.018 2.275 -0 -1.2 0
2.223 0.021 2.377 -0 -1.2 0
2.334 0.017 2.48 -0 -1.2 0
2.472 0.023 2.609 -0 -1.2 0
2.618 0.024 2.745 -0 -1.2 0
2.799 0.034 2.915 -0 -1.2 0
2.99 0.038 3.091 -0 -1.2 0
3.202 0.042 3.289 -0 -1.2 0
3.443 0.045 3.514 -0 -1.2 0
3.977 0.13 4.011 -0 -1.2 0
4.35 0.141 4.358 -0 -1.2 0
4.782 0.149 4.761 -0 -1.2 0
5.257 0.149 5.206 -0 -1.2 0
5.872 0.156 5.778 -0 -1.2 0
6.684 0.172 6.536 -0 -1.2 0
6.116 -0.083 6.011 -0 -1.2 0
