# .PCD v.7 - Point Cloud Data file format
FIELDS x y z vp_x vp_y vp_z
SIZE 4 4 4 4 4 4
TYPE F F F F F F
COUNT 1 1 1 1 1 1
WIDTH 1665
HEIGHT 1
VIEWPOINT 0 -1.20013 0 1 0 0 0
POINTS 1665
DATA ascii
-1.105 -0.055 2.985 -0 -1.2 0
-1.172 -0.055 3.172 -0 -1.2 0
-1.237 -0.066 3.352 -0 -1.2 0
-1.321 -0.066 3.585 -0 -1.2 0
-1.402 -0.078 3.812 -0 -1.2 0
-1.5 -0.086 4.085 -0 -1.2 0
-1.621 -0.09 4.423 -0 -1.2 0
-1.763 -0.094 4.818 -0 -1.2 0
-1.921 -0.104 5.26 -0 -1.2 0
-2.114 -0.114 5.797 -0 -1.2 0
-2.357 -0.124 6.474 -0 -1.2 0
-2.674 -0.131 7.358 -0 -1.2 0
-3.018 -0.161 8.317 -0 -1.2 0
-3.535 -0.183 9.757 -0 -1.2 0
-4.183 -0.23 11.564 -0 -1.2 0
-5.284 -0.273 14.631 -0 -1.2 0
-7.639 -0.299 21.189 -0 -1.2 0
-8.251 -0.66 22.913 -0 -1.2 0
-8.314 -3.244 23.221 -0 -1.2 0
-8.302 -3.677 23.213 -0 -1.2 0
-8.289 -4.111 23.197 -0 -1.2 0
-8.29 -4.552 23.222 -0 -1.2 0
-8.281 -4.991 23.22 -0 -1.2 0
-8.256 -5.425 23.173 -0 -1.2 0
-8.226 -5.855 23.111 -0 -1.2 0
-7.314 -8.223 20.696 -0 -1.2 0
-7.629 -8.982 21.614 -0 -1.2 0
-8.152 -10.013 23.123 -0 -1.2 0
-7.119 -9.317 20.21 -0 -1.2 0
-5.917 -8.667 16.83 -0 -1.2 0
-5.734 -8.799 16.325 -0 -1.2 0
-5.568 -8.94 15.873 -0 -1.2 0
-7.804 -13.136 22.316 -0 -1.2 0
-0.364 0 1.062 -0 -1.2 0
-0.372 -0.013 1.087 -0 -1.2 0
-0.387 -0.006 1.133 -0 -1.2 0
-0.397 -0.014 1.166 -0 -1.2 0
-0.412 -0.011 1.213 -0 -1.2 0
-0.427 -0.008 1.26 -0 -1.2 0
-0.438 -0.019 1.293 -0 -1.2 0
-0.456 -0.013 1.349 -0 -1.2 0
-0.469 -0.021 1.39 -0 -1.2 0
-0.487 -0.018 1.447 -0 -1.2 0
-0.502 -0.023 1.496 -0 -1.2 0
-0.527 -0.013 1.569 -0 -1.2 0
-0.542 -0.021 1.62 -0 -1.2 0
-0.563 -0.02 1.686 -0 -1.2 0
-0.582 -0.026 1.745 -0 -1.2 0
-0.606 -0.025 1.821 -0 -1.2 0
-0.634 -0.021 1.906 -0 -1.2 0
-0.656 -0.029 1.974 -0 -1.2 0
-0.683 -0.03 2.06 -0 -1.2 0
-0.713 -0.031 2.156 -0 -1.2 0
-0.746 -0.03 2.26 -0 -1.2 0
-0.78 -0.033 2.365 -0 -1.2 0
-0.811 -0.043 2.462 -0 -1.2 0
-0.853 -0.042 2.595 -0 -1.2 0
-0.901 -0.038 2.746 -0 -1.2 0
-0.944 -0.047 2.881 -0 -1.2 0
-0.992 -0.053 3.034 -0 -1.2 0
-1.053 -0.054 3.224 -0 -1.2 0
-1.114 -0.061 3.414 -0 -1.2 0
-1.192 -0.059 3.66 -0 -1.2 0
-1.262 -0.073 3.881 -0 -1.2 0
-1.359 -0.075 4.185 -0 -1.2 0
-1.462 -0.083 4.509 -0 -1.2 0
-1.587 -0.089 4.899 -0 -1.2 0
-1.735 -0.095 5.366 -0 -1.2 0
-1.914 -0.103 5.927 -0 -1.2 0
-2.148 -0.106 6.66 -0 -1.2 0
-2.421 -0.119 7.516 -0 -1.2 0
-2.76 -0.14 8.584 -0 -1.2 0
-3.216 -0.167 10.013 -0 -1.2 0
-3.838 -0.205 11.965 -0 -1.2 0
-4.711 -0.273 14.709 -0 -1.2 0
-6.868 -0.287 21.471 -0 -1.2 0
-7.452 -2.793 23.453 -0 -1.2 0
-7.432 -3.222 23.414 -0 -1.2 0
-7.406 -3.649 23.359 -0 -1.2 0
-7.414 -4.088 23.41 -0 -1.2 0
-7.404 -4.523 23.406 -0 -1.2 0
-7.39 -4.958 23.385 -0 -1.2 0
-7.373 -5.392 23.358 -0 -1.2 0
-7.389 -5.85 23.435 -0 -1.2 0
-7.375 -6.292 23.42 -0 -1.2 0
-6.594 -6.149 20.961 -0 -1.2 0
-7.292 -7.139 23.21 -0 -1.2 0
-6.773 -7.567 21.605 -0 -1.2 0
-7.423 -9.646 23.769 -0 -1.2 0
-6.885 -9.49 22.073 -0 -1.2 0
-7.338 -10.542 23.555 -0 -1.2 0
-6.607 -10.525 21.262 -0 -1.2 0
-7.086 -11.716 22.832 -0 -1.2 0
-6.522 -11.347 21.043 -0 -1.2 0
-6.673 -12.08 21.559 -0 -1.2 0
-6.938 -13.043 22.449 -0 -1.2 0
-0.326 0 1.083 -0 -1.2 0
-0.333 -0.012 1.109 -0 -1.2 0
-0.347 -0.006 1.156 -0 -1.2 0
-0.358 -0.008 1.196 -0 -1.2 0
-0.369 -0.01 1.236 -0 -1.2 0
-0.381 -0.014 1.276 -0 -1.2 0
-0.394 -0.013 1.325 -0 -1.2 0
-0.406 -0.018 1.366 -0 -1.2 0
-0.42 -0.02 1.415 -0 -1.2 0
-0.436 -0.017 1.472 -0 -1.2 0
-0.452 -0.016 1.53 -0 -1.2 0
-0.466 -0.023 1.58 -0 -1.2 0
-0.485 -0.02 1.647 -0 -1.2 0
-0.501 -0.024 1.706 -0 -1.2 0
-0.52 -0.025 1.774 -0 -1.2 0
-0.542 -0.024 1.85 -0 -1.2 0
-0.564 -0.025 1.928 -0 -1.2 0
-0.583 -0.033 1.997 -0 -1.2 0
-0.61 -0.029 2.092 -0 -1.2 0
-0.637 -0.03 2.188 -0 -1.2 0
-0.667 -0.029 2.294 -0 -1.2 0
-0.694 -0.035 2.391 -0 -1.2 0
-0.724 -0.042 2.498 -0 -1.2 0
-0.762 -0.04 2.632 -0 -1.2 0
-0.806 -0.037 2.785 -0 -1.2 0
-0.844 -0.045 2.921 -0 -1.2 0
-0.888 -0.052 3.075 -0 -1.2 0
-0.944 -0.049 3.276 -0 -1.2 0
-0.999 -0.056 3.468 -0 -1.2 0
-1.069 -0.055 3.718 -0 -1.2 0
-1.134 -0.066 3.949 -0 -1.2 0
-1.215 -0.073 4.238 -0 -1.2 0
-1.313 -0.077 4.584 -0 -1.2 0
-1.43 -0.08 4.997 -0 -1.2 0
-1.557 -0.089 5.45 -0 -1.2 0
-1.719 -0.096 6.027 -0 -1.2 0
-1.918 -0.105 6.729 -0 -1.2 0
-2.186 -0.106 7.68 -0 -1.2 0
-2.487 -0.128 8.748 -0 -1.2 0
-2.913 -0.15 10.259 -0 -1.2 0
-3.453 -0.195 12.174 -0 -1.2 0
-4.392 -0.231 15.503 -0 -1.2 0
-6.225 -0.267 21.998 -0 -1.2 0
-6.729 -5.478 24.136 -0 -1.2 0
-6.82 -6.002 24.496 -0 -1.2 0
-5.915 -5.758 21.273 -0 -1.2 0
-6.552 -7.173 23.624 -0 -1.2 0
-6.909 -7.994 24.945 -0 -1.2 0
-6.557 -8.112 23.706 -0 -1.2 0
-6.564 -8.596 23.762 -0 -1.2 0
-5.869 -10.025 21.398 -0 -1.2 0
-6.556 -11.59 23.939 -0 -1.2 0
-6.45 -11.941 23.584 -0 -1.2 0
-0.283 -0.005 1.098 -0 -1.2 0
-0.291 -0.011 1.13 -0 -1.2 0
-0.302 -0.005 1.177 -0 -1.2 0
-0.312 -0.007 1.218 -0 -1.2 0
-0.322 -0.01 1.258 -0 -1.2 0
-0.332 -0.013 1.299 -0 -1.2 0
-0.343 -0.012 1.348 -0 -1.2 0
-0.355 -0.012 1.397 -0 -1.2 0
-0.366 -0.019 1.439 -0 -1.2 0
-0.38 -0.016 1.497 -0 -1.2 0
-0.394 -0.015 1.555 -0 -1.2 0
-0.408 -0.016 1.614 -0 -1.2 0
-0.425 -0.013 1.681 -0 -1.2 0
-0.442 -0.013 1.749 -0 -1.2 0
-0.459 -0.015 1.818 -0 -1.2 0
-0.475 -0.019 1.887 -0 -1.2 0
-0.492 -0.024 1.957 -0 -1.2 0
-0.514 -0.023 2.044 -0 -1.2 0
-0.533 -0.028 2.123 -0 -1.2 0
-0.558 -0.024 2.229 -0 -1.2 0
-0.582 -0.028 2.326 -0 -1.2 0
-0.608 -0.03 2.433 -0 -1.2 0
-0.634 -0.037 2.541 -0 -1.2 0
-0.667 -0.035 2.677 -0 -1.2 0
-0.703 -0.036 2.822 -0 -1.2 0
-0.738 -0.041 2.968 -0 -1.2 0
-0.776 -0.048 3.124 -0 -1.2 0
-0.823 -0.048 3.318 -0 -1.2 0
-0.874 -0.052 3.522 -0 -1.2 0
-0.933 -0.053 3.764 -0 -1.2 0
-0.99 -0.065 3.998 -0 -1.2 0
-1.067 -0.064 4.317 -0 -1.2 0
-1.154 -0.066 4.676 -0 -1.2 0
-1.255 -0.071 5.084 -0 -1.2 0
-1.366 -0.082 5.541 -0 -1.2 0
-1.509 -0.087 6.133 -0 -1.2 0
-1.683 -0.095 6.842 -0 -1.2 0
-1.9 -0.106 7.734 -0 -1.2 0
-2.201 -0.112 8.967 -0 -1.2 0
-2.575 -0.132 10.502 -0 -1.2 0
-3.034 -0.184 12.387 -0 -1.2 0
-3.977 -0.191 16.253 -0 -1.2 0
-3.987 -0.481 16.315 -0 -1.2 0
-4.016 -0.771 16.46 -0 -1.2 0
-5.907 -4.592 24.514 -0 -1.2 0
-5.921 -5.056 24.606 -0 -1.2 0
-5.783 -6.323 24.139 -0 -1.2 0
-5.546 -7.001 23.224 -0 -1.2 0
-5.664 -7.588 23.751 -0 -1.2 0
-5.483 -9.712 23.176 -0 -1.2 0
-5.701 -10.561 24.137 -0 -1.2 0
-5.619 -10.932 23.831 -0 -1.2 0
-0.246 0.001 1.123 -0 -1.2 0
-0.253 -0.004 1.156 -0 -1.2 0
-0.261 -0.005 1.197 -0 -1.2 0
-0.269 -0.006 1.237 -0 -1.2 0
-0.28 -0.002 1.285 -0 -1.2 0
-0.287 -0.013 1.319 -0 -1.2 0
-0.295 -0.017 1.361 -0 -1.2 0
-0.307 -0.011 1.418 -0 -1.2 0
-0.316 -0.019 1.46 -0 -1.2 0
-0.328 -0.016 1.518 -0 -1.2 0
-0.339 -0.02 1.569 -0 -1.2 0
-0.354 -0.011 1.645 -0 -1.2 0
-0.367 -0.013 1.704 -0 -1.2 0
-0.38 -0.018 1.765 -0 -1.2 0
-0.396 -0.014 1.842 -0 -1.2 0
-0.408 -0.023 1.903 -0 -1.2 0
-0.425 -0.023 1.982 -0 -1.2 0
-0.443 -0.022 2.069 -0 -1.2 0
-0.46 -0.027 2.149 -0 -1.2 0
-0.485 -0.019 2.264 -0 -1.2 0
-0.505 -0.023 2.363 -0 -1.2 0
-0.526 -0.029 2.462 -0 -1.2 0
-0.551 -0.032 2.58 -0 -1.2 0
-0.579 -0.031 2.716 -0 -1.2 0
-0.61 -0.032 2.863 -0 -1.2 0
-0.64 -0.036 3.01 -0 -1.2 0
-0.675 -0.04 3.177 -0 -1.2 0
-0.714 -0.043 3.363 -0 -1.2 0
-0.755 -0.05 3.559 -0 -1.2 0
-0.809 -0.048 3.812 -0 -1.2 0
-0.862 -0.055 4.066 -0 -1.2 0
-0.925 -0.06 4.369 -0 -1.2 0
-0.993 -0.07 4.693 -0 -1.2 0
-1.084 -0.069 5.132 -0 -1.2 0
-1.183 -0.078 5.602 -0 -1.2 0
-1.31 -0.081 6.208 -0 -1.2 0
-1.458 -0.092 6.913 -0 -1.2 0
-1.649 -0.101 7.822 -0 -1.2 0
-1.905 -0.108 9.044 -0 -1.2 0
-2.239 -0.124 10.639 -0 -1.2 0
-2.648 -0.17 12.597 -0 -1.2 0
-3.491 -0.171 16.618 -0 -1.2 0
-4.85 -8.48 23.874 -0 -1.2 0
-4.693 -8.703 23.14 -0 -1.2 0
-0.207 0.002 1.141 -0 -1.2 0
-0.213 -0.003 1.174 -0 -1.2 0
-0.22 -0.004 1.214 -0 -1.2 0
-0.226 -0.012 1.248 -0 -1.2 0
-0.234 -0.008 1.297 -0 -1.2 0
-0.241 -0.012 1.338 -0 -1.2 0
-0.25 -0.011 1.387 -0 -1.2 0
-0.259 -0.01 1.437 -0 -1.2 0
-0.267 -0.012 1.488 -0 -1.2 0
-0.276 -0.015 1.538 -0 -1.2 0
-0.287 -0.014 1.597 -0 -1.2 0
-0.3 -0.01 1.665 -0 -1.2 0
-0.31 -0.012 1.725 -0 -1.2 0
-0.321 -0.017 1.786 -0 -1.2 0
-0.333 -0.018 1.856 -0 -1.2 0
-0.345 -0.022 1.925 -0 -1.2 0
-0.359 -0.022 2.004 -0 -1.2 0
-0.373 -0.025 2.084 -0 -1.2 0
-0.388 -0.026 2.173 -0 -1.2 0
-0.405 -0.027 2.271 -0 -1.2 0
-0.426 -0.022 2.388 -0 -1.2 0
-0.443 -0.028 2.488 -0 -1.2 0
-0.464 -0.031 2.606 -0 -1.2 0
-0.488 -0.03 2.744 -0 -1.2 0
-0.512 -0.033 2.882 -0 -1.2 0
-0.539 -0.038 3.03 -0 -1.2 0
-0.567 -0.045 3.188 -0 -1.2 0
-0.599 -0.048 3.375 -0 -1.2 0
-0.637 -0.049 3.592 -0 -1.2 0
-0.682 -0.047 3.847 -0 -1.2 0
-0.725 -0.056 4.093 -0 -1.2 0
-0.779 -0.06 4.398 -0 -1.2 0
-0.833 -0.075 4.704 -0 -1.2 0
-0.912 -0.07 5.156 -0 -1.2 0
-0.995 -0.08 5.628 -0 -1.2 0
-1.104 -0.08 6.248 -0 -1.2 0
-1.225 -0.092 6.937 -0 -1.2 0
-1.389 -0.098 7.872 -0 -1.2 0
-1.604 -0.106 9.093 -0 -1.2 0
-1.87 -0.13 10.609 -0 -1.2 0
-2.24 -0.162 12.717 -0 -1.2 0
-3.284 -0.387 18.677 -0 -1.2 0
-3.287 -0.716 18.736 -0 -1.2 0
-3.235 -1.049 18.475 -0 -1.2 0
-3.236 -1.376 18.513 -0 -1.2 0
-3.233 -1.704 18.537 -0 -1.2 0
-4 -8.826 23.697 -0 -1.2 0
-0.166 0.003 1.158 -0 -1.2 0
-0.17 -0.003 1.192 -0 -1.2 0
-0.176 -0.003 1.232 -0 -1.2 0
-0.182 -0.005 1.274 -0 -1.2 0
-0.189 -0.001 1.322 -0 -1.2 0
-0.192 -0.017 1.349 -0 -1.2 0
-0.2 -0.01 1.406 -0 -1.2 0
-0.206 -0.016 1.449 -0 -1.2 0
-0.213 -0.017 1.499 -0 -1.2 0
-0.221 -0.014 1.558 -0 -1.2 0
-0.229 -0.013 1.618 -0 -1.2 0
-0.238 -0.014 1.678 -0 -1.2 0
-0.247 -0.011 1.746 -0 -1.2 0
-0.256 -0.016 1.807 -0 -1.2 0
-0.265 -0.017 1.877 -0 -1.2 0
-0.276 -0.016 1.956 -0 -1.2 0
-0.286 -0.021 2.027 -0 -1.2 0
-0.299 -0.02 2.116 -0 -1.2 0
-0.308 -0.03 2.187 -0 -1.2 0
-0.326 -0.021 2.304 -0 -1.2 0
-0.341 -0.021 2.413 -0 -1.2 0
-0.355 -0.027 2.513 -0 -1.2 0
-0.37 -0.034 2.623 -0 -1.2 0
-0.39 -0.029 2.77 -0 -1.2 0
-0.411 -0.029 2.918 -0 -1.2 0
-0.432 -0.033 3.067 -0 -1.2 0
-0.454 -0.04 3.227 -0 -1.2 0
-0.478 -0.046 3.405 -0 -1.2 0
-0.508 -0.05 3.613 -0 -1.2 0
-0.544 -0.048 3.87 -0 -1.2 0
-0.58 -0.055 4.127 -0 -1.2 0
-0.623 -0.056 4.444 -0 -1.2 0
-0.671 -0.064 4.78 -0 -1.2 0
-0.729 -0.068 5.195 -0 -1.2 0
-0.789 -0.083 5.632 -0 -1.2 0
-0.878 -0.082 6.264 -0 -1.2 0
-0.977 -0.093 6.967 -0 -1.2 0
-1.104 -0.101 7.878 -0 -1.2 0
-1.27 -0.111 9.066 -0 -1.2 0
-1.482 -0.133 10.59 -0 -1.2 0
-1.774 -0.166 12.68 -0 -1.2 0
-2.188 -0.223 15.651 -0 -1.2 0
-2.194 -0.496 15.724 -0 -1.2 0
-2.198 -0.771 15.792 -0 -1.2 0
-0.126 0.003 1.172 -0 -1.2 0
-0.129 -0.002 1.206 -0 -1.2 0
-0.134 -0.003 1.247 -0 -1.2 0
-0.138 -0.004 1.288 -0 -1.2 0
-0.142 -0.007 1.329 -0 -1.2 0
-0.147 -0.011 1.371 -0 -1.2 0
-0.152 -0.009 1.421 -0 -1.2 0
-0.157 -0.015 1.464 -0 -1.2 0
-0.163 -0.011 1.522 -0 -1.2 0
-0.169 -0.009 1.582 -0 -1.2 0
-0.174 -0.012 1.633 -0 -1.2 0
-0.182 -0.013 1.694 -0 -1.2 0
-0.188 -0.016 1.754 -0 -1.2 0
-0.195 -0.02 1.815 -0 -1.2 0
-0.203 -0.016 1.894 -0 -1.2 0
-0.21 -0.02 1.964 -0 -1.2 0
-0.219 -0.02 2.044 -0 -1.2 0
-0.228 -0.019 2.133 -0 -1.2 0
-0.236 -0.024 2.214 -0 -1.2 0
-0.247 -0.025 2.314 -0 -1.2 0
-0.258 -0.023 2.423 -0 -1.2 0
-0.27 -0.026 2.532 -0 -1.2 0
-0.282 -0.029 2.652 -0 -1.2 0
-0.297 -0.03 2.781 -0 -1.2 0
-0.313 -0.03 2.93 -0 -1.2 0
-0.329 -0.032 3.089 -0 -1.2 0
-0.346 -0.039 3.249 -0 -1.2 0
-0.366 -0.042 3.438 -0 -1.2 0
-0.386 -0.051 3.628 -0 -1.2 0
-0.414 -0.049 3.885 -0 -1.2 0
-0.442 -0.053 4.153 -0 -1.2 0
-0.475 -0.056 4.461 -0 -1.2 0
-0.509 -0.067 4.79 -0 -1.2 0
-0.555 -0.069 5.216 -0 -1.2 0
-0.604 -0.077 5.683 -0 -1.2 0
-0.668 -0.083 6.279 -0 -1.2 0
-0.742 -0.093 6.975 -0 -1.2 0
-0.842 -0.098 7.919 -0 -1.2 0
-0.964 -0.112 9.072 -0 -1.2 0
-1.135 -0.125 10.683 -0 -1.2 0
-1.341 -0.168 12.632 -0 -1.2 0
-1.649 -0.227 15.535 -0 -1.2 0
-1.648 -0.497 15.578 -0 -1.2 0
-1.676 -0.765 15.885 -0 -1.2 0
-0.086 0.003 1.187 -0 -1.2 0
-0.088 -0.002 1.219 -0 -1.2 0
-0.091 -0.003 1.26 -0 -1.2 0
-0.094 -0.004 1.302 -0 -1.2 0
-0.097 -0.007 1.343 -0 -1.2 0
-0.1 -0.01 1.386 -0 -1.2 0
-0.103 -0.015 1.428 -0 -1.2 0
-0.107 -0.009 1.486 -0 -1.2 0
-0.111 -0.01 1.537 -0 -1.2 0
-0.115 -0.008 1.596 -0 -1.2 0
-0.119 -0.012 1.648 -0 -1.2 0
-0.123 -0.013 1.709 -0 -1.2 0
-0.127 -0.016 1.769 -0 -1.2 0
-0.132 -0.02 1.831 -0 -1.2 0
-0.137 -0.016 1.91 -0 -1.2 0
-0.142 -0.02 1.98 -0 -1.2 0
-0.147 -0.025 2.052 -0 -1.2 0
-0.154 -0.023 2.141 -0 -1.2 0
-0.161 -0.024 2.231 -0 -1.2 0
-0.169 -0.02 2.339 -0 -1.2 0
-0.176 -0.023 2.44 -0 -1.2 0
-0.184 -0.026 2.55 -0 -1.2 0
-0.192 -0.032 2.661 -0 -1.2 0
-0.202 -0.027 2.809 -0 -1.2 0
-0.212 -0.034 2.939 -0 -1.2 0
-0.223 -0.035 3.099 -0 -1.2 0
-0.236 -0.039 3.268 -0 -1.2 0
-0.249 -0.044 3.448 -0 -1.2 0
-0.263 -0.051 3.648 -0 -1.2 0
-0.282 -0.049 3.907 -0 -1.2 0
-0.301 -0.055 4.166 -0 -1.2 0
-0.322 -0.061 4.465 -0 -1.2 0
-0.347 -0.068 4.804 -0 -1.2 0
-0.376 -0.076 5.203 -0 -1.2 0
-0.409 -0.084 5.671 -0 -1.2 0
-0.453 -0.089 6.269 -0 -1.2 0
-0.503 -0.099 6.967 -0 -1.2 0
-0.573 -0.101 7.923 -0 -1.2 0
-0.654 -0.119 9.04 -0 -1.2 0
-0.764 -0.139 10.566 -0 -1.2 0
-0.904 -0.18 12.51 -0 -1.2 0
-1.146 -0.212 15.851 -0 -1.2 0
-0.042 -0.002 1.192 -0 -1.2 0
-0.043 -0.001 1.233 -0 -1.2 0
-0.045 -0.002 1.274 -0 -1.2 0
-0.046 -0.004 1.315 -0 -1.2 0
-0.048 -0.006 1.356 -0 -1.2 0
-0.049 -0.003 1.407 -0 -1.2 0
-0.051 -0.008 1.448 -0 -1.2 0
-0.053 -0.008 1.499 -0 -1.2 0
-0.054 -0.01 1.55 -0 -1.2 0
-0.056 -0.013 1.601 -0 -1.2 0
-0.058 -0.017 1.653 -0 -1.2 0
-0.06 -0.012 1.722 -0 -1.2 0
-0.063 -0.015 1.783 -0 -1.2 0
-0.065 -0.019 1.844 -0 -1.2 0
-0.067 -0.02 1.915 -0 -1.2 0
-0.07 -0.019 1.994 -0 -1.2 0
-0.074 -0.019 2.074 -0 -1.2 0
-0.077 -0.018 2.164 -0 -1.2 0
-0.08 -0.019 2.254 -0 -1.2 0
-0.084 -0.019 2.354 -0 -1.2 0
-0.087 -0.022 2.455 -0 -1.2 0
-0.091 -0.025 2.565 -0 -1.2 0
-0.095 -0.031 2.676 -0 -1.2 0
-0.099 -0.033 2.806 -0 -1.2 0
-0.105 -0.033 2.955 -0 -1.2 0
-0.11 -0.034 3.115 -0 -1.2 0
-0.117 -0.04 3.275 -0 -1.2 0
-0.123 -0.046 3.456 -0 -1.2 0
-0.131 -0.05 3.665 -0 -1.2 0
-0.14 -0.047 3.924 -0 -1.2 0
-0.148 -0.056 4.174 -0 -1.2 0
-0.161 -0.057 4.494 -0 -1.2 0
-0.172 -0.069 4.814 -0 -1.2 0
-0.186 -0.074 5.223 -0 -1.2 0
-0.204 -0.081 5.703 -0 -1.2 0
-0.225 -0.085 6.302 -0 -1.2 0
-0.251 -0.094 7.011 -0 -1.2 0
-0.284 -0.104 7.91 -0 -1.2 0
-0.325 -0.118 9.057 -0 -1.2 0
-0.379 -0.138 10.566 -0 -1.2 0
-0.451 -0.176 12.565 -0 -1.2 0
-0.565 -0.218 15.712 -0 -1.2 0
-0.001 -0.001 1.203 -0 -1.2 0
-0.001 0.005 1.251 -0 -1.2 0
-0.002 -0.001 1.285 -0 -1.2 0
-0.002 -0.002 1.326 -0 -1.2 0
-0.002 -0.011 1.359 -0 -1.2 0
-0.002 -0.002 1.418 -0 -1.2 0
-0.002 -0.007 1.46 -0 -1.2 0
-0.002 -0.013 1.502 -0 -1.2 0
-0.002 -0.014 1.553 -0 -1.2 0
-0.002 -0.011 1.612 -0 -1.2 0
-0.002 -0.01 1.672 -0 -1.2 0
-0.002 -0.017 1.725 -0 -1.2 0
-0.002 -0.018 1.786 -0 -1.2 0
-0.002 -0.023 1.847 -0 -1.2 0
-0.003 -0.018 1.926 -0 -1.2 0
-0.003 -0.017 2.005 -0 -1.2 0
-0.003 -0.022 2.077 -0 -1.2 0
-0.003 -0.016 2.175 -0 -1.2 0
-0.003 -0.021 2.257 -0 -1.2 0
-0.003 -0.017 2.365 -0 -1.2 0
-0.003 -0.02 2.466 -0 -1.2 0
-0.004 -0.026 2.567 -0 -1.2 0
-0.004 -0.033 2.678 -0 -1.2 0
-0.004 -0.031 2.817 -0 -1.2 0
-0.004 -0.033 2.958 -0 -1.2 0
-0.004 -0.034 3.117 -0 -1.2 0
-0.005 -0.04 3.278 -0 -1.2 0
-0.005 -0.047 3.458 -0 -1.2 0
-0.006 -0.049 3.668 -0 -1.2 0
-0.007 -0.044 3.937 -0 -1.2 0
-0.007 -0.055 4.177 -0 -1.2 0
-0.008 -0.055 4.497 -0 -1.2 0
-0.008 -0.062 4.837 -0 -1.2 0
-0.009 -0.064 5.266 -0 -1.2 0
-0.011 -0.07 5.746 -0 -1.2 0
-0.012 -0.075 6.345 -0 -1.2 0
-0.013 -0.089 7.015 -0 -1.2 0
-0.015 -0.091 7.964 -0 -1.2 0
-0.017 -0.105 9.114 -0 -1.2 0
-0.021 -0.119 10.683 -0 -1.2 0
-0.025 -0.154 12.713 -0 -1.2 0
-0.029 -0.231 15.243 -0 -1.2 0
-0.024 -0.496 15.256 -0 -1.2 0
-0.019 -0.756 15.474 -0 -1.2 0
0.036 -0.007 1.204 -0 -1.2 0
0.038 0 1.253 -0 -1.2 0
0.039 0 1.294 -0 -1.2 0
0.04 -0.001 1.335 -0 -1.2 0
0.041 -0.01 1.369 -0 -1.2 0
0.043 -0.007 1.418 -0 -1.2 0
0.045 -0.006 1.47 -0 -1.2 0
0.046 -0.006 1.52 -0 -1.2 0
0.048 -0.013 1.562 -0 -1.2 0
0.049 -0.01 1.622 -0 -1.2 0
0.051 -0.009 1.682 -0 -1.2 0
0.053 -0.009 1.742 -0 -1.2 0
0.055 -0.017 1.795 -0 -1.2 0
0.057 -0.016 1.865 -0 -1.2 0
0.059 -0.017 1.935 -0 -1.2 0
0.062 -0.015 2.014 -0 -1.2 0
0.064 -0.02 2.086 -0 -1.2 0
0.067 -0.014 2.184 -0 -1.2 0
0.07 -0.019 2.266 -0 -1.2 0
0.073 -0.015 2.374 -0 -1.2 0
0.076 -0.022 2.466 -0 -1.2 0
0.08 -0.024 2.576 -0 -1.2 0
0.083 -0.027 2.696 -0 -1.2 0
0.087 -0.028 2.826 -0 -1.2 0
0.092 -0.031 2.966 -0 -1.2 0
0.097 -0.032 3.126 -0 -1.2 0
0.103 -0.038 3.286 -0 -1.2 0
0.109 -0.04 3.476 -0 -1.2 0
0.115 -0.049 3.667 -0 -1.2 0
0.122 -0.043 3.935 -0 -1.2 0
0.131 -0.056 4.166 -0 -1.2 0
0.141 -0.054 4.495 -0 -1.2 0
0.152 -0.06 4.835 -0 -1.2 0
0.165 -0.061 5.264 -0 -1.2 0
0.18 -0.065 5.753 -0 -1.2 0
0.199 -0.069 6.352 -0 -1.2 0
0.221 -0.078 7.051 -0 -1.2 0
0.251 -0.081 8 -0 -1.2 0
0.288 -0.089 9.189 -0 -1.2 0
0.334 -0.112 10.658 -0 -1.2 0
0.398 -0.146 12.677 -0 -1.2 0
0.482 -0.214 15.296 -0 -1.2 0
0.488 -0.48 15.299 -0 -1.2 0
0.076 0 1.22 -0 -1.2 0
0.079 0.001 1.261 -0 -1.2 0
0.081 0 1.302 -0 -1.2 0
0.084 0 1.343 -0 -1.2 0
0.087 -0.003 1.384 -0 -1.2 0
0.09 0 1.435 -0 -1.2 0
0.094 -0.005 1.476 -0 -1.2 0
0.097 -0.01 1.519 -0 -1.2 0
0.1 -0.012 1.57 -0 -1.2 0
0.104 -0.008 1.629 -0 -1.2 0
0.107 -0.007 1.689 -0 -1.2 0
0.111 -0.008 1.749 -0 -1.2 0
0.115 -0.01 1.81 -0 -1.2 0
0.119 -0.014 1.872 -0 -1.2 0
0.123 -0.02 1.933 -0 -1.2 0
0.13 -0.009 2.03 -0 -1.2 0
0.134 -0.014 2.101 -0 -1.2 0
0.139 -0.017 2.182 -0 -1.2 0
0.145 -0.022 2.263 -0 -1.2 0
0.152 -0.013 2.381 -0 -1.2 0
0.159 -0.016 2.481 -0 -1.2 0
0.165 -0.022 2.582 -0 -1.2 0
0.172 -0.028 2.693 -0 -1.2 0
0.181 -0.026 2.832 -0 -1.2 0
0.191 -0.025 2.981 -0 -1.2 0
0.201 -0.029 3.131 -0 -1.2 0
0.212 -0.035 3.291 -0 -1.2 0
0.224 -0.037 3.481 -0 -1.2 0
0.238 -0.037 3.7 -0 -1.2 0
0.255 -0.037 3.948 -0 -1.2 0
0.271 -0.043 4.208 -0 -1.2 0
0.291 -0.045 4.517 -0 -1.2 0
0.314 -0.049 4.866 -0 -1.2 0
0.34 -0.055 5.275 -0 -1.2 0
0.374 -0.055 5.783 -0 -1.2 0
0.413 -0.059 6.381 -0 -1.2 0
0.459 -0.065 7.099 -0 -1.2 0
0.519 -0.071 8.017 -0 -1.2 0
0.596 -0.08 9.194 -0 -1.2 0
0.697 -0.094 10.75 -0 -1.2 0
0.831 -0.124 12.796 -0 -1.2 0
1.112 -0.091 17.154 -0 -1.2 0
0.12 0.001 1.227 -0 -1.2 0
0.124 0.002 1.267 -0 -1.2 0
0.128 0.001 1.308 -0 -1.2 0
0.132 0 1.349 -0 -1.2 0
0.137 -0.002 1.391 -0 -1.2 0
0.142 0.001 1.441 -0 -1.2 0
0.146 -0.009 1.475 -0 -1.2 0
0.152 -0.003 1.533 -0 -1.2 0
0.157 -0.004 1.584 -0 -1.2 0
0.163 -0.002 1.643 -0 -1.2 0
0.167 -0.012 1.687 -0 -1.2 0
0.174 -0.006 1.755 -0 -1.2 0
0.179 -0.014 1.808 -0 -1.2 0
0.186 -0.012 1.877 -0 -1.2 0
0.193 -0.013 1.947 -0 -1.2 0
0.202 -0.007 2.035 -0 -1.2 0
0.209 -0.012 2.106 -0 -1.2 0
0.217 -0.015 2.187 -0 -1.2 0
0.227 -0.015 2.276 -0 -1.2 0
0.237 -0.016 2.376 -0 -1.2 0
0.248 -0.014 2.485 -0 -1.2 0
0.259 -0.016 2.594 -0 -1.2 0
0.27 -0.022 2.705 -0 -1.2 0
0.283 -0.023 2.834 -0 -1.2 0
0.298 -0.023 2.983 -0 -1.2 0
0.314 -0.023 3.142 -0 -1.2 0
0.331 -0.029 3.302 -0 -1.2 0
0.351 -0.028 3.5 -0 -1.2 0
0.372 -0.031 3.709 -0 -1.2 0
0.396 -0.033 3.948 -0 -1.2 0
0.423 -0.036 4.216 -0 -1.2 0
0.457 -0.033 4.544 -0 -1.2 0
0.492 -0.039 4.892 -0 -1.2 0
0.534 -0.041 5.309 -0 -1.2 0
0.584 -0.046 5.797 -0 -1.2 0
0.642 -0.053 6.374 -0 -1.2 0
0.717 -0.055 7.109 -0 -1.2 0
0.813 -0.057 8.054 -0 -1.2 0
0.93 -0.068 9.207 -0 -1.2 0
1.085 -0.082 10.749 -0 -1.2 0
1.29 -0.113 12.769 -0 -1.2 0
0.16 0.009 1.239 -0 -1.2 0
0.165 0.003 1.272 -0 -1.2 0
0.17 0.002 1.313 -0 -1.2 0
0.177 0.001 1.354 -0 -1.2 0
0.183 0.005 1.403 -0 -1.2 0
0.189 0.002 1.445 -0 -1.2 0
0.195 0.003 1.495 -0 -1.2 0
0.202 0.003 1.545 -0 -1.2 0
0.209 0.002 1.596 -0 -1.2 0
0.216 -0.001 1.647 -0 -1.2 0
0.223 -0.004 1.699 -0 -1.2 0
0.231 -0.005 1.759 -0 -1.2 0
0.239 -0.007 1.819 -0 -1.2 0
0.247 -0.011 1.88 -0 -1.2 0
0.257 -0.012 1.95 -0 -1.2 0
0.269 -0.005 2.037 -0 -1.2 0
0.277 -0.015 2.099 -0 -1.2 0
0.289 -0.013 2.188 -0 -1.2 0
0.301 -0.014 2.278 -0 -1.2 0
0.313 -0.018 2.368 -0 -1.2 0
0.328 -0.016 2.476 -0 -1.2 0
0.344 -0.014 2.595 -0 -1.2 0
0.359 -0.02 2.705 -0 -1.2 0
0.377 -0.021 2.833 -0 -1.2 0
0.397 -0.02 2.982 -0 -1.2 0
0.418 -0.021 3.14 -0 -1.2 0
0.44 -0.026 3.299 -0 -1.2 0
0.465 -0.028 3.487 -0 -1.2 0
0.493 -0.031 3.696 -0 -1.2 0
0.529 -0.024 3.962 -0 -1.2 0
0.566 -0.028 4.229 -0 -1.2 0
0.609 -0.026 4.556 -0 -1.2 0
0.657 -0.03 4.902 -0 -1.2 0
0.71 -0.037 5.298 -0 -1.2 0
0.773 -0.045 5.764 -0 -1.2 0
0.857 -0.044 6.378 -0 -1.2 0
0.953 -0.049 7.091 -0 -1.2 0
1.091 -0.04 8.11 -0 -1.2 0
1.251 -0.047 9.299 -0 -1.2 0
1.45 -0.069 10.766 -0 -1.2 0
1.722 -0.099 12.768 -0 -1.2 0
3.158 -0.496 23.332 -0 -1.2 0
3.173 -0.904 23.387 -0 -1.2 0
3.21 -1.315 23.584 -0 -1.2 0
3.773 -4.712 27.234 -0 -1.2 0
0.202 0.003 1.237 -0 -1.2 0
0.21 0.011 1.284 -0 -1.2 0
0.217 0.003 1.317 -0 -1.2 0
0.224 0.002 1.358 -0 -1.2 0
0.232 0.007 1.407 -0 -1.2 0
0.239 0.003 1.449 -0 -1.2 0
0.248 0.004 1.498 -0 -1.2 0
0.255 0 1.54 -0 -1.2 0
0.263 -0.002 1.591 -0 -1.2 0
0.272 -0.004 1.641 -0 -1.2 0
0.282 -0.003 1.701 -0 -1.2 0
0.294 0.001 1.768 -0 -1.2 0
0.305 0 1.829 -0 -1.2 0
0.314 -0.009 1.881 -0 -1.2 0
0.327 -0.005 1.959 -0 -1.2 0
0.341 -0.004 2.037 -0 -1.2 0
0.353 -0.008 2.108 -0 -1.2 0
0.366 -0.011 2.188 -0 -1.2 0
0.381 -0.017 2.268 -0 -1.2 0
0.399 -0.012 2.375 -0 -1.2 0
0.416 -0.013 2.474 -0 -1.2 0
0.436 -0.011 2.592 -0 -1.2 0
0.455 -0.017 2.701 -0 -1.2 0
0.479 -0.014 2.838 -0 -1.2 0
0.503 -0.018 2.976 -0 -1.2 0
0.53 -0.018 3.133 -0 -1.2 0
0.559 -0.02 3.301 -0 -1.2 0
0.59 -0.025 3.479 -0 -1.2 0
0.627 -0.025 3.695 -0 -1.2 0
0.674 -0.016 3.969 -0 -1.2 0
0.72 -0.019 4.235 -0 -1.2 0
0.771 -0.024 4.531 -0 -1.2 0
0.832 -0.026 4.886 -0 -1.2 0
0.902 -0.03 5.29 -0 -1.2 0
0.984 -0.036 5.763 -0 -1.2 0
1.092 -0.032 6.392 -0 -1.2 0
1.22 -0.033 7.131 -0 -1.2 0
1.387 -0.029 8.106 -0 -1.2 0
1.586 -0.039 9.259 -0 -1.2 0
1.838 -0.059 10.717 -0 -1.2 0
2.184 -0.087 12.718 -0 -1.2 0
2.631 -0.15 15.3 -0 -1.2 0
2.637 -0.419 15.303 -0 -1.2 0
2.651 -0.686 15.351 -0 -1.2 0
4.029 -0.883 23.317 -0 -1.2 0
4.841 -3.777 27.675 -0 -1.2 0
0.242 0.004 1.239 -0 -1.2 0
0.252 0.012 1.286 -0 -1.2 0
0.26 0.011 1.327 -0 -1.2 0
0.268 0.003 1.36 -0 -1.2 0
0.278 0.008 1.408 -0 -1.2 0
0.287 0.004 1.45 -0 -1.2 0
0.295 0 1.491 -0 -1.2 0
0.305 0 1.541 -0 -1.2 0
0.314 -0.007 1.583 -0 -1.2 0
0.327 0.001 1.649 -0 -1.2 0
0.338 -0.002 1.7 -0 -1.2 0
0.351 -0.002 1.76 -0 -1.2 0
0.365 0 1.828 -0 -1.2 0
0.376 -0.008 1.88 -0 -1.2 0
0.392 -0.004 1.957 -0 -1.2 0
0.408 -0.002 2.035 -0 -1.2 0
0.422 -0.007 2.105 -0 -1.2 0
0.439 -0.009 2.184 -0 -1.2 0
0.457 -0.01 2.272 -0 -1.2 0
0.477 -0.01 2.369 -0 -1.2 0
0.499 -0.008 2.477 -0 -1.2 0
0.522 -0.009 2.585 -0 -1.2 0
0.547 -0.011 2.702 -0 -1.2 0
0.573 -0.012 2.83 -0 -1.2 0
0.603 -0.012 2.977 -0 -1.2 0
0.638 -0.009 3.142 -0 -1.2 0
0.67 -0.015 3.3 -0 -1.2 0
0.708 -0.016 3.486 -0 -1.2 0
0.757 -0.011 3.72 -0 -1.2 0
0.804 -0.016 3.945 -0 -1.2 0
0.857 -0.021 4.2 -0 -1.2 0
0.928 -0.014 4.542 -0 -1.2 0
0.997 -0.02 4.874 -0 -1.2 0
1.082 -0.022 5.286 -0 -1.2 0
1.178 -0.03 5.746 -0 -1.2 0
1.31 -0.024 6.382 -0 -1.2 0
1.469 -0.019 7.154 -0 -1.2 0
1.648 -0.03 8.016 -0 -1.2 0
1.89 -0.035 9.18 -0 -1.2 0
2.207 -0.045 10.708 -0 -1.2 0
2.652 -0.061 12.852 -0 -1.2 0
3.218 -0.115 15.575 -0 -1.2 0
3.218 -0.392 15.549 -0 -1.2 0
5.865 -3.304 28.022 -0 -1.2 0
5.421 -3.595 25.853 -0 -1.2 0
5.299 -3.985 25.221 -0 -1.2 0
5.861 -4.791 27.854 -0 -1.2 0
5.88 -5.301 27.891 -0 -1.2 0
0.281 0.005 1.239 -0 -1.2 0
0.291 0.005 1.279 -0 -1.2 0
0.299 -0.001 1.312 -0 -1.2 0
0.31 0.004 1.359 -0 -1.2 0
0.32 0.002 1.4 -0 -1.2 0
0.331 -0.001 1.441 -0 -1.2 0
0.343 0 1.49 -0 -1.2 0
0.354 0.001 1.539 -0 -1.2 0
0.368 0.005 1.597 -0 -1.2 0
0.38 0.002 1.647 -0 -1.2 0
0.394 0.003 1.705 -0 -1.2 0
0.406 -0.001 1.756 -0 -1.2 0
0.421 -0.003 1.815 -0 -1.2 0
0.438 -0.002 1.883 -0 -1.2 0
0.454 -0.002 1.952 -0 -1.2 0
0.473 -0.001 2.029 -0 -1.2 0
0.49 -0.005 2.098 -0 -1.2 0
0.511 -0.004 2.185 -0 -1.2 0
0.531 -0.009 2.264 -0 -1.2 0
0.556 -0.003 2.37 -0 -1.2 0
0.582 -0.002 2.477 -0 -1.2 0
0.608 -0.004 2.584 -0 -1.2 0
0.636 -0.006 2.701 -0 -1.2 0
0.667 -0.008 2.828 -0 -1.2 0
0.702 -0.007 2.973 -0 -1.2 0
0.739 -0.007 3.129 -0 -1.2 0
0.778 -0.013 3.285 -0 -1.2 0
0.822 -0.014 3.47 -0 -1.2 0
0.879 -0.009 3.702 -0 -1.2 0
0.935 -0.011 3.934 -0 -1.2 0
0.997 -0.015 4.187 -0 -1.2 0
1.072 -0.016 4.498 -0 -1.2 0
1.156 -0.017 4.848 -0 -1.2 0
1.262 -0.013 5.284 -0 -1.2 0
1.38 -0.016 5.769 -0 -1.2 0
1.533 -0.009 6.4 -0 -1.2 0
1.707 -0.012 7.12 -0 -1.2 0
1.915 -0.023 7.975 -0 -1.2 0
2.191 -0.031 9.112 -0 -1.2 0
2.551 -0.043 10.599 -0 -1.2 0
3.07 -0.055 12.736 -0 -1.2 0
4.145 0.004 17.175 -0 -1.2 0
6.411 -7.409 25.879 -0 -1.2 0
0.323 0.006 1.24 -0 -1.2 0
0.336 0.013 1.286 -0 -1.2 0
0.345 0.006 1.319 -0 -1.2 0
0.356 0.005 1.359 -0 -1.2 0
0.37 0.009 1.406 -0 -1.2 0
0.381 0.006 1.447 -0 -1.2 0
0.39 -0.004 1.48 -0 -1.2 0
0.406 0.002 1.537 -0 -1.2 0
0.42 0 1.586 -0 -1.2 0
0.434 -0.001 1.635 -0 -1.2 0
0.45 0 1.693 -0 -1.2 0
0.469 0.004 1.759 -0 -1.2 0
0.483 -0.002 1.809 -0 -1.2 0
0.502 -0.001 1.877 -0 -1.2 0
0.521 -0.001 1.944 -0 -1.2 0
0.542 0 2.021 -0 -1.2 0
0.562 -0.004 2.09 -0 -1.2 0
0.586 -0.003 2.177 -0 -1.2 0
0.608 -0.007 2.255 -0 -1.2 0
0.635 -0.007 2.351 -0 -1.2 0
0.665 -0.004 2.457 -0 -1.2 0
0.697 -0.002 2.572 -0 -1.2 0
0.73 -0.004 2.688 -0 -1.2 0
0.764 -0.006 2.813 -0 -1.2 0
0.803 -0.008 2.948 -0 -1.2 0
0.843 -0.012 3.093 -0 -1.2 0
0.89 -0.014 3.256 -0 -1.2 0
0.944 -0.012 3.448 -0 -1.2 0
1.01 -0.003 3.687 -0 -1.2 0
1.075 -0.005 3.919 -0 -1.2 0
1.144 -0.013 4.16 -0 -1.2 0
1.232 -0.01 4.477 -0 -1.2 0
1.335 -0.007 4.843 -0 -1.2 0
1.461 0 5.293 -0 -1.2 0
1.597 -0.002 5.775 -0 -1.2 0
1.766 0 6.381 -0 -1.2 0
1.967 -0.004 7.093 -0 -1.2 0
2.202 -0.015 7.932 -0 -1.2 0
2.527 -0.018 9.086 -0 -1.2 0
2.93 -0.035 10.521 -0 -1.2 0
3.573 -0.031 12.811 -0 -1.2 0
4.586 -0.023 16.421 -0 -1.2 0
6.563 -0.406 23.432 -0 -1.2 0
6.587 -0.827 23.486 -0 -1.2 0
0.36 0.006 1.238 -0 -1.2 0
0.373 0.007 1.277 -0 -1.2 0
0.384 0 1.309 -0 -1.2 0
0.398 0.006 1.356 -0 -1.2 0
0.411 0.003 1.396 -0 -1.2 0
0.424 0 1.436 -0 -1.2 0
0.439 0.002 1.484 -0 -1.2 0
0.454 0.003 1.532 -0 -1.2 0
0.472 0.007 1.589 -0 -1.2 0
0.485 0 1.629 -0 -1.2 0
0.505 0.006 1.694 -0 -1.2 0
0.522 0 1.744 -0 -1.2 0
0.54 -0.001 1.802 -0 -1.2 0
0.561 0 1.869 -0 -1.2 0
0.582 0 1.936 -0 -1.2 0
0.604 -0.003 2.004 -0 -1.2 0
0.63 0.001 2.089 -0 -1.2 0
0.656 -0.001 2.166 -0 -1.2 0
0.68 -0.006 2.244 -0 -1.2 0
0.713 0 2.347 -0 -1.2 0
0.743 -0.003 2.443 -0 -1.2 0
0.776 -0.005 2.549 -0 -1.2 0
0.813 -0.006 2.663 -0 -1.2 0
0.849 -0.011 2.778 -0 -1.2 0
0.894 -0.01 2.92 -0 -1.2 0
0.94 -0.013 3.064 -0 -1.2 0
0.994 -0.012 3.235 -0 -1.2 0
1.055 -0.01 3.425 -0 -1.2 0
1.126 -0.004 3.653 -0 -1.2 0
1.199 -0.005 3.882 -0 -1.2 0
1.278 -0.01 4.129 -0 -1.2 0
1.377 -0.007 4.443 -0 -1.2 0
1.501 0.002 4.833 -0 -1.2 0
1.64 0.007 5.271 -0 -1.2 0
1.785 0.001 5.728 -0 -1.2 0
1.972 0.001 6.319 -0 -1.2 0
2.193 -0.002 7.016 -0 -1.2 0
2.47 -0.005 7.892 -0 -1.2 0
2.819 -0.015 8.988 -0 -1.2 0
3.284 -0.025 10.456 -0 -1.2 0
4.017 -0.016 12.771 -0 -1.2 0
4.94 -0.052 15.68 -0 -1.2 0
4.951 -0.336 15.692 -0 -1.2 0
5.05 -0.611 15.987 -0 -1.2 0
7.446 -0.808 23.531 -0 -1.2 0
8.579 -5.682 26.768 -0 -1.2 0
0.402 0.014 1.242 -0 -1.2 0
0.413 0.008 1.274 -0 -1.2 0
0.426 0.008 1.313 -0 -1.2 0
0.443 0.013 1.359 -0 -1.2 0
0.457 0.011 1.399 -0 -1.2 0
0.471 0.008 1.439 -0 -1.2 0
0.487 0.009 1.485 -0 -1.2 0
0.503 0.004 1.525 -0 -1.2 0
0.522 0.008 1.581 -0 -1.2 0
0.539 0.005 1.63 -0 -1.2 0
0.556 0.002 1.679 -0 -1.2 0
0.576 0.001 1.736 -0 -1.2 0
0.599 0.005 1.801 -0 -1.2 0
0.62 0.001 1.859 -0 -1.2 0
0.641 -0.004 1.918 -0 -1.2 0
0.671 0.002 2.001 -0 -1.2 0
0.697 0.003 2.077 -0 -1.2 0
0.721 -0.004 2.145 -0 -1.2 0
0.751 -0.004 2.23 -0 -1.2 0
0.785 -0.004 2.324 -0 -1.2 0
0.818 -0.005 2.419 -0 -1.2 0
0.858 -0.003 2.531 -0 -1.2 0
0.896 -0.008 2.635 -0 -1.2 0
0.939 -0.009 2.758 -0 -1.2 0
0.985 -0.011 2.89 -0 -1.2 0
1.041 -0.008 3.05 -0 -1.2 0
1.096 -0.012 3.201 -0 -1.2 0
1.165 -0.008 3.399 -0 -1.2 0
1.229 -0.015 3.578 -0 -1.2 0
1.318 -0.008 3.831 -0 -1.2 0
1.402 -0.015 4.067 -0 -1.2 0
1.522 -0.004 4.405 -0 -1.2 0
1.651 0 4.772 -0 -1.2 0
1.798 0.002 5.186 -0 -1.2 0
1.969 0.002 5.667 -0 -1.2 0
2.175 0.003 6.25 -0 -1.2 0
2.416 0 6.93 -0 -1.2 0
2.726 -0.002 7.806 -0 -1.2 0
3.096 -0.015 8.853 -0 -1.2 0
3.61 -0.023 10.304 -0 -1.2 0
4.338 -0.032 12.359 -0 -1.2 0
5.493 -0.035 15.62 -0 -1.2 0
5.537 -0.315 15.727 -0 -1.2 0
5.57 -0.602 15.801 -0 -1.2 0
8.898 -0.767 25.195 -0 -1.2 0
0.439 0.008 1.232 -0 -1.2 0
0.455 0.009 1.27 -0 -1.2 0
0.467 0.002 1.3 -0 -1.2 0
0.485 0.007 1.346 -0 -1.2 0
0.503 0.012 1.392 -0 -1.2 0
0.518 0.009 1.431 -0 -1.2 0
0.534 0.004 1.471 -0 -1.2 0
0.552 0.005 1.518 -0 -1.2 0
0.571 0.003 1.565 -0 -1.2 0
0.593 0.006 1.621 -0 -1.2 0
0.615 0.008 1.677 -0 -1.2 0
0.635 0.003 1.725 -0 -1.2 0
0.66 0.006 1.79 -0 -1.2 0
0.685 0.007 1.855 -0 -1.2 0
0.705 -0.002 1.905 -0 -1.2 0
0.737 0.003 1.987 -0 -1.2 0
0.764 0 2.054 -0 -1.2 0
0.791 -0.007 2.121 -0 -1.2 0
0.823 -0.008 2.204 -0 -1.2 0
0.86 -0.006 2.296 -0 -1.2 0
0.901 -0.004 2.398 -0 -1.2 0
0.938 -0.009 2.493 -0 -1.2 0
0.978 -0.013 2.596 -0 -1.2 0
1.032 -0.007 2.734 -0 -1.2 0
1.084 -0.009 2.864 -0 -1.2 0
1.143 -0.008 3.013 -0 -1.2 0
1.202 -0.013 3.162 -0 -1.2 0
1.282 -0.005 3.365 -0 -1.2 0
1.355 -0.01 3.552 -0 -1.2 0
1.451 -0.005 3.793 -0 -1.2 0
1.557 -0.002 4.062 -0 -1.2 0
1.681 0.003 4.378 -0 -1.2 0
1.813 0.002 4.712 -0 -1.2 0
1.982 0.008 5.139 -0 -1.2 0
2.158 0.003 5.585 -0 -1.2 0
2.39 0.007 6.171 -0 -1.2 0
2.643 -0.001 6.813 -0 -1.2 0
2.984 -0.001 7.677 -0 -1.2 0
3.378 -0.018 8.673 -0 -1.2 0
3.966 -0.018 10.161 -0 -1.2 0
4.755 -0.027 12.161 -0 -1.2 0
9.408 -0.317 23.926 -0 -1.2 0
9.445 -0.762 23.998 -0 -1.2 0
0.476 0.009 1.225 -0 -1.2 0
0.492 0.01 1.263 -0 -1.2 0
0.508 0.009 1.301 -0 -1.2 0
0.525 0.008 1.339 -0 -1.2 0
0.542 0.006 1.377 -0 -1.2 0
0.564 0.016 1.43 -0 -1.2 0
0.582 0.011 1.469 -0 -1.2 0
0.599 0.006 1.508 -0 -1.2 0
0.622 0.01 1.563 -0 -1.2 0
0.643 0.007 1.61 -0 -1.2 0
0.663 0.004 1.658 -0 -1.2 0
0.687 0.004 1.713 -0 -1.2 0
0.712 0.001 1.769 -0 -1.2 0
0.74 0.003 1.834 -0 -1.2 0
0.764 -0.001 1.89 -0 -1.2 0
0.799 0.005 1.971 -0 -1.2 0
0.828 0 2.036 -0 -1.2 0
0.861 -0.001 2.11 -0 -1.2 0
0.893 -0.006 2.185 -0 -1.2 0
0.932 -0.005 2.277 -0 -1.2 0
0.972 -0.007 2.369 -0 -1.2 0
1.017 -0.007 2.47 -0 -1.2 0
1.064 -0.009 2.58 -0 -1.2 0
1.116 -0.009 2.7 -0 -1.2 0
1.175 -0.007 2.836 -0 -1.2 0
1.232 -0.013 2.965 -0 -1.2 0
1.303 -0.011 3.13 -0 -1.2 0
1.386 -0.006 3.322 -0 -1.2 0
1.469 -0.008 3.515 -0 -1.2 0
1.584 0.004 3.779 -0 -1.2 0
1.691 0.002 4.026 -0 -1.2 0
1.83 0.01 4.346 -0 -1.2 0
1.962 0.003 4.65 -0 -1.2 0
2.149 0.011 5.079 -0 -1.2 0
2.34 0.006 5.52 -0 -1.2 0
2.59 0.011 6.097 -0 -1.2 0
2.877 0.007 6.758 -0 -1.2 0
3.235 0.003 7.584 -0 -1.2 0
3.69 -0.003 8.629 -0 -1.2 0
4.28 -0.016 9.987 -0 -1.2 0
5.155 -0.019 12.004 -0 -1.2 0
7.004 -0.245 16.254 -0 -1.2 0
7.011 -0.55 16.254 -0 -1.2 0
0.514 0.009 1.219 -0 -1.2 0
0.528 0.003 1.249 -0 -1.2 0
0.549 0.01 1.293 -0 -1.2 0
0.569 0.016 1.337 -0 -1.2 0
0.584 0.007 1.368 -0 -1.2 0
0.605 0.011 1.413 -0 -1.2 0
0.624 0.006 1.452 -0 -1.2 0
0.645 0.007 1.498 -0 -1.2 0
0.668 0.005 1.544 -0 -1.2 0
0.693 0.008 1.598 -0 -1.2 0
0.719 0.01 1.652 -0 -1.2 0
0.741 0.005 1.699 -0 -1.2 0
0.771 0.009 1.762 -0 -1.2 0
0.793 0 1.81 -0 -1.2 0
0.825 0 1.873 -0 -1.2 0
0.858 0.001 1.945 -0 -1.2 0
0.893 0.002 2.017 -0 -1.2 0
0.923 -0.004 2.082 -0 -1.2 0
0.958 -0.009 2.156 -0 -1.2 0
1.005 -0.003 2.254 -0 -1.2 0
1.044 -0.009 2.337 -0 -1.2 0
1.095 -0.006 2.445 -0 -1.2 0
1.142 -0.01 2.544 -0 -1.2 0
1.203 -0.007 2.67 -0 -1.2 0
1.267 -0.005 2.805 -0 -1.2 0
1.328 -0.011 2.932 -0 -1.2 0
1.404 -0.009 3.095 -0 -1.2 0
1.485 -0.009 3.266 -0 -1.2 0
1.604 0.008 3.517 -0 -1.2 0
1.715 0.012 3.75 -0 -1.2 0
1.827 0.008 3.986 -0 -1.2 0
1.968 0.011 4.284 -0 -1.2 0
2.122 0.01 4.608 -0 -1.2 0
2.306 0.011 4.997 -0 -1.2 0
2.534 0.016 5.475 -0 -1.2 0
2.786 0.013 6.008 -0 -1.2 0
3.091 0.008 6.65 -0 -1.2 0
3.494 0.01 7.498 -0 -1.2 0
3.979 0.003 8.519 -0 -1.2 0
4.639 -0.002 9.911 -0 -1.2 0
5.493 -0.023 11.708 -0 -1.2 0
6.776 -0.046 14.41 -0 -1.2 0
7.438 -0.246 15.794 -0 -1.2 0
7.499 -0.543 15.91 -0 -1.2 0
0.552 0.011 1.21 -0 -1.2 0
0.571 0.012 1.247 -0 -1.2 0
0.59 0.011 1.283 -0 -1.2 0
0.609 0.01 1.32 -0 -1.2 0
0.632 0.015 1.364 -0 -1.2 0
0.651 0.012 1.402 -0 -1.2 0
0.671 0.007 1.439 -0 -1.2 0
0.694 0.008 1.484 -0 -1.2 0
0.718 0.007 1.53 -0 -1.2 0
0.746 0.01 1.583 -0 -1.2 0
0.774 0.012 1.635 -0 -1.2 0
0.798 0.007 1.682 -0 -1.2 0
0.826 0.004 1.736 -0 -1.2 0
0.858 0.006 1.798 -0 -1.2 0
0.886 0.001 1.853 -0 -1.2 0
0.92 -0.001 1.916 -0 -1.2 0
0.956 0 1.987 -0 -1.2 0
0.989 -0.007 2.051 -0 -1.2 0
1.031 -0.007 2.131 -0 -1.2 0
1.082 -0.001 2.226 -0 -1.2 0
1.128 -0.003 2.316 -0 -1.2 0
1.178 -0.003 2.414 -0 -1.2 0
1.23 -0.007 2.512 -0 -1.2 0
1.294 -0.005 2.636 -0 -1.2 0
1.358 -0.006 2.76 -0 -1.2 0
1.428 -0.008 2.893 -0 -1.2 0
1.502 -0.013 3.035 -0 -1.2 0
1.607 0 3.238 -0 -1.2 0
1.726 0.011 3.467 -0 -1.2 0
1.845 0.016 3.696 -0 -1.2 0
1.965 0.012 3.927 -0 -1.2 0
2.113 0.014 4.211 -0 -1.2 0
2.279 0.013 4.53 -0 -1.2 0
2.486 0.018 4.929 -0 -1.2 0
2.721 0.02 5.381 -0 -1.2 0
2.985 0.015 5.887 -0 -1.2 0
3.331 0.017 6.552 -0 -1.2 0
3.755 0.017 7.368 -0 -1.2 0
4.277 0.011 8.37 -0 -1.2 0
4.96 0.001 9.683 -0 -1.2 0
5.902 -0.011 11.494 -0 -1.2 0
7.278 -0.032 14.137 -0 -1.2 0
12.345 -0.221 23.869 -0 -1.2 0
12.4 -0.684 23.953 -0 -1.2 0
0.591 0.019 1.207 -0 -1.2 0
0.611 0.02 1.243 -0 -1.2 0
0.627 0.013 1.273 -0 -1.2 0
0.651 0.019 1.315 -0 -1.2 0
0.673 0.016 1.352 -0 -1.2 0
0.693 0.013 1.389 -0 -1.2 0
0.714 0.008 1.425 -0 -1.2 0
0.739 0.009 1.469 -0 -1.2 0
0.768 0.014 1.521 -0 -1.2 0
0.793 0.011 1.566 -0 -1.2 0
0.819 0.008 1.611 -0 -1.2 0
0.849 0.008 1.664 -0 -1.2 0
0.883 0.012 1.724 -0 -1.2 0
0.909 0.003 1.771 -0 -1.2 0
0.943 0.003 1.832 -0 -1.2 0
0.983 0.005 1.902 -0 -1.2 0
1.018 0.001 1.963 -0 -1.2 0
1.057 0 2.033 -0 -1.2 0
1.097 -0.004 2.104 -0 -1.2 0
1.151 0 2.199 -0 -1.2 0
1.2 -0.001 2.287 -0 -1.2 0
1.254 -0.001 2.383 -0 -1.2 0
1.309 -0.005 2.478 -0 -1.2 0
1.373 -0.006 2.592 -0 -1.2 0
1.446 -0.003 2.722 -0 -1.2 0
1.52 -0.005 2.853 -0 -1.2 0
1.612 0 3.017 -0 -1.2 0
1.715 0.005 3.199 -0 -1.2 0
1.846 0.021 3.433 -0 -1.2 0
1.964 0.019 3.642 -0 -1.2 0
2.096 0.018 3.877 -0 -1.2 0
2.249 0.018 4.147 -0 -1.2 0
2.43 0.019 4.469 -0 -1.2 0
2.646 0.023 4.852 -0 -1.2 0
2.897 0.025 5.296 -0 -1.2 0
3.196 0.028 5.827 -0 -1.2 0
3.55 0.026 6.454 -0 -1.2 0
4.007 0.028 7.263 -0 -1.2 0
4.553 0.02 8.231 -0 -1.2 0
5.285 0.012 9.528 -0 -1.2 0
6.263 -0.003 11.262 -0 -1.2 0
7.728 -0.021 13.857 -0 -1.2 0
8.099 -0.257 14.504 -0 -1.2 0
8.075 -0.544 14.451 -0 -1.2 0
7.775 -0.84 13.906 -0 -1.2 0
7.83 -1.114 13.991 -0 -1.2 0
7.824 -1.389 13.969 -0 -1.2 0
7.766 -1.659 13.855 -0 -1.2 0
0.624 0.013 1.191 -0 -1.2 0
0.641 0.007 1.219 -0 -1.2 0
0.666 0.014 1.26 -0 -1.2 0
0.687 0.013 1.295 -0 -1.2 0
0.713 0.018 1.338 -0 -1.2 0
0.736 0.015 1.374 -0 -1.2 0
0.758 0.01 1.41 -0 -1.2 0
0.784 0.011 1.453 -0 -1.2 0
0.811 0.01 1.497 -0 -1.2 0
0.841 0.013 1.548 -0 -1.2 0
0.868 0.01 1.593 -0 -1.2 0
0.901 0.01 1.644 -0 -1.2 0
0.932 0.008 1.696 -0 -1.2 0
0.968 0.01 1.755 -0 -1.2 0
1.001 0.005 1.808 -0 -1.2 0
1.042 0.007 1.876 -0 -1.2 0
1.084 0.008 1.945 -0 -1.2 0
1.126 0.006 2.014 -0 -1.2 0
1.168 0.001 2.084 -0 -1.2 0
1.225 0.007 2.176 -0 -1.2 0
1.273 0 2.254 -0 -1.2 0
1.33 0 2.348 -0 -1.2 0
1.388 -0.003 2.443 -0 -1.2 0
1.46 0 2.562 -0 -1.2 0
1.543 0.005 2.697 -0 -1.2 0
1.621 0.003 2.826 -0 -1.2 0
1.714 0.005 2.979 -0 -1.2 0
1.834 0.017 3.174 -0 -1.2 0
1.952 0.021 3.369 -0 -1.2 0
2.078 0.021 3.575 -0 -1.2 0
2.228 0.025 3.821 -0 -1.2 0
2.4 0.029 4.103 -0 -1.2 0
2.582 0.026 4.402 -0 -1.2 0
2.821 0.035 4.794 -0 -1.2 0
3.086 0.037 5.229 -0 -1.2 0
3.404 0.039 5.749 -0 -1.2 0
3.789 0.04 6.381 -0 -1.2 0
4.238 0.032 7.116 -0 -1.2 0
4.852 0.034 8.123 -0 -1.2 0
5.608 0.023 9.362 -0 -1.2 0
6.675 0.013 11.112 -0 -1.2 0
8.259 0.002 13.706 -0 -1.2 0
9.762 -0.123 16.167 -0 -1.2 0
9.776 -0.449 16.175 -0 -1.2 0
8.293 -1.099 13.719 -0 -1.2 0
8.203 -1.371 13.56 -0 -1.2 0
8.168 -1.641 13.491 -0 -1.2 0
8.177 -1.913 13.495 -0 -1.2 0
7.944 -2.154 13.103 -0 -1.2 0
7.834 -2.399 12.913 -0 -1.2 0
7.904 -2.674 13.016 -0 -1.2 0
7.883 -2.933 12.971 -0 -1.2 0
7.797 -3.174 12.82 -0 -1.2 0
0.661 0.014 1.177 -0 -1.2 0
0.687 0.022 1.217 -0 -1.2 0
0.706 0.015 1.246 -0 -1.2 0
0.729 0.014 1.281 -0 -1.2 0
0.756 0.019 1.322 -0 -1.2 0
0.779 0.016 1.357 -0 -1.2 0
0.806 0.017 1.399 -0 -1.2 0
0.835 0.018 1.442 -0 -1.2 0
0.863 0.017 1.484 -0 -1.2 0
0.892 0.014 1.526 -0 -1.2 0
0.925 0.016 1.577 -0 -1.2 0
0.953 0.011 1.62 -0 -1.2 0
0.988 0.009 1.671 -0 -1.2 0
1.022 0.006 1.723 -0 -1.2 0
1.06 0.006 1.782 -0 -1.2 0
1.099 0.004 1.841 -0 -1.2 0
1.153 0.015 1.922 -0 -1.2 0
1.188 0.003 1.974 -0 -1.2 0
1.243 0.008 2.057 -0 -1.2 0
1.302 0.014 2.148 -0 -1.2 0
1.354 0.008 2.225 -0 -1.2 0
1.409 0.003 2.308 -0 -1.2 0
1.48 0.006 2.416 -0 -1.2 0
1.558 0.01 2.533 -0 -1.2 0
1.635 0.008 2.65 -0 -1.2 0
1.728 0.013 2.79 -0 -1.2 0
1.827 0.016 2.941 -0 -1.2 0
1.948 0.024 3.123 -0 -1.2 0
2.079 0.031 3.322 -0 -1.2 0
2.217 0.033 3.531 -0 -1.2 0
2.361 0.029 3.748 -0 -1.2 0
2.554 0.039 4.039 -0 -1.2 0
2.747 0.036 4.331 -0 -1.2 0
2.994 0.042 4.706 -0 -1.2 0
3.26 0.039 5.106 -0 -1.2 0
3.618 0.048 5.648 -0 -1.2 0
4.015 0.047 6.248 -0 -1.2 0
4.518 0.047 7.007 -0 -1.2 0
5.141 0.043 7.95 -0 -1.2 0
5.986 0.042 9.226 -0 -1.2 0
7.051 0.023 10.836 -0 -1.2 0
10.483 -0.091 16.015 -0 -1.2 0
10.491 -0.421 16.015 -0 -1.2 0
15.729 -0.578 23.925 -0 -1.2 0
8.324 -2.649 12.655 -0 -1.2 0
8.251 -2.897 12.536 -0 -1.2 0
8.21 -3.147 12.464 -0 -1.2 0
8.084 -3.372 12.265 -0 -1.2 0
7.923 -3.579 12.014 -0 -1.2 0
7.995 -3.858 12.111 -0 -1.2 0
7.999 -4.117 12.108 -0 -1.2 0
7.935 -4.35 12.001 -0 -1.2 0
8.02 -4.647 12.119 -0 -1.2 0
0.699 0.022 1.17 -0 -1.2 0
0.722 0.023 1.203 -0 -1.2 0
0.746 0.023 1.237 -0 -1.2 0
0.771 0.022 1.271 -0 -1.2 0
0.795 0.02 1.305 -0 -1.2 0
0.82 0.017 1.34 -0 -1.2 0
0.849 0.018 1.38 -0 -1.2 0
0.873 0.013 1.415 -0 -1.2 0
0.907 0.019 1.463 -0 -1.2 0
0.938 0.016 1.505 -0 -1.2 0
0.973 0.018 1.555 -0 -1.2 0
1.008 0.018 1.604 -0 -1.2 0
1.043 0.017 1.654 -0 -1.2 0
1.08 0.013 1.703 -0 -1.2 0
1.125 0.018 1.768 -0 -1.2 0
1.166 0.015 1.826 -0 -1.2 0
1.207 0.011 1.884 -0 -1.2 0
1.26 0.014 1.958 -0 -1.2 0
1.307 0.01 2.024 -0 -1.2 0
1.365 0.011 2.105 -0 -1.2 0
1.423 0.01 2.187 -0 -1.2 0
1.493 0.013 2.284 -0 -1.2 0
1.562 0.013 2.382 -0 -1.2 0
1.638 0.013 2.488 -0 -1.2 0
1.73 0.018 2.617 -0 -1.2 0
1.823 0.019 2.748 -0 -1.2 0
1.927 0.022 2.894 -0 -1.2 0
2.048 0.027 3.065 -0 -1.2 0
2.192 0.037 3.267 -0 -1.2 0
2.337 0.04 3.471 -0 -1.2 0
2.494 0.038 3.691 -0 -1.2 0
2.679 0.04 3.951 -0 -1.2 0
2.899 0.044 4.261 -0 -1.2 0
3.159 0.051 4.627 -0 -1.2 0
3.433 0.046 5.009 -0 -1.2 0
3.821 0.06 5.555 -0 -1.2 0
4.238 0.058 6.141 -0 -1.2 0
4.766 0.059 6.882 -0 -1.2 0
5.445 0.06 7.836 -0 -1.2 0
6.298 0.054 9.033 -0 -1.2 0
7.482 0.045 10.695 -0 -1.2 0
8.201 -0.09 11.7 -0 -1.2 0
8.191 -0.338 11.676 -0 -1.2 0
8.201 -0.583 11.683 -0 -1.2 0
8.21 -0.827 11.685 -0 -1.2 0
8.21 -1.072 11.676 -0 -1.2 0
8.208 -1.315 11.664 -0 -1.2 0
8.214 -1.56 11.664 -0 -1.2 0
8.218 -1.805 11.66 -0 -1.2 0
8.225 -2.051 11.662 -0 -1.2 0
8.224 -2.297 11.652 -0 -1.2 0
8.221 -2.542 11.638 -0 -1.2 0
8.226 -2.79 11.637 -0 -1.2 0
8.23 -3.038 11.632 -0 -1.2 0
8.23 -3.287 11.624 -0 -1.2 0
8.159 -3.515 11.516 -0 -1.2 0
7.983 -3.707 11.262 -0 -1.2 0
8.045 -3.974 11.339 -0 -1.2 0
8.047 -4.222 11.333 -0 -1.2 0
8.036 -4.467 11.307 -0 -1.2 0
8.05 -4.725 11.318 -0 -1.2 0
0.728 0.016 1.151 -0 -1.2 0
0.752 0.017 1.184 -0 -1.2 0
0.777 0.017 1.215 -0 -1.2 0
0.807 0.023 1.254 -0 -1.2 0
0.828 0.014 1.282 -0 -1.2 0
0.863 0.025 1.328 -0 -1.2 0
0.889 0.02 1.362 -0 -1.2 0
0.92 0.021 1.402 -0 -1.2 0
0.955 0.026 1.449 -0 -1.2 0
0.987 0.023 1.49 -0 -1.2 0
1.019 0.019 1.531 -0 -1.2 0
1.056 0.019 1.579 -0 -1.2 0
1.087 0.013 1.621 -0 -1.2 0
1.135 0.02 1.684 -0 -1.2 0
1.178 0.02 1.74 -0 -1.2 0
1.221 0.017 1.796 -0 -1.2 0
1.265 0.013 1.852 -0 -1.2 0
1.319 0.016 1.924 -0 -1.2 0
1.374 0.016 1.996 -0 -1.2 0
1.435 0.018 2.075 -0 -1.2 0
1.496 0.016 2.155 -0 -1.2 0
1.569 0.02 2.25 -0 -1.2 0
1.636 0.015 2.338 -0 -1.2 0
1.72 0.018 2.448 -0 -1.2 0
1.812 0.021 2.568 -0 -1.2 0
1.914 0.025 2.702 -0 -1.2 0
2.029 0.031 2.852 -0 -1.2 0
2.157 0.036 3.019 -0 -1.2 0
2.295 0.041 3.201 -0 -1.2 0
2.459 0.048 3.415 -0 -1.2 0
2.612 0.042 3.614 -0 -1.2 0
2.812 0.047 3.876 -0 -1.2 0
3.036 0.049 4.169 -0 -1.2 0
3.31 0.056 4.526 -0 -1.2 0
3.619 0.06 4.932 -0 -1.2 0
4.001 0.066 5.431 -0 -1.2 0
4.44 0.065 6.003 -0 -1.2 0
5.005 0.07 6.742 -0 -1.2 0
5.74 0.077 7.703 -0 -1.2 0
6.627 0.069 8.863 -0 -1.2 0
7.795 0.051 10.389 -0 -1.2 0
9.576 0.039 12.715 -0 -1.2 0
12.293 0.011 16.266 -0 -1.2 0
12.303 -0.34 16.267 -0 -1.2 0
7.923 -2.414 10.471 -0 -1.2 0
8.021 -2.661 10.59 -0 -1.2 0
8.062 -2.9 10.635 -0 -1.2 0
8.045 -3.129 10.605 -0 -1.2 0
8.038 -3.36 10.589 -0 -1.2 0
8.304 -3.677 10.925 -0 -1.2 0
8.333 -3.93 10.956 -0 -1.2 0
8.348 -4.181 10.965 -0 -1.2 0
8.336 -4.424 10.94 -0 -1.2 0
8.09 -4.566 10.615 -0 -1.2 0
8.026 -4.782 10.524 -0 -1.2 0
0.762 0.017 1.134 -0 -1.2 0
0.788 0.018 1.165 -0 -1.2 0
0.814 0.018 1.197 -0 -1.2 0
0.845 0.025 1.235 -0 -1.2 0
0.872 0.023 1.267 -0 -1.2 0
0.899 0.02 1.3 -0 -1.2 0
0.93 0.021 1.339 -0 -1.2 0
0.964 0.022 1.377 -0 -1.2 0
1.001 0.027 1.423 -0 -1.2 0
1.034 0.025 1.463 -0 -1.2 0
1.062 0.016 1.497 -0 -1.2 0
1.105 0.021 1.55 -0 -1.2 0
1.14 0.014 1.591 -0 -1.2 0
1.184 0.016 1.644 -0 -1.2 0
1.228 0.017 1.699 -0 -1.2 0
1.279 0.019 1.76 -0 -1.2 0
1.331 0.02 1.823 -0 -1.2 0
1.382 0.018 1.884 -0 -1.2 0
1.439 0.018 1.954 -0 -1.2 0
1.503 0.02 2.031 -0 -1.2 0
1.573 0.023 2.116 -0 -1.2 0
1.643 0.022 2.201 -0 -1.2 0
1.726 0.026 2.301 -0 -1.2 0
1.808 0.025 2.402 -0 -1.2 0
1.91 0.032 2.524 -0 -1.2 0
2.005 0.028 2.64 -0 -1.2 0
2.126 0.034 2.786 -0 -1.2 0
2.259 0.04 2.948 -0 -1.2 0
2.417 0.05 3.139 -0 -1.2 0
2.582 0.055 3.339 -0 -1.2 0
2.742 0.049 3.533 -0 -1.2 0
2.946 0.052 3.78 -0 -1.2 0
3.187 0.057 4.073 -0 -1.2 0
3.468 0.061 4.411 -0 -1.2 0
3.785 0.063 4.797 -0 -1.2 0
4.187 0.071 5.282 -0 -1.2 0
4.658 0.074 5.853 -0 -1.2 0
5.262 0.082 6.586 -0 -1.2 0
5.982 0.08 7.457 -0 -1.2 0
6.963 0.082 8.645 -0 -1.2 0
8.111 0.055 10.033 -0 -1.2 0
10.249 0.08 12.624 -0 -1.2 0
7.993 -1.484 9.841 -0 -1.2 0
8.074 -1.707 9.931 -0 -1.2 0
8.101 -1.929 9.957 -0 -1.2 0
8.055 -2.143 9.896 -0 -1.2 0
8.142 -2.377 9.992 -0 -1.2 0
8.371 -2.642 10.26 -0 -1.2 0
8.413 -2.88 10.304 -0 -1.2 0
8.516 -3.136 10.419 -0 -1.2 0
9.562 -4.188 11.653 -0 -1.2 0
9.574 -4.462 11.658 -0 -1.2 0
8.532 -4.334 10.4 -0 -1.2 0
8.51 -4.569 10.367 -0 -1.2 0
8.474 -4.798 10.315 -0 -1.2 0
4.693 -5.866 5.701 -0 -1.2 0
4.793 -6.34 5.807 -0 -1.2 0
4.673 -6.395 5.661 -0 -1.2 0
4.843 -7.638 5.824 -0 -1.2 0
0.794 0.018 1.118 -0 -1.2 0
0.826 0.026 1.154 -0 -1.2 0
0.848 0.019 1.18 -0 -1.2 0
0.88 0.025 1.216 -0 -1.2 0
0.904 0.016 1.242 -0 -1.2 0
0.937 0.021 1.28 -0 -1.2 0
0.965 0.016 1.311 -0 -1.2 0
0.998 0.017 1.349 -0 -1.2 0
1.037 0.022 1.393 -0 -1.2 0
1.071 0.019 1.432 -0 -1.2 0
1.116 0.028 1.483 -0 -1.2 0
1.152 0.022 1.523 -0 -1.2 0
1.192 0.021 1.568 -0 -1.2 0
1.238 0.022 1.62 -0 -1.2 0
1.28 0.018 1.667 -0 -1.2 0
1.333 0.02 1.727 -0 -1.2 0
1.386 0.021 1.787 -0 -1.2 0
1.439 0.019 1.847 -0 -1.2 0
1.499 0.019 1.915 -0 -1.2 0
1.571 0.025 1.997 -0 -1.2 0
1.638 0.024 2.072 -0 -1.2 0
1.717 0.027 2.161 -0 -1.2 0
1.797 0.027 2.252 -0 -1.2 0
1.895 0.034 2.363 -0 -1.2 0
1.989 0.033 2.468 -0 -1.2 0
2.106 0.041 2.603 -0 -1.2 0
2.214 0.035 2.723 -0 -1.2 0
2.353 0.041 2.88 -0 -1.2 0
2.523 0.055 3.073 -0 -1.2 0
2.689 0.057 3.26 -0 -1.2 0
2.874 0.059 3.47 -0 -1.2 0
3.086 0.061 3.709 -0 -1.2 0
3.331 0.063 3.986 -0 -1.2 0
3.635 0.072 4.331 -0 -1.2 0
3.961 0.071 4.698 -0 -1.2 0
4.365 0.076 5.155 -0 -1.2 0
4.875 0.084 5.731 -0 -1.2 0
5.492 0.089 6.428 -0 -1.2 0
6.248 0.087 7.282 -0 -1.2 0
7.242 0.086 8.405 -0 -1.2 0
8.528 0.073 9.858 -0 -1.2 0
7.955 -0.424 9.196 -0 -1.2 0
8.059 -0.626 9.305 -0 -1.2 0
8.093 -0.835 9.337 -0 -1.2 0
8.098 -1.046 9.336 -0 -1.2 0
8.047 -1.255 9.272 -0 -1.2 0
8.272 -1.476 9.521 -0 -1.2 0
8.39 -1.7 9.646 -0 -1.2 0
8.431 -1.923 9.686 -0 -1.2 0
10.316 -4.296 11.74 -0 -1.2 0
10.294 -4.568 11.707 -0 -1.2 0
5.385 -5.795 6.123 -0 -1.2 0
4.936 -5.918 5.612 -0 -1.2 0
4.951 -6.493 5.612 -0 -1.2 0
4.858 -6.581 5.503 -0 -1.2 0
5.055 -7.661 5.692 -0 -1.2 0
0.823 0.018 1.1 -0 -1.2 0
0.852 0.019 1.13 -0 -1.2 0
0.881 0.02 1.16 -0 -1.2 0
0.904 0.013 1.185 -0 -1.2 0
0.943 0.024 1.226 -0 -1.2 0
0.972 0.021 1.257 -0 -1.2 0
1.006 0.022 1.293 -0 -1.2 0
1.041 0.024 1.33 -0 -1.2 0
1.072 0.017 1.361 -0 -1.2 0
1.123 0.032 1.416 -0 -1.2 0
1.153 0.022 1.448 -0 -1.2 0
1.201 0.029 1.499 -0 -1.2 0
1.237 0.022 1.536 -0 -1.2 0
1.28 0.018 1.581 -0 -1.2 0
1.334 0.024 1.638 -0 -1.2 0
1.383 0.021 1.69 -0 -1.2 0
1.432 0.017 1.742 -0 -1.2 0
1.494 0.02 1.807 -0 -1.2 0
1.562 0.025 1.879 -0 -1.2 0
1.624 0.023 1.945 -0 -1.2 0
1.7 0.025 2.024 -0 -1.2 0
1.782 0.029 2.111 -0 -1.2 0
1.865 0.028 2.199 -0 -1.2 0
1.967 0.036 2.306 -0 -1.2 0
2.07 0.037 2.416 -0 -1.2 0
2.18 0.038 2.531 -0 -1.2 0
2.304 0.041 2.662 -0 -1.2 0
2.442 0.043 2.807 -0 -1.2 0
2.619 0.057 2.995 -0 -1.2 0
2.797 0.062 3.183 -0 -1.2 0
2.99 0.063 3.386 -0 -1.2 0
3.211 0.065 3.619 -0 -1.2 0
3.465 0.068 3.887 -0 -1.2 0
3.767 0.073 4.207 -0 -1.2 0
4.125 0.078 4.584 -0 -1.2 0
4.525 0.077 5.006 -0 -1.2 0
5.067 0.088 5.578 -0 -1.2 0
5.68 0.088 6.225 -0 -1.2 0
6.477 0.09 7.066 -0 -1.2 0
7.483 0.086 8.127 -0 -1.2 0
8.101 -0.021 8.775 -0 -1.2 0
8.088 -0.228 8.755 -0 -1.2 0
8.079 -0.433 8.74 -0 -1.2 0
8.364 -0.621 9.034 -0 -1.2 0
8.379 -0.831 9.044 -0 -1.2 0
8.473 -1.04 9.137 -0 -1.2 0
11.043 -4.391 11.747 -0 -1.2 0
11.059 -4.685 11.755 -0 -1.2 0
5.579 -5.787 5.941 -0 -1.2 0
5.684 -6.065 6.044 -0 -1.2 0
5.09 -5.887 5.422 -0 -1.2 0
5.039 -6.017 5.365 -0 -1.2 0
5.082 -6.627 5.391 -0 -1.2 0
4.842 -6.551 5.141 -0 -1.2 0
3.824 -5.537 4.098 -0 -1.2 0
3.692 -5.532 3.958 -0 -1.2 0
4.534 -6.76 4.81 -0 -1.2 0
4.42 -6.808 4.689 -0 -1.2 0
4.363 -6.929 4.624 -0 -1.2 0
2.442 -4.424 2.674 -0 -1.2 0
0.856 0.019 1.081 -0 -1.2 0
0.885 0.02 1.11 -0 -1.2 0
0.914 0.02 1.139 -0 -1.2 0
0.949 0.027 1.173 -0 -1.2 0
0.979 0.025 1.203 -0 -1.2 0
1.014 0.028 1.238 -0 -1.2 0
1.046 0.023 1.267 -0 -1.2 0
1.082 0.024 1.303 -0 -1.2 0
1.118 0.024 1.339 -0 -1.2 0
1.161 0.027 1.381 -0 -1.2 0
1.204 0.029 1.423 -0 -1.2 0
1.241 0.024 1.46 -0 -1.2 0
1.285 0.023 1.502 -0 -1.2 0
1.329 0.019 1.545 -0 -1.2 0
1.379 0.02 1.595 -0 -1.2 0
1.43 0.017 1.645 -0 -1.2 0
1.488 0.018 1.7 -0 -1.2 0
1.545 0.017 1.757 -0 -1.2 0
1.616 0.021 1.826 -0 -1.2 0
1.687 0.024 1.897 -0 -1.2 0
1.766 0.026 1.973 -0 -1.2 0
1.857 0.034 2.063 -0 -1.2 0
1.943 0.033 2.148 -0 -1.2 0
2.043 0.037 2.245 -0 -1.2 0
2.15 0.039 2.35 -0 -1.2 0
2.257 0.037 2.455 -0 -1.2 0
2.386 0.039 2.582 -0 -1.2 0
2.534 0.045 2.728 -0 -1.2 0
2.712 0.056 2.903 -0 -1.2 0
2.891 0.058 3.077 -0 -1.2 0
3.098 0.062 3.28 -0 -1.2 0
3.332 0.067 3.511 -0 -1.2 0
3.598 0.07 3.77 -0 -1.2 0
3.897 0.071 4.064 -0 -1.2 0
4.275 0.079 4.435 -0 -1.2 0
4.69 0.078 4.841 -0 -1.2 0
5.232 0.085 5.373 -0 -1.2 0
5.896 0.092 6.024 -0 -1.2 0
6.696 0.089 6.809 -0 -1.2 0
7.761 0.09 7.851 -0 -1.2 0
8.422 -0.014 8.498 -0 -1.2 0
8.509 -0.211 8.577 -0 -1.2 0
11.922 -4.518 11.798 -0 -1.2 0
11.854 -4.796 11.722 -0 -1.2 0
6.834 -4.642 6.807 -0 -1.2 0
6.923 -5.264 6.876 -0 -1.2 0
6.106 -5.853 6.058 -0 -1.2 0
5.342 -5.588 5.317 -0 -1.2 0
5.835 -6.201 5.782 -0 -1.2 0
5.278 -5.884 5.246 -0 -1.2 0
5.119 -5.912 5.089 -0 -1.2 0
5.342 -6.312 5.296 -0 -1.2 0
4.923 -6.074 4.893 -0 -1.2 0
3.387 -4.618 3.43 -0 -1.2 0
5.236 -6.785 5.179 -0 -1.2 0
4.618 -6.282 4.588 -0 -1.2 0
3.767 -5.458 3.778 -0 -1.2 0
4.56 -6.584 4.522 -0 -1.2 0
3.215 -5.069 3.247 -0 -1.2 0
4.024 -6.269 4.005 -0 -1.2 0
2.567 -4.472 2.63 -0 -1.2 0
0.883 0.019 1.064 -0 -1.2 0
0.918 0.028 1.096 -0 -1.2 0
0.943 0.021 1.119 -0 -1.2 0
0.974 0.02 1.148 -0 -1.2 0
1.01 0.025 1.181 -0 -1.2 0
1.041 0.023 1.21 -0 -1.2 0
1.078 0.024 1.243 -0 -1.2 0
1.116 0.025 1.277 -0 -1.2 0
1.153 0.024 1.312 -0 -1.2 0
1.191 0.022 1.347 -0 -1.2 0
1.236 0.024 1.388 -0 -1.2 0
1.281 0.024 1.429 -0 -1.2 0
1.325 0.024 1.47 -0 -1.2 0
1.377 0.025 1.517 -0 -1.2 0
1.422 0.02 1.559 -0 -1.2 0
1.482 0.023 1.614 -0 -1.2 0
1.541 0.024 1.667 -0 -1.2 0
1.594 0.018 1.716 -0 -1.2 0
1.666 0.022 1.783 -0 -1.2 0
1.74 0.025 1.851 -0 -1.2 0
1.828 0.031 1.931 -0 -1.2 0
1.916 0.035 2.012 -0 -1.2 0
2.011 0.039 2.1 -0 -1.2 0
2.114 0.041 2.194 -0 -1.2 0
2.217 0.04 2.289 -0 -1.2 0
2.329 0.038 2.391 -0 -1.2 0
2.461 0.04 2.513 -0 -1.2 0
2.615 0.046 2.654 -0 -1.2 0
2.798 0.057 2.823 -0 -1.2 0
2.968 0.055 2.979 -0 -1.2 0
3.209 0.069 3.201 -0 -1.2 0
3.452 0.074 3.424 -0 -1.2 0
3.725 0.077 3.674 -0 -1.2 0
4.013 0.071 3.938 -0 -1.2 0
