# .PCD v.7 - Point Cloud Data file format
FIELDS x y z vp_x vp_y vp_z
SIZE 4 4 4 4 4 4
TYPE F F F F F F
COUNT 1 1 1 1 1 1
WIDTH 1540
HEIGHT 1
VIEWPOINT 0 -1.20013 0 1 0 0 0
POINTS 1540
DATA ascii
-7.704 -21.282 20.732 -0 -1.2 0
-7.56 -21.665 20.406 -0 -1.2 0
-7.414 -22.043 20.074 -0 -1.2 0
-7.265 -22.415 19.736 -0 -1.2 0
-10.283 -0.187 28.099 -0 -1.2 0
-10.272 -0.71 28.115 -0 -1.2 0
-10.256 -1.233 28.123 -0 -1.2 0
-10.239 -1.755 28.122 -0 -1.2 0
-10.218 -2.278 28.113 -0 -1.2 0
-10.193 -2.802 28.094 -0 -1.2 0
-10.166 -3.323 28.068 -0 -1.2 0
-10.136 -3.845 28.033 -0 -1.2 0
-10.102 -4.365 27.989 -0 -1.2 0
-9.837 -7.464 27.548 -0 -1.2 0
-9.534 -9.993 26.95 -0 -1.2 0
-9.158 -12.455 26.145 -0 -1.2 0
-9.074 -12.937 25.96 -0 -1.2 0
-8.988 -13.417 25.768 -0 -1.2 0
-8.899 -13.892 25.567 -0 -1.2 0
-8.807 -14.364 25.358 -0 -1.2 0
-8.712 -14.83 25.142 -0 -1.2 0
-8.615 -15.294 24.918 -0 -1.2 0
-8.516 -15.753 24.685 -0 -1.2 0
-8.413 -16.207 24.447 -0 -1.2 0
-8.308 -16.657 24.2 -0 -1.2 0
-8.201 -17.102 23.946 -0 -1.2 0
-8.09 -17.542 23.685 -0 -1.2 0
-7.978 -17.977 23.416 -0 -1.2 0
-7.863 -18.407 23.14 -0 -1.2 0
-7.745 -18.832 22.858 -0 -1.2 0
-7.626 -19.251 22.568 -0 -1.2 0
-7.504 -19.664 22.271 -0 -1.2 0
-7.379 -20.073 21.967 -0 -1.2 0
-7.253 -20.475 21.657 -0 -1.2 0
-7.125 -20.871 21.34 -0 -1.2 0
-6.993 -21.262 21.017 -0 -1.2 0
-6.861 -21.646 20.687 -0 -1.2 0
-6.725 -22.024 20.351 -0 -1.2 0
-6.588 -22.396 20.009 -0 -1.2 0
-9.226 0.366 28.458 -0 -1.2 0
-9.216 -0.157 28.482 -0 -1.2 0
-9.203 -0.679 28.499 -0 -1.2 0
-9.188 -1.202 28.507 -0 -1.2 0
-9.17 -1.725 28.506 -0 -1.2 0
-9.149 -2.247 28.496 -0 -1.2 0
-9.126 -2.771 28.479 -0 -1.2 0
-9.1 -3.293 28.451 -0 -1.2 0
-9.07 -3.814 28.416 -0 -1.2 0
-9.038 -4.335 28.372 -0 -1.2 0
-9.004 -4.855 28.319 -0 -1.2 0
-8.444 -10.462 27.172 -0 -1.2 0
-8.237 -11.941 26.682 -0 -1.2 0
-8.163 -12.427 26.503 -0 -1.2 0
-8.085 -12.909 26.315 -0 -1.2 0
-8.007 -13.389 26.12 -0 -1.2 0
-7.925 -13.864 25.917 -0 -1.2 0
-7.84 -14.336 25.705 -0 -1.2 0
-7.754 -14.803 25.486 -0 -1.2 0
-7.665 -15.267 25.259 -0 -1.2 0
-7.574 -15.726 25.024 -0 -1.2 0
-7.481 -16.181 24.782 -0 -1.2 0
-7.385 -16.631 24.532 -0 -1.2 0
-7.287 -17.075 24.275 -0 -1.2 0
-7.186 -17.516 24.01 -0 -1.2 0
-7.084 -17.951 23.737 -0 -1.2 0
-6.98 -18.382 23.458 -0 -1.2 0
-6.873 -18.807 23.172 -0 -1.2 0
-6.764 -19.226 22.878 -0 -1.2 0
-6.653 -19.64 22.577 -0 -1.2 0
-6.54 -20.049 22.269 -0 -1.2 0
-6.426 -20.451 21.955 -0 -1.2 0
-6.308 -20.848 21.634 -0 -1.2 0
-6.19 -21.239 21.307 -0 -1.2 0
-6.069 -21.623 20.973 -0 -1.2 0
-5.946 -22.002 20.632 -0 -1.2 0
-5.822 -22.374 20.285 -0 -1.2 0
-8.239 -0.694 28.808 -0 -1.2 0
-8.223 -1.216 28.816 -0 -1.2 0
-8.206 -1.739 28.814 -0 -1.2 0
-8.185 -2.262 28.803 -0 -1.2 0
-8.162 -2.785 28.784 -0 -1.2 0
-8.137 -3.307 28.755 -0 -1.2 0
-8.109 -3.829 28.719 -0 -1.2 0
-7.846 -7.448 28.216 -0 -1.2 0
-7.643 -9.477 27.739 -0 -1.2 0
-7.466 -10.972 27.293 -0 -1.2 0
-7.402 -11.464 27.127 -0 -1.2 0
-7.269 -12.44 26.771 -0 -1.2 0
-7.198 -12.922 26.581 -0 -1.2 0
-7.126 -13.402 26.383 -0 -1.2 0
-7.052 -13.877 26.177 -0 -1.2 0
-6.974 -14.349 25.962 -0 -1.2 0
-6.896 -14.816 25.74 -0 -1.2 0
-6.815 -15.28 25.509 -0 -1.2 0
-6.732 -15.739 25.271 -0 -1.2 0
-6.647 -16.193 25.026 -0 -1.2 0
-6.559 -16.643 24.773 -0 -1.2 0
-6.47 -17.088 24.512 -0 -1.2 0
-6.379 -17.528 24.243 -0 -1.2 0
-6.286 -17.963 23.968 -0 -1.2 0
-6.191 -18.394 23.685 -0 -1.2 0
-6.094 -18.818 23.394 -0 -1.2 0
-5.996 -19.238 23.097 -0 -1.2 0
-5.894 -19.651 22.792 -0 -1.2 0
-5.793 -20.06 22.481 -0 -1.2 0
-5.688 -20.463 22.163 -0 -1.2 0
-5.582 -20.859 21.838 -0 -1.2 0
-5.475 -21.249 21.506 -0 -1.2 0
-5.365 -21.634 21.168 -0 -1.2 0
-5.254 -22.012 20.824 -0 -1.2 0
-5.142 -22.385 20.472 -0 -1.2 0
-7.206 -2.821 29.05 -0 -1.2 0
-7.181 -3.342 29.02 -0 -1.2 0
-7.155 -3.864 28.982 -0 -1.2 0
-6.953 -6.97 28.566 -0 -1.2 0
-6.868 -7.993 28.357 -0 -1.2 0
-6.672 -10.012 27.837 -0 -1.2 0
-6.619 -10.51 27.685 -0 -1.2 0
-6.563 -11.006 27.525 -0 -1.2 0
-6.506 -11.498 27.357 -0 -1.2 0
-6.445 -11.987 27.18 -0 -1.2 0
-6.384 -12.473 26.995 -0 -1.2 0
-6.32 -12.955 26.802 -0 -1.2 0
-6.254 -13.435 26.601 -0 -1.2 0
-6.187 -13.909 26.391 -0 -1.2 0
-6.118 -14.381 26.174 -0 -1.2 0
-6.047 -14.848 25.949 -0 -1.2 0
-5.973 -15.311 25.715 -0 -1.2 0
-5.898 -15.77 25.474 -0 -1.2 0
-5.821 -16.224 25.226 -0 -1.2 0
-5.743 -16.674 24.968 -0 -1.2 0
-5.662 -17.118 24.704 -0 -1.2 0
-5.581 -17.558 24.433 -0 -1.2 0
-5.497 -17.993 24.154 -0 -1.2 0
-5.412 -18.423 23.866 -0 -1.2 0
-5.324 -18.847 23.573 -0 -1.2 0
-5.236 -19.266 23.272 -0 -1.2 0
-5.146 -19.68 22.964 -0 -1.2 0
-5.054 -20.088 22.648 -0 -1.2 0
-4.961 -20.49 22.327 -0 -1.2 0
-4.865 -20.886 21.997 -0 -1.2 0
-4.769 -21.276 21.662 -0 -1.2 0
-4.672 -21.66 21.32 -0 -1.2 0
-4.572 -22.038 20.971 -0 -1.2 0
-4.471 -22.41 20.616 -0 -1.2 0
-6.164 -2.861 29.301 -0 -1.2 0
-6.141 -3.382 29.27 -0 -1.2 0
-6.116 -3.904 29.23 -0 -1.2 0
-6.09 -4.424 29.181 -0 -1.2 0
-6.031 -5.463 29.056 -0 -1.2 0
-5.999 -5.98 28.981 -0 -1.2 0
-5.966 -6.495 28.896 -0 -1.2 0
-5.929 -7.009 28.803 -0 -1.2 0
-5.892 -7.522 28.701 -0 -1.2 0
-5.853 -8.032 28.59 -0 -1.2 0
-5.811 -8.54 28.471 -0 -1.2 0
-5.768 -9.045 28.343 -0 -1.2 0
-5.724 -9.549 28.205 -0 -1.2 0
-5.678 -10.05 28.059 -0 -1.2 0
-5.63 -10.548 27.906 -0 -1.2 0
-5.579 -11.044 27.743 -0 -1.2 0
-5.528 -11.535 27.572 -0 -1.2 0
-5.475 -12.025 27.393 -0 -1.2 0
-5.421 -12.51 27.205 -0 -1.2 0
-5.364 -12.992 27.009 -0 -1.2 0
-5.306 -13.471 26.805 -0 -1.2 0
-5.246 -13.946 26.593 -0 -1.2 0
-5.184 -14.417 26.373 -0 -1.2 0
-5.121 -14.883 26.143 -0 -1.2 0
-5.057 -15.347 25.907 -0 -1.2 0
-4.991 -15.805 25.663 -0 -1.2 0
-4.923 -16.259 25.411 -0 -1.2 0
-4.854 -16.708 25.151 -0 -1.2 0
-4.784 -17.152 24.883 -0 -1.2 0
-4.711 -17.592 24.608 -0 -1.2 0
-4.638 -18.026 24.326 -0 -1.2 0
-4.563 -18.456 24.035 -0 -1.2 0
-4.486 -18.88 23.738 -0 -1.2 0
-4.409 -19.298 23.433 -0 -1.2 0
-4.329 -19.711 23.122 -0 -1.2 0
-4.249 -20.119 22.802 -0 -1.2 0
-4.167 -20.521 22.477 -0 -1.2 0
-4.085 -20.916 22.145 -0 -1.2 0
-4 -21.306 21.804 -0 -1.2 0
-3.915 -21.689 21.459 -0 -1.2 0
-3.829 -22.067 21.107 -0 -1.2 0
-3.741 -22.438 20.747 -0 -1.2 0
-5.187 -2.899 29.502 -0 -1.2 0
-5.166 -3.421 29.47 -0 -1.2 0
-5.142 -3.942 29.427 -0 -1.2 0
-5.117 -4.463 29.377 -0 -1.2 0
-5.092 -4.983 29.318 -0 -1.2 0
-5.063 -5.501 29.249 -0 -1.2 0
-5.035 -6.018 29.171 -0 -1.2 0
-5.003 -6.533 29.085 -0 -1.2 0
-4.971 -7.047 28.99 -0 -1.2 0
-4.937 -7.559 28.886 -0 -1.2 0
-4.902 -8.069 28.773 -0 -1.2 0
-4.864 -8.577 28.652 -0 -1.2 0
-4.827 -9.083 28.521 -0 -1.2 0
-4.787 -9.586 28.382 -0 -1.2 0
-4.745 -10.087 28.235 -0 -1.2 0
-4.702 -10.585 28.079 -0 -1.2 0
-4.658 -11.08 27.914 -0 -1.2 0
-4.612 -11.572 27.741 -0 -1.2 0
-4.565 -12.061 27.559 -0 -1.2 0
-4.517 -12.546 27.368 -0 -1.2 0
-4.467 -13.027 27.17 -0 -1.2 0
-4.415 -13.507 26.964 -0 -1.2 0
-4.364 -13.981 26.748 -0 -1.2 0
-4.309 -14.452 26.525 -0 -1.2 0
-4.254 -14.918 26.295 -0 -1.2 0
-4.197 -15.381 26.056 -0 -1.2 0
-4.139 -15.838 25.808 -0 -1.2 0
-4.08 -16.292 25.553 -0 -1.2 0
-4.021 -16.741 25.291 -0 -1.2 0
-3.959 -17.185 25.021 -0 -1.2 0
-3.896 -17.624 24.742 -0 -1.2 0
-3.832 -18.058 24.457 -0 -1.2 0
-3.767 -18.487 24.164 -0 -1.2 0
-3.7 -18.911 23.864 -0 -1.2 0
-3.633 -19.329 23.555 -0 -1.2 0
-3.564 -19.742 23.241 -0 -1.2 0
-3.495 -20.149 22.919 -0 -1.2 0
-3.424 -20.55 22.59 -0 -1.2 0
-3.353 -20.945 22.255 -0 -1.2 0
-3.279 -21.335 21.912 -0 -1.2 0
-3.206 -21.718 21.562 -0 -1.2 0
-3.132 -22.095 21.207 -0 -1.2 0
-3.056 -22.466 20.845 -0 -1.2 0
-4.206 -2.939 29.67 -0 -1.2 0
-4.185 -3.461 29.635 -0 -1.2 0
-4.163 -3.982 29.593 -0 -1.2 0
-4.141 -4.502 29.54 -0 -1.2 0
-4.116 -5.023 29.479 -0 -1.2 0
-4.091 -5.541 29.409 -0 -1.2 0
-4.065 -6.058 29.33 -0 -1.2 0
-4.036 -6.573 29.242 -0 -1.2 0
-4.008 -7.087 29.145 -0 -1.2 0
-3.977 -7.598 29.039 -0 -1.2 0
-3.946 -8.108 28.925 -0 -1.2 0
-3.913 -8.616 28.801 -0 -1.2 0
-3.879 -9.121 28.669 -0 -1.2 0
-3.844 -9.625 28.528 -0 -1.2 0
-3.808 -10.125 28.379 -0 -1.2 0
-3.77 -10.623 28.22 -0 -1.2 0
-3.732 -11.118 28.053 -0 -1.2 0
-3.692 -11.609 27.877 -0 -1.2 0
-3.651 -12.098 27.694 -0 -1.2 0
-3.609 -12.583 27.501 -0 -1.2 0
-3.566 -13.064 27.301 -0 -1.2 0
-3.521 -13.543 27.092 -0 -1.2 0
-3.476 -14.017 26.875 -0 -1.2 0
-3.43 -14.488 26.65 -0 -1.2 0
-3.382 -14.953 26.416 -0 -1.2 0
-3.334 -15.416 26.174 -0 -1.2 0
-3.285 -15.873 25.925 -0 -1.2 0
-3.234 -16.327 25.668 -0 -1.2 0
-3.182 -16.775 25.402 -0 -1.2 0
-3.131 -17.219 25.129 -0 -1.2 0
-3.077 -17.658 24.849 -0 -1.2 0
-3.023 -18.091 24.561 -0 -1.2 0
-2.968 -18.52 24.265 -0 -1.2 0
-2.911 -18.943 23.962 -0 -1.2 0
-2.854 -19.361 23.652 -0 -1.2 0
-2.796 -19.773 23.334 -0 -1.2 0
-2.737 -20.18 23.01 -0 -1.2 0
-2.678 -20.581 22.678 -0 -1.2 0
-2.617 -20.975 22.34 -0 -1.2 0
-2.556 -21.364 21.995 -0 -1.2 0
-2.493 -21.747 21.643 -0 -1.2 0
-2.431 -22.123 21.284 -0 -1.2 0
-2.368 -22.494 20.919 -0 -1.2 0
-3.142 -2.983 29.815 -0 -1.2 0
-3.124 -3.505 29.779 -0 -1.2 0
-3.103 -4.026 29.734 -0 -1.2 0
-3.083 -4.546 29.68 -0 -1.2 0
-3.061 -5.067 29.617 -0 -1.2 0
-3.038 -5.585 29.545 -0 -1.2 0
-3.014 -6.101 29.465 -0 -1.2 0
-2.99 -6.616 29.376 -0 -1.2 0
-2.964 -7.13 29.277 -0 -1.2 0
-2.938 -7.642 29.169 -0 -1.2 0
-2.911 -8.151 29.052 -0 -1.2 0
-2.882 -8.659 28.927 -0 -1.2 0
-2.853 -9.164 28.794 -0 -1.2 0
-2.823 -9.667 28.65 -0 -1.2 0
-2.792 -10.168 28.499 -0 -1.2 0
-2.76 -10.665 28.338 -0 -1.2 0
-2.728 -11.16 28.17 -0 -1.2 0
-2.695 -11.651 27.992 -0 -1.2 0
-2.66 -12.14 27.806 -0 -1.2 0
-2.625 -12.624 27.612 -0 -1.2 0
-2.589 -13.105 27.409 -0 -1.2 0
-2.553 -13.583 27.198 -0 -1.2 0
-2.516 -14.057 26.979 -0 -1.2 0
-2.477 -14.527 26.751 -0 -1.2 0
-2.439 -14.993 26.515 -0 -1.2 0
-2.399 -15.455 26.271 -0 -1.2 0
-2.358 -15.912 26.02 -0 -1.2 0
-2.317 -16.365 25.759 -0 -1.2 0
-2.275 -16.813 25.492 -0 -1.2 0
-2.233 -17.256 25.217 -0 -1.2 0
-2.189 -17.695 24.934 -0 -1.2 0
-2.146 -18.128 24.643 -0 -1.2 0
-2.101 -18.556 24.346 -0 -1.2 0
-2.056 -18.979 24.04 -0 -1.2 0
-2.01 -19.396 23.727 -0 -1.2 0
-1.963 -19.808 23.407 -0 -1.2 0
-1.916 -20.214 23.08 -0 -1.2 0
-1.868 -20.614 22.746 -0 -1.2 0
-1.82 -21.009 22.405 -0 -1.2 0
-1.771 -21.397 22.057 -0 -1.2 0
-1.722 -21.779 21.702 -0 -1.2 0
-1.672 -22.155 21.341 -0 -1.2 0
-1.621 -22.525 20.974 -0 -1.2 0
-2.313 0.633 29.914 -0 -1.2 0
-2.301 0.11 29.941 -0 -1.2 0
-2.225 -2.504 29.937 -0 -1.2 0
-2.209 -3.027 29.91 -0 -1.2 0
-2.19 -3.548 29.873 -0 -1.2 0
-2.172 -4.07 29.827 -0 -1.2 0
-2.153 -4.59 29.772 -0 -1.2 0
-2.133 -5.11 29.708 -0 -1.2 0
-2.113 -5.628 29.635 -0 -1.2 0
-2.091 -6.145 29.551 -0 -1.2 0
-2.07 -6.659 29.46 -0 -1.2 0
-2.047 -7.173 29.36 -0 -1.2 0
-2.025 -7.684 29.251 -0 -1.2 0
-2.001 -8.194 29.133 -0 -1.2 0
-1.977 -8.701 29.006 -0 -1.2 0
-1.952 -9.206 28.87 -0 -1.2 0
-1.927 -9.709 28.726 -0 -1.2 0
-1.901 -10.209 28.573 -0 -1.2 0
-1.873 -10.706 28.411 -0 -1.2 0
-1.847 -11.201 28.241 -0 -1.2 0
-1.819 -11.692 28.062 -0 -1.2 0
-1.791 -12.18 27.874 -0 -1.2 0
-1.762 -12.665 27.678 -0 -1.2 0
-1.733 -13.145 27.473 -0 -1.2 0
-1.702 -13.623 27.261 -0 -1.2 0
-1.672 -14.096 27.039 -0 -1.2 0
-1.64 -14.566 26.809 -0 -1.2 0
-1.609 -15.031 26.573 -0 -1.2 0
-1.578 -15.493 26.327 -0 -1.2 0
-1.544 -15.95 26.073 -0 -1.2 0
-1.511 -16.403 25.811 -0 -1.2 0
-1.478 -16.85 25.542 -0 -1.2 0
-1.445 -17.293 25.265 -0 -1.2 0
-1.41 -17.731 24.98 -0 -1.2 0
-1.376 -18.164 24.688 -0 -1.2 0
-1.34 -18.592 24.387 -0 -1.2 0
-1.304 -19.014 24.08 -0 -1.2 0
-1.268 -19.431 23.766 -0 -1.2 0
-1.232 -19.842 23.444 -0 -1.2 0
-1.195 -20.248 23.115 -0 -1.2 0
-1.158 -20.648 22.779 -0 -1.2 0
-1.12 -21.041 22.436 -0 -1.2 0
-1.083 -21.429 22.086 -0 -1.2 0
-1.044 -21.81 21.729 -0 -1.2 0
-1.005 -22.186 21.367 -0 -1.2 0
-0.967 -22.555 20.997 -0 -1.2 0
-1.376 0.615 29.988 -0 -1.2 0
-1.363 0.093 30.014 -0 -1.2 0
-1.348 -0.43 30.031 -0 -1.2 0
-1.333 -0.953 30.039 -0 -1.2 0
-1.318 -1.476 30.037 -0 -1.2 0
-1.303 -1.999 30.027 -0 -1.2 0
-1.287 -2.521 30.007 -0 -1.2 0
-1.271 -3.045 29.978 -0 -1.2 0
-1.254 -3.566 29.94 -0 -1.2 0
-1.237 -4.087 29.893 -0 -1.2 0
-1.219 -4.608 29.837 -0 -1.2 0
-1.201 -5.128 29.773 -0 -1.2 0
-1.183 -5.645 29.699 -0 -1.2 0
-1.165 -6.162 29.616 -0 -1.2 0
-1.146 -6.677 29.523 -0 -1.2 0
-1.126 -7.19 29.422 -0 -1.2 0
-1.107 -7.702 29.312 -0 -1.2 0
-1.087 -8.211 29.193 -0 -1.2 0
-1.067 -8.718 29.065 -0 -1.2 0
-1.046 -9.223 28.928 -0 -1.2 0
-1.025 -9.726 28.783 -0 -1.2 0
-1.004 -10.226 28.629 -0 -1.2 0
-0.982 -10.723 28.466 -0 -1.2 0
-0.96 -11.218 28.294 -0 -1.2 0
-0.937 -11.708 28.114 -0 -1.2 0
-0.915 -12.197 27.925 -0 -1.2 0
-0.892 -12.681 27.728 -0 -1.2 0
-0.869 -13.161 27.522 -0 -1.2 0
-0.846 -13.639 27.309 -0 -1.2 0
-0.822 -14.112 27.086 -0 -1.2 0
-0.799 -14.582 26.855 -0 -1.2 0
-0.774 -15.047 26.617 -0 -1.2 0
-0.75 -15.509 26.37 -0 -1.2 0
-0.725 -15.965 26.115 -0 -1.2 0
-0.7 -16.418 25.852 -0 -1.2 0
-0.675 -16.865 25.582 -0 -1.2 0
-0.65 -17.308 25.304 -0 -1.2 0
-0.625 -17.746 25.018 -0 -1.2 0
-0.599 -18.178 24.724 -0 -1.2 0
-0.573 -18.606 24.423 -0 -1.2 0
-0.546 -19.028 24.114 -0 -1.2 0
-0.52 -19.445 23.799 -0 -1.2 0
-0.494 -19.856 23.475 -0 -1.2 0
-0.468 -20.261 23.145 -0 -1.2 0
-0.441 -20.661 22.808 -0 -1.2 0
-0.413 -21.054 22.463 -0 -1.2 0
-0.387 -21.442 22.113 -0 -1.2 0
-0.36 -21.823 21.754 -0 -1.2 0
-0.332 -22.198 21.39 -0 -1.2 0
-0.305 -22.568 21.02 -0 -1.2 0
-0.358 0.629 30.036 -0 -1.2 0
-0.329 -0.416 30.078 -0 -1.2 0
-0.313 -0.939 30.085 -0 -1.2 0
-0.298 -1.461 30.084 -0 -1.2 0
-0.283 -1.984 30.073 -0 -1.2 0
-0.268 -2.507 30.053 -0 -1.2 0
-0.251 -3.03 30.025 -0 -1.2 0
-0.236 -3.552 29.987 -0 -1.2 0
-0.221 -4.073 29.939 -0 -1.2 0
-0.205 -4.593 29.882 -0 -1.2 0
-0.188 -5.113 29.817 -0 -1.2 0
-0.173 -5.631 29.743 -0 -1.2 0
-0.157 -6.148 29.659 -0 -1.2 0
-0.141 -6.662 29.567 -0 -1.2 0
-0.125 -7.176 29.466 -0 -1.2 0
-0.109 -7.687 29.354 -0 -1.2 0
-0.092 -8.197 29.235 -0 -1.2 0
-0.075 -8.656 28.923 -0 -1.2 0
-0.06 -9.209 28.97 -0 -1.2 0
-0.044 -9.712 28.824 -0 -1.2 0
-0.027 -10.212 28.67 -0 -1.2 0
-0.011 -10.709 28.506 -0 -1.2 0
0.004 -11.204 28.334 -0 -1.2 0
0.021 -11.694 28.154 -0 -1.2 0
0.037 -12.183 27.964 -0 -1.2 0
0.053 -12.667 27.766 -0 -1.2 0
0.069 -13.148 27.561 -0 -1.2 0
0.086 -13.626 27.346 -0 -1.2 0
0.102 -14.099 27.123 -0 -1.2 0
0.119 -14.569 26.893 -0 -1.2 0
0.135 -15.034 26.653 -0 -1.2 0
0.151 -15.496 26.406 -0 -1.2 0
0.168 -15.952 26.15 -0 -1.2 0
0.184 -16.405 25.888 -0 -1.2 0
0.199 -16.853 25.617 -0 -1.2 0
0.215 -17.295 25.337 -0 -1.2 0
0.232 -17.733 25.051 -0 -1.2 0
0.248 -18.166 24.757 -0 -1.2 0
0.264 -18.594 24.456 -0 -1.2 0
0.279 -19.016 24.147 -0 -1.2 0
0.295 -19.433 23.83 -0 -1.2 0
0.31 -19.844 23.506 -0 -1.2 0
0.326 -20.25 23.175 -0 -1.2 0
0.342 -20.649 22.837 -0 -1.2 0
0.357 -21.043 22.493 -0 -1.2 0
0.372 -21.431 22.141 -0 -1.2 0
0.387 -21.812 21.784 -0 -1.2 0
0.403 -22.188 21.418 -0 -1.2 0
0.417 -22.557 21.047 -0 -1.2 0
0.633 -0.925 30.097 -0 -1.2 0
0.649 -1.447 30.095 -0 -1.2 0
0.664 -1.97 30.084 -0 -1.2 0
0.679 -2.493 30.064 -0 -1.2 0
0.694 -3.016 30.035 -0 -1.2 0
0.709 -3.537 29.997 -0 -1.2 0
0.723 -4.059 29.949 -0 -1.2 0
0.738 -4.579 29.893 -0 -1.2 0
0.751 -5.099 29.826 -0 -1.2 0
0.765 -5.617 29.752 -0 -1.2 0
0.778 -6.134 29.669 -0 -1.2 0
0.792 -6.648 29.575 -0 -1.2 0
0.806 -7.162 29.474 -0 -1.2 0
0.818 -7.674 29.363 -0 -1.2 0
0.831 -8.183 29.243 -0 -1.2 0
0.843 -8.69 29.115 -0 -1.2 0
0.856 -9.195 28.978 -0 -1.2 0
0.867 -9.699 28.832 -0 -1.2 0
0.879 -10.199 28.676 -0 -1.2 0
0.89 -10.696 28.513 -0 -1.2 0
0.901 -11.19 28.341 -0 -1.2 0
0.912 -11.681 28.16 -0 -1.2 0
0.922 -12.17 27.971 -0 -1.2 0
0.933 -12.654 27.773 -0 -1.2 0
0.943 -13.135 27.567 -0 -1.2 0
0.953 -13.613 27.352 -0 -1.2 0
0.962 -14.086 27.129 -0 -1.2 0
0.972 -14.556 26.898 -0 -1.2 0
0.981 -15.021 26.659 -0 -1.2 0
0.99 -15.483 26.411 -0 -1.2 0
0.997 -15.94 26.156 -0 -1.2 0
1.006 -16.393 25.893 -0 -1.2 0
1.013 -16.84 25.621 -0 -1.2 0
1.021 -17.283 25.342 -0 -1.2 0
1.028 -17.721 25.056 -0 -1.2 0
1.035 -18.154 24.761 -0 -1.2 0
1.042 -18.582 24.46 -0 -1.2 0
1.047 -19.004 24.151 -0 -1.2 0
1.054 -19.422 23.834 -0 -1.2 0
1.059 -19.833 23.51 -0 -1.2 0
1.064 -20.239 23.179 -0 -1.2 0
1.069 -20.638 22.841 -0 -1.2 0
1.074 -21.032 22.497 -0 -1.2 0
1.078 -21.42 22.145 -0 -1.2 0
1.082 -21.802 21.786 -0 -1.2 0
1.086 -22.177 21.421 -0 -1.2 0
1.089 -22.547 21.05 -0 -1.2 0
1.604 -0.909 30.078 -0 -1.2 0
1.621 -1.432 30.075 -0 -1.2 0
1.635 -1.955 30.065 -0 -1.2 0
1.65 -2.477 30.044 -0 -1.2 0
1.664 -3.001 30.014 -0 -1.2 0
1.678 -3.522 29.976 -0 -1.2 0
1.691 -4.043 29.928 -0 -1.2 0
1.704 -4.564 29.871 -0 -1.2 0
1.716 -5.084 29.806 -0 -1.2 0
1.727 -5.602 29.731 -0 -1.2 0
1.739 -6.119 29.646 -0 -1.2 0
1.749 -6.633 29.554 -0 -1.2 0
1.759 -7.147 29.452 -0 -1.2 0
1.768 -7.659 29.342 -0 -1.2 0
1.777 -8.168 29.221 -0 -1.2 0
1.786 -8.675 29.093 -0 -1.2 0
1.794 -9.181 28.955 -0 -1.2 0
1.801 -9.684 28.81 -0 -1.2 0
1.808 -10.184 28.654 -0 -1.2 0
1.815 -10.681 28.491 -0 -1.2 0
1.821 -11.176 28.319 -0 -1.2 0
1.826 -11.667 28.138 -0 -1.2 0
1.831 -12.155 27.949 -0 -1.2 0
1.834 -12.64 27.751 -0 -1.2 0
1.839 -13.12 27.545 -0 -1.2 0
1.842 -13.599 27.33 -0 -1.2 0
1.844 -14.072 27.108 -0 -1.2 0
1.846 -14.542 26.875 -0 -1.2 0
1.847 -15.007 26.637 -0 -1.2 0
1.848 -15.47 26.39 -0 -1.2 0
1.848 -15.926 26.134 -0 -1.2 0
1.848 -16.379 25.871 -0 -1.2 0
1.847 -16.827 25.599 -0 -1.2 0
1.846 -17.27 25.32 -0 -1.2 0
1.844 -17.708 25.034 -0 -1.2 0
1.842 -18.141 24.74 -0 -1.2 0
1.839 -18.569 24.439 -0 -1.2 0
1.835 -18.992 24.129 -0 -1.2 0
1.831 -19.409 23.813 -0 -1.2 0
1.827 -19.82 23.49 -0 -1.2 0
1.821 -20.227 23.158 -0 -1.2 0
1.815 -20.627 22.821 -0 -1.2 0
1.809 -21.021 22.476 -0 -1.2 0
1.803 -21.408 22.125 -0 -1.2 0
1.795 -21.79 21.766 -0 -1.2 0
1.787 -22.166 21.402 -0 -1.2 0
1.779 -22.536 21.031 -0 -1.2 0
2.578 1.198 29.941 -0 -1.2 0
2.596 0.676 29.975 -0 -1.2 0
2.614 0.154 30 -0 -1.2 0
2.632 -0.369 30.016 -0 -1.2 0
2.648 -0.892 30.022 -0 -1.2 0
2.664 -1.415 30.02 -0 -1.2 0
2.679 -1.938 30.008 -0 -1.2 0
2.693 -2.46 29.988 -0 -1.2 0
2.707 -2.984 29.958 -0 -1.2 0
2.719 -3.505 29.919 -0 -1.2 0
2.731 -4.026 29.872 -0 -1.2 0
2.742 -4.547 29.815 -0 -1.2 0
2.752 -5.067 29.749 -0 -1.2 0
2.762 -5.585 29.674 -0 -1.2 0
2.77 -6.102 29.59 -0 -1.2 0
2.777 -6.616 29.497 -0 -1.2 0
2.784 -7.13 29.395 -0 -1.2 0
2.791 -7.642 29.284 -0 -1.2 0
2.795 -8.151 29.165 -0 -1.2 0
2.8 -8.659 29.036 -0 -1.2 0
2.803 -9.164 28.899 -0 -1.2 0
2.806 -9.667 28.753 -0 -1.2 0
2.807 -10.168 28.598 -0 -1.2 0
2.808 -10.665 28.434 -0 -1.2 0
2.809 -11.16 28.263 -0 -1.2 0
2.807 -11.65 28.082 -0 -1.2 0
2.806 -12.139 27.893 -0 -1.2 0
2.804 -12.624 27.695 -0 -1.2 0
2.8 -13.105 27.489 -0 -1.2 0
2.796 -13.583 27.274 -0 -1.2 0
2.791 -14.057 27.052 -0 -1.2 0
2.785 -14.527 26.822 -0 -1.2 0
2.779 -14.992 26.582 -0 -1.2 0
2.771 -15.454 26.335 -0 -1.2 0
2.763 -15.911 26.08 -0 -1.2 0
2.753 -16.364 25.817 -0 -1.2 0
2.743 -16.812 25.547 -0 -1.2 0
2.733 -17.255 25.268 -0 -1.2 0
2.721 -17.694 24.982 -0 -1.2 0
2.709 -18.127 24.689 -0 -1.2 0
2.695 -18.555 24.388 -0 -1.2 0
2.681 -18.978 24.079 -0 -1.2 0
2.667 -19.395 23.763 -0 -1.2 0
2.65 -19.807 23.44 -0 -1.2 0
2.634 -20.213 23.111 -0 -1.2 0
2.617 -20.613 22.773 -0 -1.2 0
2.599 -21.007 22.429 -0 -1.2 0
2.58 -21.396 22.079 -0 -1.2 0
2.561 -21.778 21.721 -0 -1.2 0
2.541 -22.154 21.356 -0 -1.2 0
2.519 -22.524 20.986 -0 -1.2 0
3.54 1.214 29.858 -0 -1.2 0
3.597 -0.353 29.931 -0 -1.2 0
3.614 -0.876 29.938 -0 -1.2 0
3.63 -1.399 29.935 -0 -1.2 0
3.645 -1.921 29.924 -0 -1.2 0
3.658 -2.444 29.902 -0 -1.2 0
3.671 -2.967 29.873 -0 -1.2 0
3.683 -3.489 29.834 -0 -1.2 0
3.694 -4.01 29.786 -0 -1.2 0
3.702 -4.53 29.729 -0 -1.2 0
3.711 -5.05 29.663 -0 -1.2 0
3.718 -5.569 29.588 -0 -1.2 0
3.724 -6.085 29.504 -0 -1.2 0
3.729 -6.6 29.411 -0 -1.2 0
3.733 -7.114 29.309 -0 -1.2 0
3.735 -7.626 29.199 -0 -1.2 0
3.737 -8.135 29.079 -0 -1.2 0
3.737 -8.643 28.951 -0 -1.2 0
3.736 -9.148 28.814 -0 -1.2 0
3.734 -9.652 28.668 -0 -1.2 0
3.731 -10.152 28.513 -0 -1.2 0
3.727 -10.649 28.35 -0 -1.2 0
3.722 -11.144 28.178 -0 -1.2 0
3.716 -11.635 27.999 -0 -1.2 0
3.709 -12.124 27.81 -0 -1.2 0
3.7 -12.609 27.612 -0 -1.2 0
3.69 -13.089 27.407 -0 -1.2 0
3.679 -13.568 27.193 -0 -1.2 0
3.668 -14.042 26.97 -0 -1.2 0
3.654 -14.512 26.741 -0 -1.2 0
3.64 -14.977 26.502 -0 -1.2 0
3.625 -15.44 26.256 -0 -1.2 0
3.608 -15.897 26.002 -0 -1.2 0
3.591 -16.35 25.739 -0 -1.2 0
3.573 -16.798 25.469 -0 -1.2 0
3.553 -17.241 25.192 -0 -1.2 0
3.533 -17.68 24.906 -0 -1.2 0
3.51 -18.113 24.613 -0 -1.2 0
3.488 -18.542 24.313 -0 -1.2 0
3.465 -18.964 24.005 -0 -1.2 0
3.439 -19.382 23.69 -0 -1.2 0
3.413 -19.794 23.368 -0 -1.2 0
3.387 -20.2 23.039 -0 -1.2 0
3.358 -20.601 22.703 -0 -1.2 0
3.33 -20.995 22.36 -0 -1.2 0
3.3 -21.383 22.01 -0 -1.2 0
3.269 -21.765 21.654 -0 -1.2 0
3.236 -22.142 21.291 -0 -1.2 0
3.204 -22.512 20.92 -0 -1.2 0
4.498 1.231 29.743 -0 -1.2 0
4.52 0.709 29.777 -0 -1.2 0
4.559 -0.336 29.816 -0 -1.2 0
4.576 -0.859 29.823 -0 -1.2 0
4.593 -1.382 29.819 -0 -1.2 0
4.607 -1.904 29.808 -0 -1.2 0
4.621 -2.427 29.786 -0 -1.2 0
4.633 -2.951 29.757 -0 -1.2 0
4.644 -3.472 29.718 -0 -1.2 0
4.652 -3.993 29.669 -0 -1.2 0
4.661 -4.514 29.613 -0 -1.2 0
4.667 -5.034 29.546 -0 -1.2 0
4.672 -5.552 29.472 -0 -1.2 0
4.675 -6.069 29.388 -0 -1.2 0
4.678 -6.584 29.295 -0 -1.2 0
4.678 -7.097 29.194 -0 -1.2 0
4.677 -7.609 29.083 -0 -1.2 0
4.667 -9.132 28.699 -0 -1.2 0
4.66 -9.635 28.554 -0 -1.2 0
4.653 -10.136 28.399 -0 -1.2 0
4.644 -10.633 28.236 -0 -1.2 0
4.634 -11.128 28.065 -0 -1.2 0
4.621 -11.619 27.885 -0 -1.2 0
4.608 -12.108 27.697 -0 -1.2 0
4.593 -12.593 27.501 -0 -1.2 0
4.578 -13.074 27.296 -0 -1.2 0
4.56 -13.552 27.082 -0 -1.2 0
4.541 -14.026 26.862 -0 -1.2 0
4.521 -14.497 26.632 -0 -1.2 0
4.5 -14.962 26.394 -0 -1.2 0
4.477 -15.425 26.149 -0 -1.2 0
4.452 -15.882 25.895 -0 -1.2 0
4.427 -16.335 25.634 -0 -1.2 0
4.4 -16.784 25.365 -0 -1.2 0
4.372 -17.227 25.089 -0 -1.2 0
4.341 -17.666 24.804 -0 -1.2 0
4.311 -18.099 24.512 -0 -1.2 0
4.278 -18.528 24.213 -0 -1.2 0
4.245 -18.951 23.907 -0 -1.2 0
4.21 -19.368 23.593 -0 -1.2 0
4.174 -19.78 23.272 -0 -1.2 0
4.137 -20.187 22.944 -0 -1.2 0
4.099 -20.587 22.609 -0 -1.2 0
4.058 -20.982 22.267 -0 -1.2 0
4.017 -21.37 21.918 -0 -1.2 0
3.975 -21.753 21.563 -0 -1.2 0
3.931 -22.129 21.201 -0 -1.2 0
3.887 -22.5 20.834 -0 -1.2 0
5.606 -0.868 29.663 -0 -1.2 0
5.623 -1.39 29.659 -0 -1.2 0
5.637 -1.913 29.646 -0 -1.2 0
5.65 -2.436 29.624 -0 -1.2 0
5.661 -2.959 29.594 -0 -1.2 0
5.671 -3.481 29.554 -0 -1.2 0
5.678 -4.002 29.506 -0 -1.2 0
5.685 -4.522 29.449 -0 -1.2 0
5.69 -5.042 29.381 -0 -1.2 0
5.692 -5.56 29.306 -0 -1.2 0
5.693 -6.077 29.222 -0 -1.2 0
5.692 -6.592 29.129 -0 -1.2 0
5.69 -7.106 29.028 -0 -1.2 0
5.685 -7.617 28.917 -0 -1.2 0
5.68 -8.127 28.798 -0 -1.2 0
5.672 -8.635 28.67 -0 -1.2 0
5.662 -9.14 28.533 -0 -1.2 0
5.652 -9.643 28.388 -0 -1.2 0
5.639 -10.144 28.234 -0 -1.2 0
5.624 -10.641 28.071 -0 -1.2 0
5.608 -11.136 27.901 -0 -1.2 0
5.59 -11.627 27.721 -0 -1.2 0
5.57 -12.116 27.533 -0 -1.2 0
5.549 -12.601 27.337 -0 -1.2 0
5.527 -13.081 27.133 -0 -1.2 0
5.502 -13.56 26.92 -0 -1.2 0
5.476 -14.034 26.7 -0 -1.2 0
5.448 -14.504 26.47 -0 -1.2 0
5.419 -14.97 26.234 -0 -1.2 0
5.387 -15.432 25.988 -0 -1.2 0
5.354 -15.889 25.736 -0 -1.2 0
5.32 -16.343 25.476 -0 -1.2 0
5.284 -16.791 25.208 -0 -1.2 0
5.246 -17.234 24.932 -0 -1.2 0
5.207 -17.673 24.649 -0 -1.2 0
5.167 -18.106 24.358 -0 -1.2 0
5.124 -18.535 24.06 -0 -1.2 0
5.081 -18.957 23.754 -0 -1.2 0
5.035 -19.375 23.441 -0 -1.2 0
4.988 -19.787 23.122 -0 -1.2 0
4.94 -20.193 22.795 -0 -1.2 0
4.89 -20.594 22.462 -0 -1.2 0
4.839 -20.988 22.122 -0 -1.2 0
4.786 -21.377 21.774 -0 -1.2 0
4.731 -21.759 21.421 -0 -1.2 0
4.676 -22.135 21.061 -0 -1.2 0
4.619 -22.505 20.694 -0 -1.2 0
6.517 0.128 29.465 -0 -1.2 0
6.537 -0.395 29.477 -0 -1.2 0
6.556 -0.918 29.481 -0 -1.2 0
6.573 -1.44 29.476 -0 -1.2 0
6.587 -1.963 29.462 -0 -1.2 0
6.6 -2.485 29.438 -0 -1.2 0
6.611 -3.009 29.407 -0 -1.2 0
6.625 -4.051 29.317 -0 -1.2 0
6.63 -4.571 29.258 -0 -1.2 0
6.632 -5.091 29.19 -0 -1.2 0
6.633 -5.609 29.114 -0 -1.2 0
6.632 -6.126 29.029 -0 -1.2 0
6.629 -6.641 28.935 -0 -1.2 0
6.623 -7.154 28.832 -0 -1.2 0
6.616 -7.666 28.721 -0 -1.2 0
6.606 -8.175 28.601 -0 -1.2 0
6.554 -8.634 28.293 -0 -1.2 0
6.582 -9.188 28.335 -0 -1.2 0
6.567 -9.691 28.189 -0 -1.2 0
6.549 -10.191 28.034 -0 -1.2 0
6.53 -10.688 27.872 -0 -1.2 0
6.509 -11.182 27.701 -0 -1.2 0
6.485 -11.673 27.521 -0 -1.2 0
6.461 -12.162 27.332 -0 -1.2 0
6.433 -12.646 27.136 -0 -1.2 0
6.404 -13.127 26.932 -0 -1.2 0
6.373 -13.605 26.719 -0 -1.2 0
6.34 -14.078 26.498 -0 -1.2 0
6.305 -14.548 26.27 -0 -1.2 0
6.268 -15.013 26.034 -0 -1.2 0
6.23 -15.475 25.789 -0 -1.2 0
6.189 -15.932 25.536 -0 -1.2 0
6.147 -16.385 25.277 -0 -1.2 0
6.103 -16.832 25.008 -0 -1.2 0
6.056 -17.275 24.733 -0 -1.2 0
6.008 -17.714 24.451 -0 -1.2 0
5.959 -18.146 24.161 -0 -1.2 0
5.907 -18.574 23.863 -0 -1.2 0
5.853 -18.997 23.558 -0 -1.2 0
5.799 -19.414 23.247 -0 -1.2 0
5.741 -19.825 22.929 -0 -1.2 0
5.683 -20.231 22.603 -0 -1.2 0
5.622 -20.631 22.27 -0 -1.2 0
5.56 -21.025 21.931 -0 -1.2 0
5.497 -21.412 21.585 -0 -1.2 0
5.432 -21.794 21.233 -0 -1.2 0
5.365 -22.17 20.874 -0 -1.2 0
5.296 -22.539 20.509 -0 -1.2 0
7.479 -0.443 29.266 -0 -1.2 0
7.497 -0.965 29.268 -0 -1.2 0
7.514 -1.488 29.262 -0 -1.2 0
7.542 -2.533 29.221 -0 -1.2 0
7.552 -3.057 29.188 -0 -1.2 0
7.568 -4.619 29.036 -0 -1.2 0
7.569 -5.139 28.967 -0 -1.2 0
7.568 -5.656 28.89 -0 -1.2 0
7.558 -6.688 28.71 -0 -1.2 0
7.55 -7.201 28.606 -0 -1.2 0
7.512 -8.728 28.244 -0 -1.2 0
7.494 -9.233 28.106 -0 -1.2 0
7.428 -10.733 27.642 -0 -1.2 0
7.402 -11.227 27.471 -0 -1.2 0
7.373 -11.717 27.291 -0 -1.2 0
7.342 -12.206 27.102 -0 -1.2 0
7.31 -12.69 26.907 -0 -1.2 0
7.274 -13.17 26.703 -0 -1.2 0
7.237 -13.648 26.49 -0 -1.2 0
7.197 -14.121 26.27 -0 -1.2 0
7.155 -14.59 26.042 -0 -1.2 0
7.111 -15.055 25.804 -0 -1.2 0
7.065 -15.516 25.56 -0 -1.2 0
7.017 -15.973 25.309 -0 -1.2 0
6.966 -16.425 25.049 -0 -1.2 0
6.914 -16.872 24.783 -0 -1.2 0
6.859 -17.314 24.508 -0 -1.2 0
6.802 -17.753 24.226 -0 -1.2 0
6.745 -18.184 23.937 -0 -1.2 0
6.684 -18.612 23.64 -0 -1.2 0
6.62 -19.034 23.337 -0 -1.2 0
6.556 -19.451 23.027 -0 -1.2 0
6.489 -19.861 22.709 -0 -1.2 0
6.42 -20.267 22.385 -0 -1.2 0
6.349 -20.666 22.054 -0 -1.2 0
6.277 -21.059 21.716 -0 -1.2 0
6.203 -21.446 21.372 -0 -1.2 0
6.126 -21.827 21.021 -0 -1.2 0
6.048 -22.202 20.664 -0 -1.2 0
5.968 -22.571 20.301 -0 -1.2 0
8.507 -0.491 28.998 -0 -1.2 0
8.527 -1.014 29 -0 -1.2 0
8.544 -1.536 28.991 -0 -1.2 0
8.559 -2.059 28.974 -0 -1.2 0
8.57 -2.581 28.948 -0 -1.2 0
8.579 -3.105 28.913 -0 -1.2 0
8.591 -4.147 28.818 -0 -1.2 0
8.591 -5.186 28.688 -0 -1.2 0
8.573 -6.735 28.427 -0 -1.2 0
8.466 -9.782 27.676 -0 -1.2 0
8.439 -10.281 27.52 -0 -1.2 0
8.41 -10.778 27.357 -0 -1.2 0
8.378 -11.272 27.186 -0 -1.2 0
8.343 -11.762 27.007 -0 -1.2 0
8.307 -12.25 26.818 -0 -1.2 0
8.267 -12.734 26.622 -0 -1.2 0
8.225 -13.213 26.418 -0 -1.2 0
8.181 -13.691 26.206 -0 -1.2 0
8.133 -14.163 25.987 -0 -1.2 0
8.084 -14.633 25.759 -0 -1.2 0
8.033 -15.097 25.523 -0 -1.2 0
7.978 -15.558 25.281 -0 -1.2 0
7.922 -16.014 25.029 -0 -1.2 0
7.862 -16.466 24.771 -0 -1.2 0
7.801 -16.912 24.506 -0 -1.2 0
7.737 -17.354 24.233 -0 -1.2 0
7.67 -17.792 23.952 -0 -1.2 0
7.603 -18.223 23.664 -0 -1.2 0
7.532 -18.65 23.369 -0 -1.2 0
7.458 -19.071 23.067 -0 -1.2 0
7.383 -19.487 22.759 -0 -1.2 0
7.306 -19.897 22.442 -0 -1.2 0
7.225 -20.302 22.12 -0 -1.2 0
7.144 -20.701 21.791 -0 -1.2 0
7.059 -21.094 21.455 -0 -1.2 0
6.974 -21.48 21.113 -0 -1.2 0
6.885 -21.861 20.764 -0 -1.2 0
6.795 -22.235 20.409 -0 -1.2 0
6.702 -22.604 20.048 -0 -1.2 0
9.331 -10.816 27.054 -0 -1.2 0
9.211 -12.287 26.516 -0 -1.2 0
9.166 -12.771 26.321 -0 -1.2 0
9.118 -13.25 26.118 -0 -1.2 0
9.066 -13.727 25.907 -0 -1.2 0
9.013 -14.2 25.688 -0 -1.2 0
8.956 -14.668 25.461 -0 -1.2 0
8.896 -15.132 25.227 -0 -1.2 0
8.835 -15.593 24.985 -0 -1.2 0
8.77 -16.049 24.735 -0 -1.2 0
8.703 -16.5 24.478 -0 -1.2 0
8.633 -16.946 24.214 -0 -1.2 0
8.561 -17.388 23.942 -0 -1.2 0
8.485 -17.825 23.663 -0 -1.2 0
8.408 -18.256 23.377 -0 -1.2 0
8.327 -18.682 23.083 -0 -1.2 0
8.245 -19.103 22.783 -0 -1.2 0
8.16 -19.519 22.477 -0 -1.2 0
8.072 -19.928 22.163 -0 -1.2 0
7.982 -20.333 21.842 -0 -1.2 0
7.889 -20.731 21.515 -0 -1.2 0
7.794 -21.123 21.182 -0 -1.2 0
7.697 -21.509 20.842 -0 -1.2 0
7.597 -21.889 20.496 -0 -1.2 0
7.495 -22.263 20.143 -0 -1.2 0
7.391 -22.631 19.785 -0 -1.2 0
10.001 -13.284 25.788 -0 -1.2 0
9.944 -13.761 25.579 -0 -1.2 0
9.882 -14.233 25.361 -0 -1.2 0
9.819 -14.702 25.134 -0 -1.2 0
9.752 -15.165 24.902 -0 -1.2 0
9.683 -15.626 24.661 -0 -1.2 0
9.61 -16.081 24.413 -0 -1.2 0
9.536 -16.532 24.157 -0 -1.2 0
9.457 -16.978 23.894 -0 -1.2 0
9.376 -17.419 23.625 -0 -1.2 0
9.292 -17.855 23.348 -0 -1.2 0
9.205 -18.286 23.063 -0 -1.2 0
9.115 -18.712 22.773 -0 -1.2 0
9.024 -19.133 22.475 -0 -1.2 0
8.928 -19.548 22.17 -0 -1.2 0
8.83 -19.957 21.859 -0 -1.2 0
8.731 -20.361 21.541 -0 -1.2 0
8.628 -20.758 21.216 -0 -1.2 0
8.522 -21.15 20.886 -0 -1.2 0
8.413 -21.536 20.548 -0 -1.2 0
8.303 -21.915 20.205 -0 -1.2 0
8.189 -22.289 19.855 -0 -1.2 0
8.073 -22.656 19.5 -0 -1.2 0
11.297 -9.893 26.644 -0 -1.2 0
11.211 -10.887 26.328 -0 -1.2 0
11.163 -11.38 26.158 -0 -1.2 0
11.113 -11.869 25.98 -0 -1.2 0
11.058 -12.356 25.795 -0 -1.2 0
11 -12.839 25.601 -0 -1.2 0
10.939 -13.318 25.4 -0 -1.2 0
10.874 -13.795 25.191 -0 -1.2 0
10.807 -14.266 24.974 -0 -1.2 0
10.736 -14.734 24.75 -0 -1.2 0
10.662 -15.197 24.518 -0 -1.2 0
10.583 -15.657 24.28 -0 -1.2 0
10.503 -16.112 24.034 -0 -1.2 0
10.419 -16.563 23.78 -0 -1.2 0
10.332 -17.009 23.52 -0 -1.2 0
10.242 -17.449 23.252 -0 -1.2 0
10.148 -17.885 22.977 -0 -1.2 0
10.052 -18.315 22.695 -0 -1.2 0
9.952 -18.741 22.407 -0 -1.2 0
9.85 -19.161 22.112 -0 -1.2 0
9.745 -19.576 21.809 -0 -1.2 0
9.636 -19.985 21.501 -0 -1.2 0
9.525 -20.388 21.187 -0 -1.2 0
9.411 -20.785 20.865 -0 -1.2 0
9.294 -21.177 20.538 -0 -1.2 0
9.174 -21.562 20.203 -0 -1.2 0
9.052 -21.941 19.864 -0 -1.2 0
8.926 -22.313 19.519 -0 -1.2 0
8.798 -22.68 19.167 -0 -1.2 0
11.95 -12.375 25.398 -0 -1.2 0
11.818 -13.336 25.007 -0 -1.2 0
11.747 -13.812 24.799 -0 -1.2 0
11.673 -14.284 24.585 -0 -1.2 0
11.595 -14.752 24.363 -0 -1.2 0
11.513 -15.215 24.133 -0 -1.2 0
11.427 -15.674 23.896 -0 -1.2 0
11.339 -16.129 23.652 -0 -1.2 0
11.247 -16.579 23.402 -0 -1.2 0
11.152 -17.025 23.143 -0 -1.2 0
11.053 -17.465 22.879 -0 -1.2 0
10.951 -17.901 22.606 -0 -1.2 0
10.845 -18.331 22.327 -0 -1.2 0
10.737 -18.757 22.042 -0 -1.2 0
10.625 -19.176 21.75 -0 -1.2 0
10.509 -19.591 21.452 -0 -1.2 0
10.391 -19.999 21.146 -0 -1.2 0
10.27 -20.402 20.835 -0 -1.2 0
10.145 -20.799 20.517 -0 -1.2 0
10.018 -21.19 20.193 -0 -1.2 0
9.887 -21.575 19.863 -0 -1.2 0
9.754 -21.954 19.527 -0 -1.2 0
9.617 -22.326 19.186 -0 -1.2 0
9.477 -22.693 18.838 -0 -1.2 0
12.903 -11.845 25.176 -0 -1.2 0
12.616 -13.771 24.404 -0 -1.2 0
12.535 -14.242 24.192 -0 -1.2 0
12.268 -15.634 23.514 -0 -1.2 0
12.172 -16.089 23.273 -0 -1.2 0
12.072 -16.54 23.026 -0 -1.2 0
11.968 -16.986 22.773 -0 -1.2 0
11.861 -17.426 22.511 -0 -1.2 0
11.75 -17.863 22.244 -0 -1.2 0
11.636 -18.293 21.969 -0 -1.2 0
11.517 -18.719 21.688 -0 -1.2 0
11.396 -19.139 21.4 -0 -1.2 0
11.271 -19.554 21.106 -0 -1.2 0
11.143 -19.963 20.806 -0 -1.2 0
11.011 -20.367 20.499 -0 -1.2 0
10.876 -20.764 20.186 -0 -1.2 0
10.737 -21.156 19.867 -0 -1.2 0
10.596 -21.541 19.542 -0 -1.2 0
10.451 -21.92 19.212 -0 -1.2 0
10.304 -22.294 18.875 -0 -1.2 0
10.153 -22.661 18.533 -0 -1.2 0
13.259 -15.13 23.299 -0 -1.2 0
13.158 -15.591 23.07 -0 -1.2 0
12.945 -16.498 22.592 -0 -1.2 0
12.832 -16.944 22.342 -0 -1.2 0
12.716 -17.385 22.085 -0 -1.2 0
12.596 -17.822 21.823 -0 -1.2 0
12.472 -18.253 21.553 -0 -1.2 0
12.343 -18.679 21.277 -0 -1.2 0
12.213 -19.1 20.995 -0 -1.2 0
12.077 -19.515 20.706 -0 -1.2 0
11.939 -19.925 20.411 -0 -1.2 0
11.795 -20.329 20.11 -0 -1.2 0
11.649 -20.727 19.803 -0 -1.2 0
11.499 -21.119 19.49 -0 -1.2 0
11.347 -21.505 19.171 -0 -1.2 0
11.19 -21.885 18.846 -0 -1.2 0
11.03 -22.258 18.517 -0 -1.2 0
10.867 -22.626 18.18 -0 -1.2 0
14.55 -12.726 23.874 -0 -1.2 0
14.075 -15.088 22.854 -0 -1.2 0
13.618 -16.903 21.914 -0 -1.2 0
13.494 -17.345 21.662 -0 -1.2 0
13.365 -17.782 21.404 -0 -1.2 0
13.232 -18.213 21.14 -0 -1.2 0
13.095 -18.64 20.868 -0 -1.2 0
12.954 -19.061 20.591 -0 -1.2 0
12.81 -19.477 20.308 -0 -1.2 0
12.662 -19.887 20.018 -0 -1.2 0
12.509 -20.292 19.722 -0 -1.2 0
12.353 -20.69 19.422 -0 -1.2 0
12.193 -21.083 19.114 -0 -1.2 0
12.029 -21.469 18.801 -0 -1.2 0
11.863 -21.85 18.482 -0 -1.2 0
11.692 -22.224 18.159 -0 -1.2 0
11.518 -22.592 17.829 -0 -1.2 0
14.613 -15.965 21.95 -0 -1.2 0
14.489 -16.417 21.717 -0 -1.2 0
14.229 -17.306 21.229 -0 -1.2 0
14.091 -17.744 20.976 -0 -1.2 0
13.951 -18.175 20.716 -0 -1.2 0
13.805 -18.603 20.451 -0 -1.2 0
13.656 -19.025 20.178 -0 -1.2 0
13.503 -19.441 19.9 -0 -1.2 0
13.345 -19.851 19.616 -0 -1.2 0
13.183 -20.257 19.326 -0 -1.2 0
13.018 -20.656 19.031 -0 -1.2 0
12.849 -21.049 18.73 -0 -1.2 0
12.675 -21.436 18.423 -0 -1.2 0
12.497 -21.817 18.111 -0 -1.2 0
12.317 -22.191 17.793 -0 -1.2 0
12.132 -22.56 17.469 -0 -1.2 0
16.098 -13.116 22.678 -0 -1.2 0
14.855 -17.701 20.488 -0 -1.2 0
14.706 -18.133 20.234 -0 -1.2 0
14.552 -18.561 19.975 -0 -1.2 0
14.394 -18.983 19.708 -0 -1.2 0
14.23 -19.4 19.437 -0 -1.2 0
14.064 -19.811 19.159 -0 -1.2 0
13.893 -20.217 18.876 -0 -1.2 0
13.717 -20.616 18.587 -0 -1.2 0
13.537 -21.01 18.292 -0 -1.2 0
13.353 -21.398 17.992 -0 -1.2 0
13.165 -21.779 17.686 -0 -1.2 0
12.974 -22.154 17.376 -0 -1.2 0
12.778 -22.524 17.059 -0 -1.2 0
15.55 -17.661 20.011 -0 -1.2 0
15.393 -18.094 19.763 -0 -1.2 0
15.23 -18.522 19.509 -0 -1.2 0
15.064 -18.945 19.249 -0 -1.2 0
14.892 -19.362 18.983 -0 -1.2 0
14.717 -19.774 18.712 -0 -1.2 0
14.537 -20.18 18.435 -0 -1.2 0
14.352 -20.58 18.152 -0 -1.2 0
14.163 -20.974 17.864 -0 -1.2 0
13.969 -21.363 17.57 -0 -1.2 0
13.772 -21.745 17.272 -0 -1.2 0
13.57 -22.121 16.969 -0 -1.2 0
13.364 -22.491 16.66 -0 -1.2 0
16.389 -17.181 19.746 -0 -1.2 0
16.064 -18.053 19.266 -0 -1.2 0
15.894 -18.482 19.018 -0 -1.2 0
15.719 -18.905 18.764 -0 -1.2 0
15.54 -19.323 18.505 -0 -1.2 0
15.355 -19.735 18.24 -0 -1.2 0
15.166 -20.142 17.969 -0 -1.2 0
14.972 -20.542 17.694 -0 -1.2 0
14.774 -20.937 17.413 -0 -1.2 0
14.572 -21.326 17.126 -0 -1.2 0
14.366 -21.708 16.834 -0 -1.2 0
14.154 -22.085 16.538 -0 -1.2 0
13.938 -22.456 16.237 -0 -1.2 0
18.393 -12.959 20.982 -0 -1.2 0
17.116 -17.118 19.183 -0 -1.2 0
16.947 -17.558 18.954 -0 -1.2 0
16.773 -17.992 18.719 -0 -1.2 0
16.595 -18.422 18.479 -0 -1.2 0
16.411 -18.846 18.232 -0 -1.2 0
16.222 -19.264 17.981 -0 -1.2 0
16.028 -19.677 17.724 -0 -1.2 0
15.83 -20.085 17.461 -0 -1.2 0
15.627 -20.486 17.195 -0 -1.2 0
15.419 -20.882 16.922 -0 -1.2 0
15.206 -21.272 16.644 -0 -1.2 0
14.989 -21.655 16.362 -0 -1.2 0
14.767 -22.033 16.075 -0 -1.2 0
14.541 -22.404 15.782 -0 -1.2 0
18.419 -15.253 19.471 -0 -1.2 0
17.593 -17.502 18.417 -0 -1.2 0
17.412 -17.936 18.189 -0 -1.2 0
17.225 -18.367 17.956 -0 -1.2 0
17.033 -18.791 17.717 -0 -1.2 0
16.836 -19.211 17.473 -0 -1.2 0
16.634 -19.624 17.224 -0 -1.2 0
16.427 -20.033 16.97 -0 -1.2 0
16.214 -20.435 16.711 -0 -1.2 0
15.997 -20.832 16.447 -0 -1.2 0
15.776 -21.222 16.178 -0 -1.2 0
15.549 -21.607 15.904 -0 -1.2 0
15.318 -21.985 15.626 -0 -1.2 0
15.081 -22.357 15.342 -0 -1.2 0
19.795 -12.836 19.756 -0 -1.2 0
19.235 -14.731 19.064 -0 -1.2 0
18.403 -17.005 18.071 -0 -1.2 0
18.219 -17.446 17.856 -0 -1.2 0
18.03 -17.882 17.636 -0 -1.2 0
17.836 -18.313 17.411 -0 -1.2 0
17.636 -18.738 17.18 -0 -1.2 0
17.431 -19.158 16.945 -0 -1.2 0
17.221 -19.573 16.704 -0 -1.2 0
17.005 -19.982 16.458 -0 -1.2 0
16.784 -20.385 16.207 -0 -1.2 0
16.558 -20.782 15.952 -0 -1.2 0
16.328 -21.174 15.692 -0 -1.2 0
16.092 -21.559 15.427 -0 -1.2 0
15.852 -21.938 15.158 -0 -1.2 0
15.606 -22.311 14.884 -0 -1.2 0
19.245 -16.503 17.637 -0 -1.2 0
19.06 -16.949 17.435 -0 -1.2 0
18.868 -17.391 17.228 -0 -1.2 0
18.672 -17.827 17.016 -0 -1.2 0
18.47 -18.259 16.8 -0 -1.2 0
18.261 -18.685 16.578 -0 -1.2 0
18.049 -19.106 16.351 -0 -1.2 0
17.829 -19.521 16.119 -0 -1.2 0
17.605 -19.931 15.883 -0 -1.2 0
17.375 -20.335 15.642 -0 -1.2 0
17.14 -20.733 15.396 -0 -1.2 0
16.9 -21.125 15.146 -0 -1.2 0
16.655 -21.511 14.891 -0 -1.2 0
16.405 -21.891 14.632 -0 -1.2 0
16.149 -22.265 14.368 -0 -1.2 0
21.011 -13.2 18.23 -0 -1.2 0
20.862 -13.676 18.072 -0 -1.2 0
20.707 -14.149 17.909 -0 -1.2 0
20.025 -16 17.205 -0 -1.2 0
19.84 -16.452 17.017 -0 -1.2 0
19.647 -16.898 16.823 -0 -1.2 0
19.45 -17.341 16.624 -0 -1.2 0
19.246 -17.777 16.42 -0 -1.2 0
19.036 -18.21 16.212 -0 -1.2 0
18.822 -18.636 15.998 -0 -1.2 0
18.601 -19.058 15.78 -0 -1.2 0
18.374 -19.474 15.556 -0 -1.2 0
18.141 -19.884 15.33 -0 -1.2 0
17.904 -20.289 15.097 -0 -1.2 0
17.66 -20.688 14.861 -0 -1.2 0
17.413 -21.081 14.62 -0 -1.2 0
17.159 -21.467 14.375 -0 -1.2 0
16.9 -21.848 14.126 -0 -1.2 0
16.636 -22.223 13.872 -0 -1.2 0
21.025 -12.815 17.067 -0 -1.2 0
21.467 -13.625 17.389 -0 -1.2 0
21.102 -13.974 17.07 -0 -1.2 0
21.14 -14.568 17.071 -0 -1.2 0
20.967 -15.034 16.905 -0 -1.2 0
20.788 -15.495 16.733 -0 -1.2 0
20.602 -15.952 16.557 -0 -1.2 0
20.41 -16.404 16.376 -0 -1.2 0
20.212 -16.851 16.19 -0 -1.2 0
20.007 -17.294 15.999 -0 -1.2 0
19.797 -17.731 15.803 -0 -1.2 0
19.58 -18.164 15.604 -0 -1.2 0
19.358 -18.592 15.398 -0 -1.2 0
19.13 -19.014 15.189 -0 -1.2 0
18.897 -19.43 14.975 -0 -1.2 0
18.656 -19.842 14.757 -0 -1.2 0
18.411 -20.247 14.534 -0 -1.2 0
18.16 -20.646 14.307 -0 -1.2 0
17.904 -21.04 14.076 -0 -1.2 0
17.642 -21.427 13.841 -0 -1.2 0
17.374 -21.809 13.601 -0 -1.2 0
17.102 -22.185 13.358 -0 -1.2 0
21.762 -13.386 16.386 -0 -1.2 0
21.926 -14.047 16.48 -0 -1.2 0
21.753 -14.516 16.327 -0 -1.2 0
21.575 -14.983 16.167 -0 -1.2 0
21.389 -15.444 16.004 -0 -1.2 0
21.197 -15.902 15.837 -0 -1.2 0
20.998 -16.354 15.664 -0 -1.2 0
20.793 -16.802 15.487 -0 -1.2 0
20.582 -17.246 15.305 -0 -1.2 0
20.365 -17.683 15.119 -0 -1.2 0
20.142 -18.117 14.928 -0 -1.2 0
19.912 -18.545 14.732 -0 -1.2 0
19.677 -18.968 14.532 -0 -1.2 0
19.435 -19.385 14.329 -0 -1.2 0
19.187 -19.797 14.12 -0 -1.2 0
18.934 -20.203 13.908 -0 -1.2 0
18.675 -20.603 13.692 -0 -1.2 0
18.41 -20.997 13.472 -0 -1.2 0
18.14 -21.386 13.247 -0 -1.2 0
17.864 -21.768 13.019 -0 -1.2 0
17.583 -22.144 12.787 -0 -1.2 0
22.059 -13.21 15.495 -0 -1.2 0
22.474 -14.008 15.753 -0 -1.2 0
22.297 -14.478 15.606 -0 -1.2 0
22.114 -14.944 15.455 -0 -1.2 0
21.923 -15.406 15.299 -0 -1.2 0
21.725 -15.864 15.138 -0 -1.2 0
21.522 -16.317 14.973 -0 -1.2 0
21.311 -16.765 14.803 -0 -1.2 0
21.095 -17.209 14.629 -0 -1.2 0
20.871 -17.647 14.451 -0 -1.2 0
20.642 -18.082 14.268 -0 -1.2 0
20.406 -18.51 14.082 -0 -1.2 0
20.164 -18.933 13.891 -0 -1.2 0
19.916 -19.351 13.696 -0 -1.2 0
19.661 -19.763 13.497 -0 -1.2 0
19.401 -20.17 13.294 -0 -1.2 0
19.136 -20.57 13.087 -0 -1.2 0
18.864 -20.965 12.877 -0 -1.2 0
18.586 -21.354 12.662 -0 -1.2 0
18.304 -21.737 12.444 -0 -1.2 0
18.015 -22.114 12.223 -0 -1.2 0
23.173 -13.495 15.144 -0 -1.2 0
22.998 -13.97 15.007 -0 -1.2 0
22.817 -14.44 14.867 -0 -1.2 0
22.628 -14.907 14.722 -0 -1.2 0
22.432 -15.369 14.573 -0 -1.2 0
22.23 -15.827 14.42 -0 -1.2 0
22.021 -16.281 14.262 -0 -1.2 0
21.806 -16.729 14.1 -0 -1.2 0
21.583 -17.174 13.934 -0 -1.2 0
21.355 -17.612 13.764 -0 -1.2 0
21.119 -18.047 13.59 -0 -1.2 0
20.878 -18.476 13.412 -0 -1.2 0
20.63 -18.899 13.23 -0 -1.2 0
20.376 -19.317 13.044 -0 -1.2 0
20.115 -19.73 12.855 -0 -1.2 0
19.849 -20.137 12.661 -0 -1.2 0
19.576 -20.539 12.464 -0 -1.2 0
19.297 -20.934 12.263 -0 -1.2 0
19.014 -21.323 12.059 -0 -1.2 0
18.723 -21.706 11.851 -0 -1.2 0
18.427 -22.084 11.639 -0 -1.2 0
23.532 -13.93 14.184 -0 -1.2 0
23.345 -14.401 14.051 -0 -1.2 0
23.153 -14.868 13.914 -0 -1.2 0
22.952 -15.331 13.773 -0 -1.2 0
22.745 -15.789 13.627 -0 -1.2 0
22.531 -16.243 13.478 -0 -1.2 0
22.31 -16.692 13.325 -0 -1.2 0
22.083 -17.137 13.167 -0 -1.2 0
21.848 -17.576 13.007 -0 -1.2 0
21.607 -18.011 12.842 -0 -1.2 0
21.359 -18.44 12.673 -0 -1.2 0
21.105 -18.864 12.501 -0 -1.2 0
20.844 -19.283 12.325 -0 -1.2 0
20.579 -19.696 12.145 -0 -1.2 0
20.305 -20.104 11.962 -0 -1.2 0
20.026 -20.505 11.776 -0 -1.2 0
19.741 -20.901 11.586 -0 -1.2 0
19.449 -21.291 11.392 -0 -1.2 0
19.152 -21.675 11.196 -0 -1.2 0
18.85 -22.053 10.996 -0 -1.2 0
23.999 -13.893 13.403 -0 -1.2 0
23.808 -14.364 13.277 -0 -1.2 0
23.612 -14.831 13.147 -0 -1.2 0
23.407 -15.294 13.013 -0 -1.2 0
23.195 -15.753 12.876 -0 -1.2 0
22.977 -16.207 12.734 -0 -1.2 0
22.751 -16.657 12.589 -0 -1.2 0
22.519 -17.102 12.44 -0 -1.2 0
22.279 -17.541 12.287 -0 -1.2 0
22.033 -17.977 12.132 -0 -1.2 0
21.78 -18.406 11.972 -0 -1.2 0
21.521 -18.831 11.809 -0 -1.2 0
21.255 -19.25 11.642 -0 -1.2 0
20.982 -19.664 11.472 -0 -1.2 0
20.704 -20.072 11.299 -0 -1.2 0
20.419 -20.474 11.123 -0 -1.2 0
20.127 -20.87 10.943 -0 -1.2 0
19.831 -21.261 10.76 -0 -1.2 0
19.527 -21.645 10.575 -0 -1.2 0
19.218 -22.023 10.385 -0 -1.2 0
24.476 -13.854 12.537 -0 -1.2 0
24.282 -14.325 12.418 -0 -1.2 0
24.08 -14.793 12.296 -0 -1.2 0
23.871 -15.256 12.171 -0 -1.2 0
23.655 -15.716 12.041 -0 -1.2 0
23.431 -16.17 11.909 -0 -1.2 0
23.201 -16.62 11.772 -0 -1.2 0
22.964 -17.066 11.633 -0 -1.2 0
22.719 -17.505 11.49 -0 -1.2 0
22.468 -17.941 11.344 -0 -1.2 0
22.21 -18.371 11.194 -0 -1.2 0
21.945 -18.797 11.042 -0 -1.2 0
21.675 -19.216 10.885 -0 -1.2 0
21.396 -19.63 10.726 -0 -1.2 0
21.111 -20.039 10.564 -0 -1.2 0
20.821 -20.441 10.399 -0 -1.2 0
20.523 -20.838 10.231 -0 -1.2 0
20.22 -21.229 10.059 -0 -1.2 0
19.911 -21.614 9.886 -0 -1.2 0
19.595 -21.993 9.708 -0 -1.2 0
24.89 -13.817 11.715 -0 -1.2 0
24.692 -14.289 11.604 -0 -1.2 0
24.487 -14.757 11.49 -0 -1.2 0
24.274 -15.221 11.372 -0 -1.2 0
24.054 -15.681 11.251 -0 -1.2 0
23.827 -16.135 11.126 -0 -1.2 0
23.592 -16.585 10.999 -0 -1.2 0
23.351 -17.031 10.868 -0 -1.2 0
23.102 -17.472 10.734 -0 -1.2 0
22.846 -17.908 10.597 -0 -1.2 0
22.584 -18.339 10.457 -0 -1.2 0
22.314 -18.764 10.314 -0 -1.2 0
22.038 -19.184 10.168 -0 -1.2 0
21.755 -19.599 10.019 -0 -1.2 0
21.465 -20.008 9.868 -0 -1.2 0
21.17 -20.411 9.713 -0 -1.2 0
20.867 -20.808 9.555 -0 -1.2 0
20.558 -21.199 9.395 -0 -1.2 0
20.243 -21.585 9.231 -0 -1.2 0
19.922 -21.964 9.066 -0 -1.2 0
25.072 -14.253 10.777 -0 -1.2 0
24.864 -14.722 10.67 -0 -1.2 0
24.647 -15.186 10.56 -0 -1.2 0
24.424 -15.646 10.447 -0 -1.2 0
24.193 -16.101 10.331 -0 -1.2 0
23.955 -16.551 10.211 -0 -1.2 0
23.71 -16.998 10.09 -0 -1.2 0
23.456 -17.439 9.965 -0 -1.2 0
23.197 -17.875 9.838 -0 -1.2 0
22.93 -18.306 9.707 -0 -1.2 0
22.656 -18.732 9.574 -0 -1.2 0
22.375 -19.152 9.438 -0 -1.2 0
22.088 -19.568 9.3 -0 -1.2 0
21.794 -19.977 9.158 -0 -1.2 0
21.492 -20.381 9.014 -0 -1.2 0
21.186 -20.778 8.867 -0 -1.2 0
20.872 -21.17 8.718 -0 -1.2 0
20.551 -21.556 8.567 -0 -1.2 0
20.225 -21.936 8.413 -0 -1.2 0
25.446 -14.215 9.883 -0 -1.2 0
25.234 -14.684 9.785 -0 -1.2 0
25.014 -15.148 9.684 -0 -1.2 0
24.787 -15.609 9.581 -0 -1.2 0
24.552 -16.064 9.475 -0 -1.2 0
24.311 -16.515 9.365 -0 -1.2 0
24.06 -16.962 9.253 -0 -1.2 0
23.804 -17.403 9.139 -0 -1.2 0
23.54 -17.84 9.022 -0 -1.2 0
23.268 -18.272 8.903 -0 -1.2 0
22.99 -18.698 8.781 -0 -1.2 0
22.705 -19.119 8.657 -0 -1.2 0
22.413 -19.535 8.529 -0 -1.2 0
22.114 -19.945 8.4 -0 -1.2 0
21.808 -20.349 8.268 -0 -1.2 0
21.496 -20.747 8.134 -0 -1.2 0
21.177 -21.139 7.998 -0 -1.2 0
20.852 -21.526 7.86 -0 -1.2 0
20.52 -21.906 7.719 -0 -1.2 0
25.756 -14.178 9.061 -0 -1.2 0
25.541 -14.648 8.972 -0 -1.2 0
25.319 -15.112 8.88 -0 -1.2 0
25.089 -15.573 8.786 -0 -1.2 0
24.85 -16.029 8.688 -0 -1.2 0
24.605 -16.48 8.589 -0 -1.2 0
24.352 -16.928 8.488 -0 -1.2 0
24.091 -17.369 8.383 -0 -1.2 0
23.823 -17.807 8.276 -0 -1.2 0
23.549 -18.239 8.167 -0 -1.2 0
23.267 -18.666 8.056 -0 -1.2 0
22.978 -19.087 7.942 -0 -1.2 0
22.681 -19.503 7.827 -0 -1.2 0
22.379 -19.913 7.709 -0 -1.2 0
22.069 -20.318 7.588 -0 -1.2 0
21.753 -20.717 7.466 -0 -1.2 0
21.43 -21.109 7.342 -0 -1.2 0
21.1 -21.496 7.215 -0 -1.2 0
20.764 -21.877 7.087 -0 -1.2 0
26.04 -14.141 8.228 -0 -1.2 0
25.822 -14.611 8.146 -0 -1.2 0
25.597 -15.076 8.064 -0 -1.2 0
25.363 -15.537 7.978 -0 -1.2 0
25.123 -15.994 7.891 -0 -1.2 0
24.874 -16.445 7.801 -0 -1.2 0
24.618 -16.893 7.709 -0 -1.2 0
24.354 -17.335 7.615 -0 -1.2 0
24.083 -17.773 7.519 -0 -1.2 0
23.805 -18.206 7.42 -0 -1.2 0
23.52 -18.633 7.32 -0 -1.2 0
23.227 -19.055 7.218 -0 -1.2 0
22.928 -19.471 7.113 -0 -1.2 0
22.622 -19.882 7.007 -0 -1.2 0
22.308 -20.287 6.898 -0 -1.2 0
21.988 -20.686 6.787 -0 -1.2 0
21.661 -21.08 6.676 -0 -1.2 0
21.328 -21.467 6.561 -0 -1.2 0
20.987 -21.849 6.446 -0 -1.2 0
26.312 -14.106 7.32 -0 -1.2 0
26.092 -14.576 7.248 -0 -1.2 0
25.864 -15.042 7.175 -0 -1.2 0
25.628 -15.503 7.1 -0 -1.2 0
25.385 -15.96 7.023 -0 -1.2 0
25.133 -16.412 6.943 -0 -1.2 0
24.874 -16.86 6.862 -0 -1.2 0
24.608 -17.302 6.779 -0 -1.2 0
24.333 -17.741 6.694 -0 -1.2 0
24.052 -18.174 6.608 -0 -1.2 0
23.764 -18.601 6.518 -0 -1.2 0
23.468 -19.023 6.428 -0 -1.2 0
23.164 -19.441 6.336 -0 -1.2 0
22.854 -19.852 6.242 -0 -1.2 0
22.538 -20.257 6.146 -0 -1.2 0
22.214 -20.657 6.049 -0 -1.2 0
21.883 -21.051 5.951 -0 -1.2 0
21.547 -21.439 5.85 -0 -1.2 0
21.203 -21.821 5.747 -0 -1.2 0
26.312 -14.547 6.401 -0 -1.2 0
26.082 -15.013 6.336 -0 -1.2 0
25.844 -15.475 6.271 -0 -1.2 0
25.598 -15.932 6.203 -0 -1.2 0
25.344 -16.384 6.133 -0 -1.2 0
25.083 -16.833 6.063 -0 -1.2 0
24.814 -17.275 5.99 -0 -1.2 0
24.538 -17.714 5.916 -0 -1.2 0
24.253 -18.147 5.84 -0 -1.2 0
23.963 -18.576 5.762 -0 -1.2 0
23.664 -18.998 5.684 -0 -1.2 0
23.358 -19.415 5.603 -0 -1.2 0
23.045 -19.827 5.52 -0 -1.2 0
22.725 -20.233 5.437 -0 -1.2 0
22.398 -20.633 5.352 -0 -1.2 0
22.064 -21.027 5.265 -0 -1.2 0
21.725 -21.416 5.178 -0 -1.2 0
21.378 -21.798 5.089 -0 -1.2 0
26.503 -14.523 5.538 -0 -1.2 0
26.271 -14.989 5.483 -0 -1.2 0
26.03 -15.451 5.426 -0 -1.2 0
25.782 -15.908 5.369 -0 -1.2 0
25.527 -16.361 5.309 -0 -1.2 0
25.263 -16.81 5.248 -0 -1.2 0
24.993 -17.253 5.187 -0 -1.2 0
24.713 -17.692 5.123 -0 -1.2 0
24.427 -18.125 5.059 -0 -1.2 0
24.134 -18.554 4.992 -0 -1.2 0
23.833 -18.977 4.925 -0 -1.2 0
23.525 -19.394 4.856 -0 -1.2 0
23.209 -19.807 4.786 -0 -1.2 0
22.887 -20.213 4.715 -0 -1.2 0
22.558 -20.613 4.642 -0 -1.2 0
22.222 -21.008 4.569 -0 -1.2 0
21.879 -21.397 4.494 -0 -1.2 0
21.529 -21.78 4.418 -0 -1.2 0
26.673 -14.5 4.601 -0 -1.2 0
26.439 -14.966 4.556 -0 -1.2 0
26.197 -15.429 4.51 -0 -1.2 0
25.948 -15.886 4.463 -0 -1.2 0
25.69 -16.339 4.415 -0 -1.2 0
25.425 -16.788 4.365 -0 -1.2 0
25.152 -17.231 4.314 -0 -1.2 0
24.871 -17.671 4.263 -0 -1.2 0
24.583 -18.104 4.21 -0 -1.2 0
24.287 -18.533 4.157 -0 -1.2 0
23.984 -18.956 4.101 -0 -1.2 0
23.674 -19.374 4.046 -0 -1.2 0
23.356 -19.787 3.988 -0 -1.2 0
23.032 -20.193 3.93 -0 -1.2 0
22.7 -20.594 3.872 -0 -1.2 0
22.361 -20.989 3.812 -0 -1.2 0
22.016 -21.378 3.751 -0 -1.2 0
21.664 -21.762 3.689 -0 -1.2 0
26.798 -14.483 3.725 -0 -1.2 0
26.564 -14.949 3.689 -0 -1.2 0
26.32 -15.412 3.653 -0 -1.2 0
26.069 -15.869 3.616 -0 -1.2 0
25.81 -16.322 3.578 -0 -1.2 0
25.544 -16.772 3.539 -0 -1.2 0
25.269 -17.215 3.499 -0 -1.2 0
24.987 -17.655 3.459 -0 -1.2 0
24.698 -18.089 3.417 -0 -1.2 0
24.4 -18.518 3.374 -0 -1.2 0
24.095 -18.941 3.332 -0 -1.2 0
23.783 -19.359 3.287 -0 -1.2 0
23.465 -19.772 3.243 -0 -1.2 0
23.138 -20.179 3.197 -0 -1.2 0
22.804 -20.58 3.151 -0 -1.2 0
22.464 -20.975 3.104 -0 -1.2 0
22.117 -21.365 3.055 -0 -1.2 0
21.764 -21.748 3.007 -0 -1.2 0
26.892 -14.469 2.849 -0 -1.2 0
26.656 -14.935 2.823 -0 -1.2 0
26.412 -15.398 2.797 -0 -1.2 0
26.16 -15.856 2.769 -0 -1.2 0
25.9 -16.309 2.742 -0 -1.2 0
25.632 -16.759 2.714 -0 -1.2 0
25.356 -17.202 2.684 -0 -1.2 0
25.073 -17.642 2.654 -0 -1.2 0
24.783 -18.076 2.624 -0 -1.2 0
24.484 -18.505 2.593 -0 -1.2 0
24.178 -18.929 2.562 -0 -1.2 0
23.865 -19.348 2.529 -0 -1.2 0
23.544 -19.76 2.496 -0 -1.2 0
23.217 -20.167 2.464 -0 -1.2 0
22.883 -20.569 2.43 -0 -1.2 0
22.541 -20.964 2.396 -0 -1.2 0
22.193 -21.354 2.361 -0 -1.2 0
21.838 -21.737 2.326 -0 -1.2 0
26.96 -14.451 1.909 -0 -1.2 0
26.723 -14.918 1.893 -0 -1.2 0
26.479 -15.381 1.877 -0 -1.2 0
26.226 -15.839 1.86 -0 -1.2 0
25.966 -16.293 1.843 -0 -1.2 0
25.697 -16.742 1.826 -0 -1.2 0
25.421 -17.186 1.808 -0 -1.2 0
25.137 -17.626 1.79 -0 -1.2 0
24.845 -18.06 1.771 -0 -1.2 0
24.546 -18.49 1.753 -0 -1.2 0
24.24 -18.913 1.734 -0 -1.2 0
23.926 -19.332 1.715 -0 -1.2 0
23.605 -19.745 1.695 -0 -1.2 0
23.277 -20.153 1.676 -0 -1.2 0
22.942 -20.554 1.655 -0 -1.2 0
22.599 -20.95 1.634 -0 -1.2 0
22.25 -21.34 1.614 -0 -1.2 0
21.895 -21.724 1.593 -0 -1.2 0
27.219 -13.967 1.041 -0 -1.2 0
26.99 -14.439 1.034 -0 -1.2 0
