# .PCD v.7 - Point Cloud Data file format
FIELDS x y z vp_x vp_y vp_z
SIZE 4 4 4 4 4 4
TYPE F F F F F F
COUNT 1 1 1 1 1 1
WIDTH 1550
HEIGHT 1
VIEWPOINT 0 -1.20013 0 1 0 0 0
POINTS 1550
DATA ascii
1.901 -1.489 30.091 -0 -1.2 0
1.913 -2.011 30.079 -0 -1.2 0
1.926 -2.534 30.058 -0 -1.2 0
1.938 -3.057 30.028 -0 -1.2 0
1.948 -3.58 29.988 -0 -1.2 0
1.959 -4.101 29.94 -0 -1.2 0
1.968 -4.621 29.882 -0 -1.2 0
2.005 -17.759 25.027 -0 -1.2 0
1.99 -18.619 24.43 -0 -1.2 0
1.982 -19.042 24.121 -0 -1.2 0
1.973 -19.458 23.804 -0 -1.2 0
1.963 -19.869 23.48 -0 -1.2 0
1.953 -20.275 23.149 -0 -1.2 0
1.943 -20.674 22.811 -0 -1.2 0
1.931 -21.068 22.466 -0 -1.2 0
1.919 -21.456 22.113 -0 -1.2 0
2.873 1.154 29.941 -0 -1.2 0
2.889 0.632 29.975 -0 -1.2 0
2.904 0.11 29.999 -0 -1.2 0
2.918 -0.411 30.014 -0 -1.2 0
2.932 -0.934 30.02 -0 -1.2 0
2.944 -1.459 30.017 -0 -1.2 0
2.956 -1.981 30.005 -0 -1.2 0
2.967 -2.505 29.985 -0 -1.2 0
2.976 -3.027 29.955 -0 -1.2 0
2.985 -3.55 29.916 -0 -1.2 0
2.994 -4.071 29.868 -0 -1.2 0
3 -4.592 29.81 -0 -1.2 0
3.007 -5.111 29.743 -0 -1.2 0
3.012 -5.629 29.669 -0 -1.2 0
3.025 -8.196 29.157 -0 -1.2 0
3.024 -9.208 28.892 -0 -1.2 0
2.852 -17.735 24.971 -0 -1.2 0
2.834 -18.168 24.677 -0 -1.2 0
2.816 -18.595 24.377 -0 -1.2 0
2.796 -19.018 24.067 -0 -1.2 0
2.776 -19.435 23.752 -0 -1.2 0
2.754 -19.846 23.428 -0 -1.2 0
2.732 -20.252 23.099 -0 -1.2 0
2.709 -20.652 22.762 -0 -1.2 0
2.685 -21.046 22.417 -0 -1.2 0
2.661 -21.435 22.067 -0 -1.2 0
3.856 0.659 29.874 -0 -1.2 0
3.871 0.137 29.899 -0 -1.2 0
3.885 -0.385 29.914 -0 -1.2 0
3.898 -0.908 29.921 -0 -1.2 0
3.91 -1.432 29.918 -0 -1.2 0
3.921 -1.955 29.906 -0 -1.2 0
3.93 -2.478 29.886 -0 -1.2 0
3.938 -3 29.856 -0 -1.2 0
3.946 -3.523 29.817 -0 -1.2 0
3.951 -4.045 29.769 -0 -1.2 0
3.956 -4.565 29.713 -0 -1.2 0
3.96 -5.084 29.646 -0 -1.2 0
3.962 -5.603 29.571 -0 -1.2 0
3.963 -6.119 29.488 -0 -1.2 0
3.963 -6.634 29.394 -0 -1.2 0
3.962 -7.148 29.293 -0 -1.2 0
3.959 -7.66 29.182 -0 -1.2 0
3.909 -11.178 28.164 -0 -1.2 0
3.897 -11.669 27.983 -0 -1.2 0
3.884 -12.158 27.795 -0 -1.2 0
3.854 -13.124 27.393 -0 -1.2 0
3.838 -13.601 27.179 -0 -1.2 0
3.82 -14.076 26.957 -0 -1.2 0
3.801 -14.546 26.727 -0 -1.2 0
3.713 -16.383 25.727 -0 -1.2 0
3.689 -16.831 25.457 -0 -1.2 0
3.663 -17.275 25.179 -0 -1.2 0
3.636 -17.713 24.895 -0 -1.2 0
3.608 -18.146 24.602 -0 -1.2 0
3.58 -18.574 24.302 -0 -1.2 0
3.55 -18.997 23.995 -0 -1.2 0
3.519 -19.414 23.68 -0 -1.2 0
3.486 -19.826 23.358 -0 -1.2 0
3.453 -20.232 23.029 -0 -1.2 0
3.42 -20.632 22.693 -0 -1.2 0
3.383 -21.027 22.351 -0 -1.2 0
3.347 -21.416 22.002 -0 -1.2 0
4.818 1.207 29.706 -0 -1.2 0
4.835 0.685 29.74 -0 -1.2 0
4.85 0.163 29.765 -0 -1.2 0
4.865 -0.359 29.781 -0 -1.2 0
4.877 -0.882 29.787 -0 -1.2 0
4.888 -1.406 29.785 -0 -1.2 0
4.898 -1.929 29.773 -0 -1.2 0
4.906 -2.452 29.752 -0 -1.2 0
4.913 -2.975 29.723 -0 -1.2 0
4.918 -3.498 29.684 -0 -1.2 0
4.921 -4.019 29.637 -0 -1.2 0
4.924 -4.539 29.58 -0 -1.2 0
4.925 -5.059 29.514 -0 -1.2 0
4.923 -5.577 29.44 -0 -1.2 0
4.922 -6.094 29.357 -0 -1.2 0
4.918 -6.609 29.264 -0 -1.2 0
4.913 -7.123 29.164 -0 -1.2 0
4.835 -10.659 28.212 -0 -1.2 0
4.818 -11.154 28.04 -0 -1.2 0
4.8 -11.645 27.861 -0 -1.2 0
4.78 -12.134 27.674 -0 -1.2 0
4.758 -12.619 27.478 -0 -1.2 0
4.736 -13.101 27.274 -0 -1.2 0
4.711 -13.578 27.061 -0 -1.2 0
4.686 -14.053 26.84 -0 -1.2 0
4.659 -14.523 26.612 -0 -1.2 0
4.631 -14.989 26.375 -0 -1.2 0
4.57 -15.908 25.878 -0 -1.2 0
4.537 -16.362 25.618 -0 -1.2 0
4.504 -16.809 25.349 -0 -1.2 0
4.468 -17.253 25.073 -0 -1.2 0
4.431 -17.692 24.79 -0 -1.2 0
4.394 -18.125 24.498 -0 -1.2 0
4.354 -18.553 24.2 -0 -1.2 0
4.314 -18.977 23.894 -0 -1.2 0
4.271 -19.394 23.581 -0 -1.2 0
4.228 -19.806 23.262 -0 -1.2 0
4.183 -20.213 22.934 -0 -1.2 0
4.138 -20.613 22.6 -0 -1.2 0
4.091 -21.008 22.259 -0 -1.2 0
4.043 -21.397 21.911 -0 -1.2 0
5.892 0.713 29.558 -0 -1.2 0
5.907 0.191 29.583 -0 -1.2 0
5.922 -0.331 29.598 -0 -1.2 0
5.934 -0.854 29.605 -0 -1.2 0
5.943 -1.378 29.603 -0 -1.2 0
5.952 -1.901 29.591 -0 -1.2 0
5.959 -2.424 29.571 -0 -1.2 0
5.964 -2.947 29.542 -0 -1.2 0
5.967 -3.47 29.504 -0 -1.2 0
5.969 -3.991 29.457 -0 -1.2 0
5.969 -4.512 29.401 -0 -1.2 0
5.966 -5.031 29.336 -0 -1.2 0
5.962 -5.55 29.262 -0 -1.2 0
5.957 -6.067 29.18 -0 -1.2 0
5.948 -6.582 29.088 -0 -1.2 0
5.939 -7.096 28.988 -0 -1.2 0
5.928 -7.608 28.88 -0 -1.2 0
5.915 -8.118 28.761 -0 -1.2 0
5.901 -8.626 28.636 -0 -1.2 0
5.884 -9.131 28.5 -0 -1.2 0
5.865 -9.635 28.356 -0 -1.2 0
5.845 -10.135 28.204 -0 -1.2 0
5.824 -10.633 28.043 -0 -1.2 0
5.8 -11.128 27.874 -0 -1.2 0
5.774 -11.619 27.697 -0 -1.2 0
5.747 -12.109 27.51 -0 -1.2 0
5.719 -12.593 27.316 -0 -1.2 0
5.687 -13.076 27.113 -0 -1.2 0
5.655 -13.553 26.902 -0 -1.2 0
5.621 -14.028 26.683 -0 -1.2 0
5.586 -14.498 26.456 -0 -1.2 0
5.548 -14.965 26.221 -0 -1.2 0
5.509 -15.427 25.978 -0 -1.2 0
5.468 -15.884 25.726 -0 -1.2 0
5.426 -16.338 25.468 -0 -1.2 0
5.382 -16.786 25.202 -0 -1.2 0
5.336 -17.23 24.927 -0 -1.2 0
5.289 -17.669 24.646 -0 -1.2 0
5.24 -18.103 24.357 -0 -1.2 0
5.19 -18.531 24.06 -0 -1.2 0
5.138 -18.955 23.757 -0 -1.2 0
5.084 -19.373 23.446 -0 -1.2 0
5.029 -19.785 23.129 -0 -1.2 0
4.972 -20.192 22.804 -0 -1.2 0
4.915 -20.592 22.472 -0 -1.2 0
4.855 -20.988 22.133 -0 -1.2 0
4.793 -21.377 21.788 -0 -1.2 0
6.848 1.258 29.321 -0 -1.2 0
6.866 0.736 29.355 -0 -1.2 0
6.882 0.214 29.38 -0 -1.2 0
6.896 -0.308 29.396 -0 -1.2 0
6.907 -0.831 29.402 -0 -1.2 0
6.917 -1.355 29.4 -0 -1.2 0
6.925 -1.878 29.389 -0 -1.2 0
6.93 -2.401 29.369 -0 -1.2 0
6.934 -2.924 29.34 -0 -1.2 0
6.935 -3.447 29.303 -0 -1.2 0
6.934 -3.968 29.257 -0 -1.2 0
6.932 -4.489 29.202 -0 -1.2 0
6.927 -5.008 29.137 -0 -1.2 0
6.919 -5.527 29.064 -0 -1.2 0
6.91 -6.044 28.982 -0 -1.2 0
6.899 -6.559 28.892 -0 -1.2 0
6.886 -7.073 28.793 -0 -1.2 0
6.87 -7.585 28.684 -0 -1.2 0
6.853 -8.096 28.568 -0 -1.2 0
6.834 -8.604 28.442 -0 -1.2 0
6.812 -9.109 28.309 -0 -1.2 0
6.787 -9.613 28.166 -0 -1.2 0
6.762 -10.113 28.015 -0 -1.2 0
6.734 -10.611 27.856 -0 -1.2 0
6.704 -11.106 27.688 -0 -1.2 0
6.672 -11.597 27.512 -0 -1.2 0
6.638 -12.087 27.327 -0 -1.2 0
6.603 -12.572 27.134 -0 -1.2 0
6.565 -13.054 26.933 -0 -1.2 0
6.525 -13.532 26.723 -0 -1.2 0
6.484 -14.007 26.506 -0 -1.2 0
6.44 -14.478 26.281 -0 -1.2 0
6.394 -14.945 26.048 -0 -1.2 0
6.347 -15.407 25.806 -0 -1.2 0
6.297 -15.864 25.558 -0 -1.2 0
6.245 -16.318 25.301 -0 -1.2 0
6.192 -16.766 25.037 -0 -1.2 0
6.137 -17.211 24.765 -0 -1.2 0
6.08 -17.65 24.485 -0 -1.2 0
6.021 -18.084 24.199 -0 -1.2 0
5.96 -18.513 23.905 -0 -1.2 0
5.898 -18.937 23.604 -0 -1.2 0
5.833 -19.355 23.296 -0 -1.2 0
5.767 -19.767 22.98 -0 -1.2 0
5.7 -20.174 22.657 -0 -1.2 0
5.63 -20.575 22.328 -0 -1.2 0
5.559 -20.971 21.992 -0 -1.2 0
5.486 -21.36 21.65 -0 -1.2 0
7.833 0.758 29.12 -0 -1.2 0
7.85 0.236 29.144 -0 -1.2 0
7.863 -0.285 29.16 -0 -1.2 0
7.875 -0.808 29.168 -0 -1.2 0
7.884 -1.333 29.166 -0 -1.2 0
7.89 -1.856 29.155 -0 -1.2 0
7.894 -2.379 29.135 -0 -1.2 0
7.896 -2.902 29.107 -0 -1.2 0
7.895 -3.425 29.071 -0 -1.2 0
7.892 -3.946 29.025 -0 -1.2 0
7.887 -4.467 28.97 -0 -1.2 0
7.879 -4.986 28.907 -0 -1.2 0
7.869 -5.505 28.834 -0 -1.2 0
7.857 -6.022 28.753 -0 -1.2 0
7.842 -6.537 28.663 -0 -1.2 0
7.825 -7.051 28.565 -0 -1.2 0
7.805 -7.564 28.459 -0 -1.2 0
7.783 -8.074 28.343 -0 -1.2 0
7.759 -8.582 28.219 -0 -1.2 0
7.732 -9.088 28.086 -0 -1.2 0
7.704 -9.592 27.945 -0 -1.2 0
7.672 -10.092 27.795 -0 -1.2 0
7.639 -10.591 27.638 -0 -1.2 0
7.603 -11.086 27.471 -0 -1.2 0
7.564 -11.577 27.297 -0 -1.2 0
7.523 -12.067 27.114 -0 -1.2 0
7.482 -12.552 26.923 -0 -1.2 0
7.436 -13.035 26.724 -0 -1.2 0
7.388 -13.512 26.517 -0 -1.2 0
7.339 -13.988 26.301 -0 -1.2 0
7.288 -14.458 26.078 -0 -1.2 0
7.233 -14.925 25.847 -0 -1.2 0
7.178 -15.388 25.608 -0 -1.2 0
7.119 -15.845 25.362 -0 -1.2 0
7.058 -16.3 25.107 -0 -1.2 0
6.996 -16.748 24.846 -0 -1.2 0
6.931 -17.193 24.576 -0 -1.2 0
6.864 -17.632 24.299 -0 -1.2 0
6.796 -18.066 24.015 -0 -1.2 0
6.724 -18.495 23.724 -0 -1.2 0
6.652 -18.919 23.425 -0 -1.2 0
6.577 -19.338 23.12 -0 -1.2 0
6.5 -19.75 22.806 -0 -1.2 0
6.421 -20.157 22.487 -0 -1.2 0
6.34 -20.559 22.16 -0 -1.2 0
6.257 -20.955 21.827 -0 -1.2 0
6.173 -21.344 21.488 -0 -1.2 0
8.851 0.78 28.836 -0 -1.2 0
8.867 0.258 28.861 -0 -1.2 0
8.881 -0.263 28.876 -0 -1.2 0
8.892 -0.786 28.883 -0 -1.2 0
8.9 -1.311 28.882 -0 -1.2 0
8.906 -1.834 28.872 -0 -1.2 0
8.909 -2.357 28.853 -0 -1.2 0
8.909 -2.88 28.825 -0 -1.2 0
8.906 -3.403 28.789 -0 -1.2 0
8.901 -3.924 28.744 -0 -1.2 0
8.893 -4.445 28.69 -0 -1.2 0
8.882 -4.964 28.627 -0 -1.2 0
8.869 -5.483 28.556 -0 -1.2 0
8.853 -6 28.476 -0 -1.2 0
8.835 -6.516 28.388 -0 -1.2 0
8.814 -7.03 28.29 -0 -1.2 0
8.79 -7.542 28.185 -0 -1.2 0
8.763 -8.053 28.071 -0 -1.2 0
8.734 -8.561 27.948 -0 -1.2 0
8.702 -9.067 27.818 -0 -1.2 0
8.668 -9.571 27.678 -0 -1.2 0
8.631 -10.071 27.53 -0 -1.2 0
8.59 -10.57 27.374 -0 -1.2 0
8.548 -11.065 27.21 -0 -1.2 0
8.503 -11.557 27.038 -0 -1.2 0
8.456 -12.047 26.857 -0 -1.2 0
8.405 -12.532 26.668 -0 -1.2 0
8.353 -13.015 26.471 -0 -1.2 0
8.297 -13.493 26.266 -0 -1.2 0
8.24 -13.968 26.053 -0 -1.2 0
8.18 -14.439 25.833 -0 -1.2 0
8.118 -14.906 25.603 -0 -1.2 0
8.052 -15.369 25.368 -0 -1.2 0
7.985 -15.827 25.123 -0 -1.2 0
7.915 -16.281 24.873 -0 -1.2 0
7.842 -16.73 24.614 -0 -1.2 0
7.767 -17.175 24.346 -0 -1.2 0
7.69 -17.614 24.073 -0 -1.2 0
7.611 -18.049 23.792 -0 -1.2 0
7.53 -18.478 23.504 -0 -1.2 0
7.446 -18.902 23.209 -0 -1.2 0
7.36 -19.321 22.905 -0 -1.2 0
7.271 -19.734 22.597 -0 -1.2 0
7.18 -20.141 22.28 -0 -1.2 0
7.087 -20.543 21.957 -0 -1.2 0
6.993 -20.938 21.628 -0 -1.2 0
6.896 -21.329 21.293 -0 -1.2 0
9.777 0.807 28.542 -0 -1.2 0
9.794 0.285 28.567 -0 -1.2 0
9.807 -0.237 28.583 -0 -1.2 0
9.819 -0.76 28.59 -0 -1.2 0
9.826 -1.285 28.59 -0 -1.2 0
9.831 -1.807 28.58 -0 -1.2 0
9.832 -2.331 28.561 -0 -1.2 0
9.831 -2.853 28.534 -0 -1.2 0
9.826 -3.377 28.498 -0 -1.2 0
9.82 -3.898 28.454 -0 -1.2 0
9.81 -4.419 28.402 -0 -1.2 0
9.796 -4.938 28.34 -0 -1.2 0
9.78 -5.457 28.27 -0 -1.2 0
9.761 -5.974 28.191 -0 -1.2 0
9.739 -6.49 28.104 -0 -1.2 0
9.714 -7.004 28.009 -0 -1.2 0
9.686 -7.517 27.905 -0 -1.2 0
9.655 -8.028 27.792 -0 -1.2 0
9.621 -8.536 27.671 -0 -1.2 0
9.585 -9.042 27.541 -0 -1.2 0
9.545 -9.546 27.404 -0 -1.2 0
9.503 -10.046 27.258 -0 -1.2 0
9.458 -10.545 27.104 -0 -1.2 0
9.409 -11.04 26.942 -0 -1.2 0
9.359 -11.532 26.771 -0 -1.2 0
9.304 -12.022 26.593 -0 -1.2 0
9.248 -12.508 26.407 -0 -1.2 0
9.188 -12.991 26.212 -0 -1.2 0
9.126 -13.469 26.01 -0 -1.2 0
9.061 -13.944 25.8 -0 -1.2 0
8.993 -14.416 25.582 -0 -1.2 0
8.923 -14.883 25.356 -0 -1.2 0
8.85 -15.346 25.122 -0 -1.2 0
8.774 -15.804 24.881 -0 -1.2 0
8.696 -16.258 24.633 -0 -1.2 0
8.614 -16.707 24.377 -0 -1.2 0
8.53 -17.152 24.113 -0 -1.2 0
8.445 -17.592 23.842 -0 -1.2 0
8.356 -18.027 23.565 -0 -1.2 0
8.264 -18.456 23.28 -0 -1.2 0
8.171 -18.881 22.988 -0 -1.2 0
8.074 -19.3 22.689 -0 -1.2 0
7.975 -19.713 22.384 -0 -1.2 0
7.874 -20.121 22.071 -0 -1.2 0
7.77 -20.523 21.752 -0 -1.2 0
7.664 -20.919 21.426 -0 -1.2 0
7.556 -21.309 21.094 -0 -1.2 0
10.692 0.832 28.221 -0 -1.2 0
10.723 -0.212 28.262 -0 -1.2 0
10.733 -0.735 28.27 -0 -1.2 0
10.74 -1.259 28.269 -0 -1.2 0
10.745 -1.782 28.26 -0 -1.2 0
10.745 -2.306 28.241 -0 -1.2 0
10.742 -2.828 28.215 -0 -1.2 0
10.737 -3.351 28.18 -0 -1.2 0
10.727 -3.873 28.137 -0 -1.2 0
10.715 -4.394 28.085 -0 -1.2 0
10.7 -4.914 28.025 -0 -1.2 0
10.68 -5.432 27.956 -0 -1.2 0
10.658 -5.95 27.879 -0 -1.2 0
10.633 -6.465 27.793 -0 -1.2 0
10.605 -6.98 27.699 -0 -1.2 0
10.573 -7.492 27.597 -0 -1.2 0
10.537 -8.003 27.486 -0 -1.2 0
10.5 -8.512 27.367 -0 -1.2 0
10.459 -9.017 27.239 -0 -1.2 0
10.414 -9.522 27.104 -0 -1.2 0
10.367 -10.022 26.96 -0 -1.2 0
10.316 -10.521 26.808 -0 -1.2 0
10.262 -11.017 26.649 -0 -1.2 0
10.204 -11.509 26.481 -0 -1.2 0
10.144 -11.999 26.305 -0 -1.2 0
10.082 -12.485 26.12 -0 -1.2 0
10.015 -12.968 25.928 -0 -1.2 0
9.946 -13.446 25.728 -0 -1.2 0
9.873 -13.922 25.521 -0 -1.2 0
9.798 -14.393 25.306 -0 -1.2 0
9.72 -14.861 25.083 -0 -1.2 0
9.639 -15.324 24.853 -0 -1.2 0
9.555 -15.782 24.615 -0 -1.2 0
9.468 -16.237 24.37 -0 -1.2 0
9.378 -16.686 24.117 -0 -1.2 0
9.285 -17.131 23.857 -0 -1.2 0
9.19 -17.571 23.59 -0 -1.2 0
9.092 -18.006 23.315 -0 -1.2 0
8.99 -18.436 23.035 -0 -1.2 0
8.887 -18.861 22.747 -0 -1.2 0
8.78 -19.28 22.452 -0 -1.2 0
8.671 -19.694 22.149 -0 -1.2 0
8.56 -20.102 21.84 -0 -1.2 0
8.445 -20.504 21.526 -0 -1.2 0
8.329 -20.9 21.205 -0 -1.2 0
8.21 -21.291 20.876 -0 -1.2 0
11.663 0.858 27.841 -0 -1.2 0
11.694 -0.186 27.882 -0 -1.2 0
11.704 -0.709 27.89 -0 -1.2 0
11.71 -1.234 27.89 -0 -1.2 0
11.713 -1.757 27.882 -0 -1.2 0
11.712 -2.28 27.864 -0 -1.2 0
11.709 -2.803 27.839 -0 -1.2 0
11.7 -3.326 27.805 -0 -1.2 0
11.674 -4.369 27.712 -0 -1.2 0
11.657 -4.888 27.653 -0 -1.2 0
11.635 -5.407 27.586 -0 -1.2 0
11.609 -5.924 27.51 -0 -1.2 0
11.58 -6.44 27.425 -0 -1.2 0
11.548 -6.955 27.334 -0 -1.2 0
11.512 -7.467 27.233 -0 -1.2 0
11.473 -7.978 27.124 -0 -1.2 0
11.43 -8.487 27.007 -0 -1.2 0
11.383 -8.993 26.882 -0 -1.2 0
11.334 -9.497 26.749 -0 -1.2 0
11.281 -9.998 26.607 -0 -1.2 0
11.224 -10.497 26.458 -0 -1.2 0
11.164 -10.993 26.301 -0 -1.2 0
11.101 -11.485 26.135 -0 -1.2 0
11.034 -11.975 25.962 -0 -1.2 0
10.964 -12.461 25.781 -0 -1.2 0
10.891 -12.944 25.593 -0 -1.2 0
10.815 -13.423 25.396 -0 -1.2 0
10.735 -13.899 25.191 -0 -1.2 0
10.651 -14.37 24.98 -0 -1.2 0
10.565 -14.838 24.761 -0 -1.2 0
10.475 -15.301 24.534 -0 -1.2 0
10.382 -15.76 24.3 -0 -1.2 0
10.286 -16.215 24.058 -0 -1.2 0
10.187 -16.664 23.809 -0 -1.2 0
10.085 -17.11 23.553 -0 -1.2 0
9.98 -17.55 23.29 -0 -1.2 0
9.872 -17.986 23.021 -0 -1.2 0
9.76 -18.415 22.743 -0 -1.2 0
9.647 -18.841 22.459 -0 -1.2 0
9.53 -19.26 22.169 -0 -1.2 0
9.41 -19.674 21.872 -0 -1.2 0
9.287 -20.082 21.568 -0 -1.2 0
9.161 -20.485 21.257 -0 -1.2 0
9.033 -20.881 20.941 -0 -1.2 0
8.902 -21.273 20.618 -0 -1.2 0
12.541 0.881 27.464 -0 -1.2 0
12.572 -0.163 27.506 -0 -1.2 0
12.582 -0.686 27.515 -0 -1.2 0
12.587 -1.21 27.515 -0 -1.2 0
12.59 -1.733 27.507 -0 -1.2 0
12.582 -2.779 27.466 -0 -1.2 0
12.561 -3.824 27.391 -0 -1.2 0
12.543 -4.345 27.342 -0 -1.2 0
12.523 -4.865 27.284 -0 -1.2 0
12.438 -6.417 27.062 -0 -1.2 0
12.402 -6.932 26.971 -0 -1.2 0
12.158 -7.339 26.429 -0 -1.2 0
12.319 -7.956 26.765 -0 -1.2 0
12.273 -8.464 26.65 -0 -1.2 0
12.221 -8.97 26.527 -0 -1.2 0
12.167 -9.475 26.397 -0 -1.2 0
12.109 -9.976 26.258 -0 -1.2 0
12.047 -10.475 26.111 -0 -1.2 0
11.982 -10.971 25.956 -0 -1.2 0
11.912 -11.463 25.794 -0 -1.2 0
11.84 -11.954 25.624 -0 -1.2 0
11.763 -12.44 25.446 -0 -1.2 0
11.683 -12.923 25.259 -0 -1.2 0
11.6 -13.402 25.066 -0 -1.2 0
11.513 -13.878 24.865 -0 -1.2 0
11.423 -14.35 24.656 -0 -1.2 0
11.329 -14.818 24.442 -0 -1.2 0
11.232 -15.281 24.218 -0 -1.2 0
11.131 -15.74 23.987 -0 -1.2 0
11.028 -16.195 23.749 -0 -1.2 0
10.92 -16.645 23.505 -0 -1.2 0
10.809 -17.09 23.253 -0 -1.2 0
10.695 -17.531 22.993 -0 -1.2 0
10.578 -17.966 22.728 -0 -1.2 0
10.458 -18.396 22.455 -0 -1.2 0
10.335 -18.822 22.175 -0 -1.2 0
10.207 -19.242 21.889 -0 -1.2 0
10.078 -19.656 21.597 -0 -1.2 0
9.945 -20.064 21.297 -0 -1.2 0
9.809 -20.467 20.992 -0 -1.2 0
9.671 -20.864 20.679 -0 -1.2 0
9.529 -21.255 20.361 -0 -1.2 0
13.384 1.423 27.025 -0 -1.2 0
13.424 0.38 27.085 -0 -1.2 0
13.438 -0.142 27.102 -0 -1.2 0
13.452 -1.189 27.111 -0 -1.2 0
13.399 -4.325 26.944 -0 -1.2 0
13.376 -4.844 26.888 -0 -1.2 0
13.349 -5.363 26.823 -0 -1.2 0
13.317 -5.881 26.75 -0 -1.2 0
13.282 -6.397 26.669 -0 -1.2 0
13.243 -6.911 26.581 -0 -1.2 0
13.2 -7.424 26.484 -0 -1.2 0
13.153 -7.935 26.379 -0 -1.2 0
13.101 -8.444 26.266 -0 -1.2 0
13.046 -8.95 26.146 -0 -1.2 0
12.988 -9.455 26.017 -0 -1.2 0
12.925 -9.956 25.881 -0 -1.2 0
12.857 -10.455 25.738 -0 -1.2 0
12.787 -10.951 25.585 -0 -1.2 0
12.712 -11.443 25.425 -0 -1.2 0
12.634 -11.934 25.258 -0 -1.2 0
12.551 -12.42 25.083 -0 -1.2 0
12.464 -12.904 24.901 -0 -1.2 0
12.375 -13.383 24.711 -0 -1.2 0
12.281 -13.859 24.513 -0 -1.2 0
12.184 -14.331 24.308 -0 -1.2 0
12.083 -14.799 24.097 -0 -1.2 0
11.978 -15.263 23.877 -0 -1.2 0
11.869 -15.722 23.65 -0 -1.2 0
11.757 -16.177 23.417 -0 -1.2 0
11.642 -16.627 23.176 -0 -1.2 0
11.523 -17.073 22.928 -0 -1.2 0
11.401 -17.513 22.674 -0 -1.2 0
11.274 -17.949 22.412 -0 -1.2 0
11.145 -18.38 22.144 -0 -1.2 0
11.012 -18.805 21.869 -0 -1.2 0
10.876 -19.225 21.588 -0 -1.2 0
10.736 -19.639 21.299 -0 -1.2 0
10.594 -20.048 21.006 -0 -1.2 0
10.447 -20.451 20.705 -0 -1.2 0
10.299 -20.848 20.398 -0 -1.2 0
10.147 -21.24 20.084 -0 -1.2 0
14.301 1.445 26.56 -0 -1.2 0
14.322 0.923 26.593 -0 -1.2 0
14.341 0.401 26.619 -0 -1.2 0
14.354 -0.121 26.636 -0 -1.2 0
14.363 -0.644 26.645 -0 -1.2 0
14.368 -1.168 26.647 -0 -1.2 0
14.368 -1.691 26.64 -0 -1.2 0
14.365 -2.215 26.624 -0 -1.2 0
14.356 -2.737 26.602 -0 -1.2 0
14.344 -3.261 26.571 -0 -1.2 0
14.327 -3.783 26.532 -0 -1.2 0
14.306 -4.304 26.485 -0 -1.2 0
14.28 -4.823 26.43 -0 -1.2 0
14.216 -5.86 26.297 -0 -1.2 0
14.177 -6.376 26.218 -0 -1.2 0
14.135 -6.891 26.131 -0 -1.2 0
14.088 -7.404 26.037 -0 -1.2 0
14.036 -7.915 25.935 -0 -1.2 0
13.981 -8.424 25.825 -0 -1.2 0
13.921 -8.93 25.707 -0 -1.2 0
13.857 -9.435 25.581 -0 -1.2 0
13.789 -9.936 25.448 -0 -1.2 0
13.716 -10.435 25.306 -0 -1.2 0
13.64 -10.931 25.158 -0 -1.2 0
13.559 -11.424 25.001 -0 -1.2 0
13.474 -11.915 24.837 -0 -1.2 0
13.386 -12.401 24.666 -0 -1.2 0
13.292 -12.885 24.487 -0 -1.2 0
13.196 -13.364 24.301 -0 -1.2 0
13.094 -13.84 24.107 -0 -1.2 0
12.989 -14.312 23.907 -0 -1.2 0
12.881 -14.781 23.699 -0 -1.2 0
12.768 -15.244 23.485 -0 -1.2 0
12.651 -15.704 23.262 -0 -1.2 0
12.531 -16.159 23.033 -0 -1.2 0
12.407 -16.609 22.797 -0 -1.2 0
12.278 -17.055 22.554 -0 -1.2 0
12.147 -17.496 22.304 -0 -1.2 0
12.012 -17.932 22.048 -0 -1.2 0
11.873 -18.363 21.785 -0 -1.2 0
11.73 -18.788 21.515 -0 -1.2 0
11.583 -19.209 21.239 -0 -1.2 0
11.434 -19.623 20.957 -0 -1.2 0
11.281 -20.032 20.668 -0 -1.2 0
11.124 -20.435 20.373 -0 -1.2 0
10.964 -20.833 20.072 -0 -1.2 0
10.801 -21.225 19.764 -0 -1.2 0
15.211 -0.626 26.178 -0 -1.2 0
15.215 -1.15 26.179 -0 -1.2 0
15.215 -1.673 26.173 -0 -1.2 0
15.21 -2.197 26.16 -0 -1.2 0
15.2 -2.719 26.137 -0 -1.2 0
15.186 -3.243 26.107 -0 -1.2 0
15.167 -3.765 26.071 -0 -1.2 0
15.144 -4.286 26.025 -0 -1.2 0
15.116 -4.805 25.972 -0 -1.2 0
15.084 -5.325 25.911 -0 -1.2 0
15.047 -5.842 25.841 -0 -1.2 0
15.005 -6.358 25.764 -0 -1.2 0
14.959 -6.873 25.68 -0 -1.2 0
14.908 -7.386 25.587 -0 -1.2 0
14.853 -7.897 25.488 -0 -1.2 0
14.794 -8.406 25.38 -0 -1.2 0
14.729 -8.913 25.265 -0 -1.2 0
14.661 -9.417 25.142 -0 -1.2 0
14.588 -9.919 25.012 -0 -1.2 0
14.51 -10.418 24.874 -0 -1.2 0
14.428 -10.914 24.728 -0 -1.2 0
14.342 -11.407 24.575 -0 -1.2 0
14.252 -11.898 24.415 -0 -1.2 0
14.157 -12.384 24.247 -0 -1.2 0
14.058 -12.868 24.072 -0 -1.2 0
13.954 -13.347 23.89 -0 -1.2 0
13.846 -13.824 23.7 -0 -1.2 0
13.734 -14.296 23.504 -0 -1.2 0
13.619 -14.765 23.3 -0 -1.2 0
13.498 -15.229 23.09 -0 -1.2 0
13.375 -15.688 22.871 -0 -1.2 0
13.246 -16.144 22.647 -0 -1.2 0
13.114 -16.594 22.416 -0 -1.2 0
12.977 -17.04 22.178 -0 -1.2 0
12.837 -17.481 21.933 -0 -1.2 0
12.694 -17.917 21.682 -0 -1.2 0
12.545 -18.348 21.424 -0 -1.2 0
12.394 -18.774 21.16 -0 -1.2 0
12.238 -19.194 20.889 -0 -1.2 0
12.079 -19.609 20.613 -0 -1.2 0
11.916 -20.018 20.329 -0 -1.2 0
11.749 -20.422 20.04 -0 -1.2 0
11.58 -20.819 19.745 -0 -1.2 0
11.406 -21.212 19.443 -0 -1.2 0
16.065 -0.606 25.668 -0 -1.2 0
16.068 -1.131 25.671 -0 -1.2 0
16.068 -1.654 25.665 -0 -1.2 0
16.062 -2.177 25.652 -0 -1.2 0
16.052 -2.7 25.631 -0 -1.2 0
16.036 -3.223 25.602 -0 -1.2 0
16.016 -3.745 25.566 -0 -1.2 0
15.991 -4.266 25.522 -0 -1.2 0
15.961 -4.786 25.471 -0 -1.2 0
15.926 -5.305 25.411 -0 -1.2 0
15.887 -5.823 25.343 -0 -1.2 0
15.841 -6.339 25.269 -0 -1.2 0
15.793 -6.854 25.187 -0 -1.2 0
15.739 -7.367 25.096 -0 -1.2 0
15.68 -7.878 25 -0 -1.2 0
15.617 -8.387 24.894 -0 -1.2 0
15.548 -8.894 24.782 -0 -1.2 0
15.475 -9.399 24.662 -0 -1.2 0
15.397 -9.9 24.534 -0 -1.2 0
15.314 -10.4 24.4 -0 -1.2 0
15.228 -10.896 24.258 -0 -1.2 0
15.136 -11.389 24.108 -0 -1.2 0
15.04 -11.88 23.951 -0 -1.2 0
14.94 -12.366 23.787 -0 -1.2 0
14.834 -12.85 23.617 -0 -1.2 0
14.724 -13.329 23.439 -0 -1.2 0
14.61 -13.806 23.253 -0 -1.2 0
14.492 -14.279 23.061 -0 -1.2 0
14.369 -14.747 22.862 -0 -1.2 0
14.241 -15.211 22.656 -0 -1.2 0
14.109 -15.671 22.443 -0 -1.2 0
13.974 -16.127 22.224 -0 -1.2 0
13.833 -16.577 21.997 -0 -1.2 0
13.688 -17.023 21.764 -0 -1.2 0
13.541 -17.465 21.525 -0 -1.2 0
13.388 -17.901 21.279 -0 -1.2 0
13.231 -18.332 21.026 -0 -1.2 0
13.071 -18.758 20.768 -0 -1.2 0
12.905 -19.179 20.503 -0 -1.2 0
12.737 -19.593 20.233 -0 -1.2 0
12.564 -20.003 19.955 -0 -1.2 0
12.389 -20.406 19.672 -0 -1.2 0
12.209 -20.805 19.383 -0 -1.2 0
12.025 -21.197 19.088 -0 -1.2 0
16.961 -1.123 25.098 -0 -1.2 0
16.958 -1.646 25.092 -0 -1.2 0
16.952 -2.169 25.081 -0 -1.2 0
16.94 -2.692 25.06 -0 -1.2 0
16.923 -3.216 25.033 -0 -1.2 0
16.874 -4.259 24.955 -0 -1.2 0
16.842 -4.778 24.905 -0 -1.2 0
16.804 -5.298 24.847 -0 -1.2 0
16.761 -5.815 24.782 -0 -1.2 0
16.714 -6.332 24.709 -0 -1.2 0
16.661 -6.846 24.63 -0 -1.2 0
16.541 -7.871 24.448 -0 -1.2 0
16.473 -8.38 24.345 -0 -1.2 0
16.401 -8.886 24.236 -0 -1.2 0
16.322 -9.391 24.119 -0 -1.2 0
16.24 -9.893 23.995 -0 -1.2 0
16.153 -10.392 23.864 -0 -1.2 0
16.06 -10.889 23.725 -0 -1.2 0
15.962 -11.381 23.579 -0 -1.2 0
15.861 -11.872 23.426 -0 -1.2 0
15.753 -12.359 23.267 -0 -1.2 0
15.642 -12.843 23.1 -0 -1.2 0
15.525 -13.323 22.926 -0 -1.2 0
15.405 -13.799 22.746 -0 -1.2 0
15.278 -14.272 22.559 -0 -1.2 0
15.148 -14.74 22.365 -0 -1.2 0
15.013 -15.204 22.163 -0 -1.2 0
14.873 -15.664 21.956 -0 -1.2 0
14.729 -16.12 21.742 -0 -1.2 0
14.581 -16.57 21.521 -0 -1.2 0
14.428 -17.017 21.293 -0 -1.2 0
14.27 -17.458 21.06 -0 -1.2 0
14.109 -17.895 20.82 -0 -1.2 0
13.943 -18.326 20.574 -0 -1.2 0
13.772 -18.752 20.322 -0 -1.2 0
13.599 -19.172 20.063 -0 -1.2 0
13.42 -19.588 19.799 -0 -1.2 0
13.237 -19.997 19.528 -0 -1.2 0
13.051 -20.401 19.252 -0 -1.2 0
12.861 -20.799 18.97 -0 -1.2 0
12.666 -21.191 18.683 -0 -1.2 0
17.748 -0.609 24.547 -0 -1.2 0
17.752 -1.133 24.55 -0 -1.2 0
17.749 -1.656 24.545 -0 -1.2 0
17.741 -2.18 24.533 -0 -1.2 0
17.728 -2.703 24.514 -0 -1.2 0
17.709 -3.226 24.487 -0 -1.2 0
17.685 -3.748 24.453 -0 -1.2 0
17.656 -4.269 24.412 -0 -1.2 0
17.622 -4.789 24.364 -0 -1.2 0
17.535 -5.826 24.244 -0 -1.2 0
17.485 -6.342 24.173 -0 -1.2 0
17.301 -7.881 23.917 -0 -1.2 0
17.23 -8.39 23.818 -0 -1.2 0
17.152 -8.896 23.712 -0 -1.2 0
16.983 -9.903 23.477 -0 -1.2 0
16.89 -10.402 23.349 -0 -1.2 0
16.793 -10.899 23.214 -0 -1.2 0
16.69 -11.391 23.072 -0 -1.2 0
16.582 -11.882 22.922 -0 -1.2 0
16.47 -12.369 22.767 -0 -1.2 0
16.351 -12.853 22.604 -0 -1.2 0
16.229 -13.332 22.434 -0 -1.2 0
16.101 -13.809 22.258 -0 -1.2 0
15.969 -14.281 22.076 -0 -1.2 0
15.831 -14.75 21.886 -0 -1.2 0
15.689 -15.214 21.689 -0 -1.2 0
15.542 -15.673 21.487 -0 -1.2 0
15.391 -16.129 21.278 -0 -1.2 0
15.235 -16.579 21.062 -0 -1.2 0
15.073 -17.026 20.841 -0 -1.2 0
14.908 -17.467 20.612 -0 -1.2 0
14.738 -17.903 20.377 -0 -1.2 0
14.564 -18.334 20.137 -0 -1.2 0
14.385 -18.76 19.891 -0 -1.2 0
14.201 -19.181 19.638 -0 -1.2 0
14.014 -19.596 19.38 -0 -1.2 0
13.823 -20.005 19.116 -0 -1.2 0
13.627 -20.409 18.846 -0 -1.2 0
13.426 -20.807 18.57 -0 -1.2 0
13.222 -21.199 18.29 -0 -1.2 0
18.513 -0.621 23.98 -0 -1.2 0
18.515 -1.145 23.983 -0 -1.2 0
18.512 -1.668 23.979 -0 -1.2 0
18.503 -2.192 23.968 -0 -1.2 0
18.488 -2.715 23.95 -0 -1.2 0
18.17 -6.868 23.544 -0 -1.2 0
17.602 -10.414 22.817 -0 -1.2 0
17.5 -10.91 22.685 -0 -1.2 0
17.391 -11.403 22.547 -0 -1.2 0
17.278 -11.894 22.402 -0 -1.2 0
17.16 -12.38 22.25 -0 -1.2 0
17.036 -12.864 22.092 -0 -1.2 0
16.907 -13.343 21.927 -0 -1.2 0
16.774 -13.82 21.754 -0 -1.2 0
16.634 -14.292 21.576 -0 -1.2 0
16.491 -14.76 21.391 -0 -1.2 0
16.341 -15.224 21.2 -0 -1.2 0
16.187 -15.684 21.002 -0 -1.2 0
16.029 -16.139 20.799 -0 -1.2 0
15.865 -16.59 20.589 -0 -1.2 0
15.696 -17.036 20.372 -0 -1.2 0
15.523 -17.477 20.15 -0 -1.2 0
15.345 -17.913 19.921 -0 -1.2 0
15.162 -18.344 19.687 -0 -1.2 0
14.975 -18.77 19.446 -0 -1.2 0
14.783 -19.191 19.2 -0 -1.2 0
14.587 -19.605 18.949 -0 -1.2 0
14.386 -20.014 18.691 -0 -1.2 0
14.182 -20.418 18.427 -0 -1.2 0
13.972 -20.816 18.158 -0 -1.2 0
13.759 -21.208 17.885 -0 -1.2 0
19.302 -0.113 23.34 -0 -1.2 0
19.309 -0.636 23.349 -0 -1.2 0
19.311 -1.16 23.353 -0 -1.2 0
19.306 -1.683 23.35 -0 -1.2 0
19.111 -5.335 23.128 -0 -1.2 0
19.003 -6.368 23.003 -0 -1.2 0
18.003 -11.907 21.822 -0 -1.2 0
17.879 -12.394 21.675 -0 -1.2 0
17.748 -12.877 21.521 -0 -1.2 0
17.327 -14.305 21.02 -0 -1.2 0
17.176 -14.773 20.841 -0 -1.2 0
17.021 -15.237 20.655 -0 -1.2 0
16.859 -15.697 20.463 -0 -1.2 0
16.692 -16.152 20.265 -0 -1.2 0
16.521 -16.602 20.061 -0 -1.2 0
16.345 -17.049 19.851 -0 -1.2 0
16.163 -17.489 19.635 -0 -1.2 0
15.977 -17.925 19.413 -0 -1.2 0
15.785 -18.356 19.185 -0 -1.2 0
15.59 -18.782 18.951 -0 -1.2 0
15.389 -19.202 18.712 -0 -1.2 0
15.183 -19.617 18.468 -0 -1.2 0
14.974 -20.026 18.217 -0 -1.2 0
14.759 -20.429 17.961 -0 -1.2 0
14.54 -20.827 17.7 -0 -1.2 0
14.317 -21.219 17.433 -0 -1.2 0
20.021 -0.127 22.729 -0 -1.2 0
20.027 -0.65 22.74 -0 -1.2 0
20.028 -1.174 22.744 -0 -1.2 0
20.023 -1.697 22.74 -0 -1.2 0
18.781 -11.43 21.398 -0 -1.2 0
18.657 -11.92 21.261 -0 -1.2 0
18.251 -13.369 20.813 -0 -1.2 0
18.105 -13.846 20.651 -0 -1.2 0
17.953 -14.318 20.483 -0 -1.2 0
17.795 -14.786 20.309 -0 -1.2 0
17.633 -15.25 20.128 -0 -1.2 0
17.465 -15.709 19.942 -0 -1.2 0
17.291 -16.164 19.749 -0 -1.2 0
17.112 -16.614 19.551 -0 -1.2 0
16.929 -17.06 19.347 -0 -1.2 0
16.74 -17.501 19.137 -0 -1.2 0
16.546 -17.937 18.921 -0 -1.2 0
16.347 -18.367 18.7 -0 -1.2 0
16.143 -18.793 18.472 -0 -1.2 0
15.935 -19.213 18.241 -0 -1.2 0
15.721 -19.628 18.003 -0 -1.2 0
15.503 -20.036 17.759 -0 -1.2 0
15.28 -20.44 17.51 -0 -1.2 0
15.052 -20.837 17.256 -0 -1.2 0
14.82 -21.229 16.997 -0 -1.2 0
20.72 -0.144 22.098 -0 -1.2 0
20.727 -0.667 22.108 -0 -1.2 0
20.708 -2.237 22.101 -0 -1.2 0
20.382 -6.399 21.789 -0 -1.2 0
19.545 -10.953 20.939 -0 -1.2 0
19.422 -11.445 20.814 -0 -1.2 0
19.159 -12.422 20.542 -0 -1.2 0
18.871 -13.384 20.247 -0 -1.2 0
18.719 -13.861 20.09 -0 -1.2 0
18.229 -15.264 19.584 -0 -1.2 0
17.875 -16.179 19.216 -0 -1.2 0
17.689 -16.628 19.024 -0 -1.2 0
17.499 -17.074 18.826 -0 -1.2 0
17.303 -17.515 18.622 -0 -1.2 0
17.101 -17.951 18.412 -0 -1.2 0
16.895 -18.381 18.198 -0 -1.2 0
16.684 -18.806 17.978 -0 -1.2 0
16.467 -19.226 17.752 -0 -1.2 0
16.245 -19.641 17.521 -0 -1.2 0
16.019 -20.049 17.285 -0 -1.2 0
15.788 -20.452 17.044 -0 -1.2 0
15.551 -20.85 16.797 -0 -1.2 0
15.311 -21.241 16.546 -0 -1.2 0
21.464 -0.163 21.379 -0 -1.2 0
21.469 -0.686 21.391 -0 -1.2 0
21.461 -1.734 21.393 -0 -1.2 0
21.447 -2.257 21.385 -0 -1.2 0
21.401 -3.303 21.348 -0 -1.2 0
21.282 -4.865 21.247 -0 -1.2 0
19.038 -14.818 19.132 -0 -1.2 0
18.68 -15.74 18.789 -0 -1.2 0
18.494 -16.195 18.609 -0 -1.2 0
18.302 -16.645 18.424 -0 -1.2 0
18.103 -17.091 18.232 -0 -1.2 0
17.9 -17.531 18.036 -0 -1.2 0
17.69 -17.967 17.835 -0 -1.2 0
17.475 -18.397 17.627 -0 -1.2 0
17.256 -18.822 17.415 -0 -1.2 0
17.031 -19.242 17.197 -0 -1.2 0
16.801 -19.656 16.975 -0 -1.2 0
16.566 -20.064 16.746 -0 -1.2 0
16.326 -20.467 16.513 -0 -1.2 0
16.081 -20.864 16.276 -0 -1.2 0
15.83 -21.256 16.032 -0 -1.2 0
22.135 -0.181 20.686 -0 -1.2 0
22.141 -0.704 20.696 -0 -1.2 0
20.284 -12.939 19.121 -0 -1.2 0
19.963 -13.894 18.835 -0 -1.2 0
19.792 -14.365 18.684 -0 -1.2 0
19.435 -15.296 18.365 -0 -1.2 0
19.248 -15.755 18.196 -0 -1.2 0
19.055 -16.21 18.023 -0 -1.2 0
18.855 -16.659 17.844 -0 -1.2 0
18.65 -17.105 17.659 -0 -1.2 0
18.439 -17.545 17.47 -0 -1.2 0
18.224 -17.981 17.276 -0 -1.2 0
18.002 -18.411 17.076 -0 -1.2 0
17.775 -18.836 16.87 -0 -1.2 0
17.543 -19.255 16.661 -0 -1.2 0
17.305 -19.669 16.446 -0 -1.2 0
17.062 -20.077 16.226 -0 -1.2 0
16.813 -20.48 16.002 -0 -1.2 0
16.56 -20.877 15.772 -0 -1.2 0
16.302 -21.268 15.538 -0 -1.2 0
22.79 -1.766 19.973 -0 -1.2 0
22.774 -2.29 19.966 -0 -1.2 0
21.594 -10.506 19.053 -0 -1.2 0
20.545 -13.908 18.189 -0 -1.2 0
20.188 -14.847 17.892 -0 -1.2 0
20.001 -15.31 17.737 -0 -1.2 0
19.808 -15.768 17.575 -0 -1.2 0
19.607 -16.223 17.409 -0 -1.2 0
19.402 -16.672 17.237 -0 -1.2 0
19.191 -17.118 17.059 -0 -1.2 0
18.973 -17.558 16.877 -0 -1.2 0
18.751 -17.993 16.69 -0 -1.2 0
18.522 -18.423 16.498 -0 -1.2 0
18.288 -18.848 16.3 -0 -1.2 0
18.048 -19.267 16.098 -0 -1.2 0
17.803 -19.681 15.892 -0 -1.2 0
17.552 -20.089 15.681 -0 -1.2 0
17.296 -20.491 15.465 -0 -1.2 0
17.035 -20.888 15.243 -0 -1.2 0
16.769 -21.279 15.018 -0 -1.2 0
23.477 -0.214 19.149 -0 -1.2 0
23.482 -0.737 19.16 -0 -1.2 0
23.47 -1.784 19.166 -0 -1.2 0
23.453 -2.307 19.16 -0 -1.2 0
22.097 -11.018 18.193 -0 -1.2 0
21.955 -11.51 18.087 -0 -1.2 0
21.651 -12.486 17.856 -0 -1.2 0
21.49 -12.969 17.734 -0 -1.2 0
21.147 -13.923 17.472 -0 -1.2 0
20.967 -14.395 17.333 -0 -1.2 0
20.78 -14.862 17.189 -0 -1.2 0
20.585 -15.325 17.04 -0 -1.2 0
20.386 -15.783 16.886 -0 -1.2 0
20.18 -16.238 16.726 -0 -1.2 0
19.969 -16.687 16.562 -0 -1.2 0
19.75 -17.133 16.393 -0 -1.2 0
19.526 -17.572 16.219 -0 -1.2 0
19.296 -18.008 16.04 -0 -1.2 0
19.059 -18.437 15.856 -0 -1.2 0
18.818 -18.862 15.668 -0 -1.2 0
18.571 -19.281 15.475 -0 -1.2 0
18.318 -19.695 15.277 -0 -1.2 0
18.059 -20.102 15.075 -0 -1.2 0
17.795 -20.505 14.868 -0 -1.2 0
17.526 -20.901 14.658 -0 -1.2 0
17.252 -21.292 14.442 -0 -1.2 0
24.076 -0.231 18.39 -0 -1.2 0
24.08 -0.754 18.402 -0 -1.2 0
24.077 -1.278 18.407 -0 -1.2 0
24.068 -1.801 18.408 -0 -1.2 0
23.276 -8.53 17.918 -0 -1.2 0
23.047 -9.54 17.762 -0 -1.2 0
22.652 -11.035 17.487 -0 -1.2 0
22.506 -11.526 17.385 -0 -1.2 0
22.353 -12.017 17.278 -0 -1.2 0
22.028 -12.985 17.048 -0 -1.2 0
21.676 -13.939 16.798 -0 -1.2 0
21.49 -14.41 16.666 -0 -1.2 0
21.297 -14.877 16.528 -0 -1.2 0
21.099 -15.34 16.386 -0 -1.2 0
20.894 -15.798 16.238 -0 -1.2 0
20.682 -16.253 16.087 -0 -1.2 0
20.464 -16.702 15.93 -0 -1.2 0
20.24 -17.147 15.767 -0 -1.2 0
20.01 -17.587 15.601 -0 -1.2 0
19.774 -18.022 15.43 -0 -1.2 0
19.531 -18.451 15.255 -0 -1.2 0
19.283 -18.876 15.074 -0 -1.2 0
19.03 -19.295 14.89 -0 -1.2 0
18.77 -19.708 14.701 -0 -1.2 0
18.504 -20.116 14.507 -0 -1.2 0
18.234 -20.517 14.309 -0 -1.2 0
17.957 -20.914 14.107 -0 -1.2 0
17.674 -21.304 13.901 -0 -1.2 0
24.654 -0.771 17.623 -0 -1.2 0
24.651 -1.296 17.629 -0 -1.2 0
24.64 -1.819 17.63 -0 -1.2 0
24.622 -2.342 17.626 -0 -1.2 0
24.597 -2.865 17.617 -0 -1.2 0
24.123 -7.015 17.355 -0 -1.2 0
23.326 -10.556 16.854 -0 -1.2 0
23.184 -11.051 16.762 -0 -1.2 0
22.878 -12.033 16.563 -0 -1.2 0
22.715 -12.518 16.457 -0 -1.2 0
22.544 -13.001 16.345 -0 -1.2 0
22.366 -13.479 16.228 -0 -1.2 0
22.183 -13.954 16.107 -0 -1.2 0
21.992 -14.425 15.981 -0 -1.2 0
21.795 -14.893 15.85 -0 -1.2 0
21.591 -15.355 15.714 -0 -1.2 0
21.381 -15.813 15.574 -0 -1.2 0
21.164 -16.268 15.429 -0 -1.2 0
20.94 -16.716 15.28 -0 -1.2 0
20.711 -17.161 15.125 -0 -1.2 0
20.474 -17.601 14.967 -0 -1.2 0
20.233 -18.036 14.804 -0 -1.2 0
19.984 -18.465 14.637 -0 -1.2 0
19.73 -18.889 14.465 -0 -1.2 0
19.469 -19.308 14.289 -0 -1.2 0
19.203 -19.721 14.109 -0 -1.2 0
18.931 -20.128 13.924 -0 -1.2 0
18.653 -20.53 13.735 -0 -1.2 0
18.37 -20.926 13.543 -0 -1.2 0
18.081 -21.317 13.346 -0 -1.2 0
25.239 -1.317 16.77 -0 -1.2 0
25.227 -1.84 16.772 -0 -1.2 0
25.209 -2.363 16.768 -0 -1.2 0
25.056 -4.451 16.707 -0 -1.2 0
24.998 -4.97 16.679 -0 -1.2 0
24.934 -5.489 16.647 -0 -1.2 0
24.782 -6.522 16.566 -0 -1.2 0
24.694 -7.036 16.518 -0 -1.2 0
24.6 -7.548 16.465 -0 -1.2 0
24.497 -8.059 16.408 -0 -1.2 0
24.388 -8.567 16.346 -0 -1.2 0
24.014 -10.077 16.129 -0 -1.2 0
23.876 -10.575 16.048 -0 -1.2 0
23.73 -11.071 15.961 -0 -1.2 0
23.575 -11.562 15.871 -0 -1.2 0
23.415 -12.052 15.774 -0 -1.2 0
23.247 -12.537 15.674 -0 -1.2 0
23.073 -13.02 15.568 -0 -1.2 0
22.891 -13.498 15.459 -0 -1.2 0
22.702 -13.973 15.344 -0 -1.2 0
22.507 -14.444 15.225 -0 -1.2 0
22.305 -14.911 15.102 -0 -1.2 0
22.095 -15.373 14.973 -0 -1.2 0
21.88 -15.831 14.841 -0 -1.2 0
21.657 -16.285 14.704 -0 -1.2 0
21.428 -16.734 14.562 -0 -1.2 0
21.192 -17.179 14.417 -0 -1.2 0
20.951 -17.618 14.267 -0 -1.2 0
20.702 -18.053 14.112 -0 -1.2 0
20.447 -18.481 13.954 -0 -1.2 0
20.187 -18.906 13.792 -0 -1.2 0
19.92 -19.324 13.626 -0 -1.2 0
19.648 -19.737 13.455 -0 -1.2 0
19.369 -20.144 13.28 -0 -1.2 0
19.083 -20.546 13.102 -0 -1.2 0
18.793 -20.942 12.92 -0 -1.2 0
18.497 -21.332 12.733 -0 -1.2 0
25.759 -0.813 15.952 -0 -1.2 0
25.754 -1.337 15.959 -0 -1.2 0
25.743 -1.86 15.962 -0 -1.2 0
25.723 -2.383 15.961 -0 -1.2 0
25.66 -3.429 15.942 -0 -1.2 0
25.566 -4.471 15.905 -0 -1.2 0
25.508 -4.991 15.879 -0 -1.2 0
25.441 -5.509 15.849 -0 -1.2 0
25.367 -6.026 15.813 -0 -1.2 0
25.286 -6.542 15.774 -0 -1.2 0
25.196 -7.056 15.73 -0 -1.2 0
25.099 -7.568 15.68 -0 -1.2 0
24.994 -8.078 15.627 -0 -1.2 0
24.882 -8.587 15.568 -0 -1.2 0
24.5 -10.096 15.366 -0 -1.2 0
24.358 -10.595 15.288 -0 -1.2 0
24.208 -11.09 15.207 -0 -1.2 0
24.051 -11.581 15.121 -0 -1.2 0
23.888 -12.071 15.031 -0 -1.2 0
23.715 -12.556 14.936 -0 -1.2 0
23.537 -13.038 14.836 -0 -1.2 0
23.352 -13.516 14.733 -0 -1.2 0
23.159 -13.991 14.625 -0 -1.2 0
22.959 -14.462 14.512 -0 -1.2 0
22.752 -14.929 14.396 -0 -1.2 0
22.538 -15.391 14.275 -0 -1.2 0
22.318 -15.849 14.149 -0 -1.2 0
22.09 -16.303 14.02 -0 -1.2 0
21.857 -16.751 13.887 -0 -1.2 0
21.616 -17.196 13.749 -0 -1.2 0
21.368 -17.635 13.607 -0 -1.2 0
21.115 -18.069 13.461 -0 -1.2 0
20.855 -18.498 13.311 -0 -1.2 0
20.589 -18.922 13.158 -0 -1.2 0
20.316 -19.34 13 -0 -1.2 0
20.037 -19.753 12.839 -0 -1.2 0
19.753 -20.16 12.674 -0 -1.2 0
19.461 -20.561 12.504 -0 -1.2 0
19.165 -20.956 12.332 -0 -1.2 0
18.863 -21.346 12.156 -0 -1.2 0
26.238 -0.31 15.125 -0 -1.2 0
26.241 -0.833 15.138 -0 -1.2 0
26.236 -1.357 15.146 -0 -1.2 0
26.224 -1.88 15.149 -0 -1.2 0
26.204 -2.403 15.149 -0 -1.2 0
26.139 -3.449 15.133 -0 -1.2 0
26.095 -3.97 15.118 -0 -1.2 0
26.043 -4.491 15.1 -0 -1.2 0
25.983 -5.01 15.076 -0 -1.2 0
25.914 -5.529 15.048 -0 -1.2 0
25.839 -6.046 15.016 -0 -1.2 0
25.755 -6.561 14.979 -0 -1.2 0
25.665 -7.075 14.938 -0 -1.2 0
25.565 -7.587 14.892 -0 -1.2 0
25.458 -8.098 14.842 -0 -1.2 0
25.343 -8.606 14.788 -0 -1.2 0
25.221 -9.111 14.728 -0 -1.2 0
25.091 -9.615 14.665 -0 -1.2 0
24.953 -10.115 14.598 -0 -1.2 0
24.809 -10.613 14.526 -0 -1.2 0
24.655 -11.108 14.449 -0 -1.2 0
24.496 -11.599 14.369 -0 -1.2 0
24.328 -12.089 14.284 -0 -1.2 0
24.153 -12.574 14.195 -0 -1.2 0
23.971 -13.056 14.101 -0 -1.2 0
23.781 -13.534 14.005 -0 -1.2 0
23.584 -14.009 13.903 -0 -1.2 0
23.381 -14.479 13.797 -0 -1.2 0
23.17 -14.946 13.687 -0 -1.2 0
22.952 -15.408 13.574 -0 -1.2 0
22.727 -15.866 13.456 -0 -1.2 0
22.494 -16.32 13.334 -0 -1.2 0
22.257 -16.768 13.207 -0 -1.2 0
22.011 -17.212 13.078 -0 -1.2 0
21.759 -17.651 12.945 -0 -1.2 0
21.5 -18.085 12.807 -0 -1.2 0
21.235 -18.514 12.666 -0 -1.2 0
20.963 -18.937 12.521 -0 -1.2 0
20.685 -19.355 12.373 -0 -1.2 0
20.401 -19.768 12.22 -0 -1.2 0
20.111 -20.175 12.065 -0 -1.2 0
19.815 -20.576 11.905 -0 -1.2 0
19.512 -20.971 11.743 -0 -1.2 0
19.204 -21.36 11.576 -0 -1.2 0
26.732 -0.334 14.223 -0 -1.2 0
26.735 -0.857 14.236 -0 -1.2 0
26.731 -1.381 14.245 -0 -1.2 0
26.718 -1.904 14.249 -0 -1.2 0
26.696 -2.427 14.249 -0 -1.2 0
26.667 -2.949 14.245 -0 -1.2 0
26.63 -3.472 14.237 -0 -1.2 0
26.584 -3.994 14.223 -0 -1.2 0
26.532 -4.515 14.207 -0 -1.2 0
26.47 -5.034 14.187 -0 -1.2 0
26.4 -5.552 14.161 -0 -1.2 0
26.323 -6.069 14.132 -0 -1.2 0
26.238 -6.584 14.098 -0 -1.2 0
26.144 -7.098 14.06 -0 -1.2 0
26.042 -7.61 14.019 -0 -1.2 0
25.934 -8.121 13.972 -0 -1.2 0
25.816 -8.628 13.922 -0 -1.2 0
25.692 -9.134 13.868 -0 -1.2 0
25.558 -9.637 13.81 -0 -1.2 0
25.418 -10.137 13.747 -0 -1.2 0
25.27 -10.636 13.68 -0 -1.2 0
25.114 -11.13 13.61 -0 -1.2 0
24.951 -11.621 13.535 -0 -1.2 0
24.78 -12.111 13.456 -0 -1.2 0
24.602 -12.596 13.374 -0 -1.2 0
24.415 -13.078 13.287 -0 -1.2 0
24.222 -13.555 13.197 -0 -1.2 0
24.021 -14.03 13.103 -0 -1.2 0
23.814 -14.5 13.004 -0 -1.2 0
23.598 -14.967 12.901 -0 -1.2 0
23.376 -15.429 12.796 -0 -1.2 0
23.147 -15.886 12.686 -0 -1.2 0
22.91 -16.34 12.573 -0 -1.2 0
22.667 -16.787 12.456 -0 -1.2 0
22.416 -17.232 12.334 -0 -1.2 0
22.159 -17.67 12.21 -0 -1.2 0
21.895 -18.104 12.082 -0 -1.2 0
21.625 -18.532 11.951 -0 -1.2 0
21.348 -18.956 11.816 -0 -1.2 0
21.065 -19.374 11.676 -0 -1.2 0
20.775 -19.786 11.535 -0 -1.2 0
20.479 -20.192 11.389 -0 -1.2 0
20.176 -20.593 11.24 -0 -1.2 0
19.868 -20.988 11.088 -0 -1.2 0
19.554 -21.377 10.933 -0 -1.2 0
27.165 -0.877 13.388 -0 -1.2 0
27.159 -1.401 13.397 -0 -1.2 0
27.146 -1.924 13.403 -0 -1.2 0
27.124 -2.447 13.404 -0 -1.2 0
27.095 -2.97 13.401 -0 -1.2 0
27.057 -3.492 13.394 -0 -1.2 0
27.01 -4.014 13.384 -0 -1.2 0
26.956 -4.535 13.369 -0 -1.2 0
26.893 -5.054 13.351 -0 -1.2 0
26.822 -5.572 13.328 -0 -1.2 0
26.743 -6.089 13.302 -0 -1.2 0
26.656 -6.604 13.271 -0 -1.2 0
26.561 -7.118 13.237 -0 -1.2 0
26.346 -8.14 13.156 -0 -1.2 0
26.227 -8.648 13.11 -0 -1.2 0
26.1 -9.153 13.061 -0 -1.2 0
25.965 -9.656 13.006 -0 -1.2 0
25.821 -10.156 12.95 -0 -1.2 0
25.671 -10.654 12.888 -0 -1.2 0
25.512 -11.149 12.823 -0 -1.2 0
25.346 -11.64 12.754 -0 -1.2 0
25.172 -12.129 12.681 -0 -1.2 0
24.991 -12.614 12.604 -0 -1.2 0
24.801 -13.096 12.525 -0 -1.2 0
24.604 -13.573 12.441 -0 -1.2 0
24.401 -14.048 12.353 -0 -1.2 0
24.189 -14.518 12.261 -0 -1.2 0
23.97 -14.984 12.167 -0 -1.2 0
23.744 -15.446 12.069 -0 -1.2 0
23.511 -15.903 11.966 -0 -1.2 0
23.27 -16.357 11.861 -0 -1.2 0
23.023 -16.804 11.752 -0 -1.2 0
22.768 -17.248 11.64 -0 -1.2 0
22.507 -17.687 11.523 -0 -1.2 0
22.239 -18.12 11.405 -0 -1.2 0
21.964 -18.548 11.282 -0 -1.2 0
21.682 -18.972 11.156 -0 -1.2 0
21.394 -19.389 11.027 -0 -1.2 0
21.099 -19.801 10.894 -0 -1.2 0
20.798 -20.207 10.759 -0 -1.2 0
20.491 -20.608 10.62 -0 -1.2 0
20.177 -21.003 10.478 -0 -1.2 0
19.857 -21.392 10.333 -0 -1.2 0
27.57 -0.375 12.501 -0 -1.2 0
27.572 -0.898 12.514 -0 -1.2 0
27.567 -1.422 12.524 -0 -1.2 0
27.553 -1.945 12.53 -0 -1.2 0
27.531 -2.468 12.532 -0 -1.2 0
27.5 -2.991 12.531 -0 -1.2 0
27.461 -3.514 12.526 -0 -1.2 0
27.414 -4.035 12.518 -0 -1.2 0
27.359 -4.555 12.506 -0 -1.2 0
27.295 -5.074 12.489 -0 -1.2 0
27.222 -5.593 12.47 -0 -1.2 0
27.142 -6.11 12.446 -0 -1.2 0
27.053 -6.625 12.419 -0 -1.2 0
26.738 -8.16 12.316 -0 -1.2 0
26.618 -8.668 12.274 -0 -1.2 0
26.488 -9.173 12.229 -0 -1.2 0
26.35 -9.676 12.18 -0 -1.2 0
26.205 -10.176 12.128 -0 -1.2 0
26.052 -10.674 12.072 -0 -1.2 0
25.89 -11.169 12.012 -0 -1.2 0
25.722 -11.659 11.949 -0 -1.2 0
25.545 -12.149 11.882 -0 -1.2 0
25.36 -12.633 11.813 -0 -1.2 0
25.168 -13.115 11.739 -0 -1.2 0
24.968 -13.592 11.661 -0 -1.2 0
24.761 -14.067 11.582 -0 -1.2 0
24.545 -14.537 11.498 -0 -1.2 0
24.323 -15.003 11.41 -0 -1.2 0
24.093 -15.464 11.32 -0 -1.2 0
23.856 -15.921 11.226 -0 -1.2 0
23.612 -16.374 11.128 -0 -1.2 0
23.36 -16.822 11.028 -0 -1.2 0
23.102 -17.266 10.924 -0 -1.2 0
22.837 -17.704 10.817 -0 -1.2 0
22.565 -18.137 10.707 -0 -1.2 0
22.285 -18.565 10.594 -0 -1.2 0
21.999 -18.988 10.477 -0 -1.2 0
21.706 -19.406 10.358 -0 -1.2 0
21.407 -19.817 10.236 -0 -1.2 0
21.102 -20.223 10.11 -0 -1.2 0
20.789 -20.623 9.982 -0 -1.2 0
20.471 -21.018 9.85 -0 -1.2 0
20.146 -21.407 9.717 -0 -1.2 0
27.986 -0.923 11.539 -0 -1.2 0
27.979 -1.447 11.549 -0 -1.2 0
27.965 -1.97 11.557 -0 -1.2 0
27.943 -2.493 11.561 -0 -1.2 0
27.911 -3.015 11.56 -0 -1.2 0
27.871 -3.538 11.558 -0 -1.2 0
27.823 -4.059 11.551 -0 -1.2 0
27.766 -4.58 11.542 -0 -1.2 0
27.701 -5.099 11.529 -0 -1.2 0
27.628 -5.617 11.512 -0 -1.2 0
27.546 -6.134 11.492 -0 -1.2 0
27.456 -6.649 11.468 -0 -1.2 0
27.358 -7.162 11.441 -0 -1.2 0
27.251 -7.674 11.412 -0 -1.2 0
27.012 -8.692 11.341 -0 -1.2 0
26.88 -9.197 11.301 -0 -1.2 0
26.741 -9.7 11.258 -0 -1.2 0
26.593 -10.199 11.21 -0 -1.2 0
26.437 -10.697 11.161 -0 -1.2 0
26.273 -11.192 11.108 -0 -1.2 0
26.101 -11.682 11.051 -0 -1.2 0
25.922 -12.171 10.991 -0 -1.2 0
25.735 -12.656 10.928 -0 -1.2 0
25.539 -13.137 10.862 -0 -1.2 0
25.336 -13.614 10.792 -0 -1.2 0
25.125 -14.089 10.72 -0 -1.2 0
24.907 -14.558 10.644 -0 -1.2 0
24.681 -15.024 10.565 -0 -1.2 0
24.448 -15.486 10.483 -0 -1.2 0
24.207 -15.942 10.399 -0 -1.2 0
23.959 -16.395 10.31 -0 -1.2 0
23.703 -16.842 10.219 -0 -1.2 0
23.44 -17.286 10.126 -0 -1.2 0
23.171 -17.724 10.029 -0 -1.2 0
22.894 -18.157 9.929 -0 -1.2 0
22.61 -18.585 9.826 -0 -1.2 0
22.32 -19.007 9.72 -0 -1.2 0
22.023 -19.425 9.612 -0 -1.2 0
21.719 -19.836 9.5 -0 -1.2 0
21.408 -20.242 9.386 -0 -1.2 0
21.091 -20.642 9.269 -0 -1.2 0
20.768 -21.036 9.15 -0 -1.2 0
20.438 -21.424 9.027 -0 -1.2 0
28.336 -0.423 10.608 -0 -1.2 0
28.339 -0.946 10.622 -0 -1.2 0
28.332 -1.47 10.633 -0 -1.2 0
28.318 -1.993 10.642 -0 -1.2 0
28.294 -2.516 10.646 -0 -1.2 0
28.262 -3.038 10.648 -0 -1.2 0
28.222 -3.561 10.648 -0 -1.2 0
28.173 -4.082 10.643 -0 -1.2 0
28.116 -4.603 10.636 -0 -1.2 0
28.05 -5.122 10.625 -0 -1.2 0
27.975 -5.64 10.611 -0 -1.2 0
27.892 -6.157 10.594 -0 -1.2 0
27.8 -6.672 10.575 -0 -1.2 0
27.7 -7.185 10.551 -0 -1.2 0
27.592 -7.697 10.526 -0 -1.2 0
27.475 -8.207 10.496 -0 -1.2 0
27.35 -8.714 10.464 -0 -1.2 0
27.216 -9.219 10.429 -0 -1.2 0
27.075 -9.722 10.391 -0 -1.2 0
26.925 -10.221 10.349 -0 -1.2 0
26.768 -10.719 10.305 -0 -1.2 0
26.601 -11.213 10.258 -0 -1.2 0
26.427 -11.704 10.207 -0 -1.2 0
26.245 -12.192 10.153 -0 -1.2 0
26.055 -12.677 10.097 -0 -1.2 0
25.857 -13.158 10.038 -0 -1.2 0
25.651 -13.635 9.976 -0 -1.2 0
25.438 -14.109 9.911 -0 -1.2 0
25.215 -14.578 9.843 -0 -1.2 0
24.987 -15.044 9.772 -0 -1.2 0
24.75 -15.505 9.698 -0 -1.2 0
24.507 -15.962 9.621 -0 -1.2 0
24.254 -16.415 9.542 -0 -1.2 0
23.996 -16.862 9.46 -0 -1.2 0
23.73 -17.305 9.375 -0 -1.2 0
23.457 -17.743 9.287 -0 -1.2 0
23.176 -18.176 9.197 -0 -1.2 0
22.889 -18.603 9.103 -0 -1.2 0
22.594 -19.025 9.008 -0 -1.2 0
22.293 -19.442 8.909 -0 -1.2 0
21.985 -19.853 8.809 -0 -1.2 0
21.671 -20.259 8.706 -0 -1.2 0
21.35 -20.658 8.6 -0 -1.2 0
21.022 -21.052 8.491 -0 -1.2 0
20.688 -21.441 8.38 -0 -1.2 0
28.658 -0.448 9.679 -0 -1.2 0
28.66 -0.971 9.694 -0 -1.2 0
28.654 -1.496 9.706 -0 -1.2 0
28.638 -2.018 9.715 -0 -1.2 0
28.615 -2.541 9.721 -0 -1.2 0
28.583 -3.064 9.725 -0 -1.2 0
28.541 -3.587 9.725 -0 -1.2 0
28.491 -4.108 9.723 -0 -1.2 0
28.433 -4.628 9.718 -0 -1.2 0
28.366 -5.147 9.71 -0 -1.2 0
28.29 -5.665 9.699 -0 -1.2 0
28.206 -6.182 9.685 -0 -1.2 0
28.114 -6.697 9.669 -0 -1.2 0
28.012 -7.21 9.65 -0 -1.2 0
27.903 -7.721 9.628 -0 -1.2 0
27.784 -8.231 9.604 -0 -1.2 0
27.658 -8.738 9.576 -0 -1.2 0
27.523 -9.243 9.545 -0 -1.2 0
27.379 -9.746 9.512 -0 -1.2 0
27.228 -10.245 9.476 -0 -1.2 0
27.068 -10.743 9.437 -0 -1.2 0
26.899 -11.237 9.396 -0 -1.2 0
26.722 -11.727 9.352 -0 -1.2 0
26.538 -12.216 9.305 -0 -1.2 0
26.346 -12.7 9.256 -0 -1.2 0
26.145 -13.181 9.203 -0 -1.2 0
25.937 -13.658 9.148 -0 -1.2 0
25.721 -14.132 9.091 -0 -1.2 0
25.497 -14.601 9.031 -0 -1.2 0
25.265 -15.066 8.968 -0 -1.2 0
25.025 -15.527 8.902 -0 -1.2 0
24.779 -15.984 8.834 -0 -1.2 0
24.524 -16.436 8.763 -0 -1.2 0
24.263 -16.883 8.69 -0 -1.2 0
23.993 -17.326 8.614 -0 -1.2 0
23.716 -17.763 8.537 -0 -1.2 0
23.433 -18.196 8.456 -0 -1.2 0
23.142 -18.623 8.373 -0 -1.2 0
22.844 -19.045 8.287 -0 -1.2 0
22.539 -19.462 8.199 -0 -1.2 0
22.227 -19.873 8.109 -0 -1.2 0
21.909 -20.278 8.016 -0 -1.2 0
21.584 -20.677 7.922 -0 -1.2 0
21.253 -21.071 7.824 -0 -1.2 0
20.915 -21.459 7.724 -0 -1.2 0
28.971 -0.477 8.665 -0 -1.2 0
28.973 -1 8.679 -0 -1.2 0
28.967 -1.525 8.692 -0 -1.2 0
28.951 -2.047 8.703 -0 -1.2 0
28.927 -2.57 8.709 -0 -1.2 0
28.894 -3.093 8.715 -0 -1.2 0
28.852 -3.615 8.717 -0 -1.2 0
28.802 -4.136 8.718 -0 -1.2 0
28.743 -4.657 8.715 -0 -1.2 0
28.674 -5.176 8.71 -0 -1.2 0
28.598 -5.694 8.703 -0 -1.2 0
28.513 -6.21 8.693 -0 -1.2 0
28.419 -6.725 8.68 -0 -1.2 0
28.316 -7.238 8.665 -0 -1.2 0
28.205 -7.749 8.647 -0 -1.2 0
28.086 -8.259 8.628 -0 -1.2 0
27.958 -8.766 8.605 -0 -1.2 0
27.82 -9.271 8.58 -0 -1.2 0
27.675 -9.774 8.552 -0 -1.2 0
27.522 -10.273 8.522 -0 -1.2 0
27.36 -10.77 8.49 -0 -1.2 0
27.19 -11.264 8.455 -0 -1.2 0
27.011 -11.754 8.418 -0 -1.2 0
26.824 -12.242 8.378 -0 -1.2 0
26.63 -12.726 8.336 -0 -1.2 0
26.427 -13.207 8.291 -0 -1.2 0
26.216 -13.684 8.244 -0 -1.2 0
25.998 -14.157 8.195 -0 -1.2 0
25.771 -14.626 8.143 -0 -1.2 0
25.536 -15.092 8.088 -0 -1.2 0
25.294 -15.552 8.033 -0 -1.2 0
25.044 -16.008 7.973 -0 -1.2 0
24.787 -16.46 7.913 -0 -1.2 0
24.522 -16.907 7.849 -0 -1.2 0
24.249 -17.35 7.783 -0 -1.2 0
23.97 -17.787 7.716 -0 -1.2 0
23.683 -18.219 7.645 -0 -1.2 0
23.389 -18.646 7.573 -0 -1.2 0
23.087 -19.068 7.499 -0 -1.2 0
22.779 -19.484 7.423 -0 -1.2 0
22.464 -19.895 7.344 -0 -1.2 0
22.142 -20.299 7.263 -0 -1.2 0
21.813 -20.698 7.18 -0 -1.2 0
21.478 -21.092 7.095 -0 -1.2 0
21.136 -21.479 7.008 -0 -1.2 0
29.199 0.538 7.672 -0 -1.2 0
29.219 0.016 7.692 -0 -1.2 0
29.23 -0.506 7.71 -0 -1.2 0
29.232 -1.029 7.726 -0 -1.2 0
29.225 -1.553 7.74 -0 -1.2 0
29.209 -2.076 7.751 -0 -1.2 0
29.185 -2.599 7.76 -0 -1.2 0
29.151 -3.121 7.766 -0 -1.2 0
29.109 -3.643 7.77 -0 -1.2 0
29.058 -4.164 7.773 -0 -1.2 0
28.998 -4.685 7.773 -0 -1.2 0
28.929 -5.203 7.771 -0 -1.2 0
28.852 -5.721 7.766 -0 -1.2 0
28.766 -6.238 7.76 -0 -1.2 0
28.67 -6.752 7.751 -0 -1.2 0
28.567 -7.265 7.74 -0 -1.2 0
28.455 -7.777 7.727 -0 -1.2 0
28.334 -8.286 7.711 -0 -1.2 0
28.204 -8.793 7.693 -0 -1.2 0
28.066 -9.298 7.673 -0 -1.2 0
27.92 -9.8 7.651 -0 -1.2 0
27.764 -10.299 7.626 -0 -1.2 0
27.601 -10.796 7.6 -0 -1.2 0
27.429 -11.29 7.571 -0 -1.2 0
27.249 -11.78 7.54 -0 -1.2 0
27.061 -12.268 7.506 -0 -1.2 0
26.864 -12.752 7.472 -0 -1.2 0
26.66 -13.233 7.434 -0 -1.2 0
26.446 -13.709 7.395 -0 -1.2 0
26.226 -14.182 7.353 -0 -1.2 0
25.997 -14.651 7.309 -0 -1.2 0
25.76 -15.116 7.263 -0 -1.2 0
25.516 -15.576 7.215 -0 -1.2 0
25.263 -16.032 7.165 -0 -1.2 0
25.004 -16.484 7.114 -0 -1.2 0
24.736 -16.93 7.059 -0 -1.2 0
24.462 -17.373 7.003 -0 -1.2 0
24.179 -17.81 6.945 -0 -1.2 0
23.889 -18.242 6.885 -0 -1.2 0
23.592 -18.668 6.822 -0 -1.2 0
23.289 -19.09 6.759 -0 -1.2 0
22.977 -19.506 6.692 -0 -1.2 0
22.659 -19.916 6.625 -0 -1.2 0
22.334 -20.32 6.555 -0 -1.2 0
22.003 -20.719 6.484 -0 -1.2 0
21.664 -21.112 6.41 -0 -1.2 0
21.319 -21.499 6.335 -0 -1.2 0
29.425 0.512 6.71 -0 -1.2 0
29.444 -0.009 6.73 -0 -1.2 0
29.457 -1.055 6.763 -0 -1.2 0
29.451 -1.579 6.778 -0 -1.2 0
29.434 -2.102 6.789 -0 -1.2 0
29.41 -2.625 6.8 -0 -1.2 0
29.376 -3.147 6.808 -0 -1.2 0
29.333 -3.67 6.814 -0 -1.2 0
29.282 -4.191 6.819 -0 -1.2 0
29.221 -4.711 6.822 -0 -1.2 0
29.152 -5.229 6.822 -0 -1.2 0
29.074 -5.747 6.82 -0 -1.2 0
28.987 -6.263 6.817 -0 -1.2 0
28.891 -6.778 6.812 -0 -1.2 0
28.787 -7.291 6.804 -0 -1.2 0
28.674 -7.802 6.795 -0 -1.2 0
28.551 -8.312 6.783 -0 -1.2 0
28.421 -8.818 6.771 -0 -1.2 0
28.281 -9.323 6.756 -0 -1.2 0
28.134 -9.825 6.739 -0 -1.2 0
27.978 -10.324 6.719 -0 -1.2 0
27.813 -10.821 6.699 -0 -1.2 0
27.64 -11.314 6.677 -0 -1.2 0
27.458 -11.804 6.651 -0 -1.2 0
27.268 -12.292 6.626 -0 -1.2 0
27.07 -12.776 6.597 -0 -1.2 0
26.863 -13.256 6.567 -0 -1.2 0
26.648 -13.732 6.534 -0 -1.2 0
26.427 -14.205 6.501 -0 -1.2 0
26.196 -14.674 6.464 -0 -1.2 0
25.957 -15.139 6.427 -0 -1.2 0
25.711 -15.599 6.388 -0 -1.2 0
25.456 -16.054 6.346 -0 -1.2 0
25.194 -16.506 6.303 -0 -1.2 0
24.925 -16.952 6.258 -0 -1.2 0
24.647 -17.394 6.211 -0 -1.2 0
24.363 -17.831 6.163 -0 -1.2 0
24.071 -18.263 6.113 -0 -1.2 0
23.772 -18.689 6.062 -0 -1.2 0
23.465 -19.11 6.008 -0 -1.2 0
23.151 -19.526 5.952 -0 -1.2 0
22.831 -19.936 5.896 -0 -1.2 0
22.504 -20.34 5.837 -0 -1.2 0
22.17 -20.738 5.777 -0 -1.2 0
21.828 -21.131 5.715 -0 -1.2 0
21.48 -21.518 5.652 -0 -1.2 0
29.633 0.483 5.666 -0 -1.2 0
29.666 -1.084 5.719 -0 -1.2 0
29.659 -1.608 5.733 -0 -1.2 0
29.643 -2.131 5.747 -0 -1.2 0
29.618 -2.654 5.758 -0 -1.2 0
29.583 -3.176 5.767 -0 -1.2 0
29.541 -3.698 5.776 -0 -1.2 0
29.489 -4.219 5.783 -0 -1.2 0
29.427 -4.739 5.788 -0 -1.2 0
29.358 -5.258 5.791 -0 -1.2 0
29.279 -5.776 5.792 -0 -1.2 0
29.192 -6.292 5.792 -0 -1.2 0
29.095 -6.806 5.791 -0 -1.2 0
28.99 -7.319 5.788 -0 -1.2 0
28.875 -7.83 5.783 -0 -1.2 0
28.753 -8.339 5.777 -0 -1.2 0
28.622 -8.846 5.768 -0 -1.2 0
28.481 -9.35 5.759 -0 -1.2 0
28.333 -9.853 5.747 -0 -1.2 0
28.175 -10.351 5.735 -0 -1.2 0
28.009 -10.848 5.721 -0 -1.2 0
27.834 -11.341 5.705 -0 -1.2 0
27.651 -11.831 5.687 -0 -1.2 0
27.461 -12.319 5.667 -0 -1.2 0
27.261 -12.802 5.646 -0 -1.2 0
27.053 -13.282 5.624 -0 -1.2 0
26.837 -13.758 5.599 -0 -1.2 0
26.612 -14.231 5.574 -0 -1.2 0
26.38 -14.699 5.547 -0 -1.2 0
26.14 -15.164 5.518 -0 -1.2 0
25.892 -15.624 5.488 -0 -1.2 0
