# .PCD v.7 - Point Cloud Data file format
FIELDS x y z vp_x vp_y vp_z
SIZE 4 4 4 4 4 4
TYPE F F F F F F
COUNT 1 1 1 1 1 1
WIDTH 1551
HEIGHT 1
VIEWPOINT 0 -1.20013 0 1 0 0 0
POINTS 1551
DATA ascii
-0.063 0.007 -1.429 -0 -1.2 0
-0.065 0.002 -1.472 -0 -1.2 0
-0.067 0.007 -1.531 -0 -1.2 0
-0.069 0 -1.574 -0 -1.2 0
-0.072 0.007 -1.642 -0 -1.2 0
-0.075 0.002 -1.695 -0 -1.2 0
-0.077 0.001 -1.755 -0 -1.2 0
-0.08 0.003 -1.825 -0 -1.2 0
-0.083 -0.006 -1.879 -0 -1.2 0
-0.085 -0.013 -1.941 -0 -1.2 0
-0.09 -0.002 -2.038 -0 -1.2 0
-0.093 -0.003 -2.118 -0 -1.2 0
-0.096 -0.011 -2.191 -0 -1.2 0
-0.101 -0.01 -2.29 -0 -1.2 0
-0.105 -0.006 -2.399 -0 -1.2 0
-0.11 -0.013 -2.491 -0 -1.2 0
-0.114 -0.017 -2.601 -0 -1.2 0
-0.119 -0.023 -2.712 -0 -1.2 0
-0.125 -0.026 -2.842 -0 -1.2 0
-0.131 -0.03 -2.982 -0 -1.2 0
-0.137 -0.038 -3.123 -0 -1.2 0
-0.145 -0.038 -3.303 -0 -1.2 0
-0.153 -0.045 -3.483 -0 -1.2 0
-0.16 -0.057 -3.664 -0 -1.2 0
-0.17 -0.062 -3.894 -0 -1.2 0
-0.181 -0.072 -4.134 -0 -1.2 0
-0.186 -0.119 -4.258 -0 -1.2 0
-0.19 -0.173 -4.363 -0 -1.2 0
-0.191 -0.242 -4.408 -0 -1.2 0
-0.191 -0.318 -4.423 -0 -1.2 0
-0.189 -0.398 -4.416 -0 -1.2 0
-0.188 -0.478 -4.398 -0 -1.2 0
-0.186 -0.557 -4.389 -0 -1.2 0
-0.184 -0.636 -4.368 -0 -1.2 0
-0.182 -0.714 -4.336 -0 -1.2 0
-0.181 -0.789 -4.342 -0 -1.2 0
-0.18 -0.864 -4.337 -0 -1.2 0
-0.179 -0.939 -4.34 -0 -1.2 0
-0.179 -1.013 -4.343 -0 -1.2 0
-0.178 -1.088 -4.344 -0 -1.2 0
-0.176 -1.162 -4.333 -0 -1.2 0
-0.176 -1.236 -4.342 -0 -1.2 0
-0.176 -1.313 -4.369 -0 -1.2 0
-0.175 -1.387 -4.364 -0 -1.2 0
-0.174 -1.464 -4.369 -0 -1.2 0
-0.174 -1.542 -4.392 -0 -1.2 0
-0.174 -1.62 -4.413 -0 -1.2 0
-0.174 -1.7 -4.433 -0 -1.2 0
-0.171 -1.772 -4.393 -0 -1.2 0
-0.168 -1.839 -4.331 -0 -1.2 0
-0.166 -1.912 -4.308 -0 -1.2 0
-0.166 -1.995 -4.342 -0 -1.2 0
-1.028 -8.339 -25.665 -0 -1.2 0
-0.093 0.003 -1.203 -0 -1.2 0
-0.097 0.01 -1.251 -0 -1.2 0
-0.099 -0.003 -1.278 -0 -1.2 0
-0.103 0.007 -1.334 -0 -1.2 0
-0.106 -0.002 -1.369 -0 -1.2 0
-0.11 0 -1.419 -0 -1.2 0
-0.113 0.001 -1.469 -0 -1.2 0
-0.117 0 -1.52 -0 -1.2 0
-0.121 -0.006 -1.563 -0 -1.2 0
-0.126 0.007 -1.639 -0 -1.2 0
-0.13 -0.003 -1.683 -0 -1.2 0
-0.135 0 -1.752 -0 -1.2 0
-0.14 -0.002 -1.813 -0 -1.2 0
-0.144 -0.011 -1.866 -0 -1.2 0
-0.15 -0.009 -1.945 -0 -1.2 0
-0.157 -0.003 -2.034 -0 -1.2 0
-0.164 0 -2.123 -0 -1.2 0
-0.17 -0.003 -2.204 -0 -1.2 0
-0.176 -0.01 -2.285 -0 -1.2 0
-0.183 -0.015 -2.376 -0 -1.2 0
-0.191 -0.019 -2.476 -0 -1.2 0
-0.2 -0.018 -2.596 -0 -1.2 0
-0.209 -0.024 -2.706 -0 -1.2 0
-0.218 -0.031 -2.827 -0 -1.2 0
-0.23 -0.027 -2.985 -0 -1.2 0
-0.242 -0.033 -3.136 -0 -1.2 0
-0.254 -0.039 -3.296 -0 -1.2 0
-0.268 -0.046 -3.476 -0 -1.2 0
-0.281 -0.058 -3.657 -0 -1.2 0
-0.298 -0.064 -3.886 -0 -1.2 0
-0.317 -0.074 -4.126 -0 -1.2 0
-0.338 -0.087 -4.396 -0 -1.2 0
-0.364 -0.092 -4.735 -0 -1.2 0
-0.367 -0.166 -4.791 -0 -1.2 0
-0.364 -0.258 -4.758 -0 -1.2 0
-0.36 -0.348 -4.722 -0 -1.2 0
-0.354 -0.441 -4.655 -0 -1.2 0
-0.343 -0.538 -4.538 -0 -1.2 0
-0.335 -0.628 -4.438 -0 -1.2 0
-0.332 -0.708 -4.416 -0 -1.2 0
-0.328 -0.786 -4.383 -0 -1.2 0
-0.326 -0.863 -4.368 -0 -1.2 0
-0.324 -0.939 -4.352 -0 -1.2 0
-0.324 -1.014 -4.364 -0 -1.2 0
-0.322 -1.09 -4.345 -0 -1.2 0
-0.32 -1.164 -4.335 -0 -1.2 0
-0.319 -1.238 -4.333 -0 -1.2 0
-0.317 -1.313 -4.32 -0 -1.2 0
-0.317 -1.388 -4.336 -0 -1.2 0
-0.317 -1.463 -4.34 -0 -1.2 0
-0.317 -1.54 -4.353 -0 -1.2 0
-0.319 -1.621 -4.394 -0 -1.2 0
-0.321 -1.702 -4.424 -0 -1.2 0
-0.323 -1.786 -4.463 -0 -1.2 0
-0.132 -0.004 -1.192 -0 -1.2 0
-0.137 0.003 -1.24 -0 -1.2 0
-0.14 -0.011 -1.266 -0 -1.2 0
-0.146 0.001 -1.323 -0 -1.2 0
-0.152 0.004 -1.372 -0 -1.2 0
-0.155 -0.012 -1.398 -0 -1.2 0
-0.162 0 -1.465 -0 -1.2 0
-0.166 -0.011 -1.5 -0 -1.2 0
-0.172 -0.007 -1.558 -0 -1.2 0
-0.179 -0.005 -1.618 -0 -1.2 0
-0.184 -0.015 -1.661 -0 -1.2 0
-0.192 -0.005 -1.738 -0 -1.2 0
-0.2 -0.002 -1.808 -0 -1.2 0
-0.208 0.002 -1.886 -0 -1.2 0
-0.214 -0.009 -1.939 -0 -1.2 0
-0.225 0 -2.036 -0 -1.2 0
-0.234 0 -2.116 -0 -1.2 0
-0.242 -0.009 -2.188 -0 -1.2 0
-0.251 -0.015 -2.27 -0 -1.2 0
-0.262 -0.012 -2.378 -0 -1.2 0
-0.273 -0.015 -2.478 -0 -1.2 0
-0.284 -0.026 -2.569 -0 -1.2 0
-0.297 -0.029 -2.689 -0 -1.2 0
-0.311 -0.032 -2.818 -0 -1.2 0
-0.327 -0.032 -2.967 -0 -1.2 0
-0.344 -0.037 -3.117 -0 -1.2 0
-0.361 -0.044 -3.276 -0 -1.2 0
-0.382 -0.047 -3.465 -0 -1.2 0
-0.402 -0.057 -3.655 -0 -1.2 0
-0.426 -0.065 -3.874 -0 -1.2 0
-0.452 -0.078 -4.104 -0 -1.2 0
-0.484 -0.083 -4.402 -0 -1.2 0
-0.522 -0.089 -4.74 -0 -1.2 0
-0.562 -0.102 -5.108 -0 -1.2 0
-0.609 -0.117 -5.534 -0 -1.2 0
-0.667 -0.13 -6.061 -0 -1.2 0
-0.737 -0.145 -6.697 -0 -1.2 0
-0.824 -0.164 -7.482 -0 -1.2 0
-0.481 -0.63 -4.425 -0 -1.2 0
-1.087 -0.209 -9.876 -0 -1.2 0
-0.477 -0.785 -4.409 -0 -1.2 0
-0.472 -0.864 -4.374 -0 -1.2 0
-0.473 -0.939 -4.388 -0 -1.2 0
-0.477 -1.014 -4.43 -0 -1.2 0
-0.48 -1.09 -4.471 -0 -1.2 0
-0.479 -1.167 -4.47 -0 -1.2 0
-0.475 -1.243 -4.439 -0 -1.2 0
-0.476 -1.321 -4.456 -0 -1.2 0
-0.477 -1.399 -4.471 -0 -1.2 0
-0.472 -1.474 -4.436 -0 -1.2 0
-0.469 -1.55 -4.419 -0 -1.2 0
-0.469 -1.627 -4.42 -0 -1.2 0
-0.47 -1.708 -4.44 -0 -1.2 0
-0.176 0.002 -1.194 -0 -1.2 0
-0.183 0.009 -1.242 -0 -1.2 0
-0.188 0.002 -1.276 -0 -1.2 0
-0.194 0 -1.317 -0 -1.2 0
-0.2 -0.003 -1.358 -0 -1.2 0
-0.207 0 -1.408 -0 -1.2 0
-0.213 -0.005 -1.45 -0 -1.2 0
-0.22 -0.006 -1.501 -0 -1.2 0
-0.228 -0.007 -1.551 -0 -1.2 0
-0.236 -0.005 -1.61 -0 -1.2 0
-0.245 -0.004 -1.67 -0 -1.2 0
-0.255 0 -1.739 -0 -1.2 0
-0.264 -0.003 -1.799 -0 -1.2 0
-0.273 -0.008 -1.86 -0 -1.2 0
-0.283 -0.01 -1.93 -0 -1.2 0
-0.297 0 -2.027 -0 -1.2 0
-0.308 -0.005 -2.098 -0 -1.2 0
-0.318 -0.013 -2.17 -0 -1.2 0
-0.33 -0.021 -2.249 -0 -1.2 0
-0.347 -0.012 -2.367 -0 -1.2 0
-0.36 -0.021 -2.457 -0 -1.2 0
-0.376 -0.023 -2.566 -0 -1.2 0
-0.392 -0.03 -2.676 -0 -1.2 0
-0.411 -0.033 -2.805 -0 -1.2 0
-0.433 -0.033 -2.953 -0 -1.2 0
-0.455 -0.038 -3.102 -0 -1.2 0
-0.479 -0.042 -3.271 -0 -1.2 0
-0.503 -0.051 -3.44 -0 -1.2 0
-0.529 -0.064 -3.619 -0 -1.2 0
-0.564 -0.066 -3.857 -0 -1.2 0
-0.6 -0.075 -4.104 -0 -1.2 0
-0.641 -0.085 -4.382 -0 -1.2 0
-0.687 -0.096 -4.699 -0 -1.2 0
-0.744 -0.104 -5.084 -0 -1.2 0
-0.807 -0.117 -5.519 -0 -1.2 0
-0.882 -0.132 -6.033 -0 -1.2 0
-0.972 -0.15 -6.647 -0 -1.2 0
-1.091 -0.166 -7.458 -0 -1.2 0
-1.241 -0.185 -8.486 -0 -1.2 0
-1.43 -0.217 -9.782 -0 -1.2 0
-1.717 -0.245 -11.749 -0 -1.2 0
-2.131 -0.294 -14.579 -0 -1.2 0
-0.626 -1.017 -4.35 -0 -1.2 0
-0.63 -1.092 -4.381 -0 -1.2 0
-0.63 -1.168 -4.391 -0 -1.2 0
-0.216 0.001 -1.187 -0 -1.2 0
-0.223 0.002 -1.228 -0 -1.2 0
-0.231 0.001 -1.269 -0 -1.2 0
-0.238 0 -1.31 -0 -1.2 0
-0.247 0.003 -1.358 -0 -1.2 0
-0.253 -0.007 -1.393 -0 -1.2 0
-0.262 -0.005 -1.442 -0 -1.2 0
-0.271 -0.006 -1.492 -0 -1.2 0
-0.281 -0.002 -1.551 -0 -1.2 0
-0.291 -0.006 -1.602 -0 -1.2 0
-0.301 -0.005 -1.661 -0 -1.2 0
-0.312 -0.007 -1.721 -0 -1.2 0
-0.323 -0.009 -1.781 -0 -1.2 0
-0.336 -0.009 -1.85 -0 -1.2 0
-0.348 -0.011 -1.92 -0 -1.2 0
-0.364 -0.005 -2.007 -0 -1.2 0
-0.378 -0.006 -2.086 -0 -1.2 0
-0.39 -0.019 -2.148 -0 -1.2 0
-0.407 -0.017 -2.246 -0 -1.2 0
-0.423 -0.022 -2.335 -0 -1.2 0
-0.44 -0.029 -2.426 -0 -1.2 0
-0.461 -0.028 -2.543 -0 -1.2 0
-0.481 -0.035 -2.653 -0 -1.2 0
-0.505 -0.034 -2.79 -0 -1.2 0
-0.532 -0.034 -2.937 -0 -1.2 0
-0.557 -0.042 -3.076 -0 -1.2 0
-0.585 -0.049 -3.234 -0 -1.2 0
-0.617 -0.055 -3.412 -0 -1.2 0
-0.651 -0.065 -3.6 -0 -1.2 0
-0.695 -0.065 -3.845 -0 -1.2 0
-0.739 -0.073 -4.091 -0 -1.2 0
-0.791 -0.082 -4.377 -0 -1.2 0
-0.848 -0.092 -4.692 -0 -1.2 0
-0.917 -0.101 -5.076 -0 -1.2 0
-0.994 -0.117 -5.498 -0 -1.2 0
-1.086 -0.132 -6.01 -0 -1.2 0
-1.198 -0.15 -6.63 -0 -1.2 0
-1.346 -0.164 -7.446 -0 -1.2 0
-1.518 -0.193 -8.401 -0 -1.2 0
-1.755 -0.221 -9.718 -0 -1.2 0
-2.107 -0.25 -11.666 -0 -1.2 0
-2.626 -0.296 -14.538 -0 -1.2 0
-3.438 -0.382 -19.034 -0 -1.2 0
-3.142 -0.752 -17.421 -0 -1.2 0
-3.165 -1.059 -17.562 -0 -1.2 0
-0.254 -0.005 -1.173 -0 -1.2 0
-0.264 0.001 -1.22 -0 -1.2 0
-0.272 -0.005 -1.253 -0 -1.2 0
-0.279 -0.014 -1.285 -0 -1.2 0
-0.288 -0.016 -1.326 -0 -1.2 0
-0.298 -0.013 -1.375 -0 -1.2 0
-0.309 -0.013 -1.424 -0 -1.2 0
-0.321 -0.007 -1.482 -0 -1.2 0
-0.332 -0.008 -1.533 -0 -1.2 0
-0.343 -0.012 -1.582 -0 -1.2 0
-0.355 -0.011 -1.642 -0 -1.2 0
-0.37 -0.007 -1.709 -0 -1.2 0
-0.381 -0.015 -1.76 -0 -1.2 0
-0.398 -0.009 -1.838 -0 -1.2 0
-0.409 -0.021 -1.889 -0 -1.2 0
-0.428 -0.015 -1.976 -0 -1.2 0
-0.445 -0.017 -2.054 -0 -1.2 0
-0.463 -0.015 -2.143 -0 -1.2 0
-0.481 -0.022 -2.222 -0 -1.2 0
-0.502 -0.023 -2.32 -0 -1.2 0
-0.521 -0.03 -2.41 -0 -1.2 0
-0.542 -0.037 -2.509 -0 -1.2 0
-0.568 -0.039 -2.626 -0 -1.2 0
-0.599 -0.035 -2.771 -0 -1.2 0
-0.631 -0.035 -2.918 -0 -1.2 0
-0.66 -0.043 -3.056 -0 -1.2 0
-0.696 -0.048 -3.222 -0 -1.2 0
-0.731 -0.056 -3.389 -0 -1.2 0
-0.769 -0.069 -3.566 -0 -1.2 0
-0.826 -0.064 -3.829 -0 -1.2 0
-0.874 -0.078 -4.055 -0 -1.2 0
-0.934 -0.088 -4.329 -0 -1.2 0
-1.001 -0.099 -4.642 -0 -1.2 0
-1.083 -0.108 -5.023 -0 -1.2 0
-1.178 -0.119 -5.462 -0 -1.2 0
-1.294 -0.13 -5.999 -0 -1.2 0
-1.42 -0.152 -6.586 -0 -1.2 0
-1.584 -0.173 -7.349 -0 -1.2 0
-1.785 -0.201 -8.287 -0 -1.2 0
-2.078 -0.226 -9.644 -0 -1.2 0
-2.503 -0.252 -11.618 -0 -1.2 0
-3.133 -0.296 -14.54 -0 -1.2 0
-3.967 -0.408 -18.41 -0 -1.2 0
-3.895 -0.742 -18.098 -0 -1.2 0
-3.946 -1.063 -18.346 -0 -1.2 0
-0.297 -0.005 -1.163 -0 -1.2 0
-0.309 0.001 -1.209 -0 -1.2 0
-0.319 0 -1.249 -0 -1.2 0
-0.327 -0.007 -1.283 -0 -1.2 0
-0.339 -0.004 -1.331 -0 -1.2 0
-0.35 -0.008 -1.372 -0 -1.2 0
-0.36 -0.013 -1.412 -0 -1.2 0
-0.373 -0.013 -1.461 -0 -1.2 0
-0.387 -0.009 -1.52 -0 -1.2 0
-0.4 -0.013 -1.569 -0 -1.2 0
-0.415 -0.012 -1.628 -0 -1.2 0
-0.428 -0.019 -1.678 -0 -1.2 0
-0.447 -0.011 -1.754 -0 -1.2 0
-0.462 -0.015 -1.813 -0 -1.2 0
-0.482 -0.012 -1.891 -0 -1.2 0
-0.501 -0.011 -1.968 -0 -1.2 0
-0.521 -0.012 -2.047 -0 -1.2 0
-0.537 -0.025 -2.107 -0 -1.2 0
-0.559 -0.027 -2.195 -0 -1.2 0
-0.586 -0.024 -2.3 -0 -1.2 0
-0.606 -0.035 -2.38 -0 -1.2 0
-0.633 -0.038 -2.487 -0 -1.2 0
-0.662 -0.04 -2.604 -0 -1.2 0
-0.699 -0.036 -2.748 -0 -1.2 0
-0.733 -0.04 -2.884 -0 -1.2 0
-0.767 -0.048 -3.021 -0 -1.2 0
-0.809 -0.052 -3.186 -0 -1.2 0
-0.851 -0.06 -3.351 -0 -1.2 0
-0.898 -0.07 -3.536 -0 -1.2 0
-0.961 -0.067 -3.787 -0 -1.2 0
-1.018 -0.081 -4.011 -0 -1.2 0
-1.089 -0.09 -4.292 -0 -1.2 0
-1.168 -0.1 -4.603 -0 -1.2 0
-1.269 -0.105 -5 -0 -1.2 0
-1.377 -0.119 -5.425 -0 -1.2 0
-1.505 -0.135 -5.929 -0 -1.2 0
-1.65 -0.159 -6.502 -0 -1.2 0
-1.846 -0.177 -7.277 -0 -1.2 0
-2.086 -0.204 -8.227 -0 -1.2 0
-2.418 -0.232 -9.534 -0 -1.2 0
-2.914 -0.258 -11.491 -0 -1.2 0
-3.628 -0.307 -14.311 -0 -1.2 0
-5.372 -0.304 -21.179 -0 -1.2 0
-5.886 -0.643 -23.226 -0 -1.2 0
-5.397 -1.064 -21.312 -0 -1.2 0
-5.346 -1.443 -21.126 -0 -1.2 0
-6.486 -1.975 -25.643 -0 -1.2 0
-5.342 -2.202 -21.142 -0 -1.2 0
-6.561 -2.923 -25.978 -0 -1.2 0
-6.563 -3.393 -26.002 -0 -1.2 0
-6.562 -3.867 -26.018 -0 -1.2 0
-6.571 -4.346 -26.075 -0 -1.2 0
-6.574 -4.826 -26.104 -0 -1.2 0
-6.574 -5.308 -26.123 -0 -1.2 0
-6.575 -5.794 -26.145 -0 -1.2 0
-6.568 -6.278 -26.139 -0 -1.2 0
-6.555 -6.758 -26.106 -0 -1.2 0
-6.556 -7.255 -26.13 -0 -1.2 0
-6.548 -7.747 -26.118 -0 -1.2 0
-6.579 -8.287 -26.265 -0 -1.2 0
-6.567 -8.784 -26.233 -0 -1.2 0
-6.507 -9.228 -26.018 -0 -1.2 0
-6.158 -9.282 -24.64 -0 -1.2 0
-0.334 -0.013 -1.144 -0 -1.2 0
-0.35 0.001 -1.198 -0 -1.2 0
-0.359 -0.006 -1.231 -0 -1.2 0
-0.373 -0.001 -1.278 -0 -1.2 0
-0.384 -0.004 -1.318 -0 -1.2 0
-0.394 -0.014 -1.351 -0 -1.2 0
-0.408 -0.014 -1.399 -0 -1.2 0
-0.424 -0.008 -1.456 -0 -1.2 0
-0.439 -0.01 -1.506 -0 -1.2 0
-0.453 -0.013 -1.554 -0 -1.2 0
-0.47 -0.012 -1.612 -0 -1.2 0
-0.487 -0.013 -1.67 -0 -1.2 0
-0.504 -0.016 -1.729 -0 -1.2 0
-0.521 -0.021 -1.788 -0 -1.2 0
-0.54 -0.022 -1.856 -0 -1.2 0
-0.56 -0.026 -1.925 -0 -1.2 0
-0.583 -0.027 -2.002 -0 -1.2 0
-0.61 -0.021 -2.096 -0 -1.2 0
-0.633 -0.028 -2.175 -0 -1.2 0
-0.654 -0.037 -2.253 -0 -1.2 0
-0.688 -0.032 -2.367 -0 -1.2 0
-0.717 -0.038 -2.465 -0 -1.2 0
-0.753 -0.037 -2.589 -0 -1.2 0
-0.791 -0.037 -2.723 -0 -1.2 0
-0.83 -0.041 -2.858 -0 -1.2 0
-0.872 -0.045 -3.002 -0 -1.2 0
-0.913 -0.056 -3.148 -0 -1.2 0
-0.961 -0.065 -3.312 -0 -1.2 0
-1.022 -0.066 -3.522 -0 -1.2 0
-1.089 -0.069 -3.753 -0 -1.2 0
-1.153 -0.082 -3.975 -0 -1.2 0
-1.231 -0.093 -4.244 -0 -1.2 0
-1.32 -0.104 -4.551 -0 -1.2 0
-1.439 -0.105 -4.963 -0 -1.2 0
-1.556 -0.122 -5.366 -0 -1.2 0
-1.707 -0.135 -5.885 -0 -1.2 0
-1.863 -0.164 -6.424 -0 -1.2 0
-2.088 -0.181 -7.201 -0 -1.2 0
-2.354 -0.21 -8.123 -0 -1.2 0
-2.735 -0.236 -9.437 -0 -1.2 0
-3.318 -0.257 -11.453 -0 -1.2 0
-4.114 -0.311 -14.199 -0 -1.2 0
-6.14 -0.303 -21.188 -0 -1.2 0
-6.245 -0.679 -21.565 -0 -1.2 0
-6.214 -1.07 -21.474 -0 -1.2 0
-6.157 -1.456 -21.289 -0 -1.2 0
-6.449 -1.877 -22.309 -0 -1.2 0
-6.443 -2.281 -22.302 -0 -1.2 0
-6.439 -2.687 -22.299 -0 -1.2 0
-6.434 -3.093 -22.299 -0 -1.2 0
-6.428 -3.5 -22.293 -0 -1.2 0
-6.423 -3.907 -22.288 -0 -1.2 0
-6.383 -4.299 -22.163 -0 -1.2 0
-6.325 -4.679 -21.974 -0 -1.2 0
-6.328 -5.092 -21.997 -0 -1.2 0
-6.325 -5.505 -22.004 -0 -1.2 0
-6.326 -5.923 -22.021 -0 -1.2 0
-6.344 -6.359 -22.098 -0 -1.2 0
-6.383 -6.821 -22.25 -0 -1.2 0
-6.378 -7.249 -22.245 -0 -1.2 0
-6.37 -7.678 -22.231 -0 -1.2 0
-6.365 -8.114 -22.23 -0 -1.2 0
-6.327 -8.516 -22.11 -0 -1.2 0
-6.283 -8.911 -21.974 -0 -1.2 0
-6.187 -9.236 -21.651 -0 -1.2 0
-5.872 -9.252 -20.569 -0 -1.2 0
-0.375 -0.006 -1.14 -0 -1.2 0
-0.388 -0.006 -1.179 -0 -1.2 0
-0.401 -0.006 -1.218 -0 -1.2 0
-0.411 -0.015 -1.25 -0 -1.2 0
-0.429 -0.005 -1.305 -0 -1.2 0
-0.442 -0.009 -1.345 -0 -1.2 0
-0.453 -0.02 -1.377 -0 -1.2 0
-0.471 -0.014 -1.433 -0 -1.2 0
-0.487 -0.016 -1.481 -0 -1.2 0
-0.503 -0.02 -1.53 -0 -1.2 0
-0.522 -0.019 -1.588 -0 -1.2 0
-0.541 -0.02 -1.645 -0 -1.2 0
-0.56 -0.022 -1.703 -0 -1.2 0
-0.581 -0.022 -1.77 -0 -1.2 0
-0.603 -0.023 -1.837 -0 -1.2 0
-0.625 -0.027 -1.904 -0 -1.2 0
-0.653 -0.022 -1.989 -0 -1.2 0
-0.681 -0.022 -2.074 -0 -1.2 0
-0.703 -0.033 -2.143 -0 -1.2 0
-0.734 -0.033 -2.238 -0 -1.2 0
-0.769 -0.033 -2.343 -0 -1.2 0
-0.803 -0.035 -2.448 -0 -1.2 0
-0.843 -0.034 -2.571 -0 -1.2 0
-0.881 -0.041 -2.686 -0 -1.2 0
-0.93 -0.038 -2.837 -0 -1.2 0
-0.97 -0.05 -2.962 -0 -1.2 0
-1.017 -0.06 -3.106 -0 -1.2 0
-1.076 -0.063 -3.286 -0 -1.2 0
-1.138 -0.07 -3.477 -0 -1.2 0
-1.212 -0.073 -3.704 -0 -1.2 0
-1.293 -0.079 -3.952 -0 -1.2 0
-1.377 -0.092 -4.209 -0 -1.2 0
-1.48 -0.102 -4.523 -0 -1.2 0
-1.598 -0.113 -4.883 -0 -1.2 0
-1.734 -0.126 -5.301 -0 -1.2 0
-1.902 -0.139 -5.814 -0 -1.2 0
-2.082 -0.164 -6.366 -0 -1.2 0
-2.323 -0.186 -7.108 -0 -1.2 0
-2.624 -0.213 -8.028 -0 -1.2 0
-3.059 -0.237 -9.358 -0 -1.2 0
-3.686 -0.265 -11.277 -0 -1.2 0
-3.918 -0.432 -11.992 -0 -1.2 0
-3.932 -0.65 -12.04 -0 -1.2 0
-3.938 -0.869 -12.065 -0 -1.2 0
-5.155 -1.085 -15.794 -0 -1.2 0
-5.148 -1.373 -15.783 -0 -1.2 0
-5.147 -1.661 -15.787 -0 -1.2 0
-6.005 -2.092 -18.426 -0 -1.2 0
-6.141 -2.461 -18.853 -0 -1.2 0
-6.171 -2.817 -18.951 -0 -1.2 0
-6.173 -3.169 -18.968 -0 -1.2 0
-6.173 -3.521 -18.979 -0 -1.2 0
-6.171 -3.875 -18.985 -0 -1.2 0
-6.168 -4.229 -18.984 -0 -1.2 0
-6.144 -4.575 -18.92 -0 -1.2 0
-6.142 -4.933 -18.927 -0 -1.2 0
-6.142 -5.296 -18.935 -0 -1.2 0
-6.139 -5.66 -18.938 -0 -1.2 0
-6.123 -6.015 -18.898 -0 -1.2 0
-6.176 -6.431 -19.072 -0 -1.2 0
-6.173 -6.807 -19.073 -0 -1.2 0
-6.18 -7.195 -19.103 -0 -1.2 0
-6.178 -7.581 -19.109 -0 -1.2 0
-6.179 -7.974 -19.126 -0 -1.2 0
-6.139 -8.323 -19.01 -0 -1.2 0
-6.132 -8.716 -19.004 -0 -1.2 0
-6.088 -9.062 -18.875 -0 -1.2 0
-5.897 -9.207 -18.294 -0 -1.2 0
-5.68 -9.297 -17.636 -0 -1.2 0
-0.417 -0.006 -1.125 -0 -1.2 0
-0.434 0 -1.171 -0 -1.2 0
-0.445 -0.007 -1.203 -0 -1.2 0
-0.46 -0.008 -1.242 -0 -1.2 0
-0.477 -0.005 -1.288 -0 -1.2 0
-0.489 -0.015 -1.32 -0 -1.2 0
-0.506 -0.015 -1.367 -0 -1.2 0
-0.524 -0.015 -1.415 -0 -1.2 0
-0.541 -0.016 -1.463 -0 -1.2 0
-0.559 -0.02 -1.511 -0 -1.2 0
-0.58 -0.019 -1.567 -0 -1.2 0
-0.601 -0.02 -1.624 -0 -1.2 0
-0.622 -0.022 -1.682 -0 -1.2 0
-0.646 -0.022 -1.747 -0 -1.2 0
-0.667 -0.028 -1.806 -0 -1.2 0
-0.695 -0.028 -1.88 -0 -1.2 0
-0.725 -0.023 -1.964 -0 -1.2 0
-0.753 -0.027 -2.04 -0 -1.2 0
-0.781 -0.034 -2.116 -0 -1.2 0
-0.819 -0.03 -2.219 -0 -1.2 0
-0.854 -0.033 -2.313 -0 -1.2 0
-0.889 -0.04 -2.408 -0 -1.2 0
-0.933 -0.039 -2.53 -0 -1.2 0
-0.978 -0.042 -2.652 -0 -1.2 0
-1.03 -0.043 -2.792 -0 -1.2 0
-1.082 -0.047 -2.934 -0 -1.2 0
-1.133 -0.058 -3.076 -0 -1.2 0
-1.198 -0.061 -3.254 -0 -1.2 0
-1.261 -0.074 -3.424 -0 -1.2 0
-1.347 -0.074 -3.658 -0 -1.2 0
-1.437 -0.08 -3.902 -0 -1.2 0
-1.53 -0.094 -4.156 -0 -1.2 0
-1.64 -0.105 -4.457 -0 -1.2 0
-1.778 -0.113 -4.831 -0 -1.2 0
-1.93 -0.126 -5.244 -0 -1.2 0
-2.109 -0.142 -5.732 -0 -1.2 0
-2.306 -0.17 -6.268 -0 -1.2 0
-2.581 -0.188 -7.018 -0 -1.2 0
-2.919 -0.215 -7.937 -0 -1.2 0
-3.374 -0.246 -9.175 -0 -1.2 0
-4.084 -0.271 -11.108 -0 -1.2 0
-4.394 -0.429 -11.954 -0 -1.2 0
-4.392 -0.651 -11.954 -0 -1.2 0
-4.403 -0.872 -11.989 -0 -1.2 0
-5.972 -1.089 -16.262 -0 -1.2 0
-5.969 -1.39 -16.261 -0 -1.2 0
-5.961 -1.69 -16.245 -0 -1.2 0
-5.916 -1.985 -16.131 -0 -1.2 0
-6.018 -2.305 -16.415 -0 -1.2 0
-6.004 -2.609 -16.384 -0 -1.2 0
-5.995 -2.913 -16.367 -0 -1.2 0
-5.984 -3.217 -16.345 -0 -1.2 0
-5.979 -3.523 -16.336 -0 -1.2 0
-5.977 -3.833 -16.341 -0 -1.2 0
-5.971 -4.142 -16.332 -0 -1.2 0
-5.963 -4.452 -16.317 -0 -1.2 0
-5.953 -4.762 -16.299 -0 -1.2 0
-5.948 -5.076 -16.292 -0 -1.2 0
-5.947 -5.397 -16.298 -0 -1.2 0
-5.938 -5.713 -16.281 -0 -1.2 0
-5.941 -6.041 -16.293 -0 -1.2 0
-5.93 -6.362 -16.274 -0 -1.2 0
-5.931 -6.696 -16.285 -0 -1.2 0
-5.921 -7.023 -16.263 -0 -1.2 0
-5.91 -7.354 -16.244 -0 -1.2 0
-5.908 -7.696 -16.244 -0 -1.2 0
-5.934 -8.078 -16.327 -0 -1.2 0
-5.937 -8.437 -16.341 -0 -1.2 0
-5.924 -8.783 -16.314 -0 -1.2 0
-5.908 -9.13 -16.28 -0 -1.2 0
-5.627 -9.102 -15.513 -0 -1.2 0
-5.563 -9.369 -15.347 -0 -1.2 0
-5.395 -9.474 -14.895 -0 -1.2 0
-0.455 -0.007 -1.111 -0 -1.2 0
-0.471 -0.006 -1.149 -0 -1.2 0
-0.486 -0.007 -1.187 -0 -1.2 0
-0.505 -0.002 -1.232 -0 -1.2 0
-0.518 -0.012 -1.263 -0 -1.2 0
-0.536 -0.009 -1.311 -0 -1.2 0
-0.552 -0.015 -1.349 -0 -1.2 0
-0.571 -0.015 -1.396 -0 -1.2 0
-0.591 -0.017 -1.443 -0 -1.2 0
-0.61 -0.021 -1.491 -0 -1.2 0
-0.63 -0.024 -1.539 -0 -1.2 0
-0.656 -0.021 -1.603 -0 -1.2 0
-0.671 -0.033 -1.644 -0 -1.2 0
-0.702 -0.028 -1.717 -0 -1.2 0
-0.728 -0.029 -1.782 -0 -1.2 0
-0.758 -0.028 -1.856 -0 -1.2 0
-0.792 -0.024 -1.938 -0 -1.2 0
-0.822 -0.028 -2.013 -0 -1.2 0
-0.86 -0.026 -2.105 -0 -1.2 0
-0.894 -0.03 -2.19 -0 -1.2 0
-0.932 -0.034 -2.283 -0 -1.2 0
-0.973 -0.037 -2.385 -0 -1.2 0
-1.019 -0.04 -2.497 -0 -1.2 0
-1.068 -0.043 -2.617 -0 -1.2 0
-1.12 -0.046 -2.747 -0 -1.2 0
-1.176 -0.052 -2.887 -0 -1.2 0
-1.237 -0.059 -3.035 -0 -1.2 0
-1.305 -0.065 -3.203 -0 -1.2 0
-1.373 -0.078 -3.37 -0 -1.2 0
-1.47 -0.075 -3.61 -0 -1.2 0
-1.561 -0.086 -3.833 -0 -1.2 0
-1.67 -0.095 -4.102 -0 -1.2 0
-1.794 -0.104 -4.408 -0 -1.2 0
-1.941 -0.114 -4.768 -0 -1.2 0
-2.11 -0.126 -5.185 -0 -1.2 0
-2.299 -0.146 -5.648 -0 -1.2 0
-2.509 -0.174 -6.168 -0 -1.2 0
-2.821 -0.188 -6.936 -0 -1.2 0
-3.186 -0.217 -7.833 -0 -1.2 0
-3.683 -0.249 -9.056 -0 -1.2 0
-4.428 -0.28 -10.889 -0 -1.2 0
-5.523 -0.331 -13.583 -0 -1.2 0
-4.836 -0.65 -11.9 -0 -1.2 0
-6.073 -0.814 -14.944 -0 -1.2 0
-6.068 -1.094 -14.939 -0 -1.2 0
-4.86 -1.321 -11.974 -0 -1.2 0
-6.063 -1.654 -14.941 -0 -1.2 0
-6.061 -1.935 -14.94 -0 -1.2 0
-6.064 -2.218 -14.953 -0 -1.2 0
-6.061 -2.5 -14.952 -0 -1.2 0
-6.06 -2.783 -14.956 -0 -1.2 0
-6.065 -3.069 -14.973 -0 -1.2 0
-6.049 -3.349 -14.939 -0 -1.2 0
-6.024 -3.626 -14.884 -0 -1.2 0
-5.849 -3.832 -14.458 -0 -1.2 0
-6.068 -4.227 -15.004 -0 -1.2 0
-6.074 -4.524 -15.024 -0 -1.2 0
-6.078 -4.823 -15.04 -0 -1.2 0
-6.08 -5.123 -15.05 -0 -1.2 0
-6.072 -5.42 -15.037 -0 -1.2 0
-6.073 -5.726 -15.046 -0 -1.2 0
-6.072 -6.035 -15.05 -0 -1.2 0
-6.072 -6.347 -15.057 -0 -1.2 0
-6.077 -6.667 -15.076 -0 -1.2 0
-6.08 -6.989 -15.089 -0 -1.2 0
-6.08 -7.314 -15.097 -0 -1.2 0
-6.071 -7.634 -15.081 -0 -1.2 0
-6.077 -7.974 -15.102 -0 -1.2 0
-6.032 -8.26 -14.998 -0 -1.2 0
-6.013 -8.578 -14.956 -0 -1.2 0
-5.787 -8.629 -14.4 -0 -1.2 0
-5.661 -8.798 -14.095 -0 -1.2 0
-5.486 -8.888 -13.666 -0 -1.2 0
-0.492 -0.007 -1.095 -0 -1.2 0
-0.509 -0.007 -1.132 -0 -1.2 0
-0.523 -0.014 -1.162 -0 -1.2 0
-0.546 -0.002 -1.215 -0 -1.2 0
-0.563 -0.006 -1.253 -0 -1.2 0
-0.577 -0.016 -1.284 -0 -1.2 0
-0.595 -0.021 -1.323 -0 -1.2 0
-0.615 -0.021 -1.369 -0 -1.2 0
-0.642 -0.011 -1.43 -0 -1.2 0
-0.664 -0.015 -1.477 -0 -1.2 0
-0.681 -0.025 -1.517 -0 -1.2 0
-0.706 -0.026 -1.573 -0 -1.2 0
-0.734 -0.023 -1.636 -0 -1.2 0
-0.759 -0.028 -1.692 -0 -1.2 0
-0.792 -0.025 -1.764 -0 -1.2 0
-0.824 -0.024 -1.837 -0 -1.2 0
-0.857 -0.024 -1.911 -0 -1.2 0
-0.893 -0.024 -1.993 -0 -1.2 0
-0.93 -0.026 -2.075 -0 -1.2 0
-0.975 -0.022 -2.175 -0 -1.2 0
-1.008 -0.035 -2.25 -0 -1.2 0
-1.057 -0.034 -2.359 -0 -1.2 0
-1.098 -0.044 -2.453 -0 -1.2 0
-1.151 -0.047 -2.571 -0 -1.2 0
-1.216 -0.044 -2.717 -0 -1.2 0
-1.273 -0.053 -2.845 -0 -1.2 0
-1.334 -0.062 -2.983 -0 -1.2 0
-1.408 -0.069 -3.148 -0 -1.2 0
-1.486 -0.079 -3.322 -0 -1.2 0
-1.591 -0.076 -3.559 -0 -1.2 0
-1.701 -0.081 -3.805 -0 -1.2 0
-1.803 -0.098 -4.034 -0 -1.2 0
-1.949 -0.101 -4.363 -0 -1.2 0
-2.104 -0.112 -4.709 -0 -1.2 0
-2.276 -0.131 -5.093 -0 -1.2 0
-2.487 -0.147 -5.568 -0 -1.2 0
-2.724 -0.173 -6.098 -0 -1.2 0
-3.057 -0.189 -6.846 -0 -1.2 0
-3.452 -0.219 -7.731 -0 -1.2 0
-4.03 -0.242 -9.027 -0 -1.2 0
-4.771 -0.286 -10.689 -0 -1.2 0
-5.056 -0.453 -11.33 -0 -1.2 0
-5.164 -0.659 -11.576 -0 -1.2 0
-5.222 -0.877 -11.71 -0 -1.2 0
-6.404 -1.098 -14.361 -0 -1.2 0
-6.388 -1.371 -14.332 -0 -1.2 0
-6.42 -1.646 -14.409 -0 -1.2 0
-6.394 -1.917 -14.353 -0 -1.2 0
-5.82 -2.094 -13.072 -0 -1.2 0
-6.435 -2.476 -14.456 -0 -1.2 0
-6.407 -2.747 -14.397 -0 -1.2 0
-6.425 -3.03 -14.442 -0 -1.2 0
-6.03 -3.175 -13.559 -0 -1.2 0
-5.948 -3.407 -13.38 -0 -1.2 0
-5.821 -3.614 -13.1 -0 -1.2 0
-5.765 -3.846 -12.978 -0 -1.2 0
-5.973 -4.213 -13.451 -0 -1.2 0
-5.964 -4.476 -13.436 -0 -1.2 0
-5.97 -4.751 -13.451 -0 -1.2 0
-5.964 -5.022 -13.445 -0 -1.2 0
-6 -5.323 -13.531 -0 -1.2 0
-5.96 -5.575 -13.445 -0 -1.2 0
-6.006 -5.894 -13.555 -0 -1.2 0
-6.016 -6.19 -13.581 -0 -1.2 0
-6.004 -6.471 -13.559 -0 -1.2 0
-5.978 -6.742 -13.506 -0 -1.2 0
-5.954 -7.017 -13.458 -0 -1.2 0
-5.992 -7.358 -13.547 -0 -1.2 0
-6.007 -7.682 -13.588 -0 -1.2 0
-6.013 -8.004 -13.606 -0 -1.2 0
-5.936 -8.23 -13.437 -0 -1.2 0
-5.923 -8.534 -13.413 -0 -1.2 0
-5.735 -8.614 -12.994 -0 -1.2 0
-5.58 -8.724 -12.649 -0 -1.2 0
-5.426 -8.824 -12.304 -0 -1.2 0
-0.532 -0.007 -1.076 -0 -1.2 0
-0.55 -0.007 -1.113 -0 -1.2 0
-0.568 -0.008 -1.15 -0 -1.2 0
-0.586 -0.009 -1.186 -0 -1.2 0
-0.605 -0.012 -1.224 -0 -1.2 0
-0.627 -0.01 -1.269 -0 -1.2 0
-0.642 -0.022 -1.3 -0 -1.2 0
-0.665 -0.022 -1.346 -0 -1.2 0
-0.687 -0.023 -1.392 -0 -1.2 0
-0.717 -0.016 -1.452 -0 -1.2 0
-0.736 -0.025 -1.492 -0 -1.2 0
-0.766 -0.022 -1.554 -0 -1.2 0
-0.793 -0.024 -1.608 -0 -1.2 0
-0.82 -0.029 -1.664 -0 -1.2 0
-0.855 -0.025 -1.735 -0 -1.2 0
-0.886 -0.029 -1.798 -0 -1.2 0
-0.929 -0.021 -1.886 -0 -1.2 0
-0.969 -0.019 -1.967 -0 -1.2 0
-0.997 -0.036 -2.024 -0 -1.2 0
-1.041 -0.035 -2.114 -0 -1.2 0
-1.089 -0.035 -2.212 -0 -1.2 0
-1.138 -0.038 -2.312 -0 -1.2 0
-1.191 -0.041 -2.42 -0 -1.2 0
-1.247 -0.044 -2.537 -0 -1.2 0
-1.309 -0.048 -2.663 -0 -1.2 0
-1.375 -0.053 -2.798 -0 -1.2 0
-1.441 -0.063 -2.933 -0 -1.2 0
-1.521 -0.07 -3.095 -0 -1.2 0
-1.605 -0.079 -3.267 -0 -1.2 0
-1.719 -0.077 -3.499 -0 -1.2 0
-1.833 -0.083 -3.732 -0 -1.2 0
-1.952 -0.097 -3.976 -0 -1.2 0
-2.097 -0.107 -4.272 -0 -1.2 0
-2.269 -0.116 -4.621 -0 -1.2 0
-2.458 -0.132 -5.007 -0 -1.2 0
-2.687 -0.149 -5.474 -0 -1.2 0
-2.955 -0.17 -6.022 -0 -1.2 0
-3.302 -0.191 -6.732 -0 -1.2 0
-3.737 -0.218 -7.619 -0 -1.2 0
-4.107 -0.293 -8.375 -0 -1.2 0
-4.02 -0.469 -8.199 -0 -1.2 0
-4.107 -0.618 -8.378 -0 -1.2 0
-5.107 -0.7 -10.422 -0 -1.2 0
-5.852 -0.871 -11.944 -0 -1.2 0
-5.852 -1.102 -11.948 -0 -1.2 0
-5.85 -1.333 -11.947 -0 -1.2 0
-5.859 -1.565 -11.969 -0 -1.2 0
-5.849 -1.796 -11.951 -0 -1.2 0
-5.793 -2.019 -11.841 -0 -1.2 0
-6.104 -2.312 -12.478 -0 -1.2 0
-6.101 -2.555 -12.476 -0 -1.2 0
-6.097 -2.799 -12.47 -0 -1.2 0
-6.094 -3.044 -12.469 -0 -1.2 0
-6.09 -3.289 -12.464 -0 -1.2 0
-6.084 -3.534 -12.455 -0 -1.2 0
-6.079 -3.782 -12.451 -0 -1.2 0
-6.083 -4.036 -12.46 -0 -1.2 0
-5.952 -4.219 -12.194 -0 -1.2 0
-5.92 -4.452 -12.136 -0 -1.2 0
-5.922 -4.704 -12.143 -0 -1.2 0
-5.922 -4.958 -12.146 -0 -1.2 0
-5.919 -5.213 -12.145 -0 -1.2 0
-5.923 -5.475 -12.155 -0 -1.2 0
-5.924 -5.738 -12.163 -0 -1.2 0
-5.858 -5.948 -12.029 -0 -1.2 0
-6.048 -6.38 -12.423 -0 -1.2 0
-6.041 -6.654 -12.413 -0 -1.2 0
-6.036 -6.932 -12.409 -0 -1.2 0
-6.026 -7.206 -12.389 -0 -1.2 0
-6.028 -7.5 -12.399 -0 -1.2 0
-6.02 -7.786 -12.386 -0 -1.2 0
-6.017 -8.084 -12.384 -0 -1.2 0
-5.88 -8.224 -12.107 -0 -1.2 0
-5.872 -8.519 -12.097 -0 -1.2 0
-5.7 -8.602 -11.746 -0 -1.2 0
-5.532 -8.679 -11.404 -0 -1.2 0
-5.408 -8.807 -11.154 -0 -1.2 0
-5.273 -8.913 -10.882 -0 -1.2 0
-0.568 -0.008 -1.058 -0 -1.2 0
-0.587 -0.007 -1.094 -0 -1.2 0
-0.607 -0.008 -1.13 -0 -1.2 0
-0.623 -0.017 -1.16 -0 -1.2 0
-0.642 -0.019 -1.197 -0 -1.2 0
-0.662 -0.023 -1.234 -0 -1.2 0
-0.689 -0.016 -1.285 -0 -1.2 0
-0.71 -0.022 -1.323 -0 -1.2 0
-0.734 -0.024 -1.368 -0 -1.2 0
-0.765 -0.016 -1.428 -0 -1.2 0
-0.794 -0.015 -1.481 -0 -1.2 0
-0.818 -0.022 -1.527 -0 -1.2 0
-0.847 -0.024 -1.581 -0 -1.2 0
-0.884 -0.018 -1.65 -0 -1.2 0
-0.913 -0.025 -1.705 -0 -1.2 0
-0.946 -0.03 -1.768 -0 -1.2 0
-0.992 -0.021 -1.854 -0 -1.2 0
-1.03 -0.025 -1.926 -0 -1.2 0
-1.069 -0.031 -1.998 -0 -1.2 0
-1.116 -0.032 -2.086 -0 -1.2 0
-1.163 -0.036 -2.175 -0 -1.2 0
-1.215 -0.039 -2.272 -0 -1.2 0
-1.276 -0.038 -2.386 -0 -1.2 0
-1.332 -0.045 -2.493 -0 -1.2 0
-1.403 -0.046 -2.625 -0 -1.2 0
-1.468 -0.054 -2.75 -0 -1.2 0
-1.535 -0.067 -2.875 -0 -1.2 0
-1.619 -0.074 -3.034 -0 -1.2 0
-1.718 -0.077 -3.219 -0 -1.2 0
-1.835 -0.078 -3.439 -0 -1.2 0
-1.948 -0.089 -3.652 -0 -1.2 0
-2.094 -0.093 -3.925 -0 -1.2 0
-2.23 -0.111 -4.181 -0 -1.2 0
-2.423 -0.117 -4.542 -0 -1.2 0
-2.62 -0.135 -4.914 -0 -1.2 0
-2.874 -0.148 -5.39 -0 -1.2 0
-3.17 -0.167 -5.946 -0 -1.2 0
-3.507 -0.198 -6.582 -0 -1.2 0
-3.981 -0.222 -7.472 -0 -1.2 0
-4.606 -0.254 -8.646 -0 -1.2 0
-5.545 -0.285 -10.41 -0 -1.2 0
-4.996 -0.551 -9.382 -0 -1.2 0
-4.585 -0.767 -8.614 -0 -1.2 0
-5.775 -0.892 -10.85 -0 -1.2 0
-4.629 -1.106 -8.699 -0 -1.2 0
-5.778 -1.318 -10.861 -0 -1.2 0
-5.778 -1.532 -10.865 -0 -1.2 0
-5.778 -1.746 -10.866 -0 -1.2 0
-5.715 -1.951 -10.75 -0 -1.2 0
-5.851 -2.189 -11.008 -0 -1.2 0
-5.859 -2.41 -11.025 -0 -1.2 0
-5.855 -2.629 -11.022 -0 -1.2 0
-5.85 -2.849 -11.014 -0 -1.2 0
-5.857 -3.072 -11.031 -0 -1.2 0
-5.848 -3.293 -11.017 -0 -1.2 0
-5.846 -3.516 -11.016 -0 -1.2 0
-5.847 -3.743 -11.021 -0 -1.2 0
-5.842 -3.968 -11.014 -0 -1.2 0
-5.844 -4.199 -11.02 -0 -1.2 0
-5.844 -4.43 -11.022 -0 -1.2 0
-5.846 -4.665 -11.029 -0 -1.2 0
-5.846 -4.902 -11.033 -0 -1.2 0
-5.844 -5.14 -11.032 -0 -1.2 0
-5.84 -5.379 -11.027 -0 -1.2 0
-5.843 -5.626 -11.035 -0 -1.2 0
-5.847 -5.877 -11.047 -0 -1.2 0
-5.814 -6.101 -10.989 -0 -1.2 0
-5.836 -6.375 -11.033 -0 -1.2 0
-5.838 -6.635 -11.039 -0 -1.2 0
-5.837 -6.898 -11.041 -0 -1.2 0
-5.838 -7.167 -11.046 -0 -1.2 0
-5.837 -7.438 -11.046 -0 -1.2 0
-5.84 -7.719 -11.057 -0 -1.2 0
-5.837 -7.998 -11.054 -0 -1.2 0
-5.799 -8.239 -10.985 -0 -1.2 0
-5.79 -8.521 -10.973 -0 -1.2 0
-5.608 -8.577 -10.633 -0 -1.2 0
-5.451 -8.653 -10.339 -0 -1.2 0
-5.345 -8.793 -10.14 -0 -1.2 0
-5.212 -8.888 -9.891 -0 -1.2 0
-0.6 -0.015 -1.031 -0 -1.2 0
-0.612 -0.028 -1.054 -0 -1.2 0
-0.645 -0.008 -1.109 -0 -1.2 0
-0.665 -0.01 -1.145 -0 -1.2 0
-0.69 -0.007 -1.188 -0 -1.2 0
-0.711 -0.011 -1.224 -0 -1.2 0
-0.729 -0.022 -1.254 -0 -1.2 0
-0.762 -0.01 -1.312 -0 -1.2 0
-0.783 -0.018 -1.349 -0 -1.2 0
-0.813 -0.016 -1.401 -0 -1.2 0
-0.839 -0.021 -1.446 -0 -1.2 0
-0.869 -0.022 -1.499 -0 -1.2 0
-0.895 -0.03 -1.544 -0 -1.2 0
-0.93 -0.029 -1.605 -0 -1.2 0
-0.97 -0.026 -1.673 -0 -1.2 0
-1.01 -0.025 -1.743 -0 -1.2 0
-1.05 -0.025 -1.812 -0 -1.2 0
-1.099 -0.02 -1.898 -0 -1.2 0
-1.14 -0.028 -1.968 -0 -1.2 0
-1.19 -0.028 -2.055 -0 -1.2 0
-1.236 -0.036 -2.135 -0 -1.2 0
-1.285 -0.043 -2.222 -0 -1.2 0
-1.355 -0.038 -2.342 -0 -1.2 0
-1.42 -0.042 -2.455 -0 -1.2 0
-1.49 -0.046 -2.577 -0 -1.2 0
-1.56 -0.054 -2.699 -0 -1.2 0
-1.63 -0.068 -2.822 -0 -1.2 0
-1.72 -0.074 -2.978 -0 -1.2 0
-1.825 -0.078 -3.16 -0 -1.2 0
-1.945 -0.081 -3.368 -0 -1.2 0
-2.07 -0.089 -3.585 -0 -1.2 0
-2.224 -0.094 -3.853 -0 -1.2 0
-2.365 -0.114 -4.096 -0 -1.2 0
-2.569 -0.12 -4.45 -0 -1.2 0
-2.779 -0.138 -4.815 -0 -1.2 0
-3.043 -0.152 -5.274 -0 -1.2 0
-3.372 -0.167 -5.845 -0 -1.2 0
-3.731 -0.197 -6.47 -0 -1.2 0
-4.22 -0.225 -7.318 -0 -1.2 0
-4.903 -0.253 -8.504 -0 -1.2 0
-5.742 -0.308 -9.959 -0 -1.2 0
-5.019 -0.584 -8.708 -0 -1.2 0
-5.755 -0.707 -9.987 -0 -1.2 0
-5.712 -0.908 -9.914 -0 -1.2 0
-4.843 -1.107 -8.408 -0 -1.2 0
-5.714 -1.305 -9.924 -0 -1.2 0
-5.717 -1.504 -9.928 -0 -1.2 0
-5.711 -1.702 -9.922 -0 -1.2 0
-5.659 -1.895 -9.833 -0 -1.2 0
-5.735 -2.106 -9.968 -0 -1.2 0
-6.216 -2.409 -10.805 -0 -1.2 0
-6.138 -2.61 -10.672 -0 -1.2 0
-6.212 -2.848 -10.802 -0 -1.2 0
-6.15 -3.05 -10.699 -0 -1.2 0
-6.205 -3.29 -10.796 -0 -1.2 0
-6.047 -3.453 -10.524 -0 -1.2 0
-6.2 -3.738 -10.792 -0 -1.2 0
-6.195 -3.963 -10.785 -0 -1.2 0
-6.101 -4.145 -10.623 -0 -1.2 0
-5.788 -4.204 -10.082 -0 -1.2 0
-5.779 -4.417 -10.067 -0 -1.2 0
-5.776 -4.635 -10.066 -0 -1.2 0
-5.782 -4.861 -10.078 -0 -1.2 0
-5.78 -5.085 -10.077 -0 -1.2 0
-5.781 -5.313 -10.081 -0 -1.2 0
-5.78 -5.543 -10.081 -0 -1.2 0
-5.776 -5.774 -10.077 -0 -1.2 0
-5.698 -5.943 -9.942 -0 -1.2 0
-6.153 -6.589 -10.74 -0 -1.2 0
-6.139 -6.837 -10.719 -0 -1.2 0
-6.141 -7.103 -10.724 -0 -1.2 0
-6.14 -7.371 -10.725 -0 -1.2 0
-6.005 -7.501 -10.491 -0 -1.2 0
-6.117 -7.899 -10.689 -0 -1.2 0
-6.047 -8.101 -10.571 -0 -1.2 0
-5.835 -8.132 -10.203 -0 -1.2 0
-5.734 -8.286 -10.03 -0 -1.2 0
-5.703 -8.529 -9.979 -0 -1.2 0
-5.509 -8.554 -9.642 -0 -1.2 0
-5.394 -8.677 -9.443 -0 -1.2 0
-5.262 -8.771 -9.215 -0 -1.2 0
-5.142 -8.876 -9.009 -0 -1.2 0
-0.642 -0.008 -1.015 -0 -1.2 0
-0.655 -0.021 -1.037 -0 -1.2 0
-0.685 -0.008 -1.085 -0 -1.2 0
-0.704 -0.017 -1.113 -0 -1.2 0
-0.73 -0.013 -1.155 -0 -1.2 0
-0.748 -0.023 -1.184 -0 -1.2 0
-0.779 -0.016 -1.233 -0 -1.2 0
-0.81 -0.011 -1.283 -0 -1.2 0
-0.837 -0.012 -1.326 -0 -1.2 0
-0.86 -0.022 -1.363 -0 -1.2 0
-0.897 -0.015 -1.421 -0 -1.2 0
-0.929 -0.017 -1.473 -0 -1.2 0
-0.951 -0.03 -1.51 -0 -1.2 0
-0.999 -0.019 -1.584 -0 -1.2 0
-1.032 -0.026 -1.636 -0 -1.2 0
-1.074 -0.025 -1.704 -0 -1.2 0
-1.117 -0.026 -1.772 -0 -1.2 0
-1.169 -0.021 -1.856 -0 -1.2 0
-1.212 -0.028 -1.925 -0 -1.2 0
-1.265 -0.029 -2.01 -0 -1.2 0
-1.314 -0.036 -2.087 -0 -1.2 0
-1.373 -0.039 -2.181 -0 -1.2 0
-1.435 -0.042 -2.283 -0 -1.2 0
-1.505 -0.046 -2.393 -0 -1.2 0
-1.579 -0.049 -2.512 -0 -1.2 0
-1.659 -0.055 -2.64 -0 -1.2 0
-1.734 -0.068 -2.76 -0 -1.2 0
-1.835 -0.072 -2.921 -0 -1.2 0
-1.931 -0.084 -3.074 -0 -1.2 0
-2.073 -0.079 -3.302 -0 -1.2 0
-2.201 -0.09 -3.506 -0 -1.2 0
-2.36 -0.096 -3.76 -0 -1.2 0
-2.52 -0.113 -4.014 -0 -1.2 0
-2.722 -0.125 -4.336 -0 -1.2 0
-2.955 -0.138 -4.709 -0 -1.2 0
-3.236 -0.153 -5.158 -0 -1.2 0
-3.576 -0.171 -5.7 -0 -1.2 0
-3.978 -0.196 -6.344 -0 -1.2 0
-4.488 -0.227 -7.157 -0 -1.2 0
-5.209 -0.256 -8.309 -0 -1.2 0
-4.961 -0.46 -7.914 -0 -1.2 0
-4.998 -0.619 -7.974 -0 -1.2 0
-5.702 -0.736 -9.098 -0 -1.2 0
-5.687 -0.923 -9.078 -0 -1.2 0
-5.688 -1.109 -9.079 -0 -1.2 0
-5.685 -1.294 -9.078 -0 -1.2 0
-5.693 -1.48 -9.092 -0 -1.2 0
-5.688 -1.666 -9.085 -0 -1.2 0
-5.671 -1.851 -9.059 -0 -1.2 0
-5.642 -2.033 -9.014 -0 -1.2 0
-5.774 -2.245 -9.226 -0 -1.2 0
-5.777 -2.437 -9.233 -0 -1.2 0
-5.779 -2.631 -9.238 -0 -1.2 0
-5.768 -2.82 -9.223 -0 -1.2 0
-5.777 -3.018 -9.238 -0 -1.2 0
-5.763 -3.208 -9.218 -0 -1.2 0
-5.767 -3.407 -9.227 -0 -1.2 0
-5.76 -3.602 -9.217 -0 -1.2 0
-5.756 -3.8 -9.211 -0 -1.2 0
-5.756 -4.001 -9.212 -0 -1.2 0
-5.747 -4.2 -9.2 -0 -1.2 0
-5.752 -4.408 -9.21 -0 -1.2 0
-5.75 -4.615 -9.209 -0 -1.2 0
-5.746 -4.822 -9.204 -0 -1.2 0
-5.765 -5.048 -9.236 -0 -1.2 0
-5.751 -5.254 -9.217 -0 -1.2 0
-5.751 -5.471 -9.217 -0 -1.2 0
-5.752 -5.694 -9.222 -0 -1.2 0
-5.742 -5.911 -9.207 -0 -1.2 0
-5.749 -6.145 -9.219 -0 -1.2 0
-5.743 -6.372 -9.213 -0 -1.2 0
-5.74 -6.605 -9.21 -0 -1.2 0
-5.734 -6.84 -9.203 -0 -1.2 0
-5.735 -7.085 -9.206 -0 -1.2 0
-5.742 -7.343 -9.219 -0 -1.2 0
-5.737 -7.592 -9.213 -0 -1.2 0
-5.737 -7.854 -9.217 -0 -1.2 0
-5.727 -8.106 -9.202 -0 -1.2 0
-5.7 -8.343 -9.161 -0 -1.2 0
-5.644 -8.547 -9.073 -0 -1.2 0
-5.428 -8.531 -8.729 -0 -1.2 0
-5.358 -8.708 -8.618 -0 -1.2 0
-5.207 -8.766 -8.377 -0 -1.2 0
-0.677 -0.008 -0.991 -0 -1.2 0
-0.7 -0.008 -1.026 -0 -1.2 0
-0.719 -0.015 -1.054 -0 -1.2 0
-0.742 -0.017 -1.088 -0 -1.2 0
-0.77 -0.013 -1.129 -0 -1.2 0
-0.798 -0.011 -1.17 -0 -1.2 0
-0.821 -0.017 -1.206 -0 -1.2 0
-0.85 -0.017 -1.248 -0 -1.2 0
-0.883 -0.013 -1.297 -0 -1.2 0
-0.916 -0.011 -1.346 -0 -1.2 0
-0.941 -0.021 -1.383 -0 -1.2 0
-0.975 -0.023 -1.433 -0 -1.2 0
-1.009 -0.025 -1.483 -0 -1.2 0
-1.048 -0.025 -1.541 -0 -1.2 0
-1.093 -0.021 -1.607 -0 -1.2 0
-1.132 -0.026 -1.666 -0 -1.2 0
-1.177 -0.026 -1.733 -0 -1.2 0
-1.233 -0.021 -1.814 -0 -1.2 0
-1.273 -0.032 -1.875 -0 -1.2 0
-1.339 -0.024 -1.972 -0 -1.2 0
-1.391 -0.033 -2.048 -0 -1.2 0
-1.452 -0.036 -2.14 -0 -1.2 0
-1.508 -0.047 -2.224 -0 -1.2 0
-1.586 -0.046 -2.34 -0 -1.2 0
-1.665 -0.05 -2.456 -0 -1.2 0
-1.739 -0.062 -2.565 -0 -1.2 0
-1.823 -0.072 -2.691 -0 -1.2 0
-1.935 -0.072 -2.856 -0 -1.2 0
-2.052 -0.076 -3.03 -0 -1.2 0
-2.192 -0.076 -3.236 -0 -1.2 0
-2.316 -0.093 -3.42 -0 -1.2 0
-2.489 -0.097 -3.676 -0 -1.2 0
-2.652 -0.115 -3.916 -0 -1.2 0
-2.864 -0.127 -4.231 -0 -1.2 0
-3.116 -0.139 -4.604 -0 -1.2 0
-3.418 -0.153 -5.051 -0 -1.2 0
-3.765 -0.173 -5.565 -0 -1.2 0
-4.2 -0.196 -6.211 -0 -1.2 0
-4.721 -0.23 -6.981 -0 -1.2 0
-5.576 -0.245 -8.248 -0 -1.2 0
-5.651 -0.409 -8.359 -0 -1.2 0
-5.645 -0.585 -8.352 -0 -1.2 0
-5.654 -0.759 -8.367 -0 -1.2 0
-5.656 -0.934 -8.37 -0 -1.2 0
-5.657 -1.109 -8.372 -0 -1.2 0
-5.649 -1.284 -8.363 -0 -1.2 0
-5.652 -1.459 -8.368 -0 -1.2 0
-5.653 -1.634 -8.37 -0 -1.2 0
-5.652 -1.81 -8.369 -0 -1.2 0
-5.581 -1.976 -8.267 -0 -1.2 0
-5.734 -2.179 -8.493 -0 -1.2 0
-5.732 -2.359 -8.493 -0 -1.2 0
-5.73 -2.539 -8.49 -0 -1.2 0
-5.731 -2.721 -8.494 -0 -1.2 0
-5.725 -2.902 -8.485 -0 -1.2 0
-5.728 -3.087 -8.491 -0 -1.2 0
-5.723 -3.271 -8.486 -0 -1.2 0
-5.717 -3.455 -8.477 -0 -1.2 0
-5.719 -3.644 -8.483 -0 -1.2 0
-5.721 -3.834 -8.486 -0 -1.2 0
-5.713 -4.022 -8.477 -0 -1.2 0
-5.711 -4.214 -8.474 -0 -1.2 0
-5.71 -4.409 -8.475 -0 -1.2 0
-5.714 -4.608 -8.481 -0 -1.2 0
-5.71 -4.806 -8.476 -0 -1.2 0
-5.708 -5.008 -8.476 -0 -1.2 0
-5.711 -5.214 -8.48 -0 -1.2 0
-5.7 -5.415 -8.466 -0 -1.2 0
-5.702 -5.628 -8.471 -0 -1.2 0
-5.702 -5.842 -8.472 -0 -1.2 0
-5.699 -6.058 -8.47 -0 -1.2 0
-5.695 -6.275 -8.464 -0 -1.2 0
-5.697 -6.503 -8.469 -0 -1.2 0
-5.701 -6.737 -8.477 -0 -1.2 0
-5.697 -6.968 -8.474 -0 -1.2 0
-5.696 -7.207 -8.473 -0 -1.2 0
-5.697 -7.452 -8.476 -0 -1.2 0
-5.69 -7.693 -8.466 -0 -1.2 0
-5.689 -7.947 -8.467 -0 -1.2 0
-5.652 -8.164 -8.414 -0 -1.2 0
-5.654 -8.432 -8.418 -0 -1.2 0
-5.528 -8.535 -8.232 -0 -1.2 0
-5.331 -8.533 -7.941 -0 -1.2 0
-5.305 -8.767 -7.903 -0 -1.2 0
-5.125 -8.776 -7.639 -0 -1.2 0
-0.715 -0.001 -0.974 -0 -1.2 0
-0.726 -0.022 -0.989 -0 -1.2 0
-0.759 -0.009 -1.034 -0 -1.2 0
-0.784 -0.01 -1.068 -0 -1.2 0
-0.808 -0.013 -1.102 -0 -1.2 0
-0.838 -0.011 -1.142 -0 -1.2 0
-0.867 -0.01 -1.183 -0 -1.2 0
-0.893 -0.017 -1.218 -0 -1.2 0
-0.927 -0.013 -1.265 -0 -1.2 0
-0.963 -0.011 -1.314 -0 -1.2 0
-0.993 -0.016 -1.356 -0 -1.2 0
-1.024 -0.023 -1.398 -0 -1.2 0
-1.06 -0.025 -1.448 -0 -1.2 0
-1.101 -0.025 -1.504 -0 -1.2 0
-1.148 -0.022 -1.568 -0 -1.2 0
-1.189 -0.026 -1.626 -0 -1.2 0
-1.237 -0.026 -1.691 -0 -1.2 0
-1.29 -0.026 -1.764 -0 -1.2 0
-1.343 -0.028 -1.837 -0 -1.2 0
-1.402 -0.029 -1.918 -0 -1.2 0
-1.461 -0.033 -1.999 -0 -1.2 0
-1.526 -0.036 -2.089 -0 -1.2 0
-1.596 -0.039 -2.186 -0 -1.2 0
-1.661 -0.049 -2.276 -0 -1.2 0
-1.744 -0.054 -2.39 -0 -1.2 0
-1.837 -0.056 -2.519 -0 -1.2 0
-1.915 -0.072 -2.626 -0 -1.2 0
-2.032 -0.073 -2.787 -0 -1.2 0
-2.15 -0.079 -2.949 -0 -1.2 0
-2.302 -0.077 -3.159 -0 -1.2 0
-2.432 -0.094 -3.338 -0 -1.2 0
-2.597 -0.105 -3.564 -0 -1.2 0
-2.791 -0.114 -3.83 -0 -1.2 0
-3.003 -0.129 -4.122 -0 -1.2 0
-3.267 -0.141 -4.486 -0 -1.2 0
-3.585 -0.154 -4.922 -0 -1.2 0
-3.942 -0.176 -5.416 -0 -1.2 0
-4.296 -0.221 -5.902 -0 -1.2 0
-4.205 -0.365 -5.777 -0 -1.2 0
-4.294 -0.477 -5.9 -0 -1.2 0
-4.387 -0.593 -6.029 -0 -1.2 0
-4.326 -0.727 -5.947 -0 -1.2 0
-4.359 -0.853 -5.991 -0 -1.2 0
-4.443 -0.978 -6.108 -0 -1.2 0
-4.448 -1.11 -6.117 -0 -1.2 0
-4.407 -1.238 -6.059 -0 -1.2 0
-5.62 -1.441 -7.731 -0 -1.2 0
-5.615 -1.606 -7.725 -0 -1.2 0
-5.621 -1.774 -7.733 -0 -1.2 0
-5.549 -1.929 -7.634 -0 -1.2 0
-5.901 -2.158 -8.121 -0 -1.2 0
-5.953 -2.345 -8.193 -0 -1.2 0
-5.939 -2.521 -8.174 -0 -1.2 0
-5.941 -2.701 -8.178 -0 -1.2 0
-5.941 -2.881 -8.179 -0 -1.2 0
-5.932 -3.059 -8.168 -0 -1.2 0
-5.934 -3.243 -8.171 -0 -1.2 0
-5.921 -3.422 -8.156 -0 -1.2 0
-5.925 -3.608 -8.162 -0 -1.2 0
-5.926 -3.796 -8.164 -0 -1.2 0
-5.92 -3.981 -8.157 -0 -1.2 0
-5.901 -4.162 -8.131 -0 -1.2 0
-5.673 -4.228 -7.817 -0 -1.2 0
-5.678 -4.417 -7.825 -0 -1.2 0
-5.67 -4.602 -7.816 -0 -1.2 0
-5.671 -4.793 -7.818 -0 -1.2 0
-5.67 -4.987 -7.818 -0 -1.2 0
-5.672 -5.185 -7.823 -0 -1.2 0
-5.667 -5.38 -7.816 -0 -1.2 0
-5.664 -5.581 -7.814 -0 -1.2 0
-5.664 -5.787 -7.815 -0 -1.2 0
-5.583 -5.926 -7.704 -0 -1.2 0
-5.89 -6.415 -8.129 -0 -1.2 0
-5.885 -6.636 -8.123 -0 -1.2 0
-5.888 -6.87 -8.128 -0 -1.2 0
-5.888 -7.105 -8.129 -0 -1.2 0
-5.88 -7.336 -8.119 -0 -1.2 0
-5.884 -7.585 -8.126 -0 -1.2 0
-5.873 -7.826 -8.114 -0 -1.2 0
-5.875 -8.084 -8.118 -0 -1.2 0
-5.67 -8.093 -7.835 -0 -1.2 0
-5.61 -8.277 -7.754 -0 -1.2 0
-5.578 -8.497 -7.71 -0 -1.2 0
-5.396 -8.516 -7.46 -0 -1.2 0
-5.278 -8.617 -7.299 -0 -1.2 0
-5.169 -8.725 -7.149 -0 -1.2 0
-5.059 -8.83 -6.998 -0 -1.2 0
-0.747 -0.008 -0.94 -0 -1.2 0
-0.768 -0.015 -0.967 -0 -1.2 0
-0.798 -0.009 -1.005 -0 -1.2 0
-0.813 -0.023 -1.026 -0 -1.2 0
-0.844 -0.02 -1.065 -0 -1.2 0
-0.875 -0.017 -1.104 -0 -1.2 0
-0.911 -0.01 -1.15 -0 -1.2 0
-0.938 -0.017 -1.184 -0 -1.2 0
-0.974 -0.013 -1.23 -0 -1.2 0
-1.011 -0.011 -1.277 -0 -1.2 0
-1.043 -0.016 -1.318 -0 -1.2 0
-1.081 -0.017 -1.366 -0 -1.2 0
-1.113 -0.025 -1.407 -0 -1.2 0
-1.162 -0.019 -1.469 -0 -1.2 0
-1.2 -0.026 -1.518 -0 -1.2 0
-1.249 -0.026 -1.581 -0 -1.2 0
-1.294 -0.031 -1.637 -0 -1.2 0
-1.36 -0.021 -1.722 -0 -1.2 0
-1.41 -0.029 -1.786 -0 -1.2 0
-1.46 -0.037 -1.85 -0 -1.2 0
-1.522 -0.041 -1.929 -0 -1.2 0
-1.585 -0.048 -2.009 -0 -1.2 0
-1.664 -0.047 -2.111 -0 -1.2 0
-1.739 -0.053 -2.206 -0 -1.2 0
-1.831 -0.054 -2.323 -0 -1.2 0
-1.918 -0.062 -2.434 -0 -1.2 0
-2.018 -0.069 -2.561 -0 -1.2 0
-2.135 -0.073 -2.71 -0 -1.2 0
-2.258 -0.079 -2.867 -0 -1.2 0
-2.412 -0.08 -3.063 -0 -1.2 0
-2.549 -0.097 -3.238 -0 -1.2 0
-2.722 -0.107 -3.457 -0 -1.2 0
-2.926 -0.116 -3.717 -0 -1.2 0
-3.154 -0.13 -4.008 -0 -1.2 0
-3.444 -0.138 -4.377 -0 -1.2 0
-3.765 -0.154 -4.786 -0 -1.2 0
-4.135 -0.178 -5.258 -0 -1.2 0
-4.616 -0.2 -5.871 -0 -1.2 0
-4.975 -0.271 -6.329 -0 -1.2 0
-4.923 -0.419 -6.261 -0 -1.2 0
-5.04 -0.545 -6.411 -0 -1.2 0
-4.971 -0.692 -6.323 -0 -1.2 0
-5.165 -0.821 -6.572 -0 -1.2 0
-5.606 -0.953 -7.134 -0 -1.2 0
-5.613 -1.111 -7.143 -0 -1.2 0
-5.605 -1.267 -7.134 -0 -1.2 0
-5.59 -1.423 -7.115 -0 -1.2 0
-5.609 -1.583 -7.141 -0 -1.2 0
-5.603 -1.74 -7.134 -0 -1.2 0
-5.546 -1.89 -7.061 -0 -1.2 0
-5.598 -2.055 -7.128 -0 -1.2 0
-5.954 -2.286 -7.583 -0 -1.2 0
-5.952 -2.456 -7.581 -0 -1.2 0
-5.937 -2.622 -7.562 -0 -1.2 0
-5.944 -2.796 -7.571 -0 -1.2 0
-5.942 -2.969 -7.571 -0 -1.2 0
-5.939 -3.142 -7.566 -0 -1.2 0
-5.94 -3.317 -7.568 -0 -1.2 0
-5.891 -3.473 -7.507 -0 -1.2 0
-5.929 -3.667 -7.557 -0 -1.2 0
-5.931 -3.848 -7.558 -0 -1.2 0
-5.93 -4.028 -7.558 -0 -1.2 0
-5.832 -4.16 -7.434 -0 -1.2 0
-5.664 -4.248 -7.22 -0 -1.2 0
-5.657 -4.424 -7.213 -0 -1.2 0
-5.655 -4.604 -7.211 -0 -1.2 0
-5.657 -4.789 -7.213 -0 -1.2 0
-5.655 -4.974 -7.213 -0 -1.2 0
-5.652 -5.161 -7.209 -0 -1.2 0
-5.646 -5.349 -7.202 -0 -1.2 0
-5.649 -5.546 -7.207 -0 -1.2 0
-5.644 -5.741 -7.201 -0 -1.2 0
-5.571 -5.879 -7.109 -0 -1.2 0
-5.82 -6.307 -7.428 -0 -1.2 0
-5.886 -6.585 -7.513 -0 -1.2 0
-5.878 -6.802 -7.504 -0 -1.2 0
-5.873 -7.024 -7.498 -0 -1.2 0
-5.88 -7.265 -7.509 -0 -1.2 0
-5.844 -7.463 -7.463 -0 -1.2 0
-5.869 -7.735 -7.497 -0 -1.2 0
-5.872 -7.987 -7.5 -0 -1.2 0
-5.742 -8.085 -7.336 -0 -1.2 0
-5.588 -8.146 -7.14 -0 -1.2 0
-5.592 -8.41 -7.147 -0 -1.2 0
-5.48 -8.521 -7.003 -0 -1.2 0
-5.273 -8.496 -6.741 -0 -1.2 0
-5.242 -8.717 -6.702 -0 -1.2 0
-5.079 -8.741 -6.493 -0 -1.2 0
-0.779 -0.008 -0.914 -0 -1.2 0
-0.805 -0.008 -0.945 -0 -1.2 0
-0.832 -0.009 -0.977 -0 -1.2 0
-0.859 -0.011 -1.009 -0 -1.2 0
-0.886 -0.013 -1.041 -0 -1.2 0
-0.918 -0.011 -1.079 -0 -1.2 0
-0.946 -0.017 -1.112 -0 -1.2 0
-0.973 -0.023 -1.145 -0 -1.2 0
-1.011 -0.019 -1.19 -0 -1.2 0
-1.05 -0.017 -1.235 -0 -1.2 0
-1.094 -0.01 -1.288 -0 -1.2 0
-1.128 -0.017 -1.328 -0 -1.2 0
-1.162 -0.025 -1.368 -0 -1.2 0
-1.212 -0.019 -1.428 -0 -1.2 0
-1.252 -0.027 -1.476 -0 -1.2 0
-1.298 -0.031 -1.53 -0 -1.2 0
-1.361 -0.023 -1.605 -0 -1.2 0
-1.401 -0.036 -1.653 -0 -1.2 0
-1.466 -0.033 -1.729 -0 -1.2 0
-1.53 -0.033 -1.806 -0 -1.2 0
-1.595 -0.037 -1.883 -0 -1.2 0
-1.665 -0.04 -1.967 -0 -1.2 0
-1.737 -0.047 -2.052 -0 -1.2 0
-1.814 -0.053 -2.145 -0 -1.2 0
-1.905 -0.057 -2.252 -0 -1.2 0
-2.014 -0.056 -2.381 -0 -1.2 0
-2.111 -0.066 -2.497 -0 -1.2 0
-2.227 -0.073 -2.635 -0 -1.2 0
-2.356 -0.08 -2.788 -0 -1.2 0
-2.504 -0.086 -2.964 -0 -1.2 0
-2.659 -0.097 -3.148 -0 -1.2 0
-2.84 -0.107 -3.361 -0 -1.2 0
-3.059 -0.114 -3.621 -0 -1.2 0
-3.316 -0.123 -3.927 -0 -1.2 0
-3.587 -0.14 -4.248 -0 -1.2 0
-3.935 -0.154 -4.661 -0 -1.2 0
-4.308 -0.18 -5.105 -0 -1.2 0
-4.816 -0.201 -5.708 -0 -1.2 0
-5.454 -0.229 -6.465 -0 -1.2 0
-5.572 -0.361 -6.605 -0 -1.2 0
-5.232 -0.547 -6.202 -0 -1.2 0
-5.586 -0.66 -6.622 -0 -1.2 0
-5.583 -0.81 -6.619 -0 -1.2 0
-5.579 -0.961 -6.615 -0 -1.2 0
-5.579 -1.111 -6.616 -0 -1.2 0
-5.578 -1.26 -6.615 -0 -1.2 0
-5.595 -1.411 -6.635 -0 -1.2 0
-5.577 -1.56 -6.614 -0 -1.2 0
-5.577 -1.71 -6.615 -0 -1.2 0
-5.531 -1.855 -6.561 -0 -1.2 0
-5.528 -2.005 -6.558 -0 -1.2 0
-5.645 -2.177 -6.697 -0 -1.2 0
-5.638 -2.33 -6.689 -0 -1.2 0
-5.642 -2.486 -6.695 -0 -1.2 0
-5.638 -2.641 -6.691 -0 -1.2 0
-5.639 -2.798 -6.692 -0 -1.2 0
-5.638 -2.956 -6.691 -0 -1.2 0
-5.64 -3.116 -6.695 -0 -1.2 0
-5.629 -3.273 -6.682 -0 -1.2 0
-5.635 -3.436 -6.689 -0 -1.2 0
-5.632 -3.599 -6.687 -0 -1.2 0
-5.628 -3.762 -6.681 -0 -1.2 0
-5.634 -3.931 -6.689 -0 -1.2 0
-5.632 -4.098 -6.686 -0 -1.2 0
-5.626 -4.266 -6.682 -0 -1.2 0
-5.626 -4.439 -6.682 -0 -1.2 0
-5.624 -4.612 -6.679 -0 -1.2 0
-5.619 -4.787 -6.673 -0 -1.2 0
-5.623 -4.97 -6.679 -0 -1.2 0
-5.62 -5.15 -6.675 -0 -1.2 0
-5.62 -5.336 -6.676 -0 -1.2 0
-5.616 -5.522 -6.673 -0 -1.2 0
-5.623 -5.72 -6.681 -0 -1.2 0
-5.615 -5.909 -6.671 -0 -1.2 0
-5.609 -6.105 -6.666 -0 -1.2 0
-5.613 -6.312 -6.671 -0 -1.2 0
-5.608 -6.515 -6.666 -0 -1.2 0
-5.61 -6.73 -6.669 -0 -1.2 0
-5.606 -6.942 -6.663 -0 -1.2 0
-5.607 -7.167 -6.666 -0 -1.2 0
-5.6 -7.387 -6.659 -0 -1.2 0
-5.601 -7.621 -6.66 -0 -1.2 0
-5.597 -7.857 -6.656 -0 -1.2 0
-5.58 -8.083 -6.637 -0 -1.2 0
-5.55 -8.296 -6.601 -0 -1.2 0
-5.511 -8.504 -6.556 -0 -1.2 0
-5.317 -8.496 -6.326 -0 -1.2 0
-5.224 -8.625 -6.215 -0 -1.2 0
-5.105 -8.715 -6.076 -0 -1.2 0
-4.992 -8.809 -5.941 -0 -1.2 0
-0.811 -0.008 -0.887 -0 -1.2 0
-0.833 -0.015 -0.912 -0 -1.2 0
-0.861 -0.016 -0.942 -0 -1.2 0
-0.894 -0.011 -0.979 -0 -1.2 0
-0.927 -0.008 -1.016 -0 -1.2 0
-0.944 -0.024 -1.035 -0 -1.2 0
-0.984 -0.017 -1.078 -0 -1.2 0
-1.018 -0.017 -1.116 -0 -1.2 0
-1.052 -0.019 -1.154 -0 -1.2 0
-1.097 -0.011 -1.204 -0 -1.2 0
-1.138 -0.01 -1.249 -0 -1.2 0
-1.173 -0.017 -1.288 -0 -1.2 0
-1.214 -0.02 -1.334 -0 -1.2 0
-1.255 -0.025 -1.379 -0 -1.2 0
-1.303 -0.027 -1.432 -0 -1.2 0
-1.343 -0.036 -1.478 -0 -1.2 0
-1.41 -0.027 -1.551 -0 -1.2 0
-1.457 -0.036 -1.604 -0 -1.2 0
-1.531 -0.029 -1.684 -0 -1.2 0
-1.585 -0.037 -1.745 -0 -1.2 0
-1.665 -0.034 -1.833 -0 -1.2 0
-1.732 -0.04 -1.909 -0 -1.2 0
-1.807 -0.047 -1.991 -0 -1.2 0
-1.894 -0.05 -2.088 -0 -1.2 0
-1.982 -0.057 -2.185 -0 -1.2 0
-2.095 -0.056 -2.31 -0 -1.2 0
-2.196 -0.066 -2.422 -0 -1.2 0
-2.317 -0.073 -2.556 -0 -1.2 0
-2.445 -0.083 -2.698 -0 -1.2 0
-2.612 -0.083 -2.883 -0 -1.2 0
-2.76 -0.099 -3.047 -0 -1.2 0
-2.955 -0.108 -3.261 -0 -1.2 0
-3.176 -0.116 -3.506 -0 -1.2 0
-3.456 -0.121 -3.817 -0 -1.2 0
-3.745 -0.137 -4.136 -0 -1.2 0
-4.08 -0.157 -4.508 -0 -1.2 0
-4.21 -0.238 -4.652 -0 -1.2 0
-4.08 -0.371 -4.508 -0 -1.2 0
-4.161 -0.465 -4.598 -0 -1.2 0
-4.174 -0.572 -4.613 -0 -1.2 0
-4.12 -0.685 -4.552 -0 -1.2 0
-4.217 -0.784 -4.661 -0 -1.2 0
-4.147 -0.896 -4.584 -0 -1.2 0
-5.549 -0.968 -6.136 -0 -1.2 0
-4.397 -1.11 -4.861 -0 -1.2 0
-4.376 -1.222 -4.837 -0 -1.2 0
-5.553 -1.397 -6.141 -0 -1.2 0
-5.548 -1.54 -6.137 -0 -1.2 0
-5.556 -1.685 -6.145 -0 -1.2 0
-5.534 -1.827 -6.122 -0 -1.2 0
-5.485 -1.963 -6.067 -0 -1.2 0
-5.613 -2.13 -6.21 -0 -1.2 0
-5.614 -2.278 -6.21 -0 -1.2 0
-5.612 -2.426 -6.209 -0 -1.2 0
-5.609 -2.574 -6.205 -0 -1.2 0
-5.61 -2.725 -6.208 -0 -1.2 0
-5.61 -2.875 -6.208 -0 -1.2 0
-5.601 -3.025 -6.199 -0 -1.2 0
-5.604 -3.179 -6.202 -0 -1.2 0
-5.598 -3.331 -6.195 -0 -1.2 0
-5.597 -3.487 -6.194 -0 -1.2 0
-5.594 -3.643 -6.191 -0 -1.2 0
-5.595 -3.802 -6.193 -0 -1.2 0
-5.594 -3.962 -6.192 -0 -1.2 0
-5.591 -4.124 -6.189 -0 -1.2 0
-5.586 -4.286 -6.184 -0 -1.2 0
-5.586 -4.452 -6.183 -0 -1.2 0
-5.589 -4.623 -6.187 -0 -1.2 0
-5.583 -4.792 -6.18 -0 -1.2 0
-5.581 -4.965 -6.179 -0 -1.2 0
-5.584 -5.144 -6.182 -0 -1.2 0
-5.589 -5.328 -6.189 -0 -1.2 0
-5.586 -5.509 -6.185 -0 -1.2 0
-5.587 -5.697 -6.186 -0 -1.2 0
-5.548 -5.855 -6.145 -0 -1.2 0
-5.532 -6.034 -6.127 -0 -1.2 0
-5.587 -6.282 -6.189 -0 -1.2 0
-5.582 -6.481 -6.183 -0 -1.2 0
-5.58 -6.686 -6.179 -0 -1.2 0
-5.579 -6.898 -6.18 -0 -1.2 0
-5.569 -7.106 -6.17 -0 -1.2 0
-5.573 -7.333 -6.174 -0 -1.2 0
-5.568 -7.557 -6.169 -0 -1.2 0
-5.569 -7.794 -6.171 -0 -1.2 0
-5.557 -8.021 -6.158 -0 -1.2 0
-5.511 -8.208 -6.106 -0 -1.2 0
-5.5 -8.45 -6.096 -0 -1.2 0
-5.351 -8.503 -5.929 -0 -1.2 0
-5.19 -8.536 -5.753 -0 -1.2 0
-5.178 -8.782 -5.74 -0 -1.2 0
-4.995 -8.77 -5.537 -0 -1.2 0
-0.843 -0.008 -0.856 -0 -1.2 0
-0.856 -0.029 -0.87 -0 -1.2 0
-0.901 -0.009 -0.915 -0 -1.2 0
-0.93 -0.011 -0.945 -0 -1.2 0
-0.959 -0.014 -0.975 -0 -1.2 0
-0.999 -0.006 -1.017 -0 -1.2 0
-1.023 -0.017 -1.041 -0 -1.2 0
-1.059 -0.017 -1.078 -0 -1.2 0
-1.106 -0.007 -1.127 -0 -1.2 0
-1.142 -0.011 -1.163 -0 -1.2 0
-1.184 -0.01 -1.206 -0 -1.2 0
-1.22 -0.017 -1.244 -0 -1.2 0
-1.257 -0.025 -1.282 -0 -1.2 0
-1.306 -0.026 -1.332 -0 -1.2 0
-1.361 -0.022 -1.389 -0 -1.2 0
-1.411 -0.026 -1.44 -0 -1.2 0
-1.461 -0.032 -1.491 -0 -1.2 0
-1.53 -0.026 -1.562 -0 -1.2 0
-1.586 -0.033 -1.62 -0 -1.2 0
-1.656 -0.034 -1.692 -0 -1.2 0
-1.725 -0.038 -1.764 -0 -1.2 0
-1.802 -0.041 -1.843 -0 -1.2 0
-1.886 -0.044 -1.929 -0 -1.2 0
-1.977 -0.047 -2.022 -0 -1.2 0
-2.075 -0.051 -2.123 -0 -1.2 0
-2.18 -0.056 -2.231 -0 -1.2 0
-2.292 -0.063 -2.346 -0 -1.2 0
-2.417 -0.07 -2.475 -0 -1.2 0
-2.537 -0.086 -2.598 -0 -1.2 0
-2.717 -0.084 -2.784 -0 -1.2 0
-2.879 -0.098 -2.949 -0 -1.2 0
-3.074 -0.108 -3.149 -0 -1.2 0
-3.297 -0.12 -3.379 -0 -1.2 0
-3.617 -0.115 -3.707 -0 -1.2 0
-3.889 -0.139 -3.988 -0 -1.2 0
-4.252 -0.156 -4.36 -0 -1.2 0
-4.656 -0.182 -4.777 -0 -1.2 0
-5.137 -0.216 -5.271 -0 -1.2 0
-4.822 -0.392 -4.946 -0 -1.2 0
-4.864 -0.507 -4.991 -0 -1.2 0
-4.731 -0.641 -4.854 -0 -1.2 0
-5.279 -0.719 -5.417 -0 -1.2 0
-5.534 -0.837 -5.679 -0 -1.2 0
-5.536 -0.974 -5.682 -0 -1.2 0
-5.53 -1.111 -5.676 -0 -1.2 0
-5.307 -1.242 -5.445 -0 -1.2 0
-5.534 -1.385 -5.679 -0 -1.2 0
-5.543 -1.524 -5.689 -0 -1.2 0
-5.537 -1.661 -5.683 -0 -1.2 0
-5.543 -1.8 -5.689 -0 -1.2 0
-5.465 -1.927 -5.609 -0 -1.2 0
-5.841 -2.131 -5.996 -0 -1.2 0
-5.89 -2.289 -6.046 -0 -1.2 0
-5.882 -2.436 -6.038 -0 -1.2 0
-5.878 -2.586 -6.034 -0 -1.2 0
-5.887 -2.739 -6.043 -0 -1.2 0
-5.886 -2.891 -6.042 -0 -1.2 0
-5.877 -3.041 -6.034 -0 -1.2 0
-5.88 -3.197 -6.037 -0 -1.2 0
-5.853 -3.342 -6.01 -0 -1.2 0
-5.838 -3.493 -5.995 -0 -1.2 0
-5.869 -3.664 -6.026 -0 -1.2 0
-5.863 -3.821 -6.02 -0 -1.2 0
-5.855 -3.979 -6.012 -0 -1.2 0
-5.833 -4.131 -5.989 -0 -1.2 0
-5.586 -4.16 -5.735 -0 -1.2 0
-5.587 -4.321 -5.736 -0 -1.2 0
-5.579 -4.479 -5.728 -0 -1.2 0
-5.569 -4.637 -5.718 -0 -1.2 0
-5.569 -4.804 -5.719 -0 -1.2 0
-5.568 -4.973 -5.717 -0 -1.2 0
-5.569 -5.147 -5.719 -0 -1.2 0
-5.568 -5.322 -5.718 -0 -1.2 0
