# .PCD v.7 - Point Cloud Data file format
FIELDS x y z vp_x vp_y vp_z
SIZE 4 4 4 4 4 4
TYPE F F F F F F
COUNT 1 1 1 1 1 1
WIDTH 1618
HEIGHT 1
VIEWPOINT 0 -1.20013 0 1 0 0 0
POINTS 1618
DATA ascii
-5.234 -1.057 6.333 -0 -1.2 0
-5.385 -1.208 6.531 -0 -1.2 0
-5.516 -1.366 6.704 -0 -1.2 0
-5.565 -1.525 6.772 -0 -1.2 0
-5.673 -1.694 6.917 -0 -1.2 0
-10.446 -3.408 13.101 -0 -1.2 0
-10.367 -3.692 13.008 -0 -1.2 0
-13.708 -4.936 17.34 -0 -1.2 0
-9.574 -4.338 12.01 -0 -1.2 0
-9.081 -4.441 11.379 -0 -1.2 0
-6.164 -3.73 7.608 -0 -1.2 0
-4.976 -3.37 6.07 -0 -1.2 0
-6.022 -4.041 7.436 -0 -1.2 0
-6.324 -4.388 7.834 -0 -1.2 0
-6.228 -4.536 7.715 -0 -1.2 0
-5.018 -4.022 6.145 -0 -1.2 0
-5.103 -4.239 6.261 -0 -1.2 0
-5.852 -5.095 7.25 -0 -1.2 0
-4.939 -4.633 6.061 -0 -1.2 0
-4.87 -4.752 5.978 -0 -1.2 0
-4.807 -4.872 5.898 -0 -1.2 0
-4.779 -5.021 5.869 -0 -1.2 0
-4.707 -5.134 5.779 -0 -1.2 0
-5.698 -6.205 7.084 -0 -1.2 0
-6.058 -6.998 7.572 -0 -1.2 0
-5.625 -7.997 7.046 -0 -1.2 0
-5.557 -8.169 6.964 -0 -1.2 0
-0.744 -0.04 0.612 -0 -1.2 0
-0.767 -0.041 0.644 -0 -1.2 0
-0.796 -0.037 0.684 -0 -1.2 0
-0.815 -0.045 0.711 -0 -1.2 0
-0.849 -0.037 0.758 -0 -1.2 0
-0.874 -0.042 0.792 -0 -1.2 0
-0.899 -0.049 0.826 -0 -1.2 0
-0.923 -0.056 0.861 -0 -1.2 0
-0.963 -0.048 0.915 -0 -1.2 0
-0.993 -0.054 0.956 -0 -1.2 0
-1.024 -0.059 0.999 -0 -1.2 0
-1.064 -0.057 1.054 -0 -1.2 0
-1.1 -0.061 1.104 -0 -1.2 0
-1.141 -0.064 1.16 -0 -1.2 0
-1.177 -0.071 1.21 -0 -1.2 0
-1.214 -0.082 1.26 -0 -1.2 0
-1.266 -0.081 1.333 -0 -1.2 0
-1.324 -0.078 1.412 -0 -1.2 0
-1.372 -0.087 1.478 -0 -1.2 0
-1.436 -0.086 1.566 -0 -1.2 0
-1.5 -0.09 1.655 -0 -1.2 0
-1.565 -0.096 1.744 -0 -1.2 0
-1.63 -0.106 1.833 -0 -1.2 0
-1.718 -0.106 1.954 -0 -1.2 0
-1.8 -0.115 2.068 -0 -1.2 0
-1.894 -0.123 2.197 -0 -1.2 0
-1.988 -0.134 2.327 -0 -1.2 0
-2.099 -0.144 2.48 -0 -1.2 0
-2.228 -0.153 2.658 -0 -1.2 0
-2.346 -0.174 2.821 -0 -1.2 0
-2.493 -0.191 3.022 -0 -1.2 0
-2.675 -0.205 3.273 -0 -1.2 0
-2.891 -0.217 3.572 -0 -1.2 0
-3.114 -0.242 3.879 -0 -1.2 0
-3.378 -0.27 4.243 -0 -1.2 0
-3.695 -0.301 4.679 -0 -1.2 0
-4.082 -0.338 5.212 -0 -1.2 0
-4.481 -0.396 5.762 -0 -1.2 0
-4.526 -0.522 5.83 -0 -1.2 0
-4.57 -0.651 5.895 -0 -1.2 0
-4.601 -0.783 5.942 -0 -1.2 0
-4.754 -0.912 6.157 -0 -1.2 0
-4.964 -1.05 6.451 -0 -1.2 0
-5.021 -1.197 6.533 -0 -1.2 0
-5.234 -1.355 6.832 -0 -1.2 0
-5.186 -1.506 6.773 -0 -1.2 0
-13.15 -4.123 17.815 -0 -1.2 0
-13.332 -4.569 18.079 -0 -1.2 0
-13.408 -5 18.2 -0 -1.2 0
-12.313 -5.059 16.697 -0 -1.2 0
-11.886 -5.663 16.132 -0 -1.2 0
-9.096 -4.873 12.268 -0 -1.2 0
-13.258 -7.036 18.067 -0 -1.2 0
-5.511 -3.725 7.298 -0 -1.2 0
-5.62 -3.96 7.456 -0 -1.2 0
-5.653 -4.164 7.509 -0 -1.2 0
-5.883 -4.485 7.836 -0 -1.2 0
-12.946 -9.032 17.709 -0 -1.2 0
-4.573 -4.19 6.025 -0 -1.2 0
-4.753 -4.48 6.283 -0 -1.2 0
-4.693 -4.605 6.205 -0 -1.2 0
-5.625 -5.513 7.517 -0 -1.2 0
-5.544 -5.654 7.412 -0 -1.2 0
-0.706 -0.039 0.654 -0 -1.2 0
-0.724 -0.047 0.681 -0 -1.2 0
-0.756 -0.035 0.728 -0 -1.2 0
-0.779 -0.038 0.762 -0 -1.2 0
-0.798 -0.048 0.79 -0 -1.2 0
-0.826 -0.047 0.832 -0 -1.2 0
-0.849 -0.053 0.867 -0 -1.2 0
-0.878 -0.054 0.909 -0 -1.2 0
-0.906 -0.058 0.951 -0 -1.2 0
-0.935 -0.062 0.993 -0 -1.2 0
-0.968 -0.063 1.043 -0 -1.2 0
-1.002 -0.066 1.093 -0 -1.2 0
-1.041 -0.065 1.15 -0 -1.2 0
-1.08 -0.066 1.208 -0 -1.2 0
-1.115 -0.074 1.26 -0 -1.2 0
-1.153 -0.08 1.319 -0 -1.2 0
-1.193 -0.088 1.378 -0 -1.2 0
-1.248 -0.084 1.459 -0 -1.2 0
-1.299 -0.089 1.534 -0 -1.2 0
-1.36 -0.088 1.624 -0 -1.2 0
-1.421 -0.091 1.715 -0 -1.2 0
-1.478 -0.1 1.798 -0 -1.2 0
-1.545 -0.107 1.898 -0 -1.2 0
-1.623 -0.11 2.013 -0 -1.2 0
-1.696 -0.121 2.122 -0 -1.2 0
-1.79 -0.124 2.262 -0 -1.2 0
-1.88 -0.137 2.396 -0 -1.2 0
-1.986 -0.146 2.553 -0 -1.2 0
-2.086 -0.164 2.703 -0 -1.2 0
-2.214 -0.177 2.893 -0 -1.2 0
-2.349 -0.195 3.093 -0 -1.2 0
-2.527 -0.206 3.356 -0 -1.2 0
-2.728 -0.219 3.654 -0 -1.2 0
-2.94 -0.243 3.969 -0 -1.2 0
-3.185 -0.27 4.334 -0 -1.2 0
-3.481 -0.302 4.773 -0 -1.2 0
-3.86 -0.335 5.335 -0 -1.2 0
-4.262 -0.388 5.932 -0 -1.2 0
-4.321 -0.511 6.025 -0 -1.2 0
-4.335 -0.644 6.051 -0 -1.2 0
-4.448 -0.769 6.223 -0 -1.2 0
-4.599 -0.9 6.453 -0 -1.2 0
-4.8 -1.04 6.755 -0 -1.2 0
-4.952 -1.191 6.988 -0 -1.2 0
-5.205 -1.358 7.369 -0 -1.2 0
-12.713 -4.555 18.615 -0 -1.2 0
-13.682 -5.706 20.098 -0 -1.2 0
-10.736 -5.06 15.711 -0 -1.2 0
-12.365 -7.321 18.217 -0 -1.2 0
-5.135 -3.841 7.369 -0 -1.2 0
-5.457 -4.205 7.862 -0 -1.2 0
-11.64 -8.168 17.178 -0 -1.2 0
-5.34 -4.513 7.7 -0 -1.2 0
-5.339 -4.705 7.707 -0 -1.2 0
-11.385 -9.248 16.846 -0 -1.2 0
-4.5 -4.464 6.454 -0 -1.2 0
-4.398 -4.551 6.308 -0 -1.2 0
-4.421 -4.739 6.349 -0 -1.2 0
-4.237 -4.752 6.079 -0 -1.2 0
-4.193 -4.879 6.02 -0 -1.2 0
-0.668 -0.045 0.685 -0 -1.2 0
-0.693 -0.039 0.726 -0 -1.2 0
-0.716 -0.041 0.761 -0 -1.2 0
-0.738 -0.043 0.795 -0 -1.2 0
-0.76 -0.046 0.831 -0 -1.2 0
-0.781 -0.051 0.866 -0 -1.2 0
-0.808 -0.052 0.909 -0 -1.2 0
-0.836 -0.053 0.951 -0 -1.2 0
-0.858 -0.062 0.988 -0 -1.2 0
-0.889 -0.061 1.038 -0 -1.2 0
-0.922 -0.061 1.089 -0 -1.2 0
-0.953 -0.064 1.14 -0 -1.2 0
-0.986 -0.068 1.191 -0 -1.2 0
-1.023 -0.069 1.251 -0 -1.2 0
-1.056 -0.077 1.303 -0 -1.2 0
-1.098 -0.078 1.37 -0 -1.2 0
-1.136 -0.086 1.43 -0 -1.2 0
-1.188 -0.082 1.514 -0 -1.2 0
-1.227 -0.094 1.575 -0 -1.2 0
-1.289 -0.09 1.674 -0 -1.2 0
-1.348 -0.092 1.768 -0 -1.2 0
-1.406 -0.098 1.861 -0 -1.2 0
-1.465 -0.108 1.954 -0 -1.2 0
-1.534 -0.114 2.064 -0 -1.2 0
-1.609 -0.121 2.183 -0 -1.2 0
-1.699 -0.125 2.326 -0 -1.2 0
-1.783 -0.136 2.462 -0 -1.2 0
-1.88 -0.147 2.614 -0 -1.2 0
-1.98 -0.163 2.775 -0 -1.2 0
-2.102 -0.175 2.97 -0 -1.2 0
-2.235 -0.19 3.182 -0 -1.2 0
-2.395 -0.205 3.436 -0 -1.2 0
-2.58 -0.22 3.731 -0 -1.2 0
-2.793 -0.239 4.069 -0 -1.2 0
-3.015 -0.269 4.424 -0 -1.2 0
-3.297 -0.299 4.873 -0 -1.2 0
-3.658 -0.331 5.448 -0 -1.2 0
-4.023 -0.385 6.031 -0 -1.2 0
-4.074 -0.509 6.118 -0 -1.2 0
-4.221 -0.624 6.356 -0 -1.2 0
-4.211 -0.762 6.347 -0 -1.2 0
-4.386 -0.89 6.632 -0 -1.2 0
-4.709 -1.029 7.152 -0 -1.2 0
-9.301 -1.271 14.457 -0 -1.2 0
-12.54 -5.513 19.805 -0 -1.2 0
-11.489 -5.536 18.137 -0 -1.2 0
-10.896 -5.685 17.203 -0 -1.2 0
-10.593 -5.928 16.734 -0 -1.2 0
-10.141 -6.08 16.023 -0 -1.2 0
-11.065 -6.933 17.531 -0 -1.2 0
-11.49 -7.575 18.237 -0 -1.2 0
-4.793 -3.958 7.426 -0 -1.2 0
-5.12 -4.344 7.965 -0 -1.2 0
-5.099 -4.715 7.948 -0 -1.2 0
-10.904 -9.295 17.39 -0 -1.2 0
-4.105 -4.992 6.383 -0 -1.2 0
-0.636 -0.038 0.728 -0 -1.2 0
-0.657 -0.039 0.764 -0 -1.2 0
-0.674 -0.046 0.793 -0 -1.2 0
-0.698 -0.042 0.835 -0 -1.2 0
-0.716 -0.053 0.864 -0 -1.2 0
-0.736 -0.057 0.9 -0 -1.2 0
-0.762 -0.057 0.943 -0 -1.2 0
-0.787 -0.059 0.987 -0 -1.2 0
-0.813 -0.061 1.031 -0 -1.2 0
-0.839 -0.065 1.075 -0 -1.2 0
-0.868 -0.066 1.126 -0 -1.2 0
-0.899 -0.068 1.179 -0 -1.2 0
-0.929 -0.072 1.231 -0 -1.2 0
-0.961 -0.078 1.284 -0 -1.2 0
-0.995 -0.081 1.344 -0 -1.2 0
-1.036 -0.082 1.413 -0 -1.2 0
-1.076 -0.084 1.482 -0 -1.2 0
-1.117 -0.09 1.552 -0 -1.2 0
-1.158 -0.097 1.622 -0 -1.2 0
-1.217 -0.092 1.723 -0 -1.2 0
-1.263 -0.102 1.802 -0 -1.2 0
-1.323 -0.103 1.904 -0 -1.2 0
-1.379 -0.112 2 -0 -1.2 0
-1.444 -0.118 2.113 -0 -1.2 0
-1.515 -0.125 2.233 -0 -1.2 0
-1.585 -0.137 2.355 -0 -1.2 0
-1.671 -0.144 2.501 -0 -1.2 0
-1.761 -0.155 2.657 -0 -1.2 0
-1.857 -0.17 2.82 -0 -1.2 0
-1.972 -0.181 3.019 -0 -1.2 0
-2.103 -0.193 3.243 -0 -1.2 0
-2.255 -0.206 3.501 -0 -1.2 0
-2.425 -0.222 3.794 -0 -1.2 0
-2.622 -0.243 4.131 -0 -1.2 0
-2.833 -0.271 4.494 -0 -1.2 0
-3.09 -0.302 4.933 -0 -1.2 0
-3.421 -0.334 5.502 -0 -1.2 0
-3.834 -0.374 6.209 -0 -1.2 0
-3.958 -0.486 6.427 -0 -1.2 0
-4.055 -0.609 6.601 -0 -1.2 0
-4.212 -0.735 6.875 -0 -1.2 0
-4.313 -0.874 7.055 -0 -1.2 0
-4.406 -1.02 7.222 -0 -1.2 0
-5.286 -1.187 8.735 -0 -1.2 0
-11.581 -1.702 19.515 -0 -1.2 0
-11.539 -2.098 19.465 -0 -1.2 0
-11.488 -2.492 19.401 -0 -1.2 0
-11.455 -2.887 19.364 -0 -1.2 0
-11.412 -3.28 19.314 -0 -1.2 0
-11.382 -3.675 19.284 -0 -1.2 0
-11.318 -4.06 19.196 -0 -1.2 0
-11.256 -4.445 19.112 -0 -1.2 0
-11.26 -4.849 19.139 -0 -1.2 0
-11.082 -5.191 18.856 -0 -1.2 0
-11.565 -5.79 19.713 -0 -1.2 0
-10.56 -5.77 17.996 -0 -1.2 0
-9.61 -5.703 16.37 -0 -1.2 0
-9.753 -6.138 16.638 -0 -1.2 0
-11.006 -7.205 18.836 -0 -1.2 0
-5.239 -4.6 8.841 -0 -1.2 0
-10.989 -8.912 18.901 -0 -1.2 0
-5.133 -4.939 8.678 -0 -1.2 0
-4.725 -4.825 7.975 -0 -1.2 0
-10.15 -9.562 17.502 -0 -1.2 0
-4.825 -5.308 8.173 -0 -1.2 0
-4.815 -5.505 8.166 -0 -1.2 0
-0.595 -0.043 0.76 -0 -1.2 0
-0.619 -0.037 0.803 -0 -1.2 0
-0.635 -0.044 0.832 -0 -1.2 0
-0.653 -0.047 0.868 -0 -1.2 0
-0.678 -0.044 0.912 -0 -1.2 0
-0.693 -0.056 0.942 -0 -1.2 0
-0.72 -0.049 0.993 -0 -1.2 0
-0.741 -0.057 1.03 -0 -1.2 0
-0.765 -0.059 1.075 -0 -1.2 0
-0.789 -0.063 1.12 -0 -1.2 0
-0.814 -0.07 1.166 -0 -1.2 0
-0.846 -0.066 1.226 -0 -1.2 0
-0.875 -0.07 1.279 -0 -1.2 0
-0.904 -0.076 1.333 -0 -1.2 0
-0.937 -0.079 1.395 -0 -1.2 0
-0.975 -0.079 1.465 -0 -1.2 0
-1.009 -0.086 1.527 -0 -1.2 0
-1.047 -0.091 1.599 -0 -1.2 0
-1.093 -0.09 1.686 -0 -1.2 0
-1.136 -0.097 1.765 -0 -1.2 0
-1.188 -0.098 1.861 -0 -1.2 0
-1.236 -0.107 1.951 -0 -1.2 0
-1.289 -0.115 2.047 -0 -1.2 0
-1.354 -0.117 2.169 -0 -1.2 0
-1.421 -0.124 2.293 -0 -1.2 0
-1.492 -0.133 2.425 -0 -1.2 0
-1.567 -0.143 2.566 -0 -1.2 0
-1.644 -0.158 2.708 -0 -1.2 0
-1.738 -0.169 2.883 -0 -1.2 0
-1.843 -0.182 3.077 -0 -1.2 0
-1.96 -0.196 3.297 -0 -1.2 0
-2.102 -0.209 3.559 -0 -1.2 0
-2.263 -0.223 3.858 -0 -1.2 0
-2.443 -0.243 4.192 -0 -1.2 0
-2.638 -0.272 4.553 -0 -1.2 0
-2.883 -0.3 5.011 -0 -1.2 0
-3.186 -0.332 5.573 -0 -1.2 0
-3.565 -0.372 6.275 -0 -1.2 0
-3.995 -0.429 7.076 -0 -1.2 0
-4.534 -0.505 8.079 -0 -1.2 0
-4.605 -0.663 8.22 -0 -1.2 0
-7.032 -0.693 12.71 -0 -1.2 0
-8.974 -3.568 16.486 -0 -1.2 0
-8.649 -3.805 15.9 -0 -1.2 0
-8.914 -4.229 16.417 -0 -1.2 0
-9.808 -4.922 18.115 -0 -1.2 0
-10.677 -5.677 19.772 -0 -1.2 0
-10.054 -5.802 18.627 -0 -1.2 0
-9.574 -5.955 17.749 -0 -1.2 0
-8.879 -6.314 16.483 -0 -1.2 0
-10.538 -7.724 19.643 -0 -1.2 0
-10.266 -7.977 19.157 -0 -1.2 0
-9.779 -8.898 18.314 -0 -1.2 0
-0.564 -0.035 0.801 -0 -1.2 0
-0.586 -0.029 0.844 -0 -1.2 0
-0.601 -0.037 0.874 -0 -1.2 0
-0.616 -0.046 0.904 -0 -1.2 0
-0.638 -0.043 0.948 -0 -1.2 0
-0.657 -0.047 0.986 -0 -1.2 0
-0.679 -0.047 1.031 -0 -1.2 0
-0.698 -0.055 1.069 -0 -1.2 0
-0.72 -0.057 1.114 -0 -1.2 0
-0.744 -0.061 1.16 -0 -1.2 0
-0.77 -0.062 1.213 -0 -1.2 0
-0.797 -0.063 1.267 -0 -1.2 0
-0.825 -0.068 1.322 -0 -1.2 0
-0.856 -0.069 1.384 -0 -1.2 0
-0.883 -0.076 1.439 -0 -1.2 0
-0.915 -0.081 1.502 -0 -1.2 0
-0.951 -0.084 1.574 -0 -1.2 0
-0.991 -0.084 1.654 -0 -1.2 0
-1.031 -0.087 1.734 -0 -1.2 0
-1.076 -0.09 1.823 -0 -1.2 0
-1.12 -0.095 1.913 -0 -1.2 0
-1.16 -0.108 1.994 -0 -1.2 0
-1.215 -0.112 2.102 -0 -1.2 0
-1.276 -0.114 2.226 -0 -1.2 0
-1.34 -0.121 2.351 -0 -1.2 0
-1.402 -0.131 2.477 -0 -1.2 0
-1.478 -0.138 2.628 -0 -1.2 0
-1.553 -0.151 2.781 -0 -1.2 0
-1.634 -0.167 2.942 -0 -1.2 0
-1.737 -0.177 3.147 -0 -1.2 0
-1.848 -0.191 3.37 -0 -1.2 0
-1.978 -0.205 3.63 -0 -1.2 0
-2.134 -0.217 3.942 -0 -1.2 0
-2.299 -0.238 4.272 -0 -1.2 0
-2.491 -0.263 4.656 -0 -1.2 0
-2.705 -0.296 5.085 -0 -1.2 0
-2.995 -0.326 5.665 -0 -1.2 0
-3.348 -0.364 6.371 -0 -1.2 0
-3.758 -0.42 7.193 -0 -1.2 0
-4.343 -0.483 8.363 -0 -1.2 0
-5.228 -0.559 10.131 -0 -1.2 0
-6.595 -0.675 12.864 -0 -1.2 0
-9.445 -0.86 18.555 -0 -1.2 0
-8.229 -3.476 16.32 -0 -1.2 0
-8.196 -3.797 16.276 -0 -1.2 0
-8.457 -4.226 16.828 -0 -1.2 0
-8.562 -4.615 17.063 -0 -1.2 0
-8.488 -4.935 16.94 -0 -1.2 0
-8.538 -5.313 17.067 -0 -1.2 0
-8.653 -6.101 17.351 -0 -1.2 0
-8.442 -6.341 16.947 -0 -1.2 0
-8.415 -6.691 16.918 -0 -1.2 0
-8.57 -7.171 17.262 -0 -1.2 0
-9.41 -8.615 19.038 -0 -1.2 0
-9.539 -9.159 19.336 -0 -1.2 0
-9.548 -10.064 19.416 -0 -1.2 0
-0.527 -0.041 0.827 -0 -1.2 0
-0.547 -0.035 0.87 -0 -1.2 0
-0.565 -0.037 0.907 -0 -1.2 0
-0.579 -0.045 0.938 -0 -1.2 0
-0.596 -0.049 0.976 -0 -1.2 0
-0.613 -0.053 1.013 -0 -1.2 0
-0.638 -0.046 1.066 -0 -1.2 0
-0.656 -0.054 1.105 -0 -1.2 0
-0.677 -0.056 1.151 -0 -1.2 0
-0.699 -0.06 1.197 -0 -1.2 0
-0.723 -0.061 1.251 -0 -1.2 0
-0.749 -0.062 1.307 -0 -1.2 0
-0.771 -0.071 1.354 -0 -1.2 0
-0.8 -0.072 1.417 -0 -1.2 0
-0.833 -0.069 1.489 -0 -1.2 0
-0.859 -0.08 1.544 -0 -1.2 0
-0.896 -0.077 1.625 -0 -1.2 0
-0.926 -0.086 1.69 -0 -1.2 0
-0.968 -0.085 1.78 -0 -1.2 0
-1.01 -0.088 1.871 -0 -1.2 0
-1.052 -0.093 1.961 -0 -1.2 0
-1.095 -0.101 2.053 -0 -1.2 0
-1.141 -0.109 2.153 -0 -1.2 0
-1.196 -0.115 2.271 -0 -1.2 0
-1.258 -0.117 2.406 -0 -1.2 0
-1.321 -0.125 2.542 -0 -1.2 0
-1.388 -0.135 2.688 -0 -1.2 0
-1.456 -0.15 2.834 -0 -1.2 0
-1.535 -0.163 3.006 -0 -1.2 0
-1.635 -0.17 3.223 -0 -1.2 0
-1.736 -0.186 3.441 -0 -1.2 0
-1.858 -0.2 3.704 -0 -1.2 0
-2 -0.213 4.011 -0 -1.2 0
-2.155 -0.234 4.347 -0 -1.2 0
-2.331 -0.26 4.728 -0 -1.2 0
-2.541 -0.288 5.18 -0 -1.2 0
-2.792 -0.323 5.725 -0 -1.2 0
-3.139 -0.356 6.476 -0 -1.2 0
-3.559 -0.403 7.382 -0 -1.2 0
-4.087 -0.469 8.524 -0 -1.2 0
-4.893 -0.546 10.264 -0 -1.2 0
-6.046 -0.666 12.756 -0 -1.2 0
-8.423 -0.845 17.887 -0 -1.2 0
-8.602 -4.463 18.563 -0 -1.2 0
-8.568 -4.824 18.521 -0 -1.2 0
-8.19 -5.02 17.723 -0 -1.2 0
-8.033 -5.301 17.406 -0 -1.2 0
-8.767 -6.478 19.08 -0 -1.2 0
-8.121 -6.453 17.688 -0 -1.2 0
-7.884 -6.664 17.195 -0 -1.2 0
-8.702 -8.919 19.137 -0 -1.2 0
-8.628 -9.284 19.006 -0 -1.2 0
-0.497 -0.025 0.873 -0 -1.2 0
-0.51 -0.033 0.904 -0 -1.2 0
-0.526 -0.034 0.941 -0 -1.2 0
-0.542 -0.036 0.979 -0 -1.2 0
-0.558 -0.039 1.017 -0 -1.2 0
-0.574 -0.044 1.056 -0 -1.2 0
-0.595 -0.044 1.102 -0 -1.2 0
-0.607 -0.057 1.134 -0 -1.2 0
-0.631 -0.054 1.188 -0 -1.2 0
-0.651 -0.057 1.235 -0 -1.2 0
-0.674 -0.058 1.29 -0 -1.2 0
-0.698 -0.059 1.346 -0 -1.2 0
-0.722 -0.063 1.402 -0 -1.2 0
-0.748 -0.064 1.466 -0 -1.2 0
-0.773 -0.071 1.522 -0 -1.2 0
-0.804 -0.071 1.595 -0 -1.2 0
-0.831 -0.078 1.661 -0 -1.2 0
-0.867 -0.079 1.743 -0 -1.2 0
-0.899 -0.086 1.818 -0 -1.2 0
-0.942 -0.084 1.918 -0 -1.2 0
-0.98 -0.089 2.01 -0 -1.2 0
-1.02 -0.096 2.103 -0 -1.2 0
-1.066 -0.101 2.213 -0 -1.2 0
-1.121 -0.103 2.341 -0 -1.2 0
-1.176 -0.109 2.469 -0 -1.2 0
-1.234 -0.116 2.608 -0 -1.2 0
-1.297 -0.126 2.755 -0 -1.2 0
-1.356 -0.144 2.894 -0 -1.2 0
-1.435 -0.154 3.078 -0 -1.2 0
-1.528 -0.162 3.298 -0 -1.2 0
-1.621 -0.177 3.519 -0 -1.2 0
-1.731 -0.192 3.777 -0 -1.2 0
-1.876 -0.2 4.116 -0 -1.2 0
-2.009 -0.225 4.428 -0 -1.2 0
-2.18 -0.246 4.833 -0 -1.2 0
-2.379 -0.274 5.301 -0 -1.2 0
-2.63 -0.303 5.89 -0 -1.2 0
-2.942 -0.339 6.624 -0 -1.2 0
-3.345 -0.382 7.571 -0 -1.2 0
-3.841 -0.445 8.739 -0 -1.2 0
-4.611 -0.519 10.549 -0 -1.2 0
-5.706 -0.634 13.122 -0 -1.2 0
-6.865 -0.844 15.852 -0 -1.2 0
-6.848 -1.148 15.839 -0 -1.2 0
-7.544 -3.532 17.681 -0 -1.2 0
-7.662 -3.924 17.99 -0 -1.2 0
-8.085 -4.457 19.029 -0 -1.2 0
-9.531 -5.506 22.507 -0 -1.2 0
-7.378 -4.857 17.408 -0 -1.2 0
-7.74 -5.413 18.306 -0 -1.2 0
-7.803 -5.826 18.49 -0 -1.2 0
-7.607 -6.455 18.087 -0 -1.2 0
-8.033 -7.566 19.184 -0 -1.2 0
-0.463 -0.024 0.903 -0 -1.2 0
-0.475 -0.031 0.933 -0 -1.2 0
-0.49 -0.032 0.972 -0 -1.2 0
-0.505 -0.034 1.01 -0 -1.2 0
-0.52 -0.037 1.05 -0 -1.2 0
-0.536 -0.042 1.088 -0 -1.2 0
-0.556 -0.036 1.143 -0 -1.2 0
-0.566 -0.055 1.167 -0 -1.2 0
-0.588 -0.051 1.222 -0 -1.2 0
-0.609 -0.049 1.277 -0 -1.2 0
-0.628 -0.055 1.325 -0 -1.2 0
-0.649 -0.056 1.381 -0 -1.2 0
-0.672 -0.06 1.437 -0 -1.2 0
-0.697 -0.061 1.503 -0 -1.2 0
-0.723 -0.063 1.568 -0 -1.2 0
-0.749 -0.068 1.633 -0 -1.2 0
-0.778 -0.07 1.708 -0 -1.2 0
-0.811 -0.07 1.792 -0 -1.2 0
-0.837 -0.082 1.859 -0 -1.2 0
-0.877 -0.08 1.96 -0 -1.2 0
-0.913 -0.084 2.053 -0 -1.2 0
-0.953 -0.088 2.155 -0 -1.2 0
-0.993 -0.096 2.258 -0 -1.2 0
-1.044 -0.099 2.388 -0 -1.2 0
-1.095 -0.104 2.519 -0 -1.2 0
-1.15 -0.111 2.659 -0 -1.2 0
-1.212 -0.118 2.816 -0 -1.2 0
-1.266 -0.136 2.958 -0 -1.2 0
-1.34 -0.146 3.143 -0 -1.2 0
-1.427 -0.153 3.366 -0 -1.2 0
-1.522 -0.163 3.608 -0 -1.2 0
-1.62 -0.18 3.859 -0 -1.2 0
-1.747 -0.192 4.184 -0 -1.2 0
-1.885 -0.209 4.537 -0 -1.2 0
-2.046 -0.232 4.946 -0 -1.2 0
-2.235 -0.256 5.43 -0 -1.2 0
-2.46 -0.289 6.007 -0 -1.2 0
-2.763 -0.32 6.778 -0 -1.2 0
-3.146 -0.361 7.755 -0 -1.2 0
-3.626 -0.42 8.982 -0 -1.2 0
-4.373 -0.488 10.889 -0 -1.2 0
-5.371 -0.604 13.438 -0 -1.2 0
-6.34 -0.816 15.922 -0 -1.2 0
-6.332 -1.117 15.928 -0 -1.2 0
-7.047 -3.16 17.946 -0 -1.2 0
-7.205 -3.919 18.42 -0 -1.2 0
-7.773 -4.531 19.923 -0 -1.2 0
-0.428 -0.022 0.932 -0 -1.2 0
-0.439 -0.029 0.963 -0 -1.2 0
-0.452 -0.03 1.002 -0 -1.2 0
-0.466 -0.032 1.041 -0 -1.2 0
-0.483 -0.029 1.087 -0 -1.2 0
-0.494 -0.039 1.119 -0 -1.2 0
-0.508 -0.045 1.159 -0 -1.2 0
-0.528 -0.04 1.214 -0 -1.2 0
-0.546 -0.043 1.262 -0 -1.2 0
-0.563 -0.046 1.31 -0 -1.2 0
-0.574 -0.063 1.343 -0 -1.2 0
-0.6 -0.053 1.415 -0 -1.2 0
-0.624 -0.052 1.48 -0 -1.2 0
-0.642 -0.063 1.53 -0 -1.2 0
-0.665 -0.065 1.596 -0 -1.2 0
-0.689 -0.069 1.662 -0 -1.2 0
-0.716 -0.071 1.738 -0 -1.2 0
-0.743 -0.075 1.814 -0 -1.2 0
-0.773 -0.078 1.898 -0 -1.2 0
-0.813 -0.071 2.01 -0 -1.2 0
-0.844 -0.08 2.095 -0 -1.2 0
-0.881 -0.084 2.199 -0 -1.2 0
-0.915 -0.096 2.294 -0 -1.2 0
-0.963 -0.096 2.425 -0 -1.2 0
-1.007 -0.106 2.548 -0 -1.2 0
-1.063 -0.106 2.707 -0 -1.2 0
-1.118 -0.115 2.857 -0 -1.2 0
-1.175 -0.127 3.018 -0 -1.2 0
-1.246 -0.135 3.215 -0 -1.2 0
-1.32 -0.146 3.422 -0 -1.2 0
-1.411 -0.154 3.675 -0 -1.2 0
-1.506 -0.168 3.939 -0 -1.2 0
-1.617 -0.184 4.249 -0 -1.2 0
-1.741 -0.202 4.597 -0 -1.2 0
-1.896 -0.22 5.029 -0 -1.2 0
-2.072 -0.245 5.519 -0 -1.2 0
-2.28 -0.276 6.102 -0 -1.2 0
-2.557 -0.307 6.872 -0 -1.2 0
-2.911 -0.346 7.859 -0 -1.2 0
-3.383 -0.398 9.175 -0 -1.2 0
-4.065 -0.465 11.074 -0 -1.2 0
-4.772 -0.599 13.05 -0 -1.2 0
-4.704 -0.847 12.89 -0 -1.2 0
-4.618 -1.089 12.678 -0 -1.2 0
-4.549 -1.323 12.51 -0 -1.2 0
-4.485 -1.551 12.357 -0 -1.2 0
-4.44 -1.778 12.256 -0 -1.2 0
-4.806 -2.085 13.308 -0 -1.2 0
-0.388 -0.027 0.955 -0 -1.2 0
-0.398 -0.034 0.986 -0 -1.2 0
-0.41 -0.035 1.025 -0 -1.2 0
-0.423 -0.037 1.064 -0 -1.2 0
-0.436 -0.04 1.104 -0 -1.2 0
-0.452 -0.038 1.15 -0 -1.2 0
-0.467 -0.038 1.198 -0 -1.2 0
-0.483 -0.038 1.247 -0 -1.2 0
-0.498 -0.041 1.295 -0 -1.2 0
-0.512 -0.05 1.336 -0 -1.2 0
-0.529 -0.05 1.393 -0 -1.2 0
-0.546 -0.057 1.442 -0 -1.2 0
-0.567 -0.055 1.508 -0 -1.2 0
-0.586 -0.06 1.566 -0 -1.2 0
-0.607 -0.063 1.633 -0 -1.2 0
-0.632 -0.062 1.708 -0 -1.2 0
-0.654 -0.068 1.776 -0 -1.2 0
-0.678 -0.072 1.853 -0 -1.2 0
-0.706 -0.075 1.938 -0 -1.2 0
-0.74 -0.073 2.042 -0 -1.2 0
-0.768 -0.081 2.128 -0 -1.2 0
-0.798 -0.089 2.224 -0 -1.2 0
-0.836 -0.092 2.338 -0 -1.2 0
-0.879 -0.092 2.47 -0 -1.2 0
-0.919 -0.102 2.595 -0 -1.2 0
-0.971 -0.101 2.755 -0 -1.2 0
-1.02 -0.11 2.908 -0 -1.2 0
-1.069 -0.125 3.061 -0 -1.2 0
-1.131 -0.134 3.251 -0 -1.2 0
-1.202 -0.143 3.469 -0 -1.2 0
-1.279 -0.154 3.707 -0 -1.2 0
-1.365 -0.168 3.973 -0 -1.2 0
-1.473 -0.178 4.306 -0 -1.2 0
-1.58 -0.199 4.638 -0 -1.2 0
-1.718 -0.217 5.065 -0 -1.2 0
-1.881 -0.239 5.569 -0 -1.2 0
-2.076 -0.267 6.168 -0 -1.2 0
-2.334 -0.294 6.966 -0 -1.2 0
-2.642 -0.336 7.916 -0 -1.2 0
-3.073 -0.384 9.246 -0 -1.2 0
-3.667 -0.451 11.08 -0 -1.2 0
-4.367 -0.572 13.248 -0 -1.2 0
-4.302 -0.821 13.077 -0 -1.2 0
-4.242 -1.064 12.921 -0 -1.2 0
-4.187 -1.301 12.779 -0 -1.2 0
-4.127 -1.531 12.624 -0 -1.2 0
-4.054 -1.754 12.428 -0 -1.2 0
-4.384 -2.06 13.481 -0 -1.2 0
-0.352 -0.025 0.982 -0 -1.2 0
-0.363 -0.025 1.02 -0 -1.2 0
-0.373 -0.032 1.052 -0 -1.2 0
-0.384 -0.035 1.092 -0 -1.2 0
-0.395 -0.038 1.132 -0 -1.2 0
-0.408 -0.042 1.173 -0 -1.2 0
-0.424 -0.035 1.228 -0 -1.2 0
-0.435 -0.042 1.269 -0 -1.2 0
-0.45 -0.044 1.317 -0 -1.2 0
-0.464 -0.048 1.367 -0 -1.2 0
-0.481 -0.047 1.424 -0 -1.2 0
-0.495 -0.054 1.474 -0 -1.2 0
-0.513 -0.057 1.532 -0 -1.2 0
-0.532 -0.057 1.599 -0 -1.2 0
-0.552 -0.059 1.666 -0 -1.2 0
-0.569 -0.068 1.726 -0 -1.2 0
-0.591 -0.07 1.802 -0 -1.2 0
-0.614 -0.073 1.88 -0 -1.2 0
-0.642 -0.071 1.974 -0 -1.2 0
-0.672 -0.069 2.078 -0 -1.2 0
-0.697 -0.076 2.166 -0 -1.2 0
-0.728 -0.08 2.271 -0 -1.2 0
-0.76 -0.087 2.378 -0 -1.2 0
-0.796 -0.091 2.502 -0 -1.2 0
-0.835 -0.097 2.636 -0 -1.2 0
-0.883 -0.096 2.798 -0 -1.2 0
-0.925 -0.108 2.943 -0 -1.2 0
-0.97 -0.121 3.098 -0 -1.2 0
-1.025 -0.13 3.29 -0 -1.2 0
-1.087 -0.14 3.5 -0 -1.2 0
-1.158 -0.151 3.74 -0 -1.2 0
-1.235 -0.164 4.009 -0 -1.2 0
-1.333 -0.173 4.344 -0 -1.2 0
-1.437 -0.19 4.699 -0 -1.2 0
-1.56 -0.209 5.121 -0 -1.2 0
-1.703 -0.233 5.609 -0 -1.2 0
-1.876 -0.26 6.204 -0 -1.2 0
-2.106 -0.287 6.99 -0 -1.2 0
-2.38 -0.328 7.929 -0 -1.2 0
-2.779 -0.37 9.291 -0 -1.2 0
-3.289 -0.44 11.036 -0 -1.2 0
-3.986 -0.546 13.424 -0 -1.2 0
-3.931 -0.796 13.271 -0 -1.2 0
-3.872 -1.039 13.104 -0 -1.2 0
-3.818 -1.277 12.952 -0 -1.2 0
-3.763 -1.509 12.795 -0 -1.2 0
-3.699 -1.734 12.607 -0 -1.2 0
-3.98 -2.034 13.603 -0 -1.2 0
-0.315 -0.03 1 -0 -1.2 0
-0.328 -0.023 1.046 -0 -1.2 0
-0.336 -0.03 1.079 -0 -1.2 0
-0.344 -0.039 1.111 -0 -1.2 0
-0.356 -0.036 1.159 -0 -1.2 0
-0.37 -0.033 1.207 -0 -1.2 0
-0.38 -0.038 1.248 -0 -1.2 0
-0.389 -0.051 1.281 -0 -1.2 0
-0.406 -0.041 1.346 -0 -1.2 0
-0.418 -0.045 1.395 -0 -1.2 0
-0.429 -0.055 1.437 -0 -1.2 0
-0.446 -0.051 1.503 -0 -1.2 0
-0.462 -0.054 1.562 -0 -1.2 0
-0.477 -0.059 1.621 -0 -1.2 0
-0.495 -0.061 1.689 -0 -1.2 0
-0.513 -0.065 1.757 -0 -1.2 0
-0.534 -0.066 1.835 -0 -1.2 0
-0.554 -0.07 1.913 -0 -1.2 0
-0.576 -0.071 1.999 -0 -1.2 0
-0.604 -0.068 2.104 -0 -1.2 0
-0.629 -0.072 2.201 -0 -1.2 0
-0.655 -0.08 2.298 -0 -1.2 0
-0.685 -0.083 2.414 -0 -1.2 0
-0.718 -0.087 2.54 -0 -1.2 0
-0.751 -0.094 2.666 -0 -1.2 0
-0.789 -0.101 2.812 -0 -1.2 0
-0.832 -0.106 2.975 -0 -1.2 0
-0.875 -0.116 3.14 -0 -1.2 0
-0.923 -0.126 3.324 -0 -1.2 0
-0.975 -0.139 3.527 -0 -1.2 0
-1.042 -0.147 3.778 -0 -1.2 0
-1.112 -0.159 4.049 -0 -1.2 0
-1.195 -0.171 4.368 -0 -1.2 0
-1.291 -0.185 4.735 -0 -1.2 0
-1.403 -0.203 5.16 -0 -1.2 0
-1.529 -0.226 5.643 -0 -1.2 0
-1.68 -0.255 6.223 -0 -1.2 0
-1.882 -0.282 6.996 -0 -1.2 0
-2.138 -0.317 7.972 -0 -1.2 0
-2.477 -0.363 9.267 -0 -1.2 0
-2.955 -0.422 11.094 -0 -1.2 0
-3.61 -0.52 13.597 -0 -1.2 0
-3.57 -0.769 13.482 -0 -1.2 0
-3.515 -1.015 13.313 -0 -1.2 0
-3.458 -1.254 13.131 -0 -1.2 0
-3.41 -1.487 12.983 -0 -1.2 0
-3.349 -1.713 12.783 -0 -1.2 0
-3.611 -2.015 13.826 -0 -1.2 0
-0.277 -0.028 1.027 -0 -1.2 0
-0.287 -0.028 1.066 -0 -1.2 0
-0.294 -0.035 1.099 -0 -1.2 0
-0.305 -0.03 1.147 -0 -1.2 0
-0.314 -0.033 1.187 -0 -1.2 0
-0.322 -0.043 1.22 -0 -1.2 0
-0.334 -0.036 1.276 -0 -1.2 0
-0.346 -0.037 1.325 -0 -1.2 0
-0.358 -0.039 1.375 -0 -1.2 0
-0.369 -0.042 1.424 -0 -1.2 0
-0.38 -0.047 1.475 -0 -1.2 0
-0.394 -0.048 1.533 -0 -1.2 0
-0.408 -0.051 1.593 -0 -1.2 0
-0.421 -0.055 1.652 -0 -1.2 0
-0.435 -0.062 1.712 -0 -1.2 0
-0.453 -0.061 1.79 -0 -1.2 0
-0.47 -0.062 1.867 -0 -1.2 0
-0.488 -0.066 1.946 -0 -1.2 0
-0.508 -0.067 2.034 -0 -1.2 0
-0.531 -0.068 2.13 -0 -1.2 0
-0.554 -0.072 2.228 -0 -1.2 0
-0.578 -0.076 2.335 -0 -1.2 0
-0.603 -0.082 2.442 -0 -1.2 0
-0.634 -0.081 2.578 -0 -1.2 0
-0.66 -0.093 2.696 -0 -1.2 0
-0.697 -0.095 2.851 -0 -1.2 0
-0.732 -0.102 3.007 -0 -1.2 0
-0.77 -0.112 3.173 -0 -1.2 0
-0.808 -0.128 3.34 -0 -1.2 0
-0.861 -0.132 3.573 -0 -1.2 0
-0.918 -0.141 3.817 -0 -1.2 0
-0.976 -0.157 4.07 -0 -1.2 0
-1.054 -0.164 4.41 -0 -1.2 0
-1.136 -0.18 4.77 -0 -1.2 0
-1.232 -0.198 5.189 -0 -1.2 0
-1.346 -0.219 5.685 -0 -1.2 0
-1.48 -0.245 6.27 -0 -1.2 0
-1.656 -0.272 7.038 -0 -1.2 0
-1.871 -0.309 7.974 -0 -1.2 0
-2.179 -0.347 9.317 -0 -1.2 0
-2.609 -0.401 11.186 -0 -1.2 0
-3.254 -0.481 13.991 -0 -1.2 0
-0.243 -0.027 1.051 -0 -1.2 0
-0.251 -0.027 1.09 -0 -1.2 0
-0.258 -0.034 1.123 -0 -1.2 0
-0.264 -0.043 1.156 -0 -1.2 0
-0.274 -0.038 1.205 -0 -1.2 0
-0.281 -0.042 1.246 -0 -1.2 0
-0.293 -0.035 1.302 -0 -1.2 0
-0.3 -0.047 1.336 -0 -1.2 0
-0.312 -0.043 1.394 -0 -1.2 0
-0.321 -0.046 1.444 -0 -1.2 0
-0.332 -0.051 1.494 -0 -1.2 0
-0.345 -0.046 1.562 -0 -1.2 0
-0.355 -0.055 1.613 -0 -1.2 0
-0.367 -0.058 1.672 -0 -1.2 0
-0.382 -0.055 1.75 -0 -1.2 0
-0.396 -0.059 1.819 -0 -1.2 0
-0.41 -0.064 1.888 -0 -1.2 0
-0.424 -0.072 1.959 -0 -1.2 0
-0.444 -0.069 2.055 -0 -1.2 0
-0.46 -0.077 2.134 -0 -1.2 0
-0.483 -0.073 2.251 -0 -1.2 0
-0.502 -0.08 2.35 -0 -1.2 0
-0.526 -0.082 2.466 -0 -1.2 0
-0.549 -0.088 2.585 -0 -1.2 0
-0.574 -0.095 2.712 -0 -1.2 0
-0.608 -0.094 2.877 -0 -1.2 0
-0.639 -0.101 3.035 -0 -1.2 0
-0.671 -0.113 3.193 -0 -1.2 0
-0.706 -0.126 3.37 -0 -1.2 0
-0.745 -0.139 3.566 -0 -1.2 0
-0.796 -0.145 3.82 -0 -1.2 0
-0.848 -0.157 4.084 -0 -1.2 0
-0.913 -0.168 4.408 -0 -1.2 0
-0.983 -0.183 4.761 -0 -1.2 0
-1.069 -0.197 5.191 -0 -1.2 0
-1.163 -0.222 5.661 -0 -1.2 0
-1.279 -0.247 6.239 -0 -1.2 0
-1.434 -0.27 7.013 -0 -1.2 0
-1.607 -0.312 7.885 -0 -1.2 0
-1.878 -0.344 9.236 -0 -1.2 0
-2.225 -0.401 10.97 -0 -1.2 0
-2.739 -0.483 13.537 -0 -1.2 0
-4.279 -0.893 21.277 -0 -1.2 0
-0.208 -0.025 1.074 -0 -1.2 0
-0.213 -0.032 1.107 -0 -1.2 0
-0.221 -0.032 1.147 -0 -1.2 0
-0.228 -0.034 1.187 -0 -1.2 0
-0.235 -0.036 1.228 -0 -1.2 0
-0.242 -0.04 1.27 -0 -1.2 0
-0.25 -0.039 1.319 -0 -1.2 0
-0.259 -0.039 1.368 -0 -1.2 0
-0.265 -0.046 1.41 -0 -1.2 0
-0.274 -0.049 1.46 -0 -1.2 0
-0.284 -0.048 1.519 -0 -1.2 0
-0.294 -0.049 1.579 -0 -1.2 0
-0.302 -0.057 1.63 -0 -1.2 0
-0.313 -0.061 1.69 -0 -1.2 0
-0.326 -0.057 1.767 -0 -1.2 0
-0.337 -0.065 1.828 -0 -1.2 0
-0.348 -0.07 1.898 -0 -1.2 0
-0.363 -0.068 1.986 -0 -1.2 0
-0.376 -0.074 2.065 -0 -1.2 0
-0.393 -0.073 2.164 -0 -1.2 0
-0.41 -0.077 2.262 -0 -1.2 0
-0.429 -0.079 2.369 -0 -1.2 0
-0.445 -0.089 2.47 -0 -1.2 0
-0.467 -0.091 2.597 -0 -1.2 0
-0.491 -0.094 2.735 -0 -1.2 0
-0.516 -0.098 2.882 -0 -1.2 0
-0.543 -0.105 3.04 -0 -1.2 0
-0.571 -0.114 3.207 -0 -1.2 0
-0.598 -0.131 3.367 -0 -1.2 0
-0.632 -0.142 3.564 -0 -1.2 0
-0.672 -0.152 3.8 -0 -1.2 0
-0.721 -0.159 4.085 -0 -1.2 0
-0.773 -0.171 4.39 -0 -1.2 0
-0.833 -0.185 4.745 -0 -1.2 0
-0.903 -0.202 5.158 -0 -1.2 0
-0.987 -0.22 5.65 -0 -1.2 0
-1.084 -0.245 6.221 -0 -1.2 0
-1.207 -0.273 6.94 -0 -1.2 0
-1.357 -0.308 7.826 -0 -1.2 0
-1.587 -0.339 9.164 -0 -1.2 0
-1.862 -0.399 10.78 -0 -1.2 0
-2.268 -0.48 13.164 -0 -1.2 0
-3.013 -0.587 17.517 -0 -1.2 0
-3.02 -0.897 17.634 -0 -1.2 0
-3.003 -1.209 17.617 -0 -1.2 0
-3.539 -1.598 20.827 -0 -1.2 0
-0.17 -0.031 1.091 -0 -1.2 0
-0.174 -0.036 1.124 -0 -1.2 0
-0.18 -0.036 1.164 -0 -1.2 0
-0.185 -0.038 1.204 -0 -1.2 0
-0.193 -0.033 1.253 -0 -1.2 0
-0.198 -0.037 1.294 -0 -1.2 0
-0.204 -0.042 1.336 -0 -1.2 0
-0.211 -0.042 1.385 -0 -1.2 0
-0.217 -0.043 1.435 -0 -1.2 0
-0.224 -0.046 1.486 -0 -1.2 0
-0.233 -0.045 1.546 -0 -1.2 0
-0.24 -0.051 1.597 -0 -1.2 0
-0.25 -0.048 1.665 -0 -1.2 0
-0.258 -0.052 1.725 -0 -1.2 0
-0.267 -0.058 1.786 -0 -1.2 0
-0.274 -0.066 1.847 -0 -1.2 0
-0.286 -0.066 1.926 -0 -1.2 0
-0.297 -0.069 2.006 -0 -1.2 0
-0.309 -0.07 2.094 -0 -1.2 0
-0.321 -0.074 2.184 -0 -1.2 0
-0.337 -0.072 2.291 -0 -1.2 0
-0.351 -0.078 2.391 -0 -1.2 0
-0.366 -0.084 2.501 -0 -1.2 0
-0.382 -0.089 2.619 -0 -1.2 0
-0.402 -0.091 2.757 -0 -1.2 0
-0.424 -0.092 2.915 -0 -1.2 0
-0.447 -0.096 3.083 -0 -1.2 0
-0.468 -0.11 3.232 -0 -1.2 0
-0.492 -0.121 3.411 -0 -1.2 0
-0.517 -0.138 3.59 -0 -1.2 0
-0.55 -0.147 3.827 -0 -1.2 0
-0.59 -0.152 4.114 -0 -1.2 0
-0.631 -0.167 4.411 -0 -1.2 0
-0.682 -0.178 4.776 -0 -1.2 0
-0.74 -0.192 5.191 -0 -1.2 0
-0.809 -0.21 5.687 -0 -1.2 0
-0.888 -0.234 6.26 -0 -1.2 0
-0.989 -0.26 6.982 -0 -1.2 0
-1.122 -0.287 7.931 -0 -1.2 0
-1.296 -0.324 9.178 -0 -1.2 0
-1.513 -0.383 10.742 -0 -1.2 0
-1.834 -0.462 13.048 -0 -1.2 0
-2.509 -0.544 17.858 -0 -1.2 0
-2.515 -0.857 18.004 -0 -1.2 0
-2.936 -1.188 21.098 -0 -1.2 0
-2.924 -1.56 21.134 -0 -1.2 0
-0.134 -0.03 1.111 -0 -1.2 0
-0.139 -0.028 1.151 -0 -1.2 0
-0.143 -0.028 1.192 -0 -1.2 0
-0.148 -0.037 1.225 -0 -1.2 0
-0.153 -0.032 1.274 -0 -1.2 0
-0.157 -0.036 1.315 -0 -1.2 0
-0.162 -0.041 1.357 -0 -1.2 0
-0.167 -0.041 1.407 -0 -1.2 0
-0.173 -0.042 1.457 -0 -1.2 0
-0.179 -0.045 1.508 -0 -1.2 0
-0.184 -0.049 1.559 -0 -1.2 0
-0.191 -0.049 1.619 -0 -1.2 0
-0.197 -0.051 1.679 -0 -1.2 0
-0.205 -0.049 1.748 -0 -1.2 0
-0.211 -0.06 1.801 -0 -1.2 0
-0.218 -0.064 1.871 -0 -1.2 0
-0.227 -0.063 1.95 -0 -1.2 0
-0.236 -0.066 2.029 -0 -1.2 0
-0.246 -0.067 2.118 -0 -1.2 0
-0.256 -0.071 2.208 -0 -1.2 0
-0.268 -0.069 2.317 -0 -1.2 0
-0.28 -0.071 2.426 -0 -1.2 0
-0.292 -0.076 2.535 -0 -1.2 0
-0.305 -0.081 2.655 -0 -1.2 0
-0.32 -0.087 2.784 -0 -1.2 0
-0.336 -0.091 2.933 -0 -1.2 0
-0.355 -0.093 3.102 -0 -1.2 0
-0.371 -0.107 3.252 -0 -1.2 0
-0.389 -0.121 3.421 -0 -1.2 0
-0.411 -0.132 3.62 -0 -1.2 0
-0.439 -0.138 3.868 -0 -1.2 0
-0.47 -0.145 4.146 -0 -1.2 0
-0.502 -0.159 4.443 -0 -1.2 0
-0.543 -0.17 4.81 -0 -1.2 0
-0.587 -0.186 5.208 -0 -1.2 0
-0.639 -0.206 5.684 -0 -1.2 0
-0.705 -0.225 6.28 -0 -1.2 0
-0.79 -0.243 7.054 -0 -1.2 0
-0.89 -0.275 7.957 -0 -1.2 0
-1.024 -0.313 9.159 -0 -1.2 0
-1.203 -0.364 10.788 -0 -1.2 0
-1.448 -0.442 13.003 -0 -1.2 0
-2.721 -0.726 24.475 -0 -1.2 0
-2.686 -1.155 24.341 -0 -1.2 0
-0.101 -0.02 1.139 -0 -1.2 0
-0.104 -0.019 1.18 -0 -1.2 0
-0.107 -0.026 1.213 -0 -1.2 0
-0.109 -0.034 1.247 -0 -1.2 0
-0.114 -0.029 1.296 -0 -1.2 0
-0.116 -0.033 1.337 -0 -1.2 0
-0.12 -0.038 1.379 -0 -1.2 0
-0.125 -0.032 1.437 -0 -1.2 0
-0.128 -0.044 1.472 -0 -1.2 0
-0.132 -0.041 1.53 -0 -1.2 0
-0.136 -0.045 1.582 -0 -1.2 0
-0.142 -0.046 1.641 -0 -1.2 0
-0.146 -0.048 1.702 -0 -1.2 0
-0.152 -0.052 1.762 -0 -1.2 0
-0.157 -0.052 1.832 -0 -1.2 0
-0.163 -0.055 1.902 -0 -1.2 0
-0.167 -0.064 1.964 -0 -1.2 0
-0.177 -0.057 2.061 -0 -1.2 0
-0.183 -0.062 2.142 -0 -1.2 0
-0.19 -0.066 2.232 -0 -1.2 0
-0.198 -0.068 2.331 -0 -1.2 0
-0.208 -0.07 2.44 -0 -1.2 0
-0.216 -0.075 2.55 -0 -1.2 0
-0.226 -0.08 2.67 -0 -1.2 0
-0.238 -0.081 2.809 -0 -1.2 0
-0.25 -0.085 2.959 -0 -1.2 0
-0.262 -0.09 3.118 -0 -1.2 0
-0.275 -0.101 3.278 -0 -1.2 0
-0.289 -0.114 3.449 -0 -1.2 0
-0.304 -0.127 3.638 -0 -1.2 0
-0.324 -0.134 3.877 -0 -1.2 0
-0.349 -0.137 4.175 -0 -1.2 0
-0.372 -0.152 4.464 -0 -1.2 0
-0.399 -0.167 4.802 -0 -1.2 0
-0.435 -0.178 5.23 -0 -1.2 0
-0.475 -0.194 5.718 -0 -1.2 0
-0.522 -0.215 6.295 -0 -1.2 0
-0.584 -0.233 7.051 -0 -1.2 0
-0.657 -0.264 7.948 -0 -1.2 0
-0.755 -0.3 9.132 -0 -1.2 0
-0.878 -0.356 10.646 -0 -1.2 0
-1.057 -0.428 12.827 -0 -1.2 0
-1.855 -0.71 22.539 -0 -1.2 0
-1.826 -1.104 22.434 -0 -1.2 0
-1.837 -1.502 22.791 -0 -1.2 0
-0.063 -0.017 1.16 -0 -1.2 0
-0.065 -0.024 1.192 -0 -1.2 0
-0.068 -0.016 1.241 -0 -1.2 0
-0.068 -0.032 1.266 -0 -1.2 0
-0.071 -0.026 1.315 -0 -1.2 0
-0.073 -0.03 1.357 -0 -1.2 0
-0.075 -0.035 1.399 -0 -1.2 0
-0.078 -0.029 1.458 -0 -1.2 0
-0.079 -0.041 1.492 -0 -1.2 0
-0.083 -0.032 1.56 -0 -1.2 0
-0.085 -0.042 1.602 -0 -1.2 0
-0.088 -0.042 1.662 -0 -1.2 0
-0.091 -0.05 1.714 -0 -1.2 0
-0.095 -0.048 1.783 -0 -1.2 0
-0.098 -0.048 1.853 -0 -1.2 0
-0.102 -0.056 1.915 -0 -1.2 0
-0.106 -0.05 2.003 -0 -1.2 0
-0.11 -0.052 2.083 -0 -1.2 0
-0.114 -0.058 2.164 -0 -1.2 0
-0.119 -0.065 2.245 -0 -1.2 0
-0.124 -0.063 2.354 -0 -1.2 0
-0.129 -0.068 2.454 -0 -1.2 0
-0.136 -0.065 2.582 -0 -1.2 0
-0.142 -0.07 2.702 -0 -1.2 0
-0.148 -0.075 2.832 -0 -1.2 0
-0.156 -0.078 2.982 -0 -1.2 0
-0.164 -0.086 3.132 -0 -1.2 0
-0.173 -0.091 3.312 -0 -1.2 0
-0.182 -0.103 3.482 -0 -1.2 0
-0.191 -0.116 3.673 -0 -1.2 0
-0.202 -0.126 3.902 -0 -1.2 0
-0.218 -0.127 4.201 -0 -1.2 0
-0.234 -0.14 4.5 -0 -1.2 0
-0.25 -0.154 4.84 -0 -1.2 0
-0.274 -0.16 5.288 -0 -1.2 0
-0.298 -0.18 5.757 -0 -1.2 0
-0.329 -0.195 6.365 -0 -1.2 0
-0.366 -0.216 7.093 -0 -1.2 0
-0.415 -0.241 8.031 -0 -1.2 0
-0.476 -0.275 9.219 -0 -1.2 0
-0.563 -0.315 10.915 -0 -1.2 0
-0.672 -0.389 13.051 -0 -1.2 0
-0.942 -0.738 18.481 -0 -1.2 0
-0.926 -1.06 18.485 -0 -1.2 0
-1.199 -1.468 24.036 -0 -1.2 0
-0.027 -0.022 1.171 -0 -1.2 0
-0.028 -0.014 1.219 -0 -1.2 0
-0.029 -0.021 1.252 -0 -1.2 0
-0.03 -0.029 1.286 -0 -1.2 0
-0.031 -0.024 1.335 -0 -1.2 0
-0.032 -0.027 1.377 -0 -1.2 0
-0.033 -0.026 1.427 -0 -1.2 0
-0.034 -0.031 1.469 -0 -1.2 0
-0.035 -0.032 1.52 -0 -1.2 0
-0.036 -0.029 1.579 -0 -1.2 0
-0.037 -0.038 1.621 -0 -1.2 0
-0.039 -0.033 1.69 -0 -1.2 0
-0.039 -0.04 1.742 -0 -1.2 0
-0.042 -0.038 1.812 -0 -1.2 0
-0.043 -0.044 1.872 -0 -1.2 0
-0.045 -0.042 1.951 -0 -1.2 0
-0.046 -0.046 2.023 -0 -1.2 0
-0.048 -0.048 2.103 -0 -1.2 0
-0.051 -0.049 2.192 -0 -1.2 0
-0.052 -0.051 2.283 -0 -1.2 0
-0.054 -0.054 2.383 -0 -1.2 0
-0.057 -0.055 2.492 -0 -1.2 0
-0.06 -0.06 2.603 -0 -1.2 0
-0.063 -0.06 2.732 -0 -1.2 0
-0.066 -0.062 2.872 -0 -1.2 0
-0.069 -0.065 3.022 -0 -1.2 0
-0.072 -0.073 3.172 -0 -1.2 0
-0.076 -0.08 3.343 -0 -1.2 0
-0.08 -0.09 3.523 -0 -1.2 0
-0.084 -0.103 3.714 -0 -1.2 0
-0.09 -0.112 3.944 -0 -1.2 0
-0.096 -0.116 4.233 -0 -1.2 0
-0.103 -0.125 4.543 -0 -1.2 0
-0.112 -0.135 4.902 -0 -1.2 0
-0.121 -0.148 5.322 -0 -1.2 0
-0.133 -0.159 5.83 -0 -1.2 0
-0.145 -0.178 6.41 -0 -1.2 0
-0.162 -0.194 7.169 -0 -1.2 0
-0.183 -0.22 8.088 -0 -1.2 0
-0.212 -0.251 9.297 -0 -1.2 0
-0.251 -0.285 11.025 -0 -1.2 0
-0.297 -0.359 13.104 -0 -1.2 0
-0.428 -0.374 18.558 -0 -1.2 0
-0.414 -0.694 18.658 -0 -1.2 0
-0.397 -1.019 18.663 -0 -1.2 0
-0.256 -3.551 18.1 -0 -1.2 0
0.008 -0.007 1.202 -0 -1.2 0
0.009 -0.013 1.235 -0 -1.2 0
0.009 -0.019 1.269 -0 -1.2 0
0.009 -0.021 1.31 -0 -1.2 0
0.01 -0.016 1.359 -0 -1.2 0
0.011 -0.026 1.393 -0 -1.2 0
0.011 -0.03 1.435 -0 -1.2 0
0.012 -0.03 1.485 -0 -1.2 0
0.012 -0.036 1.528 -0 -1.2 0
0.012 -0.033 1.587 -0 -1.2 0
0.013 -0.037 1.638 -0 -1.2 0
0.013 -0.032 1.707 -0 -1.2 0
0.014 -0.038 1.759 -0 -1.2 0
0.014 -0.036 1.828 -0 -1.2 0
0.015 -0.042 1.89 -0 -1.2 0
0.015 -0.04 1.969 -0 -1.2 0
0.016 -0.043 2.04 -0 -1.2 0
0.016 -0.041 2.129 -0 -1.2 0
0.017 -0.046 2.21 -0 -1.2 0
0.018 -0.048 2.3 -0 -1.2 0
0.019 -0.047 2.41 -0 -1.2 0
0.019 -0.052 2.51 -0 -1.2 0
0.02 -0.052 2.63 -0 -1.2 0
0.021 -0.057 2.75 -0 -1.2 0
0.023 -0.062 2.88 -0 -1.2 0
0.024 -0.064 3.03 -0 -1.2 0
0.025 -0.066 3.2 -0 -1.2 0
0.027 -0.072 3.37 -0 -1.2 0
0.028 -0.082 3.551 -0 -1.2 0
0.031 -0.092 3.75 -0 -1.2 0
0.032 -0.105 3.971 -0 -1.2 0
0.035 -0.105 4.27 -0 -1.2 0
0.038 -0.12 4.55 -0 -1.2 0
0.04 -0.128 4.92 -0 -1.2 0
0.044 -0.134 5.369 -0 -1.2 0
0.047 -0.149 5.858 -0 -1.2 0
0.053 -0.165 6.448 -0 -1.2 0
0.058 -0.183 7.188 -0 -1.2 0
0.067 -0.203 8.136 -0 -1.2 0
0.077 -0.228 9.395 -0 -1.2 0
0.09 -0.268 11.014 -0 -1.2 0
0.108 -0.34 13.093 -0 -1.2 0
0.163 -0.664 18.621 -0 -1.2 0
0.182 -0.987 18.935 -0 -1.2 0
0.24 -1.378 24.414 -0 -1.2 0
0.29 -3.2 18.122 -0 -1.2 0
0.38 -4.755 19.542 -0 -1.2 0
0.488 -6.898 19.492 -0 -1.2 0
0.049 -0.012 1.212 -0 -1.2 0
0.051 -0.004 1.26 -0 -1.2 0
0.053 -0.01 1.294 -0 -1.2 0
0.055 -0.019 1.328 -0 -1.2 0
0.056 -0.014 1.377 -0 -1.2 0
0.059 -0.018 1.419 -0 -1.2 0
0.061 -0.022 1.461 -0 -1.2 0
0.063 -0.022 1.511 -0 -1.2 0
0.065 -0.022 1.562 -0 -1.2 0
0.067 -0.025 1.613 -0 -1.2 0
0.069 -0.028 1.664 -0 -1.2 0
0.072 -0.029 1.724 -0 -1.2 0
0.074 -0.03 1.784 -0 -1.2 0
0.077 -0.028 1.854 -0 -1.2 0
0.08 -0.034 1.915 -0 -1.2 0
0.083 -0.026 2.004 -0 -1.2 0
0.087 -0.031 2.075 -0 -1.2 0
0.09 -0.038 2.145 -0 -1.2 0
0.094 -0.038 2.235 -0 -1.2 0
0.098 -0.028 2.353 -0 -1.2 0
0.102 -0.039 2.434 -0 -1.2 0
0.107 -0.04 2.544 -0 -1.2 0
0.112 -0.044 2.655 -0 -1.2 0
0.117 -0.048 2.775 -0 -1.2 0
0.122 -0.053 2.905 -0 -1.2 0
0.129 -0.053 3.064 -0 -1.2 0
0.136 -0.051 3.243 -0 -1.2 0
0.144 -0.058 3.414 -0 -1.2 0
0.152 -0.067 3.594 -0 -1.2 0
0.16 -0.078 3.795 -0 -1.2 0
0.17 -0.091 4.015 -0 -1.2 0
0.182 -0.096 4.295 -0 -1.2 0
0.196 -0.104 4.604 -0 -1.2 0
0.212 -0.108 4.993 -0 -1.2 0
0.231 -0.116 5.432 -0 -1.2 0
0.251 -0.132 5.912 -0 -1.2 0
0.278 -0.145 6.531 -0 -1.2 0
0.311 -0.157 7.308 -0 -1.2 0
0.352 -0.176 8.277 -0 -1.2 0
0.406 -0.201 9.535 -0 -1.2 0
0.475 -0.239 11.173 -0 -1.2 0
0.572 -0.298 13.42 -0 -1.2 0
0.73 -0.374 17.126 -0 -1.2 0
0.76 -0.662 17.484 -0 -1.2 0
0.806 -0.96 18.228 -0 -1.2 0
0.874 -2.228 18.27 -0 -1.2 0
0.887 -2.826 17.86 -0 -1.2 0
0.915 -3.44 17.749 -0 -1.2 0
0.932 -4.019 17.448 -0 -1.2 0
0.963 -4.639 17.412 -0 -1.2 0
1.098 -5.455 19.656 -0 -1.2 0
1.117 -5.812 19.645 -0 -1.2 0
1.039 -5.72 17.896 -0 -1.2 0
1.113 -7.1 17.972 -0 -1.2 0
0.088 -0.01 1.226 -0 -1.2 0
0.091 -0.009 1.267 -0 -1.2 0
0.093 -0.022 1.293 -0 -1.2 0
0.097 -0.017 1.341 -0 -1.2 0
0.1 -0.012 1.39 -0 -1.2 0
0.103 -0.015 1.432 -0 -1.2 0
0.107 -0.02 1.474 -0 -1.2 0
0.11 -0.019 1.524 -0 -1.2 0
0.114 -0.02 1.575 -0 -1.2 0
0.118 -0.022 1.626 -0 -1.2 0
0.122 -0.025 1.677 -0 -1.2 0
0.127 -0.02 1.745 -0 -1.2 0
0.132 -0.022 1.806 -0 -1.2 0
0.136 -0.02 1.875 -0 -1.2 0
0.141 -0.021 1.945 -0 -1.2 0
0.147 -0.028 2.007 -0 -1.2 0
0.152 -0.028 2.087 -0 -1.2 0
0.158 -0.03 2.167 -0 -1.2 0
0.165 -0.029 2.257 -0 -1.2 0
0.173 -0.024 2.365 -0 -1.2 0
0.18 -0.03 2.456 -0 -1.2 0
0.189 -0.027 2.575 -0 -1.2 0
0.196 -0.036 2.676 -0 -1.2 0
0.207 -0.033 2.814 -0 -1.2 0
0.217 -0.038 2.945 -0 -1.2 0
0.228 -0.041 3.094 -0 -1.2 0
0.241 -0.043 3.263 -0 -1.2 0
0.253 -0.049 3.434 -0 -1.2 0
0.267 -0.059 3.614 -0 -1.2 0
0.284 -0.062 3.843 -0 -1.2 0
0.301 -0.075 4.063 -0 -1.2 0
0.32 -0.085 4.322 -0 -1.2 0
0.346 -0.087 4.66 -0 -1.2 0
0.374 -0.091 5.048 -0 -1.2 0
0.406 -0.103 5.457 -0 -1.2 0
0.443 -0.115 5.965 -0 -1.2 0
0.489 -0.128 6.573 -0 -1.2 0
0.55 -0.136 7.39 -0 -1.2 0
0.625 -0.15 8.387 -0 -1.2 0
0.72 -0.173 9.663 -0 -1.2 0
0.844 -0.211 11.308 -0 -1.2 0
1.021 -0.262 13.661 -0 -1.2 0
1.17 -0.415 15.565 -0 -1.2 0
1.182 -0.687 15.544 -0 -1.2 0
1.195 -0.956 15.527 -0 -1.2 0
1.209 -1.225 15.517 -0 -1.2 0
1.223 -1.493 15.511 -0 -1.2 0
1.237 -1.763 15.51 -0 -1.2 0
1.246 -2.029 15.456 -0 -1.2 0
1.262 -2.301 15.486 -0 -1.2 0
1.277 -2.573 15.491 -0 -1.2 0
1.291 -2.844 15.482 -0 -1.2 0
1.305 -3.117 15.488 -0 -1.2 0
1.319 -3.39 15.478 -0 -1.2 0
1.331 -3.659 15.445 -0 -1.2 0
1.346 -3.936 15.446 -0 -1.2 0
1.358 -4.209 15.422 -0 -1.2 0
1.6 -5.363 17.88 -0 -1.2 0
1.665 -5.832 18.419 -0 -1.2 0
1.703 -7.101 18.039 -0 -1.2 0
1.823 -7.843 19.141 -0 -1.2 0
0.126 -0.008 1.24 -0 -1.2 0
0.13 -0.014 1.273 -0 -1.2 0
0.134 -0.006 1.321 -0 -1.2 0
0.138 -0.015 1.354 -0 -1.2 0
0.144 -0.01 1.403 -0 -1.2 0
0.148 -0.013 1.445 -0 -1.2 0
0.153 -0.017 1.487 -0 -1.2 0
0.158 -0.017 1.537 -0 -1.2 0
0.164 -0.011 1.595 -0 -1.2 0
0.168 -0.025 1.63 -0 -1.2 0
0.175 -0.018 1.697 -0 -1.2 0
0.181 -0.023 1.749 -0 -1.2 0
0.188 -0.019 1.817 -0 -1.2 0
0.194 -0.022 1.878 -0 -1.2 0
0.202 -0.023 1.948 -0 -1.2 0
0.211 -0.02 2.027 -0 -1.2 0
0.218 -0.025 2.098 -0 -1.2 0
0.227 -0.026 2.178 -0 -1.2 0
0.237 -0.026 2.267 -0 -1.2 0
0.247 -0.021 2.375 -0 -1.2 0
0.257 -0.026 2.466 -0 -1.2 0
0.269 -0.028 2.575 -0 -1.2 0
0.282 -0.028 2.694 -0 -1.2 0
0.294 -0.037 2.805 -0 -1.2 0
0.309 -0.037 2.944 -0 -1.2 0
0.326 -0.037 3.102 -0 -1.2 0
0.344 -0.041 3.261 -0 -1.2 0
0.363 -0.041 3.45 -0 -1.2 0
0.384 -0.047 3.639 -0 -1.2 0
0.406 -0.059 3.839 -0 -1.2 0
0.43 -0.07 4.058 -0 -1.2 0
0.46 -0.078 4.327 -0 -1.2 0
0.495 -0.079 4.664 -0 -1.2 0
0.535 -0.087 5.031 -0 -1.2 0
0.58 -0.097 5.449 -0 -1.2 0
0.633 -0.11 5.936 -0 -1.2 0
0.698 -0.122 6.542 -0 -1.2 0
0.785 -0.129 7.346 -0 -1.2 0
0.89 -0.143 8.32 -0 -1.2 0
1.023 -0.166 9.562 -0 -1.2 0
1.205 -0.195 11.252 -0 -1.2 0
1.442 -0.253 13.439 -0 -1.2 0
1.592 -0.426 14.762 -0 -1.2 0
1.604 -0.683 14.75 -0 -1.2 0
1.618 -0.939 14.744 -0 -1.2 0
1.63 -1.195 14.732 -0 -1.2 0
1.644 -1.451 14.737 -0 -1.2 0
1.656 -1.706 14.727 -0 -1.2 0
1.67 -1.963 14.723 -0 -1.2 0
1.682 -2.22 14.714 -0 -1.2 0
1.694 -2.475 14.701 -0 -1.2 0
1.708 -2.734 14.702 -0 -1.2 0
1.722 -2.993 14.7 -0 -1.2 0
1.734 -3.253 14.693 -0 -1.2 0
1.748 -3.513 14.681 -0 -1.2 0
1.76 -3.774 14.674 -0 -1.2 0
1.774 -4.039 14.673 -0 -1.2 0
1.782 -4.294 14.618 -0 -1.2 0
2.259 -5.489 18.491 -0 -1.2 0
2.263 -5.8 18.371 -0 -1.2 0
2.284 -6.152 18.4 -0 -1.2 0
2.332 -6.57 18.641 -0 -1.2 0
2.383 -7.007 18.9 -0 -1.2 0
2.382 -7.317 18.736 -0 -1.2 0
2.43 -7.765 18.97 -0 -1.2 0
2.456 -8.158 19.017 -0 -1.2 0
2.317 -8.044 17.762 -0 -1.2 0
0.168 -0.006 1.252 -0 -1.2 0
0.174 0.001 1.299 -0 -1.2 0
0.179 -0.011 1.326 -0 -1.2 0
0.185 -0.005 1.374 -0 -1.2 0
0.19 -0.008 1.415 -0 -1.2 0
0.198 -0.004 1.464 -0 -1.2 0
0.203 -0.015 1.498 -0 -1.2 0
0.21 -0.014 1.548 -0 -1.2 0
0.217 -0.014 1.598 -0 -1.2 0
0.224 -0.017 1.649 -0 -1.2 0
0.233 -0.015 1.708 -0 -1.2 0
0.242 -0.014 1.767 -0 -1.2 0
0.25 -0.016 1.828 -0 -1.2 0
0.26 -0.014 1.896 -0 -1.2 0
0.269 -0.019 1.957 -0 -1.2 0
0.279 -0.017 2.036 -0 -1.2 0
0.29 -0.021 2.106 -0 -1.2 0
0.302 -0.018 2.195 -0 -1.2 0
0.315 -0.018 2.284 -0 -1.2 0
0.33 -0.016 2.382 -0 -1.2 0
0.343 -0.018 2.482 -0 -1.2 0
0.359 -0.019 2.591 -0 -1.2 0
0.375 -0.023 2.7 -0 -1.2 0
0.392 -0.028 2.819 -0 -1.2 0
0.412 -0.028 2.958 -0 -1.2 0
0.434 -0.027 3.116 -0 -1.2 0
0.457 -0.032 3.274 -0 -1.2 0
0.481 -0.038 3.443 -0 -1.2 0
0.51 -0.041 3.641 -0 -1.2 0
0.54 -0.049 3.849 -0 -1.2 0
0.572 -0.061 4.068 -0 -1.2 0
0.61 -0.068 4.335 -0 -1.2 0
0.659 -0.067 4.681 -0 -1.2 0
0.708 -0.08 5.017 -0 -1.2 0
0.767 -0.089 5.433 -0 -1.2 0
0.842 -0.095 5.957 -0 -1.2 0
0.928 -0.108 6.551 -0 -1.2 0
1.042 -0.113 7.352 -0 -1.2 0
1.183 -0.125 8.341 -0 -1.2 0
1.366 -0.142 9.617 -0 -1.2 0
1.602 -0.173 11.26 -0 -1.2 0
1.914 -0.228 13.428 -0 -1.2 0
2.01 -0.434 14.023 -0 -1.2 0
2.023 -0.679 14.02 -0 -1.2 0
2.034 -0.922 14.014 -0 -1.2 0
2.046 -1.166 14.003 -0 -1.2 0
2.059 -1.409 13.998 -0 -1.2 0
2.071 -1.653 13.999 -0 -1.2 0
2.084 -1.898 13.994 -0 -1.2 0
2.098 -2.142 13.996 -0 -1.2 0
2.11 -2.388 13.994 -0 -1.2 0
2.122 -2.634 13.987 -0 -1.2 0
2.136 -2.881 13.986 -0 -1.2 0
2.147 -3.128 13.971 -0 -1.2 0
2.16 -3.378 13.971 -0 -1.2 0
2.175 -3.629 13.976 -0 -1.2 0
2.187 -3.881 13.967 -0 -1.2 0
2.197 -4.129 13.943 -0 -1.2 0
2.689 -5.698 16.812 -0 -1.2 0
2.685 -5.977 16.679 -0 -1.2 0
0.207 0.002 1.27 -0 -1.2 0
0.213 -0.01 1.296 -0 -1.2 0
0.22 -0.009 1.336 -0 -1.2 0
0.227 -0.003 1.384 -0 -1.2 0
0.233 -0.011 1.417 -0 -1.2 0
0.242 -0.008 1.466 -0 -1.2 0
0.251 -0.006 1.515 -0 -1.2 0
0.258 -0.012 1.557 -0 -1.2 0
0.269 -0.006 1.616 -0 -1.2 0
0.276 -0.014 1.657 -0 -1.2 0
0.287 -0.006 1.725 -0 -1.2 0
0.296 -0.011 1.776 -0 -1.2 0
0.308 -0.008 1.844 -0 -1.2 0
0.319 -0.011 1.905 -0 -1.2 0
0.332 -0.011 1.974 -0 -1.2 0
0.344 -0.013 2.044 -0 -1.2 0
0.358 -0.013 2.122 -0 -1.2 0
0.369 -0.024 2.184 -0 -1.2 0
0.385 -0.018 2.281 -0 -1.2 0
0.406 -0.009 2.397 -0 -1.2 0
0.423 -0.01 2.496 -0 -1.2 0
0.441 -0.014 2.595 -0 -1.2 0
0.462 -0.015 2.713 -0 -1.2 0
0.484 -0.015 2.841 -0 -1.2 0
0.507 -0.021 2.97 -0 -1.2 0
0.534 -0.019 3.127 -0 -1.2 0
0.564 -0.02 3.294 -0 -1.2 0
0.594 -0.026 3.462 -0 -1.2 0
0.626 -0.035 3.64 -0 -1.2 0
0.662 -0.043 3.847 -0 -1.2 0
0.704 -0.049 4.084 -0 -1.2 0
0.754 -0.052 4.369 -0 -1.2 0
0.809 -0.06 4.674 -0 -1.2 0
0.871 -0.068 5.028 -0 -1.2 0
0.945 -0.076 5.443 -0 -1.2 0
1.037 -0.082 5.964 -0 -1.2 0
1.142 -0.094 6.555 -0 -1.2 0
1.283 -0.097 7.361 -0 -1.2 0
1.458 -0.107 8.355 -0 -1.2 0
1.689 -0.118 9.664 -0 -1.2 0
1.982 -0.146 11.319 -0 -1.2 0
2.332 -0.212 13.288 -0 -1.2 0
2.358 -0.441 13.368 -0 -1.2 0
2.369 -0.674 13.355 -0 -1.2 0
2.38 -0.908 13.348 -0 -1.2 0
2.392 -1.141 13.347 -0 -1.2 0
2.404 -1.373 13.342 -0 -1.2 0
2.427 -1.609 13.402 -0 -1.2 0
2.442 -1.844 13.409 -0 -1.2 0
2.457 -2.081 13.421 -0 -1.2 0
2.467 -2.316 13.41 -0 -1.2 0
2.481 -2.554 13.414 -0 -1.2 0
2.494 -2.792 13.414 -0 -1.2 0
2.495 -3.022 13.351 -0 -1.2 0
2.503 -3.257 13.324 -0 -1.2 0
2.516 -3.496 13.321 -0 -1.2 0
2.527 -3.737 13.314 -0 -1.2 0
2.539 -3.979 13.303 -0 -1.2 0
2.547 -4.217 13.278 -0 -1.2 0
3.62 -5.9 18.858 -0 -1.2 0
3.613 -6.218 18.722 -0 -1.2 0
3.618 -6.551 18.648 -0 -1.2 0
3.609 -6.863 18.501 -0 -1.2 0
3.738 -7.412 19.067 -0 -1.2 0
3.465 -7.254 17.562 -0 -1.2 0
4.25 -9.065 21.467 -0 -1.2 0
0.243 -0.01 1.265 -0 -1.2 0
0.253 -0.001 1.312 -0 -1.2 0
0.26 -0.007 1.345 -0 -1.2 0
0.269 -0.001 1.392 -0 -1.2 0
0.278 -0.003 1.433 -0 -1.2 0
0.286 -0.006 1.474 -0 -1.2 0
0.297 -0.003 1.523 -0 -1.2 0
0.306 -0.009 1.565 -0 -1.2 0
0.318 -0.003 1.622 -0 -1.2 0
0.329 -0.005 1.672 -0 -1.2 0
0.339 -0.01 1.723 -0 -1.2 0
0.353 -0.003 1.79 -0 -1.2 0
0.365 -0.005 1.849 -0 -1.2 0
0.378 -0.008 1.909 -0 -1.2 0
0.391 -0.013 1.969 -0 -1.2 0
0.407 -0.01 2.047 -0 -1.2 0
0.422 -0.014 2.117 -0 -1.2 0
0.44 -0.01 2.204 -0 -1.2 0
0.459 -0.011 2.292 -0 -1.2 0
0.479 -0.009 2.389 -0 -1.2 0
0.499 -0.01 2.487 -0 -1.2 0
0.522 -0.01 2.596 -0 -1.2 0
0.547 -0.01 2.713 -0 -1.2 0
0.572 -0.015 2.831 -0 -1.2 0
0.599 -0.019 2.959 -0 -1.2 0
0.632 -0.017 3.115 -0 -1.2 0
0.666 -0.017 3.281 -0 -1.2 0
0.702 -0.024 3.448 -0 -1.2 0
0.738 -0.035 3.615 -0 -1.2 0
0.786 -0.033 3.849 -0 -1.2 0
0.83 -0.048 4.056 -0 -1.2 0
0.889 -0.051 4.33 -0 -1.2 0
0.954 -0.056 4.642 -0 -1.2 0
1.026 -0.066 4.985 -0 -1.2 0
1.117 -0.069 5.416 -0 -1.2 0
1.224 -0.075 5.924 -0 -1.2 0
1.346 -0.088 6.501 -0 -1.2 0
1.51 -0.092 7.283 -0 -1.2 0
1.716 -0.1 8.261 -0 -1.2 0
1.983 -0.111 9.532 -0 -1.2 0
2.322 -0.139 11.137 -0 -1.2 0
2.665 -0.222 12.752 -0 -1.2 0
2.674 -0.447 12.733 -0 -1.2 0
2.687 -0.671 12.74 -0 -1.2 0
2.698 -0.895 12.733 -0 -1.2 0
2.709 -1.117 12.732 -0 -1.2 0
2.723 -1.34 12.737 -0 -1.2 0
2.761 -1.569 12.856 -0 -1.2 0
2.793 -1.801 12.951 -0 -1.2 0
2.8 -2.027 12.924 -0 -1.2 0
2.821 -2.259 12.962 -0 -1.2 0
2.824 -2.485 12.918 -0 -1.2 0
2.847 -2.722 12.968 -0 -1.2 0
2.815 -2.924 12.761 -0 -1.2 0
2.818 -3.147 12.716 -0 -1.2 0
2.83 -3.376 12.715 -0 -1.2 0
2.839 -3.605 12.7 -0 -1.2 0
2.852 -3.839 12.7 -0 -1.2 0
2.865 -4.073 12.696 -0 -1.2 0
4.143 -6.087 18.262 -0 -1.2 0
4.518 -6.902 19.839 -0 -1.2 0
4.513 -7.25 19.723 -0 -1.2 0
4.166 -7.095 18.11 -0 -1.2 0
5.009 -8.728 21.704 -0 -1.2 0
4.507 -8.305 19.416 -0 -1.2 0
5.26 -11.216 22.246 -0 -1.2 0
0.284 -0.001 1.282 -0 -1.2 0
0.295 0.006 1.328 -0 -1.2 0
0.303 0 1.361 -0 -1.2 0
0.313 0 1.401 -0 -1.2 0
0.325 0.004 1.448 -0 -1.2 0
0.333 -0.005 1.482 -0 -1.2 0
0.345 -0.002 1.53 -0 -1.2 0
0.357 -0.002 1.579 -0 -1.2 0
0.369 -0.002 1.628 -0 -1.2 0
0.381 -0.004 1.678 -0 -1.2 0
0.394 -0.008 1.728 -0 -1.2 0
0.41 -0.001 1.796 -0 -1.2 0
0.425 -0.003 1.855 -0 -1.2 0
0.439 -0.006 1.914 -0 -1.2 0
0.454 -0.011 1.974 -0 -1.2 0
0.471 -0.013 2.042 -0 -1.2 0
0.49 -0.012 2.12 -0 -1.2 0
0.51 -0.013 2.198 -0 -1.2 0
0.531 -0.012 2.285 -0 -1.2 0
0.556 -0.006 2.39 -0 -1.2 0
0.582 -0.003 2.497 -0 -1.2 0
0.606 -0.007 2.595 -0 -1.2 0
0.633 -0.011 2.703 -0 -1.2 0
0.664 -0.011 2.829 -0 -1.2 0
0.697 -0.013 2.964 -0 -1.2 0
0.731 -0.018 3.101 -0 -1.2 0
0.769 -0.021 3.256 -0 -1.2 0
0.806 -0.032 3.403 -0 -1.2 0
0.851 -0.037 3.589 -0 -1.2 0
0.904 -0.04 3.802 -0 -1.2 0
0.959 -0.048 4.025 -0 -1.2 0
1.028 -0.049 4.306 -0 -1.2 0
1.1 -0.057 4.598 -0 -1.2 0
1.186 -0.063 4.947 -0 -1.2 0
1.286 -0.071 5.354 -0 -1.2 0
1.406 -0.078 5.84 -0 -1.2 0
1.554 -0.084 6.442 -0 -1.2 0
1.736 -0.092 7.18 -0 -1.2 0
1.969 -0.1 8.13 -0 -1.2 0
2.282 -0.106 9.401 -0 -1.2 0
2.654 -0.138 10.916 -0 -1.2 0
2.969 -0.24 12.179 -0 -1.2 0
2.977 -0.457 12.161 -0 -1.2 0
2.988 -0.672 12.157 -0 -1.2 0
3.003 -0.885 12.169 -0 -1.2 0
3.012 -1.1 12.158 -0 -1.2 0
3.022 -1.314 12.154 -0 -1.2 0
3.035 -1.528 12.155 -0 -1.2 0
3.043 -1.743 12.144 -0 -1.2 0
3.059 -1.96 12.157 -0 -1.2 0
3.069 -2.175 12.147 -0 -1.2 0
3.079 -2.392 12.143 -0 -1.2 0
3.089 -2.609 12.136 -0 -1.2 0
3.102 -2.826 12.134 -0 -1.2 0
3.112 -3.046 12.129 -0 -1.2 0
3.129 -3.271 12.15 -0 -1.2 0
3.138 -3.491 12.136 -0 -1.2 0
3.148 -3.713 12.129 -0 -1.2 0
3.16 -3.939 12.127 -0 -1.2 0
3.174 -4.168 12.131 -0 -1.2 0
4.733 -6.041 18.065 -0 -1.2 0
5.076 -6.756 19.304 -0 -1.2 0
5.28 -7.719 19.92 -0 -1.2 0
5.531 -8.812 20.699 -0 -1.2 0
5.26 -9.168 19.511 -0 -1.2 0
5.289 -9.589 19.536 -0 -1.2 0
6.101 -11.351 22.453 -0 -1.2 0
0.32 0.006 1.296 -0 -1.2 0
0.331 0.007 1.335 -0 -1.2 0
0.341 0.001 1.368 -0 -1.2 0
0.351 0 1.407 -0 -1.2 0
0.365 0.006 1.455 -0 -1.2 0
0.376 0.003 1.495 -0 -1.2 0
0.387 0 1.536 -0 -1.2 0
0.401 0 1.584 -0 -1.2 0
0.415 0 1.633 -0 -1.2 0
0.43 0.003 1.691 -0 -1.2 0
0.442 -0.006 1.733 -0 -1.2 0
0.46 0 1.799 -0 -1.2 0
0.474 -0.006 1.849 -0 -1.2 0
0.49 -0.009 1.908 -0 -1.2 0
0.51 -0.009 1.975 -0 -1.2 0
0.528 -0.011 2.043 -0 -1.2 0
0.548 -0.014 2.112 -0 -1.2 0
0.569 -0.016 2.19 -0 -1.2 0
0.593 -0.015 2.276 -0 -1.2 0
0.624 -0.004 2.389 -0 -1.2 0
0.651 -0.005 2.486 -0 -1.2 0
0.68 -0.005 2.592 -0 -1.2 0
0.71 -0.009 2.699 -0 -1.2 0
0.74 -0.017 2.806 -0 -1.2 0
0.777 -0.017 2.94 -0 -1.2 0
0.813 -0.025 3.067 -0 -1.2 0
0.856 -0.028 3.221 -0 -1.2 0
0.901 -0.031 3.385 -0 -1.2 0
0.95 -0.039 3.559 -0 -1.2 0
1.006 -0.044 3.761 -0 -1.2 0
1.068 -0.051 3.984 -0 -1.2 0
1.141 -0.057 4.243 -0 -1.2 0
1.223 -0.062 4.542 -0 -1.2 0
1.322 -0.065 4.898 -0 -1.2 0
1.429 -0.075 5.284 -0 -1.2 0
1.563 -0.081 5.765 -0 -1.2 0
1.719 -0.092 6.323 -0 -1.2 0
1.919 -0.1 7.046 -0 -1.2 0
2.17 -0.109 7.95 -0 -1.2 0
2.499 -0.12 9.135 -0 -1.2 0
2.906 -0.15 10.599 -0 -1.2 0
3.208 -0.26 11.669 -0 -1.2 0
3.212 -0.47 11.641 -0 -1.2 0
3.224 -0.676 11.646 -0 -1.2 0
3.234 -0.883 11.639 -0 -1.2 0
3.244 -1.089 11.638 -0 -1.2 0
3.255 -1.295 11.633 -0 -1.2 0
