# .PCD v.7 - Point Cloud Data file format
FIELDS x y z vp_x vp_y vp_z
SIZE 4 4 4 4 4 4
TYPE F F F F F F
COUNT 1 1 1 1 1 1
WIDTH 1625
HEIGHT 1
VIEWPOINT 0 -1.20014 0 1 0 0 0
POINTS 1625
DATA ascii
-3.509 -0.035 2.973 -0 -1.2 0
-3.755 -0.053 3.209 -0 -1.2 0
-4.038 -0.072 3.48 -0 -1.2 0
-3.813 -0.224 3.268 -0 -1.2 0
-3.758 -0.329 3.218 -0 -1.2 0
-3.874 -0.398 3.332 -0 -1.2 0
-3.752 -0.512 3.217 -0 -1.2 0
-4.787 -0.461 4.208 -0 -1.2 0
-4.612 -0.596 4.044 -0 -1.2 0
-4.609 -0.707 4.044 -0 -1.2 0
-4.605 -0.818 4.043 -0 -1.2 0
-4.607 -0.928 4.047 -0 -1.2 0
-4.607 -1.038 4.05 -0 -1.2 0
-4.613 -1.148 4.059 -0 -1.2 0
-4.61 -1.258 4.059 -0 -1.2 0
-4.606 -1.368 4.058 -0 -1.2 0
-4.6 -1.479 4.056 -0 -1.2 0
-4.608 -1.59 4.066 -0 -1.2 0
-4.535 -1.692 3.999 -0 -1.2 0
-4.525 -1.801 3.993 -0 -1.2 0
-4.893 -1.977 4.349 -0 -1.2 0
-4.913 -2.345 4.377 -0 -1.2 0
-8.273 -3.408 7.626 -0 -1.2 0
-8.682 -3.743 8.028 -0 -1.2 0
-8.673 -3.961 8.025 -0 -1.2 0
-8.493 -4.12 7.856 -0 -1.2 0
-8.673 -4.41 8.037 -0 -1.2 0
-5.045 -3.153 4.525 -0 -1.2 0
-4.866 -3.208 4.356 -0 -1.2 0
-4.844 -3.328 4.338 -0 -1.2 0
-4.855 -3.464 4.351 -0 -1.2 0
-4.849 -3.595 4.349 -0 -1.2 0
-4.836 -3.723 4.34 -0 -1.2 0
-4.873 -3.88 4.38 -0 -1.2 0
-4.784 -3.966 4.296 -0 -1.2 0
-4.608 -3.995 4.129 -0 -1.2 0
-4.602 -4.127 4.126 -0 -1.2 0
-4.6 -4.264 4.129 -0 -1.2 0
-4.603 -4.407 4.135 -0 -1.2 0
-4.597 -4.545 4.132 -0 -1.2 0
-4.595 -4.69 4.134 -0 -1.2 0
-4.597 -4.842 4.14 -0 -1.2 0
-4.59 -4.989 4.138 -0 -1.2 0
-4.588 -5.142 4.139 -0 -1.2 0
-4.576 -5.291 4.132 -0 -1.2 0
-4.586 -5.463 4.146 -0 -1.2 0
-4.575 -5.62 4.14 -0 -1.2 0
-4.511 -5.725 4.081 -0 -1.2 0
-4.659 -6.058 4.231 -0 -1.2 0
-4.779 -6.375 4.354 -0 -1.2 0
-4.776 -6.567 4.357 -0 -1.2 0
-4.771 -6.76 4.357 -0 -1.2 0
-4.771 -6.968 4.362 -0 -1.2 0
-4.774 -7.184 4.37 -0 -1.2 0
-4.767 -7.396 4.37 -0 -1.2 0
-4.761 -7.616 4.37 -0 -1.2 0
-4.757 -7.845 4.372 -0 -1.2 0
-0.836 -0.002 0.481 -0 -1.2 0
-0.865 -0.001 0.51 -0 -1.2 0
-0.888 -0.008 0.535 -0 -1.2 0
-0.922 -0.003 0.57 -0 -1.2 0
-0.952 -0.005 0.6 -0 -1.2 0
-0.981 -0.008 0.63 -0 -1.2 0
-1.016 -0.007 0.666 -0 -1.2 0
-1.051 -0.006 0.702 -0 -1.2 0
-1.087 -0.007 0.738 -0 -1.2 0
-1.129 -0.005 0.781 -0 -1.2 0
-1.165 -0.008 0.818 -0 -1.2 0
-1.207 -0.008 0.862 -0 -1.2 0
-1.256 -0.005 0.911 -0 -1.2 0
-1.298 -0.009 0.955 -0 -1.2 0
-1.354 -0.005 1.012 -0 -1.2 0
-1.403 -0.008 1.063 -0 -1.2 0
-1.459 -0.008 1.12 -0 -1.2 0
-1.522 -0.006 1.185 -0 -1.2 0
-1.579 -0.012 1.243 -0 -1.2 0
-1.648 -0.01 1.315 -0 -1.2 0
-1.725 -0.009 1.393 -0 -1.2 0
-1.802 -0.011 1.472 -0 -1.2 0
-1.892 -0.009 1.565 -0 -1.2 0
-1.977 -0.014 1.652 -0 -1.2 0
-2.075 -0.016 1.752 -0 -1.2 0
-2.18 -0.02 1.86 -0 -1.2 0
-2.292 -0.025 1.975 -0 -1.2 0
-2.418 -0.029 2.104 -0 -1.2 0
-2.591 -0.02 2.281 -0 -1.2 0
-2.759 -0.022 2.453 -0 -1.2 0
-2.927 -0.032 2.625 -0 -1.2 0
-3.143 -0.033 2.847 -0 -1.2 0
-3.388 -0.035 3.097 -0 -1.2 0
-3.674 -0.039 3.391 -0 -1.2 0
-3.664 -0.135 3.384 -0 -1.2 0
-3.819 -0.19 3.544 -0 -1.2 0
-3.814 -0.287 3.542 -0 -1.2 0
-3.642 -0.416 3.369 -0 -1.2 0
-3.614 -0.511 3.343 -0 -1.2 0
-3.634 -0.599 3.365 -0 -1.2 0
-4.62 -0.575 4.376 -0 -1.2 0
-3.655 -0.777 3.393 -0 -1.2 0
-4.621 -0.804 4.383 -0 -1.2 0
-4.622 -0.919 4.387 -0 -1.2 0
-4.622 -1.033 4.39 -0 -1.2 0
-4.621 -1.147 4.392 -0 -1.2 0
-4.632 -1.261 4.407 -0 -1.2 0
-4.621 -1.376 4.398 -0 -1.2 0
-4.616 -1.49 4.396 -0 -1.2 0
-4.623 -1.606 4.406 -0 -1.2 0
-4.552 -1.712 4.336 -0 -1.2 0
-4.577 -1.83 4.365 -0 -1.2 0
-4.946 -2.015 4.749 -0 -1.2 0
-4.938 -2.139 4.745 -0 -1.2 0
-4.937 -2.265 4.747 -0 -1.2 0
-4.935 -2.391 4.748 -0 -1.2 0
-4.937 -2.52 4.754 -0 -1.2 0
-4.938 -2.649 4.758 -0 -1.2 0
-4.923 -2.773 4.746 -0 -1.2 0
-4.94 -2.911 4.768 -0 -1.2 0
-4.936 -3.041 4.768 -0 -1.2 0
-4.911 -3.163 4.744 -0 -1.2 0
-4.877 -3.283 4.713 -0 -1.2 0
-4.953 -3.455 4.795 -0 -1.2 0
-4.954 -3.595 4.8 -0 -1.2 0
-4.954 -3.735 4.805 -0 -1.2 0
-4.958 -3.88 4.813 -0 -1.2 0
-4.851 -3.962 4.706 -0 -1.2 0
-4.643 -3.975 4.492 -0 -1.2 0
-4.618 -4.099 4.47 -0 -1.2 0
-4.617 -4.24 4.472 -0 -1.2 0
-4.625 -4.39 4.485 -0 -1.2 0
-4.614 -4.529 4.478 -0 -1.2 0
-4.613 -4.677 4.48 -0 -1.2 0
-4.61 -4.826 4.48 -0 -1.2 0
-4.609 -4.982 4.484 -0 -1.2 0
-4.607 -5.137 4.487 -0 -1.2 0
-4.608 -5.3 4.492 -0 -1.2 0
-4.6 -5.459 4.489 -0 -1.2 0
-4.59 -5.619 4.483 -0 -1.2 0
-4.527 -5.728 4.421 -0 -1.2 0
-4.924 -6.327 4.843 -0 -1.2 0
-4.955 -6.56 4.883 -0 -1.2 0
-4.838 -6.628 4.765 -0 -1.2 0
-4.96 -6.977 4.899 -0 -1.2 0
-4.954 -7.185 4.898 -0 -1.2 0
-4.8 -7.209 4.741 -0 -1.2 0
-4.906 -7.572 4.859 -0 -1.2 0
-4.954 -7.874 4.916 -0 -1.2 0
-4.786 -7.879 4.744 -0 -1.2 0
-4.638 -7.906 4.594 -0 -1.2 0
-0.805 -0.001 0.526 -0 -1.2 0
-0.833 -0.001 0.556 -0 -1.2 0
-0.856 -0.008 0.581 -0 -1.2 0
-0.888 -0.002 0.617 -0 -1.2 0
-0.917 -0.004 0.648 -0 -1.2 0
-0.945 -0.008 0.68 -0 -1.2 0
-0.979 -0.006 0.717 -0 -1.2 0
-1.019 0 0.76 -0 -1.2 0
-1.047 -0.007 0.792 -0 -1.2 0
-1.087 -0.004 0.836 -0 -1.2 0
-1.122 -0.007 0.875 -0 -1.2 0
-1.157 -0.013 0.913 -0 -1.2 0
-1.209 -0.004 0.971 -0 -1.2 0
-1.245 -0.013 1.01 -0 -1.2 0
-1.292 -0.014 1.062 -0 -1.2 0
-1.346 -0.012 1.121 -0 -1.2 0
-1.4 -0.012 1.18 -0 -1.2 0
-1.46 -0.01 1.247 -0 -1.2 0
-1.515 -0.015 1.307 -0 -1.2 0
-1.589 -0.009 1.388 -0 -1.2 0
-1.663 -0.008 1.469 -0 -1.2 0
-1.731 -0.014 1.544 -0 -1.2 0
-1.812 -0.015 1.633 -0 -1.2 0
-1.899 -0.016 1.729 -0 -1.2 0
-1.993 -0.019 1.833 -0 -1.2 0
-2.087 -0.026 1.937 -0 -1.2 0
-2.195 -0.031 2.056 -0 -1.2 0
-2.323 -0.032 2.196 -0 -1.2 0
-2.491 -0.021 2.38 -0 -1.2 0
-2.645 -0.026 2.55 -0 -1.2 0
-2.807 -0.035 2.729 -0 -1.2 0
-3.015 -0.036 2.958 -0 -1.2 0
-3.257 -0.036 3.224 -0 -1.2 0
-3.533 -0.039 3.527 -0 -1.2 0
-3.882 -0.035 3.911 -0 -1.2 0
-4.278 -0.036 4.347 -0 -1.2 0
-4.148 -0.178 4.209 -0 -1.2 0
-4.11 -0.294 4.17 -0 -1.2 0
-3.488 -0.508 3.492 -0 -1.2 0
-3.701 -0.567 3.728 -0 -1.2 0
-4.646 -0.549 4.767 -0 -1.2 0
-4.644 -0.669 4.767 -0 -1.2 0
-4.639 -0.789 4.766 -0 -1.2 0
-4.64 -0.908 4.771 -0 -1.2 0
-4.634 -1.027 4.767 -0 -1.2 0
-4.646 -1.146 4.784 -0 -1.2 0
-4.643 -1.265 4.784 -0 -1.2 0
-4.639 -1.385 4.783 -0 -1.2 0
-4.626 -1.503 4.772 -0 -1.2 0
-4.639 -1.625 4.79 -0 -1.2 0
-4.557 -1.734 4.703 -0 -1.2 0
-4.628 -1.865 4.784 -0 -1.2 0
-4.682 -1.996 4.848 -0 -1.2 0
-4.683 -2.12 4.852 -0 -1.2 0
-4.675 -2.242 4.847 -0 -1.2 0
-4.673 -2.366 4.848 -0 -1.2 0
-4.668 -2.491 4.847 -0 -1.2 0
-4.676 -2.62 4.859 -0 -1.2 0
-4.669 -2.745 4.854 -0 -1.2 0
-4.666 -2.873 4.855 -0 -1.2 0
-4.663 -3.001 4.855 -0 -1.2 0
-4.664 -3.133 4.86 -0 -1.2 0
-4.663 -3.265 4.863 -0 -1.2 0
-4.654 -3.395 4.857 -0 -1.2 0
-4.656 -3.532 4.863 -0 -1.2 0
-4.651 -3.666 4.861 -0 -1.2 0
-4.649 -3.805 4.863 -0 -1.2 0
-4.64 -3.94 4.856 -0 -1.2 0
-4.64 -4.084 4.861 -0 -1.2 0
-4.634 -4.223 4.858 -0 -1.2 0
-4.631 -4.369 4.859 -0 -1.2 0
-4.637 -4.524 4.871 -0 -1.2 0
-4.631 -4.672 4.867 -0 -1.2 0
-4.627 -4.825 4.868 -0 -1.2 0
-4.628 -4.984 4.873 -0 -1.2 0
-4.614 -5.135 4.862 -0 -1.2 0
-4.609 -5.296 4.862 -0 -1.2 0
-4.603 -5.458 4.859 -0 -1.2 0
-4.599 -5.627 4.859 -0 -1.2 0
-4.538 -5.741 4.796 -0 -1.2 0
-4.616 -6.003 4.89 -0 -1.2 0
-4.621 -6.194 4.899 -0 -1.2 0
-4.617 -6.38 4.9 -0 -1.2 0
-4.614 -6.575 4.903 -0 -1.2 0
-4.619 -6.783 4.915 -0 -1.2 0
-4.615 -6.987 4.917 -0 -1.2 0
-4.618 -7.206 4.926 -0 -1.2 0
-4.608 -7.414 4.92 -0 -1.2 0
-4.608 -7.644 4.926 -0 -1.2 0
-4.604 -7.876 4.929 -0 -1.2 0
-4.517 -7.988 4.837 -0 -1.2 0
-0.772 -0.001 0.574 -0 -1.2 0
-0.794 -0.007 0.6 -0 -1.2 0
-0.82 -0.007 0.631 -0 -1.2 0
-0.842 -0.014 0.657 -0 -1.2 0
-0.874 -0.01 0.695 -0 -1.2 0
-0.901 -0.013 0.727 -0 -1.2 0
-0.933 -0.011 0.765 -0 -1.2 0
-0.966 -0.01 0.804 -0 -1.2 0
-0.998 -0.012 0.843 -0 -1.2 0
-1.037 -0.008 0.888 -0 -1.2 0
-1.075 -0.006 0.934 -0 -1.2 0
-1.109 -0.013 0.974 -0 -1.2 0
-1.154 -0.009 1.027 -0 -1.2 0
-1.188 -0.018 1.068 -0 -1.2 0
-1.239 -0.013 1.128 -0 -1.2 0
-1.284 -0.016 1.182 -0 -1.2 0
-1.33 -0.021 1.237 -0 -1.2 0
-1.393 -0.013 1.312 -0 -1.2 0
-1.446 -0.019 1.374 -0 -1.2 0
-1.51 -0.017 1.451 -0 -1.2 0
-1.575 -0.02 1.528 -0 -1.2 0
-1.646 -0.02 1.612 -0 -1.2 0
-1.723 -0.022 1.704 -0 -1.2 0
-1.801 -0.027 1.796 -0 -1.2 0
-1.891 -0.027 1.903 -0 -1.2 0
-1.982 -0.034 2.011 -0 -1.2 0
-2.091 -0.035 2.141 -0 -1.2 0
-2.213 -0.036 2.286 -0 -1.2 0
-2.348 -0.037 2.446 -0 -1.2 0
-2.515 -0.032 2.644 -0 -1.2 0
-2.676 -0.038 2.836 -0 -1.2 0
-2.869 -0.041 3.065 -0 -1.2 0
-3.088 -0.045 3.325 -0 -1.2 0
-3.345 -0.048 3.631 -0 -1.2 0
-3.654 -0.051 3.998 -0 -1.2 0
-4.04 -0.049 4.456 -0 -1.2 0
-3.353 -0.322 3.649 -0 -1.2 0
-3.527 -0.377 3.857 -0 -1.2 0
-3.949 -0.395 4.36 -0 -1.2 0
-3.325 -0.598 3.625 -0 -1.2 0
-4.654 -0.519 5.201 -0 -1.2 0
-4.639 -0.646 5.187 -0 -1.2 0
-4.642 -0.77 5.194 -0 -1.2 0
-4.643 -0.895 5.199 -0 -1.2 0
-4.643 -1.02 5.202 -0 -1.2 0
-4.641 -1.144 5.204 -0 -1.2 0
-4.644 -1.268 5.212 -0 -1.2 0
-4.634 -1.393 5.203 -0 -1.2 0
-4.635 -1.518 5.207 -0 -1.2 0
-4.628 -1.643 5.202 -0 -1.2 0
-4.554 -1.758 5.12 -0 -1.2 0
-4.673 -1.902 5.264 -0 -1.2 0
-4.686 -2.034 5.284 -0 -1.2 0
-4.68 -2.161 5.28 -0 -1.2 0
-4.678 -2.29 5.282 -0 -1.2 0
-4.674 -2.42 5.282 -0 -1.2 0
-4.676 -2.552 5.288 -0 -1.2 0
-4.669 -2.682 5.285 -0 -1.2 0
-4.674 -2.817 5.294 -0 -1.2 0
-4.665 -2.948 5.287 -0 -1.2 0
-4.666 -3.085 5.292 -0 -1.2 0
-4.66 -3.219 5.289 -0 -1.2 0
-4.658 -3.357 5.29 -0 -1.2 0
-4.649 -3.492 5.283 -0 -1.2 0
-4.649 -3.634 5.288 -0 -1.2 0
-4.648 -3.777 5.292 -0 -1.2 0
-4.645 -3.921 5.292 -0 -1.2 0
-4.64 -4.065 5.291 -0 -1.2 0
-4.633 -4.211 5.287 -0 -1.2 0
-4.631 -4.361 5.288 -0 -1.2 0
-4.627 -4.512 5.288 -0 -1.2 0
-4.62 -4.664 5.285 -0 -1.2 0
-4.617 -4.821 5.285 -0 -1.2 0
-4.611 -4.979 5.284 -0 -1.2 0
-4.61 -5.143 5.287 -0 -1.2 0
-4.606 -5.309 5.287 -0 -1.2 0
-4.599 -5.475 5.285 -0 -1.2 0
-4.602 -5.653 5.292 -0 -1.2 0
-4.596 -5.827 5.29 -0 -1.2 0
-4.592 -6.008 5.292 -0 -1.2 0
-4.591 -6.197 5.296 -0 -1.2 0
-4.582 -6.38 5.292 -0 -1.2 0
-4.586 -6.583 5.302 -0 -1.2 0
-4.576 -6.776 5.296 -0 -1.2 0
-4.568 -6.976 5.293 -0 -1.2 0
-4.563 -7.185 5.293 -0 -1.2 0
-4.559 -7.401 5.293 -0 -1.2 0
-4.554 -7.626 5.296 -0 -1.2 0
-4.543 -7.847 5.289 -0 -1.2 0
-4.496 -8.02 5.238 -0 -1.2 0
-4.491 -8.263 5.24 -0 -1.2 0
-0.734 -0.007 0.611 -0 -1.2 0
-0.759 -0.006 0.643 -0 -1.2 0
-0.78 -0.013 0.67 -0 -1.2 0
-0.805 -0.014 0.702 -0 -1.2 0
-0.836 -0.009 0.741 -0 -1.2 0
-0.862 -0.012 0.774 -0 -1.2 0
-0.893 -0.01 0.813 -0 -1.2 0
-0.924 -0.01 0.853 -0 -1.2 0
-0.95 -0.017 0.887 -0 -1.2 0
-0.987 -0.013 0.934 -0 -1.2 0
-1.019 -0.018 0.974 -0 -1.2 0
-1.056 -0.017 1.022 -0 -1.2 0
-1.099 -0.013 1.076 -0 -1.2 0
-1.136 -0.017 1.125 -0 -1.2 0
-1.18 -0.017 1.18 -0 -1.2 0
-1.223 -0.02 1.237 -0 -1.2 0
-1.273 -0.02 1.3 -0 -1.2 0
-1.323 -0.022 1.363 -0 -1.2 0
-1.373 -0.026 1.427 -0 -1.2 0
-1.434 -0.025 1.505 -0 -1.2 0
-1.501 -0.023 1.592 -0 -1.2 0
-1.558 -0.032 1.664 -0 -1.2 0
-1.638 -0.028 1.765 -0 -1.2 0
-1.712 -0.032 1.86 -0 -1.2 0
-1.793 -0.037 1.963 -0 -1.2 0
-1.879 -0.043 2.074 -0 -1.2 0
-1.984 -0.044 2.207 -0 -1.2 0
-2.095 -0.046 2.349 -0 -1.2 0
-2.224 -0.048 2.514 -0 -1.2 0
-2.378 -0.044 2.71 -0 -1.2 0
-2.525 -0.051 2.899 -0 -1.2 0
-2.698 -0.058 3.12 -0 -1.2 0
-2.919 -0.055 3.402 -0 -1.2 0
-3.147 -0.064 3.694 -0 -1.2 0
-3.437 -0.067 4.063 -0 -1.2 0
-3.403 -0.174 4.024 -0 -1.2 0
-3.166 -0.33 3.727 -0 -1.2 0
-3.111 -0.432 3.66 -0 -1.2 0
-4.15 -0.323 4.981 -0 -1.2 0
-3.165 -0.598 3.733 -0 -1.2 0
-3.273 -0.673 3.874 -0 -1.2 0
-3.208 -0.772 3.793 -0 -1.2 0
-4.66 -0.751 5.645 -0 -1.2 0
-4.66 -0.882 5.65 -0 -1.2 0
-4.654 -1.013 5.646 -0 -1.2 0
-4.652 -1.143 5.648 -0 -1.2 0
-4.661 -1.274 5.664 -0 -1.2 0
-4.657 -1.405 5.662 -0 -1.2 0
-4.651 -1.536 5.66 -0 -1.2 0
-4.65 -1.667 5.662 -0 -1.2 0
-4.573 -1.787 5.569 -0 -1.2 0
-4.698 -1.94 5.732 -0 -1.2 0
-4.704 -2.076 5.745 -0 -1.2 0
-4.704 -2.211 5.748 -0 -1.2 0
-4.701 -2.347 5.749 -0 -1.2 0
-4.697 -2.483 5.748 -0 -1.2 0
-4.691 -2.619 5.745 -0 -1.2 0
-4.69 -2.758 5.748 -0 -1.2 0
-4.688 -2.897 5.749 -0 -1.2 0
-4.683 -3.037 5.747 -0 -1.2 0
-4.672 -3.174 5.738 -0 -1.2 0
-4.67 -3.317 5.74 -0 -1.2 0
-4.661 -3.458 5.733 -0 -1.2 0
-4.656 -3.602 5.731 -0 -1.2 0
-4.65 -3.747 5.727 -0 -1.2 0
-4.641 -3.892 5.721 -0 -1.2 0
-4.643 -4.045 5.729 -0 -1.2 0
-4.637 -4.196 5.725 -0 -1.2 0
-4.629 -4.345 5.72 -0 -1.2 0
-4.63 -4.505 5.726 -0 -1.2 0
-4.624 -4.662 5.723 -0 -1.2 0
-4.621 -4.824 5.725 -0 -1.2 0
-4.616 -4.987 5.724 -0 -1.2 0
-4.609 -5.151 5.72 -0 -1.2 0
-4.611 -5.325 5.728 -0 -1.2 0
-4.605 -5.497 5.725 -0 -1.2 0
-4.606 -5.679 5.733 -0 -1.2 0
-4.6 -5.858 5.731 -0 -1.2 0
-4.592 -6.038 5.726 -0 -1.2 0
-4.596 -6.236 5.738 -0 -1.2 0
-4.587 -6.424 5.734 -0 -1.2 0
-4.582 -6.62 5.731 -0 -1.2 0
-4.572 -6.817 5.726 -0 -1.2 0
-4.565 -7.021 5.723 -0 -1.2 0
-4.564 -7.24 5.729 -0 -1.2 0
-4.56 -7.46 5.731 -0 -1.2 0
-4.547 -7.676 5.722 -0 -1.2 0
-4.537 -7.9 5.714 -0 -1.2 0
-4.496 -8.083 5.669 -0 -1.2 0
-4.474 -8.302 5.648 -0 -1.2 0
-4.355 -8.366 5.499 -0 -1.2 0
-0.707 0 0.657 -0 -1.2 0
-0.727 -0.006 0.684 -0 -1.2 0
-0.746 -0.012 0.712 -0 -1.2 0
-0.766 -0.02 0.74 -0 -1.2 0
-0.8 -0.008 0.785 -0 -1.2 0
-0.824 -0.012 0.819 -0 -1.2 0
-0.844 -0.023 0.847 -0 -1.2 0
-0.879 -0.016 0.894 -0 -1.2 0
-0.909 -0.016 0.935 -0 -1.2 0
-0.939 -0.018 0.977 -0 -1.2 0
-0.974 -0.017 1.025 -0 -1.2 0
-1 -0.028 1.06 -0 -1.2 0
-1.041 -0.023 1.116 -0 -1.2 0
-1.082 -0.022 1.172 -0 -1.2 0
-1.118 -0.027 1.222 -0 -1.2 0
-1.165 -0.024 1.286 -0 -1.2 0
-1.207 -0.029 1.344 -0 -1.2 0
-1.254 -0.03 1.409 -0 -1.2 0
-1.308 -0.029 1.481 -0 -1.2 0
-1.356 -0.037 1.547 -0 -1.2 0
-1.425 -0.029 1.642 -0 -1.2 0
-1.485 -0.035 1.724 -0 -1.2 0
-1.55 -0.038 1.813 -0 -1.2 0
-1.626 -0.039 1.918 -0 -1.2 0
-1.698 -0.047 2.016 -0 -1.2 0
-1.781 -0.051 2.129 -0 -1.2 0
-1.881 -0.052 2.266 -0 -1.2 0
-1.992 -0.051 2.419 -0 -1.2 0
-2.105 -0.057 2.572 -0 -1.2 0
-2.246 -0.056 2.766 -0 -1.2 0
-2.381 -0.065 2.952 -0 -1.2 0
-2.546 -0.07 3.178 -0 -1.2 0
-2.746 -0.071 3.452 -0 -1.2 0
-2.981 -0.072 3.774 -0 -1.2 0
-3.13 -0.114 3.98 -0 -1.2 0
-3.145 -0.204 4.001 -0 -1.2 0
-3.017 -0.331 3.831 -0 -1.2 0
-3.018 -0.42 3.835 -0 -1.2 0
-3.046 -0.503 3.877 -0 -1.2 0
-4.086 -0.417 5.298 -0 -1.2 0
-4.238 -0.516 5.509 -0 -1.2 0
-4.324 -0.632 5.631 -0 -1.2 0
-3.016 -0.864 3.848 -0 -1.2 0
-4.693 -0.867 6.144 -0 -1.2 0
-4.687 -1.005 6.14 -0 -1.2 0
-4.684 -1.142 6.142 -0 -1.2 0
-4.681 -1.279 6.142 -0 -1.2 0
-4.694 -1.418 6.164 -0 -1.2 0
-4.688 -1.556 6.16 -0 -1.2 0
-4.681 -1.694 6.154 -0 -1.2 0
-4.607 -1.821 6.058 -0 -1.2 0
-4.971 -2.027 6.564 -0 -1.2 0
-5.192 -2.224 6.872 -0 -1.2 0
-5.177 -2.377 6.856 -0 -1.2 0
-5.027 -2.492 6.655 -0 -1.2 0
-5.333 -2.741 7.083 -0 -1.2 0
-5.072 -2.816 6.727 -0 -1.2 0
-5.337 -3.072 7.1 -0 -1.2 0
-5.194 -3.181 6.907 -0 -1.2 0
-4.954 -3.241 6.58 -0 -1.2 0
-4.94 -3.393 6.566 -0 -1.2 0
-5.177 -3.669 6.9 -0 -1.2 0
-5.18 -3.84 6.911 -0 -1.2 0
-5.155 -3.997 6.881 -0 -1.2 0
-4.901 -4.017 6.534 -0 -1.2 0
-4.682 -4.044 6.235 -0 -1.2 0
-4.66 -4.19 6.209 -0 -1.2 0
-4.657 -4.351 6.212 -0 -1.2 0
-4.653 -4.513 6.211 -0 -1.2 0
-4.642 -4.671 6.201 -0 -1.2 0
-4.634 -4.834 6.195 -0 -1.2 0
-4.629 -5.003 6.195 -0 -1.2 0
-4.627 -5.176 6.198 -0 -1.2 0
-4.634 -5.361 6.213 -0 -1.2 0
-4.628 -5.538 6.21 -0 -1.2 0
-4.614 -5.711 6.197 -0 -1.2 0
-4.549 -5.831 6.112 -0 -1.2 0
-6.026 -7.632 8.196 -0 -1.2 0
-4.885 -6.6 6.598 -0 -1.2 0
-4.792 -6.705 6.475 -0 -1.2 0
-4.901 -7.056 6.636 -0 -1.2 0
-4.841 -7.208 6.559 -0 -1.2 0
-4.767 -7.34 6.461 -0 -1.2 0
-4.862 -7.705 6.605 -0 -1.2 0
-4.819 -7.888 6.55 -0 -1.2 0
-4.697 -7.96 6.387 -0 -1.2 0
-4.532 -7.963 6.162 -0 -1.2 0
-4.506 -8.172 6.131 -0 -1.2 0
-4.464 -8.361 6.081 -0 -1.2 0
-4.324 -8.39 5.891 -0 -1.2 0
-4.182 -8.406 5.696 -0 -1.2 0
-0.66 -0.019 0.682 -0 -1.2 0
-0.686 -0.01 0.721 -0 -1.2 0
-0.705 -0.017 0.749 -0 -1.2 0
-0.733 -0.011 0.789 -0 -1.2 0
-0.76 -0.006 0.829 -0 -1.2 0
-0.779 -0.016 0.858 -0 -1.2 0
-0.807 -0.013 0.9 -0 -1.2 0
-0.831 -0.019 0.935 -0 -1.2 0
-0.86 -0.02 0.977 -0 -1.2 0
-0.893 -0.016 1.026 -0 -1.2 0
-0.922 -0.02 1.069 -0 -1.2 0
-0.956 -0.019 1.119 -0 -1.2 0
-0.985 -0.026 1.162 -0 -1.2 0
-1.029 -0.019 1.227 -0 -1.2 0
-1.059 -0.029 1.27 -0 -1.2 0
-1.103 -0.026 1.336 -0 -1.2 0
-1.143 -0.029 1.395 -0 -1.2 0
-1.188 -0.032 1.461 -0 -1.2 0
-1.239 -0.031 1.536 -0 -1.2 0
-1.284 -0.037 1.603 -0 -1.2 0
-1.345 -0.035 1.693 -0 -1.2 0
-1.407 -0.035 1.784 -0 -1.2 0
-1.463 -0.042 1.868 -0 -1.2 0
-1.536 -0.042 1.975 -0 -1.2 0
-1.603 -0.049 2.076 -0 -1.2 0
-1.687 -0.051 2.2 -0 -1.2 0
-1.777 -0.053 2.332 -0 -1.2 0
-1.883 -0.052 2.489 -0 -1.2 0
-1.995 -0.055 2.654 -0 -1.2 0
-2.124 -0.056 2.844 -0 -1.2 0
-2.254 -0.065 3.035 -0 -1.2 0
-2.4 -0.074 3.25 -0 -1.2 0
-2.584 -0.077 3.523 -0 -1.2 0
-2.808 -0.076 3.853 -0 -1.2 0
-2.933 -0.123 4.038 -0 -1.2 0
-2.985 -0.199 4.118 -0 -1.2 0
-2.908 -0.314 4.009 -0 -1.2 0
-2.909 -0.404 4.013 -0 -1.2 0
-2.902 -0.496 4.007 -0 -1.2 0
-4.126 -0.365 5.808 -0 -1.2 0
-4.585 -0.425 6.488 -0 -1.2 0
-4.124 -0.621 5.813 -0 -1.2 0
-4.714 -0.696 6.688 -0 -1.2 0
-4.71 -0.842 6.686 -0 -1.2 0
-4.704 -0.988 6.683 -0 -1.2 0
-3.809 -1.128 5.369 -0 -1.2 0
-4.704 -1.278 6.693 -0 -1.2 0
-4.699 -1.424 6.691 -0 -1.2 0
-4.693 -1.569 6.686 -0 -1.2 0
-4.68 -1.714 6.672 -0 -1.2 0
-4.62 -1.851 6.59 -0 -1.2 0
-4.839 -2.038 6.917 -0 -1.2 0
-4.837 -2.19 6.921 -0 -1.2 0
-4.829 -2.342 6.914 -0 -1.2 0
-4.83 -2.496 6.921 -0 -1.2 0
-4.829 -2.651 6.926 -0 -1.2 0
-4.822 -2.805 6.92 -0 -1.2 0
-4.819 -2.961 6.921 -0 -1.2 0
-4.814 -3.118 6.919 -0 -1.2 0
-4.812 -3.277 6.923 -0 -1.2 0
-4.809 -3.437 6.923 -0 -1.2 0
-4.805 -3.598 6.923 -0 -1.2 0
-4.803 -3.762 6.927 -0 -1.2 0
-4.801 -3.927 6.928 -0 -1.2 0
-4.723 -4.046 6.817 -0 -1.2 0
-4.685 -4.19 6.768 -0 -1.2 0
-4.678 -4.354 6.763 -0 -1.2 0
-4.674 -4.523 6.762 -0 -1.2 0
-4.673 -4.696 6.767 -0 -1.2 0
-4.665 -4.866 6.761 -0 -1.2 0
-4.659 -5.042 6.76 -0 -1.2 0
-4.653 -5.218 6.756 -0 -1.2 0
-4.649 -5.4 6.756 -0 -1.2 0
-4.642 -5.583 6.754 -0 -1.2 0
-4.605 -5.737 6.704 -0 -1.2 0
-4.58 -5.907 6.673 -0 -1.2 0
-4.761 -6.303 6.955 -0 -1.2 0
-4.758 -6.511 6.958 -0 -1.2 0
-4.748 -6.715 6.95 -0 -1.2 0
-4.736 -6.92 6.939 -0 -1.2 0
-4.738 -7.149 6.951 -0 -1.2 0
-4.729 -7.369 6.945 -0 -1.2 0
-4.726 -7.602 6.948 -0 -1.2 0
-4.724 -7.843 6.953 -0 -1.2 0
-4.637 -7.966 6.831 -0 -1.2 0
-4.526 -8.048 6.668 -0 -1.2 0
-4.516 -8.288 6.663 -0 -1.2 0
-4.426 -8.404 6.535 -0 -1.2 0
-4.261 -8.386 6.29 -0 -1.2 0
-4.178 -8.506 6.173 -0 -1.2 0
-4.099 -8.631 6.061 -0 -1.2 0
-0.628 -0.018 0.719 -0 -1.2 0
-0.654 -0.009 0.759 -0 -1.2 0
-0.676 -0.008 0.794 -0 -1.2 0
-0.698 -0.009 0.829 -0 -1.2 0
-0.72 -0.011 0.864 -0 -1.2 0
-0.742 -0.014 0.899 -0 -1.2 0
-0.765 -0.018 0.935 -0 -1.2 0
-0.787 -0.023 0.971 -0 -1.2 0
-0.814 -0.023 1.014 -0 -1.2 0
-0.842 -0.025 1.057 -0 -1.2 0
-0.878 -0.017 1.114 -0 -1.2 0
-0.906 -0.023 1.158 -0 -1.2 0
-0.933 -0.029 1.202 -0 -1.2 0
-0.975 -0.021 1.268 -0 -1.2 0
-1.008 -0.026 1.32 -0 -1.2 0
-1.046 -0.028 1.38 -0 -1.2 0
-1.083 -0.031 1.44 -0 -1.2 0
-1.126 -0.032 1.508 -0 -1.2 0
-1.174 -0.032 1.584 -0 -1.2 0
-1.217 -0.039 1.653 -0 -1.2 0
-1.281 -0.031 1.753 -0 -1.2 0
-1.339 -0.031 1.845 -0 -1.2 0
-1.387 -0.042 1.923 -0 -1.2 0
-1.452 -0.045 2.025 -0 -1.2 0
-1.521 -0.049 2.136 -0 -1.2 0
-1.601 -0.049 2.262 -0 -1.2 0
-1.691 -0.048 2.405 -0 -1.2 0
-1.782 -0.054 2.549 -0 -1.2 0
-1.889 -0.055 2.718 -0 -1.2 0
-2.016 -0.052 2.92 -0 -1.2 0
-2.139 -0.061 3.114 -0 -1.2 0
-2.273 -0.071 3.327 -0 -1.2 0
-2.454 -0.071 3.613 -0 -1.2 0
-2.657 -0.074 3.934 -0 -1.2 0
-2.891 -0.078 4.306 -0 -1.2 0
-3.163 -0.086 4.737 -0 -1.2 0
-3.499 -0.092 5.269 -0 -1.2 0
-3.878 -0.108 5.87 -0 -1.2 0
-4.145 -0.175 6.296 -0 -1.2 0
-3.864 -0.365 5.856 -0 -1.2 0
-3.943 -0.478 5.986 -0 -1.2 0
-4.138 -0.581 6.299 -0 -1.2 0
-4.465 -0.685 6.822 -0 -1.2 0
-4.749 -0.812 7.276 -0 -1.2 0
-4.754 -0.966 7.289 -0 -1.2 0
-4.725 -1.12 7.249 -0 -1.2 0
-4.749 -1.274 7.292 -0 -1.2 0
-4.744 -1.428 7.29 -0 -1.2 0
-4.743 -1.583 7.294 -0 -1.2 0
-4.704 -1.733 7.237 -0 -1.2 0
-4.668 -1.882 7.185 -0 -1.2 0
-4.784 -2.059 7.377 -0 -1.2 0
-4.788 -2.219 7.388 -0 -1.2 0
-4.784 -2.378 7.389 -0 -1.2 0
-4.779 -2.537 7.387 -0 -1.2 0
-4.779 -2.698 7.391 -0 -1.2 0
-4.776 -2.86 7.394 -0 -1.2 0
-4.767 -3.02 7.384 -0 -1.2 0
-4.761 -3.182 7.382 -0 -1.2 0
-4.759 -3.348 7.384 -0 -1.2 0
-4.75 -3.511 7.377 -0 -1.2 0
-4.744 -3.677 7.374 -0 -1.2 0
-4.737 -3.844 7.369 -0 -1.2 0
-4.733 -4.015 7.369 -0 -1.2 0
-4.728 -4.186 7.367 -0 -1.2 0
-4.726 -4.362 7.369 -0 -1.2 0
-4.717 -4.535 7.362 -0 -1.2 0
-4.711 -4.711 7.359 -0 -1.2 0
-4.703 -4.889 7.353 -0 -1.2 0
-4.698 -5.072 7.352 -0 -1.2 0
-4.691 -5.256 7.347 -0 -1.2 0
-4.687 -5.445 7.348 -0 -1.2 0
-4.68 -5.636 7.345 -0 -1.2 0
-4.677 -5.832 7.347 -0 -1.2 0
-4.67 -6.03 7.344 -0 -1.2 0
-4.667 -6.234 7.345 -0 -1.2 0
-4.66 -6.439 7.343 -0 -1.2 0
-4.651 -6.646 7.337 -0 -1.2 0
-4.645 -6.859 7.334 -0 -1.2 0
-4.636 -7.074 7.328 -0 -1.2 0
-4.628 -7.296 7.324 -0 -1.2 0
-4.626 -7.531 7.329 -0 -1.2 0
-4.613 -7.757 7.316 -0 -1.2 0
-4.588 -7.971 7.286 -0 -1.2 0
-4.565 -8.191 7.258 -0 -1.2 0
-4.52 -8.381 7.192 -0 -1.2 0
-4.37 -8.4 6.957 -0 -1.2 0
-4.241 -8.443 6.755 -0 -1.2 0
-4.181 -8.605 6.665 -0 -1.2 0
-4.057 -8.647 6.469 -0 -1.2 0
-0.598 -0.008 0.761 -0 -1.2 0
-0.618 -0.007 0.796 -0 -1.2 0
-0.639 -0.006 0.831 -0 -1.2 0
-0.656 -0.014 0.861 -0 -1.2 0
-0.677 -0.015 0.896 -0 -1.2 0
-0.702 -0.012 0.939 -0 -1.2 0
-0.72 -0.022 0.969 -0 -1.2 0
-0.745 -0.021 1.012 -0 -1.2 0
-0.771 -0.021 1.056 -0 -1.2 0
-0.801 -0.017 1.107 -0 -1.2 0
-0.827 -0.02 1.151 -0 -1.2 0
-0.853 -0.025 1.196 -0 -1.2 0
-0.883 -0.026 1.248 -0 -1.2 0
-0.919 -0.023 1.308 -0 -1.2 0
-0.954 -0.023 1.369 -0 -1.2 0
-0.99 -0.025 1.429 -0 -1.2 0
-1.026 -0.028 1.491 -0 -1.2 0
-1.072 -0.025 1.568 -0 -1.2 0
-1.112 -0.029 1.637 -0 -1.2 0
-1.148 -0.039 1.7 -0 -1.2 0
-1.209 -0.031 1.802 -0 -1.2 0
-1.259 -0.035 1.888 -0 -1.2 0
-1.315 -0.038 1.984 -0 -1.2 0
-1.375 -0.041 2.087 -0 -1.2 0
-1.437 -0.047 2.191 -0 -1.2 0
-1.518 -0.044 2.329 -0 -1.2 0
-1.599 -0.046 2.467 -0 -1.2 0
-1.685 -0.051 2.613 -0 -1.2 0
-1.781 -0.055 2.777 -0 -1.2 0
-1.902 -0.052 2.983 -0 -1.2 0
-2.018 -0.059 3.182 -0 -1.2 0
-2.15 -0.067 3.407 -0 -1.2 0
-2.322 -0.065 3.699 -0 -1.2 0
-2.508 -0.07 4.018 -0 -1.2 0
-2.726 -0.075 4.388 -0 -1.2 0
-2.993 -0.078 4.845 -0 -1.2 0
-3.312 -0.082 5.388 -0 -1.2 0
-3.717 -0.085 6.077 -0 -1.2 0
-3.717 -0.213 6.084 -0 -1.2 0
-3.718 -0.341 6.089 -0 -1.2 0
-3.732 -0.467 6.118 -0 -1.2 0
-3.639 -0.607 5.965 -0 -1.2 0
-3.646 -0.731 5.981 -0 -1.2 0
-3.605 -0.859 5.918 -0 -1.2 0
-3.595 -0.982 5.904 -0 -1.2 0
-3.573 -1.105 5.873 -0 -1.2 0
-4.623 -1.263 7.667 -0 -1.2 0
-4.633 -1.423 7.69 -0 -1.2 0
-4.627 -1.582 7.686 -0 -1.2 0
-4.619 -1.741 7.679 -0 -1.2 0
-4.615 -1.9 7.679 -0 -1.2 0
-4.765 -2.092 7.942 -0 -1.2 0
-4.748 -2.255 7.918 -0 -1.2 0
-4.769 -2.428 7.962 -0 -1.2 0
-4.78 -2.6 7.985 -0 -1.2 0
-4.768 -2.766 7.971 -0 -1.2 0
-4.764 -2.936 7.972 -0 -1.2 0
-4.764 -3.109 7.979 -0 -1.2 0
-4.762 -3.282 7.982 -0 -1.2 0
-4.754 -3.454 7.975 -0 -1.2 0
-4.744 -3.625 7.966 -0 -1.2 0
-4.743 -3.803 7.969 -0 -1.2 0
-4.73 -3.976 7.954 -0 -1.2 0
-4.701 -4.139 7.911 -0 -1.2 0
-4.727 -4.341 7.964 -0 -1.2 0
-4.724 -4.525 7.964 -0 -1.2 0
-4.717 -4.71 7.962 -0 -1.2 0
-4.71 -4.895 7.956 -0 -1.2 0
-4.7 -5.081 7.947 -0 -1.2 0
-4.689 -5.268 7.935 -0 -1.2 0
-4.681 -5.461 7.928 -0 -1.2 0
-4.674 -5.658 7.925 -0 -1.2 0
-4.666 -5.857 7.919 -0 -1.2 0
-4.621 -6.019 7.847 -0 -1.2 0
-4.648 -6.262 7.903 -0 -1.2 0
-4.65 -6.484 7.916 -0 -1.2 0
-4.641 -6.697 7.91 -0 -1.2 0
-4.639 -6.922 7.914 -0 -1.2 0
-4.63 -7.144 7.907 -0 -1.2 0
-4.627 -7.378 7.91 -0 -1.2 0
-4.62 -7.614 7.909 -0 -1.2 0
-4.583 -7.81 7.854 -0 -1.2 0
-4.587 -8.073 7.871 -0 -1.2 0
-4.487 -8.177 7.704 -0 -1.2 0
-4.471 -8.416 7.687 -0 -1.2 0
-4.309 -8.412 7.41 -0 -1.2 0
-4.252 -8.583 7.32 -0 -1.2 0
-4.114 -8.604 7.085 -0 -1.2 0
-4.044 -8.749 6.972 -0 -1.2 0
-0.563 -0.006 0.799 -0 -1.2 0
-0.579 -0.012 0.829 -0 -1.2 0
-0.602 -0.004 0.871 -0 -1.2 0
-0.618 -0.012 0.901 -0 -1.2 0
-0.641 -0.007 0.944 -0 -1.2 0
-0.665 -0.003 0.988 -0 -1.2 0
-0.677 -0.019 1.011 -0 -1.2 0
-0.705 -0.012 1.062 -0 -1.2 0
-0.729 -0.012 1.107 -0 -1.2 0
-0.754 -0.014 1.152 -0 -1.2 0
-0.778 -0.017 1.197 -0 -1.2 0
-0.807 -0.017 1.25 -0 -1.2 0
-0.831 -0.023 1.296 -0 -1.2 0
-0.869 -0.015 1.365 -0 -1.2 0
-0.898 -0.02 1.419 -0 -1.2 0
-0.931 -0.022 1.481 -0 -1.2 0
-0.97 -0.019 1.551 -0 -1.2 0
-1.009 -0.021 1.622 -0 -1.2 0
-1.051 -0.02 1.701 -0 -1.2 0
-1.09 -0.026 1.772 -0 -1.2 0
-1.142 -0.023 1.868 -0 -1.2 0
-1.194 -0.023 1.965 -0 -1.2 0
-1.247 -0.026 2.062 -0 -1.2 0
-1.299 -0.032 2.16 -0 -1.2 0
-1.357 -0.039 2.266 -0 -1.2 0
-1.428 -0.039 2.398 -0 -1.2 0
-1.504 -0.041 2.538 -0 -1.2 0
-1.594 -0.039 2.705 -0 -1.2 0
-1.689 -0.04 2.881 -0 -1.2 0
-1.798 -0.04 3.082 -0 -1.2 0
-1.908 -0.047 3.285 -0 -1.2 0
-2.056 -0.043 3.556 -0 -1.2 0
-2.199 -0.05 3.82 -0 -1.2 0
-2.37 -0.057 4.136 -0 -1.2 0
-2.588 -0.056 4.54 -0 -1.2 0
-2.835 -0.06 4.997 -0 -1.2 0
-3.15 -0.059 5.577 -0 -1.2 0
-3.506 -0.07 6.237 -0 -1.2 0
-3.512 -0.197 6.253 -0 -1.2 0
-3.527 -0.322 6.284 -0 -1.2 0
-3.512 -0.454 6.262 -0 -1.2 0
-3.457 -0.59 6.166 -0 -1.2 0
-3.425 -0.719 6.113 -0 -1.2 0
-4.76 -0.741 8.579 -0 -1.2 0
-4.802 -0.912 8.664 -0 -1.2 0
-4.8 -1.087 8.667 -0 -1.2 0
-4.806 -1.262 8.685 -0 -1.2 0
-4.796 -1.437 8.674 -0 -1.2 0
-4.79 -1.612 8.669 -0 -1.2 0
-4.73 -1.779 8.565 -0 -1.2 0
-12.076 -3.282 22.191 -0 -1.2 0
-12.02 -4.619 22.142 -0 -1.2 0
-4.751 -3.583 8.679 -0 -1.2 0
-4.763 -3.778 8.709 -0 -1.2 0
-4.751 -3.961 8.694 -0 -1.2 0
-4.746 -4.151 8.692 -0 -1.2 0
-4.749 -4.347 8.705 -0 -1.2 0
-4.74 -4.538 8.697 -0 -1.2 0
-4.735 -4.732 8.695 -0 -1.2 0
-4.731 -4.932 8.697 -0 -1.2 0
-4.722 -5.129 8.688 -0 -1.2 0
-4.72 -5.333 8.691 -0 -1.2 0
-4.714 -5.539 8.691 -0 -1.2 0
-4.555 -5.596 8.399 -0 -1.2 0
-4.481 -5.729 8.266 -0 -1.2 0
-4.697 -6.175 8.685 -0 -1.2 0
-4.692 -6.395 8.685 -0 -1.2 0
-4.686 -6.617 8.682 -0 -1.2 0
-4.681 -6.846 8.681 -0 -1.2 0
-4.677 -7.081 8.685 -0 -1.2 0
-4.667 -7.312 8.676 -0 -1.2 0
-4.662 -7.556 8.678 -0 -1.2 0
-4.663 -7.813 8.688 -0 -1.2 0
-4.669 -8.083 8.709 -0 -1.2 0
-4.644 -8.315 8.675 -0 -1.2 0
-4.51 -8.373 8.43 -0 -1.2 0
-4.355 -8.388 8.143 -0 -1.2 0
-4.28 -8.531 8.011 -0 -1.2 0
-4.144 -8.563 7.761 -0 -1.2 0
-0.53 -0.004 0.834 -0 -1.2 0
-0.552 0.003 0.877 -0 -1.2 0
-0.567 -0.002 0.907 -0 -1.2 0
-0.585 -0.003 0.944 -0 -1.2 0
-0.604 -0.005 0.981 -0 -1.2 0
-0.622 -0.007 1.019 -0 -1.2 0
-0.645 -0.004 1.063 -0 -1.2 0
-0.664 -0.01 1.101 -0 -1.2 0
-0.686 -0.01 1.147 -0 -1.2 0
-0.713 -0.006 1.2 -0 -1.2 0
-0.736 -0.01 1.246 -0 -1.2 0
-0.756 -0.02 1.285 -0 -1.2 0
-0.786 -0.015 1.346 -0 -1.2 0
-0.817 -0.012 1.409 -0 -1.2 0
-0.849 -0.012 1.471 -0 -1.2 0
-0.88 -0.014 1.535 -0 -1.2 0
-0.917 -0.012 1.606 -0 -1.2 0
-0.953 -0.013 1.678 -0 -1.2 0
-0.989 -0.017 1.75 -0 -1.2 0
-1.038 -0.009 1.847 -0 -1.2 0
-1.083 -0.01 1.936 -0 -1.2 0
-1.128 -0.015 2.026 -0 -1.2 0
-1.177 -0.017 2.125 -0 -1.2 0
-1.227 -0.024 2.226 -0 -1.2 0
-1.293 -0.02 2.358 -0 -1.2 0
-1.356 -0.024 2.483 -0 -1.2 0
-1.428 -0.027 2.627 -0 -1.2 0
-1.508 -0.027 2.788 -0 -1.2 0
-1.599 -0.028 2.966 -0 -1.2 0
-1.706 -0.026 3.18 -0 -1.2 0
-1.822 -0.025 3.412 -0 -1.2 0
-1.951 -0.026 3.671 -0 -1.2 0
-2.085 -0.034 3.94 -0 -1.2 0
-2.265 -0.031 4.297 -0 -1.2 0
-2.475 -0.029 4.716 -0 -1.2 0
-2.717 -0.03 5.199 -0 -1.2 0
-3.03 -0.025 5.824 -0 -1.2 0
-3.41 -0.022 6.582 -0 -1.2 0
-3.35 -0.172 6.467 -0 -1.2 0
-3.304 -0.313 6.384 -0 -1.2 0
-3.281 -0.446 6.343 -0 -1.2 0
-3.266 -0.575 6.318 -0 -1.2 0
-3.707 -0.647 7.2 -0 -1.2 0
-3.712 -0.79 7.217 -0 -1.2 0
-3.678 -1.077 7.161 -0 -1.2 0
-11.197 -1.457 22.183 -0 -1.2 0
-11.315 -1.902 22.437 -0 -1.2 0
-4.151 -5.644 8.3 -0 -1.2 0
-4.112 -5.807 8.229 -0 -1.2 0
-4.406 -8.363 8.926 -0 -1.2 0
-4.346 -8.538 8.814 -0 -1.2 0
-4.205 -8.569 8.534 -0 -1.2 0
-0.496 -0.002 0.867 -0 -1.2 0
-0.513 -0.001 0.903 -0 -1.2 0
-0.53 0 0.941 -0 -1.2 0
-0.544 -0.008 0.971 -0 -1.2 0
-0.568 0.003 1.023 -0 -1.2 0
-0.585 0.001 1.061 -0 -1.2 0
-0.6 -0.009 1.092 -0 -1.2 0
-0.621 -0.008 1.138 -0 -1.2 0
-0.645 -0.002 1.191 -0 -1.2 0
-0.667 -0.003 1.238 -0 -1.2 0
-0.688 -0.007 1.285 -0 -1.2 0
-0.71 -0.012 1.332 -0 -1.2 0
-0.739 -0.007 1.395 -0 -1.2 0
-0.765 -0.009 1.45 -0 -1.2 0
-0.797 -0.004 1.522 -0 -1.2 0
-0.827 -0.006 1.586 -0 -1.2 0
-0.858 -0.009 1.651 -0 -1.2 0
-0.891 -0.01 1.723 -0 -1.2 0
-0.929 -0.008 1.804 -0 -1.2 0
-0.974 -0.002 1.903 -0 -1.2 0
-1.02 0.001 2.002 -0 -1.2 0
-1.059 -0.007 2.086 -0 -1.2 0
-1.105 -0.009 2.186 -0 -1.2 0
-1.155 -0.013 2.295 -0 -1.2 0
-1.218 -0.008 2.431 -0 -1.2 0
-1.277 -0.012 2.559 -0 -1.2 0
-1.344 -0.014 2.704 -0 -1.2 0
-1.42 -0.016 2.868 -0 -1.2 0
-1.507 -0.014 3.058 -0 -1.2 0
-1.612 -0.008 3.284 -0 -1.2 0
-1.717 -0.01 3.511 -0 -1.2 0
-1.83 -0.017 3.756 -0 -1.2 0
-1.972 -0.015 4.064 -0 -1.2 0
-2.144 -0.011 4.436 -0 -1.2 0
-2.336 -0.011 4.853 -0 -1.2 0
-2.571 -0.008 5.36 -0 -1.2 0
-2.869 -0.001 6.004 -0 -1.2 0
-3.254 0.011 6.838 -0 -1.2 0
-3.573 -0.027 7.531 -0 -1.2 0
-4.373 0.033 9.261 -0 -1.2 0
-5.443 0.086 11.573 -0 -1.2 0
-3.543 -0.477 7.484 -0 -1.2 0
-3.498 -0.63 7.395 -0 -1.2 0
-3.499 -0.774 7.402 -0 -1.2 0
-10.468 -0.547 22.48 -0 -1.2 0
-0.458 -0.001 0.901 -0 -1.2 0
-0.475 0 0.938 -0 -1.2 0
-0.491 0.001 0.976 -0 -1.2 0
-0.507 0 1.014 -0 -1.2 0
-0.523 -0.001 1.053 -0 -1.2 0
-0.542 0.003 1.098 -0 -1.2 0
-0.561 0.005 1.145 -0 -1.2 0
-0.578 0 1.184 -0 -1.2 0
-0.597 0 1.231 -0 -1.2 0
-0.617 -0.001 1.278 -0 -1.2 0
-0.637 -0.005 1.326 -0 -1.2 0
-0.664 0.002 1.388 -0 -1.2 0
-0.684 -0.004 1.436 -0 -1.2 0
-0.711 -0.001 1.5 -0 -1.2 0
-0.738 -0.001 1.565 -0 -1.2 0
-0.766 -0.002 1.63 -0 -1.2 0
-0.797 -0.001 1.704 -0 -1.2 0
-0.828 -0.001 1.778 -0 -1.2 0
-0.863 -0.001 1.861 -0 -1.2 0
-0.902 0.001 1.953 -0 -1.2 0
-0.94 0.001 2.046 -0 -1.2 0
-0.983 0.001 2.147 -0 -1.2 0
-1.026 -0.001 2.249 -0 -1.2 0
-1.077 0 2.369 -0 -1.2 0
-1.127 -0.003 2.49 -0 -1.2 0
-1.182 -0.007 2.619 -0 -1.2 0
-1.247 -0.006 2.776 -0 -1.2 0
-1.317 -0.007 2.942 -0 -1.2 0
-1.395 -0.008 3.126 -0 -1.2 0
-1.488 -0.005 3.346 -0 -1.2 0
-1.588 -0.003 3.585 -0 -1.2 0
-1.701 -0.004 3.853 -0 -1.2 0
-1.829 -0.005 4.157 -0 -1.2 0
-1.98 -0.004 4.516 -0 -1.2 0
-2.17 0.002 4.966 -0 -1.2 0
-2.394 0.009 5.5 -0 -1.2 0
-2.665 0.014 6.144 -0 -1.2 0
-3.026 0.031 7.001 -0 -1.2 0
-3.473 0.042 8.06 -0 -1.2 0
-4.05 0.052 9.432 -0 -1.2 0
-5.02 0.105 11.734 -0 -1.2 0
-0.424 0.007 0.939 -0 -1.2 0
-0.439 0.008 0.977 -0 -1.2 0
-0.454 0.008 1.016 -0 -1.2 0
-0.469 0.009 1.053 -0 -1.2 0
-0.484 0.007 1.092 -0 -1.2 0
-0.499 0.004 1.132 -0 -1.2 0
-0.514 0.001 1.172 -0 -1.2 0
-0.532 0.001 1.218 -0 -1.2 0
-0.55 0.002 1.266 -0 -1.2 0
-0.571 0.006 1.321 -0 -1.2 0
-0.589 0.002 1.37 -0 -1.2 0
-0.611 0.004 1.426 -0 -1.2 0
-0.632 0.002 1.483 -0 -1.2 0
-0.654 0 1.54 -0 -1.2 0
-0.68 0 1.606 -0 -1.2 0
-0.705 0 1.672 -0 -1.2 0
-0.734 0.001 1.747 -0 -1.2 0
-0.769 0.009 1.838 -0 -1.2 0
-0.791 -0.002 1.898 -0 -1.2 0
-0.833 0.008 2.007 -0 -1.2 0
-0.87 0.008 2.101 -0 -1.2 0
-0.906 0.004 2.196 -0 -1.2 0
-0.948 0.005 2.308 -0 -1.2 0
-0.994 0.006 2.429 -0 -1.2 0
-1.041 0.002 2.551 -0 -1.2 0
-1.095 0.003 2.69 -0 -1.2 0
-1.156 0.004 2.849 -0 -1.2 0
-1.223 0.005 3.026 -0 -1.2 0
-1.292 0.001 3.204 -0 -1.2 0
-1.377 0.005 3.428 -0 -1.2 0
-1.463 0.001 3.653 -0 -1.2 0
-1.574 0.005 3.942 -0 -1.2 0
-1.688 0.002 4.24 -0 -1.2 0
-1.841 0.011 4.641 -0 -1.2 0
-2.009 0.015 5.08 -0 -1.2 0
-2.227 0.027 5.648 -0 -1.2 0
-2.506 0.046 6.374 -0 -1.2 0
-2.824 0.055 7.206 -0 -1.2 0
-3.263 0.077 8.353 -0 -1.2 0
-3.807 0.089 9.772 -0 -1.2 0
-4.697 0.14 12.095 -0 -1.2 0
-8.45 -4.248 22.118 -0 -1.2 0
-8.231 -4.997 21.583 -0 -1.2 0
-8.342 -5.477 21.896 -0 -1.2 0
-7.644 -5.503 20.074 -0 -1.2 0
-7.085 -7.842 18.729 -0 -1.2 0
-0.385 0 0.962 -0 -1.2 0
-0.399 0.002 1 -0 -1.2 0
-0.415 0.009 1.045 -0 -1.2 0
-0.426 0.002 1.077 -0 -1.2 0
-0.442 0.008 1.124 -0 -1.2 0
-0.456 0.005 1.163 -0 -1.2 0
-0.472 0.007 1.211 -0 -1.2 0
-0.486 0.002 1.251 -0 -1.2 0
-0.502 0.002 1.299 -0 -1.2 0
-0.522 0.007 1.355 -0 -1.2 0
-0.542 0.009 1.412 -0 -1.2 0
-0.559 0.005 1.461 -0 -1.2 0
-0.579 0.003 1.519 -0 -1.2 0
-0.601 0.006 1.585 -0 -1.2 0
-0.621 0.001 1.643 -0 -1.2 0
-0.647 0.005 1.718 -0 -1.2 0
-0.673 0.007 1.794 -0 -1.2 0
-0.7 0.005 1.87 -0 -1.2 0
-0.727 0.002 1.947 -0 -1.2 0
-0.759 0.005 2.041 -0 -1.2 0
-0.797 0.013 2.152 -0 -1.2 0
-0.834 0.014 2.257 -0 -1.2 0
-0.867 0.007 2.353 -0 -1.2 0
-0.906 0.004 2.467 -0 -1.2 0
-0.955 0.008 2.608 -0 -1.2 0
-1.008 0.011 2.759 -0 -1.2 0
-1.06 0.008 2.911 -0 -1.2 0
-1.122 0.01 3.09 -0 -1.2 0
-1.187 0.009 3.279 -0 -1.2 0
-1.266 0.013 3.505 -0 -1.2 0
-1.347 0.01 3.741 -0 -1.2 0
-1.448 0.014 4.034 -0 -1.2 0
-1.557 0.013 4.346 -0 -1.2 0
-1.687 0.016 4.723 -0 -1.2 0
-1.853 0.027 5.205 -0 -1.2 0
-2.049 0.037 5.77 -0 -1.2 0
-2.307 0.057 6.515 -0 -1.2 0
-2.605 0.068 7.375 -0 -1.2 0
-3.029 0.099 8.602 -0 -1.2 0
-3.559 0.12 10.132 -0 -1.2 0
-4.35 0.161 12.417 -0 -1.2 0
-7.598 -5.028 22.081 -0 -1.2 0
-7.574 -5.439 22.033 -0 -1.2 0
-7.368 -6.156 21.475 -0 -1.2 0
-6.807 -6.163 19.854 -0 -1.2 0
-6.321 -6.538 18.466 -0 -1.2 0
-6.677 -7.641 19.552 -0 -1.2 0
-6.638 -8.008 19.461 -0 -1.2 0
-7.134 -8.965 20.944 -0 -1.2 0
-0.348 0.008 0.999 -0 -1.2 0
-0.362 0.016 1.044 -0 -1.2 0
-0.372 0.01 1.076 -0 -1.2 0
-0.384 0.01 1.116 -0 -1.2 0
-0.396 0.009 1.156 -0 -1.2 0
-0.408 0.006 1.196 -0 -1.2 0
-0.42 0.002 1.236 -0 -1.2 0
-0.435 0.003 1.285 -0 -1.2 0
-0.451 0.003 1.333 -0 -1.2 0
-0.47 0.014 1.398 -0 -1.2 0
-0.483 0.004 1.44 -0 -1.2 0
-0.501 0.006 1.497 -0 -1.2 0
-0.518 0.004 1.555 -0 -1.2 0
-0.536 0.002 1.614 -0 -1.2 0
-0.556 0.002 1.681 -0 -1.2 0
-0.581 0.006 1.757 -0 -1.2 0
-0.601 0.003 1.825 -0 -1.2 0
-0.625 0.003 1.903 -0 -1.2 0
-0.651 0.003 1.989 -0 -1.2 0
-0.68 0.006 2.084 -0 -1.2 0
-0.709 0.006 2.18 -0 -1.2 0
-0.742 0.007 2.285 -0 -1.2 0
-0.774 0.004 2.391 -0 -1.2 0
-0.812 0.005 2.515 -0 -1.2 0
-0.853 0.006 2.649 -0 -1.2 0
-0.897 0.006 2.792 -0 -1.2 0
-0.946 0.007 2.954 -0 -1.2 0
-1 0.006 3.127 -0 -1.2 0
-1.061 0.008 3.327 -0 -1.2 0
-1.134 0.015 3.565 -0 -1.2 0
-1.207 0.012 3.805 -0 -1.2 0
-1.292 0.012 4.082 -0 -1.2 0
-1.389 0.012 4.397 -0 -1.2 0
-1.509 0.017 4.789 -0 -1.2 0
-1.652 0.024 5.257 -0 -1.2 0
-1.821 0.031 5.81 -0 -1.2 0
-2.046 0.05 6.545 -0 -1.2 0
-2.321 0.068 7.443 -0 -1.2 0
-2.678 0.089 8.609 -0 -1.2 0
-3.167 0.119 10.203 -0 -1.2 0
-3.841 0.151 12.402 -0 -1.2 0
-6.82 -5.026 22.434 -0 -1.2 0
-6.876 -5.488 22.64 -0 -1.2 0
-6.133 -5.401 20.211 -0 -1.2 0
-5.385 -5.219 17.754 -0 -1.2 0
-5.812 -6.297 19.213 -0 -1.2 0
-5.991 -6.851 19.827 -0 -1.2 0
-6.051 -7.718 20.074 -0 -1.2 0
-6.087 -8.594 20.242 -0 -1.2 0
-0.308 0.002 1.02 -0 -1.2 0
-0.319 0.003 1.059 -0 -1.2 0
-0.33 0.004 1.099 -0 -1.2 0
-0.34 0.004 1.138 -0 -1.2 0
-0.354 0.009 1.186 -0 -1.2 0
-0.363 0 1.219 -0 -1.2 0
-0.376 0.003 1.267 -0 -1.2 0
-0.387 -0.001 1.309 -0 -1.2 0
-0.402 0.004 1.365 -0 -1.2 0
-0.417 0.009 1.422 -0 -1.2 0
-0.431 0.005 1.472 -0 -1.2 0
-0.446 0.007 1.53 -0 -1.2 0
-0.462 0.005 1.589 -0 -1.2 0
-0.479 0.003 1.648 -0 -1.2 0
-0.497 0.004 1.716 -0 -1.2 0
-0.516 0.002 1.784 -0 -1.2 0
-0.536 0.004 1.861 -0 -1.2 0
-0.557 0.004 1.939 -0 -1.2 0
-0.578 0.001 2.017 -0 -1.2 0
-0.607 0.008 2.122 -0 -1.2 0
-0.631 0.003 2.21 -0 -1.2 0
-0.662 0.009 2.325 -0 -1.2 0
-0.688 0.002 2.423 -0 -1.2 0
-0.725 0.007 2.557 -0 -1.2 0
-0.756 0 2.675 -0 -1.2 0
-0.798 0.004 2.828 -0 -1.2 0
-0.842 0.005 2.992 -0 -1.2 0
-0.887 0.002 3.157 -0 -1.2 0
-0.941 0.004 3.359 -0 -1.2 0
-1.004 0.008 3.59 -0 -1.2 0
-1.071 0.01 3.84 -0 -1.2 0
-1.14 0.002 4.092 -0 -1.2 0
-1.234 0.01 4.439 -0 -1.2 0
-1.337 0.013 4.825 -0 -1.2 0
-1.457 0.016 5.268 -0 -1.2 0
-1.609 0.024 5.827 -0 -1.2 0
-1.799 0.037 6.53 -0 -1.2 0
-2.045 0.057 7.437 -0 -1.2 0
-2.337 0.068 8.517 -0 -1.2 0
-2.758 0.095 10.07 -0 -1.2 0
-3.316 0.119 12.135 -0 -1.2 0
-4.045 0.12 14.829 -0 -1.2 0
-4.787 -3.849 17.825 -0 -1.2 0
-4.396 -4.551 16.426 -0 -1.2 0
-4.606 -5.378 17.251 -0 -1.2 0
-4.939 -6.049 18.526 -0 -1.2 0
-5.165 -6.658 19.401 -0 -1.2 0
-5.33 -7.233 20.047 -0 -1.2 0
-5.192 -7.469 19.554 -0 -1.2 0
-4.978 -7.587 18.767 -0 -1.2 0
-5.07 -8.102 19.14 -0 -1.2 0
-0.273 0.009 1.052 -0 -1.2 0
-0.283 0.011 1.092 -0 -1.2 0
-0.292 0.011 1.132 -0 -1.2 0
-0.3 0.005 1.165 -0 -1.2 0
-0.309 0.003 1.205 -0 -1.2 0
-0.32 0.007 1.253 -0 -1.2 0
-0.328 -0.002 1.287 -0 -1.2 0
-0.34 -0.001 1.336 -0 -1.2 0
-0.353 0.005 1.393 -0 -1.2 0
-0.367 0.01 1.451 -0 -1.2 0
-0.38 0.006 1.501 -0 -1.2 0
-0.389 -0.003 1.544 -0 -1.2 0
-0.407 0.006 1.619 -0 -1.2 0
-0.421 0.004 1.679 -0 -1.2 0
-0.437 0.005 1.747 -0 -1.2 0
-0.451 -0.001 1.808 -0 -1.2 0
-0.47 0 1.886 -0 -1.2 0
-0.488 0 1.964 -0 -1.2 0
-0.509 0.002 2.05 -0 -1.2 0
-0.532 0.005 2.147 -0 -1.2 0
-0.555 0.005 2.245 -0 -1.2 0
-0.582 0.01 2.361 -0 -1.2 0
-0.603 0 2.451 -0 -1.2 0
-0.636 0.004 2.586 -0 -1.2 0
-0.668 0.006 2.722 -0 -1.2 0
-0.7 0.002 2.859 -0 -1.2 0
-0.736 0.001 3.015 -0 -1.2 0
-0.778 0.001 3.19 -0 -1.2 0
-0.826 0.004 3.394 -0 -1.2 0
-0.886 0.013 3.646 -0 -1.2 0
-0.941 0.01 3.88 -0 -1.2 0
-1.006 0.008 4.153 -0 -1.2 0
-1.087 0.012 4.492 -0 -1.2 0
-1.178 0.016 4.881 -0 -1.2 0
-1.279 0.015 5.309 -0 -1.2 0
-1.412 0.024 5.873 -0 -1.2 0
-1.585 0.041 6.601 -0 -1.2 0
-1.792 0.055 7.476 -0 -1.2 0
-2.051 0.069 8.575 -0 -1.2 0
-2.4 0.087 10.043 -0 -1.2 0
-2.887 0.111 12.106 -0 -1.2 0
-3.579 0.133 15.034 -0 -1.2 0
-4.681 -4.144 20.001 -0 -1.2 0
-4.237 -4.191 18.122 -0 -1.2 0
-4.618 -4.839 19.782 -0 -1.2 0
-4.197 -4.837 17.999 -0 -1.2 0
-4.49 -5.465 19.284 -0 -1.2 0
-4.135 -5.804 17.806 -0 -1.2 0
-4.817 -6.986 20.777 -0 -1.2 0
-5.074 -7.734 21.919 -0 -1.2 0
-4.678 -8.028 20.259 -0 -1.2 0
-5.085 -9.085 22.06 -0 -1.2 0
-4.578 -8.701 19.887 -0 -1.2 0
-4.501 -8.986 19.583 -0 -1.2 0
-4.495 -9.393 19.582 -0 -1.2 0
-4.699 -10.216 20.505 -0 -1.2 0
-4.688 -10.648 20.49 -0 -1.2 0
-4.998 -12.784 21.953 -0 -1.2 0
-4.777 -12.766 21.016 -0 -1.2 0
-0.232 0.003 1.072 -0 -1.2 0
-0.24 0.004 1.112 -0 -1.2 0
-0.248 0.006 1.152 -0 -1.2 0
-0.254 -0.001 1.185 -0 -1.2 0
-0.264 0.004 1.233 -0 -1.2 0
-0.273 0.008 1.282 -0 -1.2 0
-0.28 -0.001 1.316 -0 -1.2 0
-0.291 0 1.365 -0 -1.2 0
-0.302 0.006 1.422 -0 -1.2 0
-0.312 0.004 1.473 -0 -1.2 0
-0.322 0.001 1.523 -0 -1.2 0
-0.334 0.003 1.582 -0 -1.2 0
-0.347 0.007 1.65 -0 -1.2 0
-0.359 0.005 1.71 -0 -1.2 0
-0.371 0.001 1.771 -0 -1.2 0
-0.385 0 1.84 -0 -1.2 0
-0.402 0.001 1.918 -0 -1.2 0
-0.419 0.006 2.006 -0 -1.2 0
-0.431 -0.006 2.068 -0 -1.2 0
-0.451 -0.002 2.166 -0 -1.2 0
-0.472 0.001 2.273 -0 -1.2 0
-0.493 0.002 2.38 -0 -1.2 0
-0.516 0.001 2.489 -0 -1.2 0
-0.539 0 2.607 -0 -1.2 0
-0.568 0.003 2.752 -0 -1.2 0
-0.594 -0.002 2.882 -0 -1.2 0
-0.629 0.003 3.056 -0 -1.2 0
-0.663 0 3.224 -0 -1.2 0
-0.701 0 3.42 -0 -1.2 0
-0.749 0.004 3.654 -0 -1.2 0
-0.798 0.004 3.899 -0 -1.2 0
-0.855 0.005 4.184 -0 -1.2 0
-0.915 0.001 4.488 -0 -1.2 0
-0.998 0.011 4.899 -0 -1.2 0
-1.088 0.014 5.349 -0 -1.2 0
-1.2 0.022 5.907 -0 -1.2 0
-1.347 0.041 6.641 -0 -1.2 0
-1.522 0.055 7.512 -0 -1.2 0
-1.746 0.07 8.629 -0 -1.2 0
-2.039 0.087 10.089 -0 -1.2 0
-2.433 0.103 12.06 -0 -1.2 0
-3.065 0.147 15.216 -0 -1.2 0
-3.707 -3.918 18.753 -0 -1.2 0
-4.856 -5.244 24.598 -0 -1.2 0
-3.538 -4.79 17.98 -0 -1.2 0
-3.392 -5.292 17.291 -0 -1.2 0
-3.463 -6.064 17.707 -0 -1.2 0
-3.66 -7.087 18.775 -0 -1.2 0
-3.729 -7.587 19.163 -0 -1.2 0
-3.839 -8.591 19.797 -0 -1.2 0
-3.782 -8.887 19.53 -0 -1.2 0
-3.656 -9.031 18.914 -0 -1.2 0
-3.928 -10.511 20.395 -0 -1.2 0
-4.232 -12.748 22.094 -0 -1.2 0
-4.092 -12.872 21.409 -0 -1.2 0
-3.981 -13.06 20.872 -0 -1.2 0
-0.192 -0.003 1.088 -0 -1.2 0
-0.199 -0.001 1.127 -0 -1.2 0
-0.208 0.007 1.175 -0 -1.2 0
-0.213 0 1.208 -0 -1.2 0
-0.221 0.005 1.257 -0 -1.2 0
-0.228 0.002 1.298 -0 -1.2 0
-0.235 -0.001 1.34 -0 -1.2 0
-0.242 -0.005 1.382 -0 -1.2 0
-0.251 0.001 1.439 -0 -1.2 0
-0.261 0.005 1.498 -0 -1.2 0
-0.268 -0.002 1.541 -0 -1.2 0
-0.277 -0.007 1.592 -0 -1.2 0
-0.289 0.003 1.668 -0 -1.2 0
-0.299 0.001 1.728 -0 -1.2 0
-0.312 0.002 1.798 -0 -1.2 0
-0.322 -0.004 1.859 -0 -1.2 0
-0.333 -0.006 1.929 -0 -1.2 0
-0.348 -0.002 2.017 -0 -1.2 0
-0.361 -0.005 2.097 -0 -1.2 0
-0.376 -0.005 2.186 -0 -1.2 0
-0.394 -0.001 2.293 -0 -1.2 0
-0.413 0 2.402 -0 -1.2 0
-0.432 0.002 2.52 -0 -1.2 0
-0.452 0 2.639 -0 -1.2 0
-0.473 -0.001 2.767 -0 -1.2 0
-0.497 -0.001 2.915 -0 -1.2 0
-0.524 -0.002 3.073 -0 -1.2 0
-0.554 -0.001 3.25 -0 -1.2 0
-0.585 -0.004 3.438 -0 -1.2 0
-0.625 0 3.674 -0 -1.2 0
-0.664 -0.001 3.911 -0 -1.2 0
-0.712 0 4.196 -0 -1.2 0
-0.768 0.004 4.53 -0 -1.2 0
-0.831 0.005 4.905 -0 -1.2 0
-0.905 0.007 5.349 -0 -1.2 0
-0.999 0.017 5.91 -0 -1.2 0
-1.12 0.034 6.638 -0 -1.2 0
-1.262 0.045 7.485 -0 -1.2 0
-1.452 0.065 8.619 -0 -1.2 0
-1.686 0.076 10.019 -0 -1.2 0
-2.007 0.09 11.942 -0 -1.2 0
-2.472 0.105 14.723 -0 -1.2 0
-3.191 -3.988 19.417 -0 -1.2 0
-3.58 -4.74 21.819 -0 -1.2 0
-3.506 -6.685 21.562 -0 -1.2 0
-3.002 -6.972 18.571 -0 -1.2 0
-3.504 -8.388 21.711 -0 -1.2 0
-3.162 -8.078 19.636 -0 -1.2 0
-3.69 -9.714 22.948 -0 -1.2 0
-3.154 -8.876 19.662 -0 -1.2 0
-3.248 -9.538 20.284 -0 -1.2 0
-3.196 -10.277 20.046 -0 -1.2 0
-3.229 -11.29 20.339 -0 -1.2 0
-3.476 -12.58 21.942 -0 -1.2 0
-3.156 -12.485 20.02 -0 -1.2 0
-3.384 -13.835 21.511 -0 -1.2 0
-0.156 -0.003 1.11 -0 -1.2 0
-0.161 0 1.15 -0 -1.2 0
-0.167 0.007 1.198 -0 -1.2 0
-0.171 -0.006 1.224 -0 -1.2 0
-0.178 0.005 1.28 -0 -1.2 0
-0.183 -0.002 1.314 -0 -1.2 0
-0.189 0 1.364 -0 -1.2 0
-0.196 0.001 1.413 -0 -1.2 0
-0.203 0.001 1.464 -0 -1.2 0
-0.209 0 1.514 -0 -1.2 0
-0.215 -0.007 1.557 -0 -1.2 0
-0.223 -0.006 1.617 -0 -1.2 0
-0.233 -0.001 1.685 -0 -1.2 0
-0.241 -0.002 1.746 -0 -1.2 0
-0.249 -0.006 1.807 -0 -1.2 0
-0.26 -0.003 1.885 -0 -1.2 0
-0.268 -0.01 1.947 -0 -1.2 0
-0.279 -0.005 2.035 -0 -1.2 0
-0.291 -0.004 2.124 -0 -1.2 0
-0.303 -0.004 2.214 -0 -1.2 0
-0.317 -0.003 2.313 -0 -1.2 0
-0.332 -0.002 2.422 -0 -1.2 0
-0.346 -0.004 2.531 -0 -1.2 0
-0.363 -0.001 2.659 -0 -1.2 0
-0.38 -0.004 2.789 -0 -1.2 0
-0.4 -0.006 2.928 -0 -1.2 0
-0.421 -0.006 3.086 -0 -1.2 0
-0.446 -0.002 3.274 -0 -1.2 0
-0.473 0 3.481 -0 -1.2 0
-0.503 0 3.699 -0 -1.2 0
-0.533 -0.004 3.928 -0 -1.2 0
-0.574 0 4.225 -0 -1.2 0
-0.616 0 4.542 -0 -1.2 0
-0.668 0.003 4.928 -0 -1.2 0
-0.729 0.008 5.383 -0 -1.2 0
-0.8 0.013 5.917 -0 -1.2 0
-0.895 0.026 6.619 -0 -1.2 0
-1.013 0.043 7.5 -0 -1.2 0
-1.154 0.052 8.551 -0 -1.2 0
-1.339 0.062 9.927 -0 -1.2 0
-1.605 0.085 11.909 -0 -1.2 0
-1.955 0.089 14.515 -0 -1.2 0
-2.805 0.243 20.834 -0 -1.2 0
-2.916 -3.968 22.151 -0 -1.2 0
-2.673 -4.099 20.353 -0 -1.2 0
-2.817 -5.451 21.582 -0 -1.2 0
-2.812 -5.848 21.591 -0 -1.2 0
-2.816 -6.266 21.671 -0 -1.2 0
-2.821 -6.693 21.761 -0 -1.2 0
-2.824 -7.122 21.833 -0 -1.2 0
-2.825 -7.552 21.889 -0 -1.2 0
-2.444 -7.06 18.991 -0 -1.2 0
-2.5 -7.588 19.47 -0 -1.2 0
-2.562 -8.156 20.001 -0 -1.2 0
-2.835 -9.364 22.174 -0 -1.2 0
-2.587 -9.069 20.292 -0 -1.2 0
-2.842 -10.327 22.336 -0 -1.2 0
-2.756 -10.521 21.718 -0 -1.2 0
-2.839 -11.3 22.429 -0 -1.2 0
-2.47 -10.413 19.569 -0 -1.2 0
-2.462 -11.292 19.615 -0 -1.2 0
-0.115 -0.002 1.132 -0 -1.2 0
-0.12 0.006 1.179 -0 -1.2 0
-0.123 0.001 1.213 -0 -1.2 0
-0.127 0 1.254 -0 -1.2 0
-0.131 0 1.295 -0 -1.2 0
-0.135 -0.002 1.337 -0 -1.2 0
-0.139 -0.005 1.378 -0 -1.2 0
-0.145 -0.003 1.428 -0 -1.2 0
-0.148 -0.009 1.471 -0 -1.2 0
-0.155 -0.004 1.53 -0 -1.2 0
-0.16 -0.007 1.581 -0 -1.2 0
-0.166 -0.005 1.641 -0 -1.2 0
-0.171 -0.005 1.701 -0 -1.2 0
-0.177 -0.007 1.761 -0 -1.2 0
-0.184 -0.005 1.831 -0 -1.2 0
-0.192 -0.001 1.91 -0 -1.2 0
-0.199 -0.004 1.981 -0 -1.2 0
-0.206 -0.009 2.052 -0 -1.2 0
-0.216 -0.002 2.15 -0 -1.2 0
-0.224 -0.007 2.231 -0 -1.2 0
-0.235 -0.002 2.339 -0 -1.2 0
-0.244 -0.005 2.439 -0 -1.2 0
-0.255 -0.006 2.549 -0 -1.2 0
-0.267 -0.008 2.669 -0 -1.2 0
-0.279 -0.009 2.798 -0 -1.2 0
-0.294 -0.012 2.938 -0 -1.2 0
-0.31 -0.008 3.107 -0 -1.2 0
-0.328 -0.007 3.285 -0 -1.2 0
-0.347 -0.006 3.484 -0 -1.2 0
-0.371 0 3.722 -0 -1.2 0
-0.395 -0.002 3.961 -0 -1.2 0
-0.425 0.002 4.259 -0 -1.2 0
-0.454 -0.001 4.558 -0 -1.2 0
-0.491 0 4.935 -0 -1.2 0
-0.536 0.005 5.392 -0 -1.2 0
-0.588 0.009 5.919 -0 -1.2 0
-0.655 0.018 6.595 -0 -1.2 0
-0.739 0.03 7.44 -0 -1.2 0
-0.842 0.04 8.484 -0 -1.2 0
-0.98 0.055 9.876 -0 -1.2 0
-1.163 0.067 11.727 -0 -1.2 0
-1.404 0.062 14.166 -0 -1.2 0
-2.165 -0.066 21.881 -0 -1.2 0
-2.162 -0.448 21.906 -0 -1.2 0
-2.15 -0.832 21.856 -0 -1.2 0
-2.144 -1.214 21.848 -0 -1.2 0
-2.136 -1.595 21.823 -0 -1.2 0
-2.124 -1.975 21.772 -0 -1.2 0
-2.12 -2.357 21.784 -0 -1.2 0
-2.115 -2.74 21.789 -0 -1.2 0
-2.104 -3.12 21.748 -0 -1.2 0
-2.097 -3.501 21.729 -0 -1.2 0
-2.101 -3.899 21.824 -0 -1.2 0
-2.1 -4.698 21.94 -0 -1.2 0
-2.148 -5.195 22.502 -0 -1.2 0
-2.505 -6.362 26.294 -0 -1.2 0
-1.79 -5.583 18.946 -0 -1.2 0
-1.873 -6.558 19.933 -0 -1.2 0
-1.908 -7.059 20.361 -0 -1.2 0
-2.268 -8.66 24.239 -0 -1.2 0
-1.822 -7.576 19.566 -0 -1.2 0
-1.995 -8.63 21.481 -0 -1.2 0
-1.877 -8.609 20.283 -0 -1.2 0
-1.858 -8.959 20.141 -0 -1.2 0
-1.736 -9.267 18.951 -0 -1.2 0
-1.823 -10.577 20.034 -0 -1.2 0
-1.903 -11.479 20.984 -0 -1.2 0
-1.852 -11.692 20.509 -0 -1.2 0
-1.741 -11.523 19.349 -0 -1.2 0
-1.784 -12.281 19.913 -0 -1.2 0
-0.076 -0.001 1.152 -0 -1.2 0
-0.079 0.001 1.192 -0 -1.2 0
-0.081 0.002 1.233 -0 -1.2 0
-0.084 -0.004 1.268 -0 -1.2 0
-0.087 0.002 1.315 -0 -1.2 0
-0.089 0 1.357 -0 -1.2 0
-0.092 -0.003 1.4 -0 -1.2 0
-0.095 -0.002 1.45 -0 -1.2 0
-0.098 -0.007 1.493 -0 -1.2 0
-0.103 -0.002 1.552 -0 -1.2 0
-0.107 0 1.61 -0 -1.2 0
-0.111 0.001 1.67 -0 -1.2 0
-0.114 -0.003 1.723 -0 -1.2 0
-0.119 0 1.792 -0 -1.2 0
-0.123 -0.004 1.854 -0 -1.2 0
-0.128 0 1.933 -0 -1.2 0
-0.132 -0.002 2.004 -0 -1.2 0
-0.138 -0.002 2.084 -0 -1.2 0
-0.143 -0.005 2.165 -0 -1.2 0
-0.149 0 2.264 -0 -1.2 0
-0.156 0 2.363 -0 -1.2 0
-0.162 -0.003 2.464 -0 -1.2 0
-0.171 0 2.583 -0 -1.2 0
-0.179 -0.002 2.703 -0 -1.2 0
-0.188 0 2.843 -0 -1.2 0
-0.198 0.001 2.992 -0 -1.2 0
-0.207 -0.002 3.142 -0 -1.2 0
-0.22 0.001 3.331 -0 -1.2 0
-0.232 0.002 3.529 -0 -1.2 0
-0.249 0.007 3.768 -0 -1.2 0
-0.263 0 3.989 -0 -1.2 0
-0.281 0 4.269 -0 -1.2 0
-0.304 0.005 4.606 -0 -1.2 0
-0.328 0.005 4.975 -0 -1.2 0
-0.358 0.011 5.433 -0 -1.2 0
-0.393 0.012 5.952 -0 -1.2 0
-0.439 0.025 6.649 -0 -1.2 0
-0.494 0.035 7.477 -0 -1.2 0
-0.565 0.051 8.563 -0 -1.2 0
-0.657 0.066 9.96 -0 -1.2 0
-0.774 0.07 11.736 -0 -1.2 0
-0.945 0.078 14.32 -0 -1.2 0
-1.383 -4.688 22.027 -0 -1.2 0
-1.36 -5.032 21.744 -0 -1.2 0
-1.469 -5.791 23.582 -0 -1.2 0
-1.101 -4.961 17.801 -0 -1.2 0
-1.103 -5.662 17.986 -0 -1.2 0
-1.292 -7.276 21.209 -0 -1.2 0
-1.078 -6.621 17.81 -0 -1.2 0
-1.307 -8.234 21.654 -0 -1.2 0
-1.262 -8.429 21.009 -0 -1.2 0
-1.225 -9.094 20.583 -0 -1.2 0
-1.28 -10.922 21.832 -0 -1.2 0
-1.165 -11.485 20.199 -0 -1.2 0
-0.038 0.007 1.178 -0 -1.2 0
-0.04 0.009 1.218 -0 -1.2 0
-0.041 0.01 1.259 -0 -1.2 0
-0.042 0.003 1.294 -0 -1.2 0
-0.043 0.002 1.336 -0 -1.2 0
-0.045 0.006 1.384 -0 -1.2 0
-0.046 -0.003 1.419 -0 -1.2 0
-0.048 -0.001 1.47 -0 -1.2 0
-0.049 0 1.52 -0 -1.2 0
-0.052 0.003 1.579 -0 -1.2 0
-0.053 -0.004 1.623 -0 -1.2 0
-0.055 -0.002 1.683 -0 -1.2 0
-0.058 0.002 1.752 -0 -1.2 0
-0.06 0 1.813 -0 -1.2 0
-0.062 -0.003 1.874 -0 -1.2 0
-0.065 0 1.953 -0 -1.2 0
-0.067 -0.001 2.024 -0 -1.2 0
-0.069 -0.001 2.104 -0 -1.2 0
-0.072 0 2.194 -0 -1.2 0
-0.075 0 2.284 -0 -1.2 0
-0.079 0 2.384 -0 -1.2 0
-0.082 0.006 2.503 -0 -1.2 0
-0.086 0.004 2.613 -0 -1.2 0
-0.09 0.003 2.734 -0 -1.2 0
-0.095 0.004 2.873 -0 -1.2 0
-0.099 0.005 3.023 -0 -1.2 0
-0.105 0.005 3.183 -0 -1.2 0
-0.111 0.006 3.363 -0 -1.2 0
-0.117 0.007 3.563 -0 -1.2 0
-0.126 0.012 3.802 -0 -1.2 0
-0.133 0.007 4.032 -0 -1.2 0
-0.142 0 4.283 -0 -1.2 0
-0.152 0.003 4.612 -0 -1.2 0
-0.165 0.007 5.001 -0 -1.2 0
-0.18 0.013 5.46 -0 -1.2 0
-0.198 0.016 5.989 -0 -1.2 0
-0.221 0.032 6.696 -0 -1.2 0
-0.249 0.041 7.525 -0 -1.2 0
-0.285 0.059 8.624 -0 -1.2 0
-0.333 0.076 10.042 -0 -1.2 0
-0.389 0.071 11.742 -0 -1.2 0
-0.474 0.082 14.33 -0 -1.2 0
-0.634 -4.924 21.246 -0 -1.2 0
-0.517 -5.288 17.884 -0 -1.2 0
-0.519 -5.67 18.09 -0 -1.2 0
-0.517 -6.42 18.352 -0 -1.2 0
-0.49 -6.528 17.578 -0 -1.2 0
-0.483 -6.829 17.471 -0 -1.2 0
-0.612 -8.822 22.211 -0 -1.2 0
-0.469 -7.457 17.327 -0 -1.2 0
-0.472 -7.916 17.624 -0 -1.2 0
-0.471 -8.315 17.734 -0 -1.2 0
-0.449 -8.416 17.128 -0 -1.2 0
-0.514 -11.569 20.426 -0 -1.2 0
-0.486 -11.563 19.57 -0 -1.2 0
0.002 0 1.189 -0 -1.2 0
0.002 0.009 1.236 -0 -1.2 0
0.002 0.004 1.271 -0 -1.2 0
0.002 -0.003 1.304 -0 -1.2 0
0.002 0.003 1.353 -0 -1.2 0
0.002 0.006 1.403 -0 -1.2 0
0.002 -0.002 1.437 -0 -1.2 0
0.003 -0.001 1.487 -0 -1.2 0
0.003 0 1.538 -0 -1.2 0
0.003 -0.001 1.589 -0 -1.2 0
0.003 0.002 1.649 -0 -1.2 0
0.003 -0.002 1.701 -0 -1.2 0
0.003 0.002 1.769 -0 -1.2 0
0.003 0.001 1.831 -0 -1.2 0
0.003 0.002 1.901 -0 -1.2 0
0.004 -0.003 1.962 -0 -1.2 0
0.004 0 2.042 -0 -1.2 0
0.004 0 2.122 -0 -1.2 0
0.004 0 2.212 -0 -1.2 0
0.004 -0.003 2.294 -0 -1.2 0
