# .PCD v.7 - Point Cloud Data file format
FIELDS x y z vp_x vp_y vp_z
SIZE 4 4 4 4 4 4
TYPE F F F F F F
COUNT 1 1 1 1 1 1
WIDTH 1545
HEIGHT 1
VIEWPOINT 0 -1.20013 0 1 0 0 0
POINTS 1545
DATA ascii
6.018 -16.708 25.121 -0 -1.2 0
5.965 -17.153 24.849 -0 -1.2 0
5.91 -17.592 24.571 -0 -1.2 0
5.854 -18.027 24.284 -0 -1.2 0
5.795 -18.457 23.991 -0 -1.2 0
5.735 -18.881 23.69 -0 -1.2 0
5.673 -19.3 23.382 -0 -1.2 0
5.609 -19.713 23.067 -0 -1.2 0
5.544 -20.121 22.745 -0 -1.2 0
5.477 -20.522 22.416 -0 -1.2 0
5.409 -20.918 22.081 -0 -1.2 0
5.338 -21.308 21.738 -0 -1.2 0
5.266 -21.692 21.389 -0 -1.2 0
5.193 -22.07 21.034 -0 -1.2 0
7.72 -1.807 29.214 -0 -1.2 0
7.725 -2.332 29.195 -0 -1.2 0
7.728 -2.854 29.168 -0 -1.2 0
7.728 -3.376 29.131 -0 -1.2 0
7.727 -3.898 29.086 -0 -1.2 0
7.722 -4.419 29.032 -0 -1.2 0
7.716 -4.939 28.969 -0 -1.2 0
7.707 -5.458 28.897 -0 -1.2 0
7.696 -5.974 28.817 -0 -1.2 0
7.682 -6.49 28.728 -0 -1.2 0
7.666 -7.004 28.63 -0 -1.2 0
7.647 -7.517 28.524 -0 -1.2 0
7.627 -8.027 28.409 -0 -1.2 0
7.605 -8.535 28.286 -0 -1.2 0
7.579 -9.042 28.153 -0 -1.2 0
7.551 -9.545 28.012 -0 -1.2 0
7.522 -10.046 27.863 -0 -1.2 0
7.49 -10.545 27.705 -0 -1.2 0
7.455 -11.04 27.54 -0 -1.2 0
7.419 -11.532 27.365 -0 -1.2 0
7.38 -12.022 27.182 -0 -1.2 0
7.339 -12.507 26.992 -0 -1.2 0
7.296 -12.99 26.793 -0 -1.2 0
7.25 -13.468 26.587 -0 -1.2 0
7.203 -13.944 26.371 -0 -1.2 0
7.153 -14.414 26.148 -0 -1.2 0
7.101 -14.882 25.918 -0 -1.2 0
7.046 -15.345 25.678 -0 -1.2 0
6.991 -15.803 25.433 -0 -1.2 0
6.932 -16.257 25.178 -0 -1.2 0
6.871 -16.706 24.916 -0 -1.2 0
6.809 -17.151 24.647 -0 -1.2 0
6.744 -17.59 24.37 -0 -1.2 0
6.678 -18.026 24.086 -0 -1.2 0
6.609 -18.455 23.794 -0 -1.2 0
6.538 -18.879 23.497 -0 -1.2 0
6.465 -19.298 23.191 -0 -1.2 0
6.39 -19.712 22.878 -0 -1.2 0
6.314 -20.119 22.558 -0 -1.2 0
6.236 -20.521 22.233 -0 -1.2 0
6.155 -20.917 21.9 -0 -1.2 0
6.073 -21.307 21.56 -0 -1.2 0
5.988 -21.691 21.214 -0 -1.2 0
5.903 -22.069 20.861 -0 -1.2 0
8.755 0.285 28.91 -0 -1.2 0
8.77 -0.237 28.926 -0 -1.2 0
8.781 -0.76 28.933 -0 -1.2 0
8.791 -1.283 28.932 -0 -1.2 0
8.798 -1.806 28.922 -0 -1.2 0
8.802 -2.33 28.903 -0 -1.2 0
8.803 -2.852 28.875 -0 -1.2 0
8.802 -3.375 28.839 -0 -1.2 0
8.798 -3.896 28.794 -0 -1.2 0
8.792 -4.418 28.74 -0 -1.2 0
8.783 -4.937 28.677 -0 -1.2 0
8.771 -5.456 28.606 -0 -1.2 0
8.756 -5.973 28.527 -0 -1.2 0
8.738 -6.489 28.439 -0 -1.2 0
8.719 -7.003 28.342 -0 -1.2 0
8.697 -7.515 28.236 -0 -1.2 0
8.671 -8.025 28.122 -0 -1.2 0
8.643 -8.534 27.999 -0 -1.2 0
8.613 -9.04 27.868 -0 -1.2 0
8.58 -9.544 27.729 -0 -1.2 0
8.545 -10.044 27.581 -0 -1.2 0
8.506 -10.543 27.425 -0 -1.2 0
8.465 -11.038 27.26 -0 -1.2 0
8.422 -11.531 27.087 -0 -1.2 0
8.376 -12.02 26.907 -0 -1.2 0
8.328 -12.505 26.718 -0 -1.2 0
8.277 -12.989 26.521 -0 -1.2 0
8.224 -13.467 26.315 -0 -1.2 0
8.167 -13.942 26.103 -0 -1.2 0
8.109 -14.413 25.882 -0 -1.2 0
8.049 -14.881 25.653 -0 -1.2 0
7.985 -15.343 25.417 -0 -1.2 0
7.919 -15.802 25.172 -0 -1.2 0
7.851 -16.256 24.921 -0 -1.2 0
7.781 -16.705 24.662 -0 -1.2 0
7.708 -17.15 24.395 -0 -1.2 0
7.633 -17.589 24.121 -0 -1.2 0
7.555 -18.025 23.84 -0 -1.2 0
7.475 -18.454 23.551 -0 -1.2 0
7.393 -18.878 23.256 -0 -1.2 0
7.309 -19.297 22.953 -0 -1.2 0
7.223 -19.71 22.644 -0 -1.2 0
7.134 -20.118 22.327 -0 -1.2 0
7.044 -20.52 22.004 -0 -1.2 0
6.95 -20.916 21.674 -0 -1.2 0
6.855 -21.306 21.338 -0 -1.2 0
6.758 -21.69 20.995 -0 -1.2 0
6.66 -22.068 20.646 -0 -1.2 0
9.728 0.809 28.579 -0 -1.2 0
9.745 0.285 28.604 -0 -1.2 0
9.76 -0.236 28.62 -0 -1.2 0
9.773 -0.759 28.626 -0 -1.2 0
9.781 -1.282 28.625 -0 -1.2 0
9.788 -1.805 28.615 -0 -1.2 0
9.791 -2.329 28.595 -0 -1.2 0
9.791 -2.851 28.568 -0 -1.2 0
9.789 -3.374 28.532 -0 -1.2 0
9.783 -3.895 28.487 -0 -1.2 0
9.774 -4.417 28.434 -0 -1.2 0
9.763 -4.937 28.371 -0 -1.2 0
9.748 -5.455 28.301 -0 -1.2 0
9.73 -5.972 28.222 -0 -1.2 0
9.71 -6.488 28.134 -0 -1.2 0
9.686 -7.002 28.038 -0 -1.2 0
9.66 -7.514 27.934 -0 -1.2 0
9.63 -8.025 27.821 -0 -1.2 0
9.598 -8.533 27.699 -0 -1.2 0
9.563 -9.04 27.57 -0 -1.2 0
9.525 -9.543 27.431 -0 -1.2 0
9.484 -10.044 27.285 -0 -1.2 0
9.44 -10.543 27.13 -0 -1.2 0
9.394 -11.037 26.968 -0 -1.2 0
9.344 -11.53 26.797 -0 -1.2 0
9.292 -12.019 26.617 -0 -1.2 0
9.237 -12.505 26.43 -0 -1.2 0
9.179 -12.988 26.235 -0 -1.2 0
9.118 -13.466 26.032 -0 -1.2 0
9.054 -13.942 25.821 -0 -1.2 0
8.989 -14.412 25.603 -0 -1.2 0
8.919 -14.88 25.376 -0 -1.2 0
8.847 -15.343 25.142 -0 -1.2 0
8.773 -15.802 24.9 -0 -1.2 0
8.696 -16.255 24.651 -0 -1.2 0
8.617 -16.704 24.395 -0 -1.2 0
8.534 -17.15 24.131 -0 -1.2 0
8.45 -17.589 23.86 -0 -1.2 0
8.362 -18.024 23.581 -0 -1.2 0
8.272 -18.453 23.297 -0 -1.2 0
8.18 -18.878 23.004 -0 -1.2 0
8.085 -19.296 22.705 -0 -1.2 0
7.987 -19.71 22.398 -0 -1.2 0
7.887 -20.118 22.085 -0 -1.2 0
7.786 -20.519 21.766 -0 -1.2 0
7.682 -20.915 21.439 -0 -1.2 0
7.574 -21.305 21.107 -0 -1.2 0
7.465 -21.689 20.768 -0 -1.2 0
7.354 -22.067 20.423 -0 -1.2 0
10.748 -0.236 28.275 -0 -1.2 0
10.76 -0.759 28.282 -0 -1.2 0
10.769 -1.282 28.28 -0 -1.2 0
10.774 -1.805 28.27 -0 -1.2 0
10.777 -2.329 28.251 -0 -1.2 0
10.776 -2.851 28.224 -0 -1.2 0
10.772 -3.374 28.187 -0 -1.2 0
10.764 -3.895 28.143 -0 -1.2 0
10.753 -4.417 28.09 -0 -1.2 0
10.739 -4.936 28.029 -0 -1.2 0
10.722 -5.455 27.958 -0 -1.2 0
10.701 -5.972 27.88 -0 -1.2 0
10.677 -6.488 27.794 -0 -1.2 0
10.65 -7.002 27.698 -0 -1.2 0
10.62 -7.514 27.595 -0 -1.2 0
10.587 -8.024 27.483 -0 -1.2 0
10.549 -8.533 27.363 -0 -1.2 0
10.51 -9.039 27.234 -0 -1.2 0
10.467 -9.543 27.098 -0 -1.2 0
10.421 -10.044 26.953 -0 -1.2 0
10.371 -10.542 26.8 -0 -1.2 0
10.318 -11.037 26.639 -0 -1.2 0
10.263 -11.53 26.47 -0 -1.2 0
10.204 -12.019 26.293 -0 -1.2 0
10.143 -12.505 26.108 -0 -1.2 0
10.077 -12.988 25.915 -0 -1.2 0
10.009 -13.466 25.715 -0 -1.2 0
9.938 -13.942 25.506 -0 -1.2 0
9.865 -14.412 25.29 -0 -1.2 0
9.787 -14.88 25.067 -0 -1.2 0
9.707 -15.343 24.835 -0 -1.2 0
9.624 -15.801 24.596 -0 -1.2 0
9.538 -16.255 24.35 -0 -1.2 0
9.45 -16.704 24.096 -0 -1.2 0
9.358 -17.149 23.836 -0 -1.2 0
9.263 -17.589 23.568 -0 -1.2 0
9.166 -18.024 23.293 -0 -1.2 0
9.066 -18.453 23.011 -0 -1.2 0
8.963 -18.878 22.722 -0 -1.2 0
8.858 -19.296 22.426 -0 -1.2 0
8.75 -19.71 22.123 -0 -1.2 0
8.639 -20.118 21.814 -0 -1.2 0
8.525 -20.519 21.498 -0 -1.2 0
8.41 -20.915 21.176 -0 -1.2 0
8.291 -21.305 20.848 -0 -1.2 0
8.17 -21.689 20.513 -0 -1.2 0
8.046 -22.067 20.172 -0 -1.2 0
11.795 -0.232 27.869 -0 -1.2 0
11.807 -0.755 27.875 -0 -1.2 0
11.816 -1.278 27.873 -0 -1.2 0
11.82 -1.801 27.862 -0 -1.2 0
11.822 -2.325 27.843 -0 -1.2 0
11.819 -2.848 27.817 -0 -1.2 0
11.814 -3.37 27.781 -0 -1.2 0
11.805 -3.892 27.736 -0 -1.2 0
11.791 -4.413 27.685 -0 -1.2 0
11.775 -4.933 27.623 -0 -1.2 0
11.754 -5.452 27.554 -0 -1.2 0
11.731 -5.968 27.477 -0 -1.2 0
11.703 -6.484 27.391 -0 -1.2 0
11.672 -6.999 27.298 -0 -1.2 0
11.638 -7.511 27.195 -0 -1.2 0
11.6 -8.021 27.085 -0 -1.2 0
11.559 -8.529 26.967 -0 -1.2 0
11.514 -9.036 26.84 -0 -1.2 0
11.465 -9.54 26.705 -0 -1.2 0
11.414 -10.04 26.562 -0 -1.2 0
11.359 -10.539 26.411 -0 -1.2 0
11.3 -11.034 26.253 -0 -1.2 0
11.237 -11.527 26.086 -0 -1.2 0
11.172 -12.016 25.911 -0 -1.2 0
11.103 -12.501 25.729 -0 -1.2 0
11.03 -12.985 25.539 -0 -1.2 0
10.955 -13.463 25.342 -0 -1.2 0
10.876 -13.939 25.135 -0 -1.2 0
10.793 -14.409 24.923 -0 -1.2 0
10.708 -14.877 24.702 -0 -1.2 0
10.619 -15.34 24.475 -0 -1.2 0
10.527 -15.798 24.239 -0 -1.2 0
10.431 -16.252 23.997 -0 -1.2 0
10.333 -16.701 23.746 -0 -1.2 0
10.232 -17.147 23.489 -0 -1.2 0
10.127 -17.586 23.225 -0 -1.2 0
10.02 -18.021 22.954 -0 -1.2 0
9.908 -18.451 22.676 -0 -1.2 0
9.795 -18.875 22.392 -0 -1.2 0
9.678 -19.294 22.1 -0 -1.2 0
9.558 -19.707 21.802 -0 -1.2 0
9.435 -20.115 21.498 -0 -1.2 0
9.31 -20.517 21.186 -0 -1.2 0
9.182 -20.913 20.868 -0 -1.2 0
9.051 -21.303 20.544 -0 -1.2 0
8.918 -21.687 20.214 -0 -1.2 0
8.781 -22.065 19.878 -0 -1.2 0
12.714 0.34 27.45 -0 -1.2 0
12.742 -0.705 27.472 -0 -1.2 0
12.751 -1.228 27.47 -0 -1.2 0
12.755 -1.751 27.461 -0 -1.2 0
12.756 -2.275 27.443 -0 -1.2 0
12.752 -2.797 27.417 -0 -1.2 0
12.745 -3.32 27.383 -0 -1.2 0
12.735 -3.841 27.34 -0 -1.2 0
12.719 -4.363 27.289 -0 -1.2 0
12.701 -4.883 27.23 -0 -1.2 0
12.679 -5.402 27.162 -0 -1.2 0
12.652 -5.919 27.087 -0 -1.2 0
12.621 -6.435 27.003 -0 -1.2 0
12.588 -6.949 26.911 -0 -1.2 0
12.55 -7.461 26.812 -0 -1.2 0
12.508 -7.972 26.704 -0 -1.2 0
12.462 -8.481 26.587 -0 -1.2 0
12.413 -8.987 26.463 -0 -1.2 0
12.36 -9.491 26.332 -0 -1.2 0
12.303 -9.992 26.191 -0 -1.2 0
12.243 -10.491 26.043 -0 -1.2 0
12.178 -10.986 25.888 -0 -1.2 0
12.11 -11.48 25.724 -0 -1.2 0
12.039 -11.969 25.553 -0 -1.2 0
11.964 -12.455 25.374 -0 -1.2 0
11.885 -12.938 25.188 -0 -1.2 0
11.802 -13.417 24.993 -0 -1.2 0
11.717 -13.893 24.792 -0 -1.2 0
11.627 -14.364 24.582 -0 -1.2 0
11.533 -14.832 24.366 -0 -1.2 0
11.437 -15.295 24.142 -0 -1.2 0
11.337 -15.755 23.91 -0 -1.2 0
11.234 -16.209 23.672 -0 -1.2 0
11.127 -16.658 23.427 -0 -1.2 0
11.017 -17.104 23.175 -0 -1.2 0
10.903 -17.544 22.915 -0 -1.2 0
10.786 -17.98 22.649 -0 -1.2 0
10.666 -18.409 22.375 -0 -1.2 0
10.542 -18.835 22.096 -0 -1.2 0
10.415 -19.254 21.809 -0 -1.2 0
10.286 -19.668 21.515 -0 -1.2 0
10.153 -20.076 21.216 -0 -1.2 0
10.017 -20.479 20.91 -0 -1.2 0
9.878 -20.875 20.598 -0 -1.2 0
9.736 -21.266 20.279 -0 -1.2 0
9.591 -21.65 19.955 -0 -1.2 0
9.444 -22.029 19.624 -0 -1.2 0
13.634 0.359 27.017 -0 -1.2 0
13.662 -0.685 27.038 -0 -1.2 0
13.67 -1.208 27.037 -0 -1.2 0
13.675 -1.732 27.028 -0 -1.2 0
13.674 -2.256 27.011 -0 -1.2 0
13.67 -2.778 26.985 -0 -1.2 0
13.662 -3.301 26.951 -0 -1.2 0
13.649 -3.822 26.909 -0 -1.2 0
13.632 -4.344 26.859 -0 -1.2 0
13.612 -4.864 26.802 -0 -1.2 0
13.557 -5.9 26.661 -0 -1.2 0
13.525 -6.416 26.579 -0 -1.2 0
13.487 -6.93 26.489 -0 -1.2 0
13.446 -7.443 26.391 -0 -1.2 0
13.4 -7.953 26.285 -0 -1.2 0
13.351 -8.462 26.17 -0 -1.2 0
13.298 -8.969 26.048 -0 -1.2 0
13.24 -9.473 25.919 -0 -1.2 0
13.178 -9.974 25.781 -0 -1.2 0
13.113 -10.473 25.635 -0 -1.2 0
13.043 -10.968 25.483 -0 -1.2 0
12.97 -11.462 25.322 -0 -1.2 0
12.893 -11.951 25.154 -0 -1.2 0
12.811 -12.437 24.978 -0 -1.2 0
12.726 -12.921 24.795 -0 -1.2 0
12.637 -13.4 24.603 -0 -1.2 0
12.544 -13.876 24.405 -0 -1.2 0
12.447 -14.347 24.199 -0 -1.2 0
12.347 -14.815 23.986 -0 -1.2 0
12.243 -15.278 23.766 -0 -1.2 0
12.135 -15.738 23.539 -0 -1.2 0
12.023 -16.192 23.305 -0 -1.2 0
11.907 -16.642 23.063 -0 -1.2 0
11.789 -17.088 22.815 -0 -1.2 0
11.666 -17.528 22.56 -0 -1.2 0
11.541 -17.964 22.298 -0 -1.2 0
11.411 -18.394 22.03 -0 -1.2 0
11.278 -18.819 21.754 -0 -1.2 0
11.141 -19.238 21.473 -0 -1.2 0
11.002 -19.653 21.184 -0 -1.2 0
10.86 -20.061 20.89 -0 -1.2 0
10.713 -20.464 20.588 -0 -1.2 0
10.563 -20.861 20.282 -0 -1.2 0
10.411 -21.252 19.968 -0 -1.2 0
10.255 -21.636 19.65 -0 -1.2 0
10.095 -22.015 19.324 -0 -1.2 0
14.596 0.373 26.52 -0 -1.2 0
14.633 -1.194 26.541 -0 -1.2 0
14.637 -1.717 26.532 -0 -1.2 0
14.636 -2.242 26.514 -0 -1.2 0
14.631 -2.764 26.489 -0 -1.2 0
14.621 -3.286 26.455 -0 -1.2 0
14.607 -3.808 26.414 -0 -1.2 0
14.566 -4.85 26.308 -0 -1.2 0
14.539 -5.369 26.244 -0 -1.2 0
14.506 -5.886 26.171 -0 -1.2 0
14.471 -6.402 26.091 -0 -1.2 0
14.43 -6.916 26.002 -0 -1.2 0
14.385 -7.429 25.905 -0 -1.2 0
14.336 -7.94 25.801 -0 -1.2 0
14.283 -8.448 25.69 -0 -1.2 0
14.225 -8.955 25.57 -0 -1.2 0
14.161 -9.459 25.443 -0 -1.2 0
14.095 -9.96 25.308 -0 -1.2 0
14.025 -10.46 25.165 -0 -1.2 0
13.949 -10.955 25.015 -0 -1.2 0
13.87 -11.449 24.858 -0 -1.2 0
13.787 -11.938 24.692 -0 -1.2 0
13.699 -12.424 24.519 -0 -1.2 0
13.607 -12.908 24.34 -0 -1.2 0
13.511 -13.387 24.152 -0 -1.2 0
13.411 -13.863 23.958 -0 -1.2 0
13.306 -14.334 23.756 -0 -1.2 0
13.199 -14.802 23.548 -0 -1.2 0
13.086 -15.266 23.332 -0 -1.2 0
12.97 -15.726 23.109 -0 -1.2 0
12.85 -16.18 22.879 -0 -1.2 0
12.726 -16.63 22.642 -0 -1.2 0
12.598 -17.076 22.399 -0 -1.2 0
12.467 -17.516 22.148 -0 -1.2 0
12.331 -17.952 21.891 -0 -1.2 0
12.192 -18.382 21.627 -0 -1.2 0
12.05 -18.808 21.358 -0 -1.2 0
11.903 -19.227 21.081 -0 -1.2 0
11.752 -19.642 20.799 -0 -1.2 0
11.599 -20.05 20.509 -0 -1.2 0
11.441 -20.453 20.215 -0 -1.2 0
11.281 -20.85 19.913 -0 -1.2 0
11.117 -21.241 19.606 -0 -1.2 0
10.95 -21.626 19.293 -0 -1.2 0
10.779 -22.005 18.975 -0 -1.2 0
15.511 -1.181 26.048 -0 -1.2 0
15.514 -1.704 26.039 -0 -1.2 0
15.512 -2.229 26.022 -0 -1.2 0
15.506 -2.751 25.998 -0 -1.2 0
15.495 -3.274 25.965 -0 -1.2 0
15.48 -3.795 25.925 -0 -1.2 0
15.459 -4.317 25.877 -0 -1.2 0
15.435 -4.837 25.821 -0 -1.2 0
15.187 -7.927 25.323 -0 -1.2 0
15.13 -8.436 25.213 -0 -1.2 0
15.068 -8.943 25.097 -0 -1.2 0
15.001 -9.447 24.971 -0 -1.2 0
14.93 -9.948 24.839 -0 -1.2 0
14.855 -10.447 24.699 -0 -1.2 0
14.775 -10.943 24.552 -0 -1.2 0
14.69 -11.436 24.397 -0 -1.2 0
14.6 -11.926 24.235 -0 -1.2 0
14.507 -12.412 24.066 -0 -1.2 0
14.409 -12.896 23.89 -0 -1.2 0
14.307 -13.375 23.707 -0 -1.2 0
14.201 -13.851 23.515 -0 -1.2 0
14.09 -14.323 23.317 -0 -1.2 0
13.974 -14.791 23.113 -0 -1.2 0
13.855 -15.255 22.901 -0 -1.2 0
13.731 -15.714 22.683 -0 -1.2 0
13.603 -16.169 22.457 -0 -1.2 0
13.471 -16.619 22.225 -0 -1.2 0
13.335 -17.065 21.986 -0 -1.2 0
13.195 -17.505 21.74 -0 -1.2 0
13.052 -17.942 21.488 -0 -1.2 0
12.903 -18.372 21.23 -0 -1.2 0
12.751 -18.797 20.965 -0 -1.2 0
12.595 -19.217 20.694 -0 -1.2 0
12.435 -19.632 20.417 -0 -1.2 0
12.272 -20.041 20.133 -0 -1.2 0
12.105 -20.444 19.844 -0 -1.2 0
11.934 -20.841 19.548 -0 -1.2 0
11.761 -21.232 19.247 -0 -1.2 0
11.582 -21.617 18.94 -0 -1.2 0
11.401 -21.996 18.627 -0 -1.2 0
16.219 -5.861 25.172 -0 -1.2 0
16.178 -6.377 25.094 -0 -1.2 0
16.131 -6.891 25.01 -0 -1.2 0
16.08 -7.404 24.918 -0 -1.2 0
16.023 -7.915 24.818 -0 -1.2 0
15.962 -8.424 24.71 -0 -1.2 0
15.897 -8.931 24.595 -0 -1.2 0
15.826 -9.435 24.473 -0 -1.2 0
15.75 -9.936 24.343 -0 -1.2 0
15.669 -10.436 24.207 -0 -1.2 0
15.584 -10.931 24.062 -0 -1.2 0
15.495 -11.425 23.911 -0 -1.2 0
15.399 -11.915 23.753 -0 -1.2 0
15.301 -12.4 23.587 -0 -1.2 0
15.197 -12.885 23.414 -0 -1.2 0
15.088 -13.364 23.234 -0 -1.2 0
14.975 -13.84 23.047 -0 -1.2 0
14.858 -14.311 22.853 -0 -1.2 0
14.736 -14.78 22.653 -0 -1.2 0
14.608 -15.244 22.446 -0 -1.2 0
14.478 -15.704 22.231 -0 -1.2 0
14.342 -16.158 22.011 -0 -1.2 0
14.202 -16.608 21.783 -0 -1.2 0
14.059 -17.055 21.55 -0 -1.2 0
13.91 -17.495 21.309 -0 -1.2 0
13.758 -17.931 21.062 -0 -1.2 0
13.601 -18.362 20.809 -0 -1.2 0
13.44 -18.787 20.55 -0 -1.2 0
13.276 -19.207 20.285 -0 -1.2 0
13.107 -19.622 20.013 -0 -1.2 0
12.934 -20.031 19.735 -0 -1.2 0
12.757 -20.434 19.452 -0 -1.2 0
12.576 -20.831 19.162 -0 -1.2 0
12.392 -21.222 18.868 -0 -1.2 0
12.203 -21.608 18.567 -0 -1.2 0
12.012 -21.987 18.261 -0 -1.2 0
17.276 -0.633 24.929 -0 -1.2 0
17.283 -1.156 24.927 -0 -1.2 0
17.286 -1.679 24.919 -0 -1.2 0
17.283 -2.203 24.903 -0 -1.2 0
17.262 -3.248 24.849 -0 -1.2 0
17.243 -3.77 24.81 -0 -1.2 0
17.22 -4.291 24.764 -0 -1.2 0
17.191 -4.811 24.711 -0 -1.2 0
17.157 -5.33 24.65 -0 -1.2 0
17.074 -6.364 24.506 -0 -1.2 0
17.023 -6.879 24.423 -0 -1.2 0
16.909 -7.902 24.236 -0 -1.2 0
16.844 -8.411 24.131 -0 -1.2 0
16.774 -8.918 24.018 -0 -1.2 0
16.698 -9.422 23.9 -0 -1.2 0
16.618 -9.923 23.774 -0 -1.2 0
16.532 -10.423 23.64 -0 -1.2 0
16.442 -10.919 23.499 -0 -1.2 0
16.347 -11.412 23.351 -0 -1.2 0
16.246 -11.902 23.197 -0 -1.2 0
16.141 -12.388 23.035 -0 -1.2 0
16.031 -12.872 22.866 -0 -1.2 0
15.915 -13.352 22.691 -0 -1.2 0
15.796 -13.828 22.509 -0 -1.2 0
15.672 -14.3 22.32 -0 -1.2 0
15.542 -14.768 22.124 -0 -1.2 0
15.407 -15.232 21.922 -0 -1.2 0
15.269 -15.692 21.713 -0 -1.2 0
15.126 -16.147 21.497 -0 -1.2 0
14.978 -16.597 21.276 -0 -1.2 0
14.825 -17.043 21.047 -0 -1.2 0
14.668 -17.484 20.813 -0 -1.2 0
14.506 -17.92 20.573 -0 -1.2 0
14.341 -18.351 20.325 -0 -1.2 0
14.171 -18.777 20.072 -0 -1.2 0
13.996 -19.197 19.814 -0 -1.2 0
13.818 -19.612 19.548 -0 -1.2 0
13.634 -20.021 19.277 -0 -1.2 0
13.447 -20.424 19.001 -0 -1.2 0
13.256 -20.821 18.719 -0 -1.2 0
13.061 -21.213 18.432 -0 -1.2 0
12.862 -21.598 18.138 -0 -1.2 0
12.659 -21.978 17.839 -0 -1.2 0
18.077 0.424 24.32 -0 -1.2 0
18.116 -1.144 24.338 -0 -1.2 0
18.118 -1.667 24.33 -0 -1.2 0
18.115 -2.191 24.315 -0 -1.2 0
18.106 -2.713 24.292 -0 -1.2 0
18.092 -3.236 24.261 -0 -1.2 0
18.072 -3.757 24.224 -0 -1.2 0
18.046 -4.279 24.179 -0 -1.2 0
18.016 -4.799 24.127 -0 -1.2 0
17.98 -5.318 24.068 -0 -1.2 0
17.891 -6.352 23.928 -0 -1.2 0
17.839 -6.867 23.847 -0 -1.2 0
17.78 -7.379 23.759 -0 -1.2 0
17.718 -7.89 23.664 -0 -1.2 0
17.648 -8.399 23.562 -0 -1.2 0
17.574 -8.906 23.453 -0 -1.2 0
17.495 -9.411 23.336 -0 -1.2 0
17.41 -9.912 23.213 -0 -1.2 0
17.32 -10.412 23.082 -0 -1.2 0
17.225 -10.907 22.945 -0 -1.2 0
17.125 -11.401 22.801 -0 -1.2 0
17.02 -11.891 22.65 -0 -1.2 0
16.908 -12.377 22.493 -0 -1.2 0
16.793 -12.861 22.328 -0 -1.2 0
16.671 -13.341 22.157 -0 -1.2 0
16.545 -13.817 21.979 -0 -1.2 0
16.415 -14.289 21.794 -0 -1.2 0
16.279 -14.758 21.604 -0 -1.2 0
16.138 -15.222 21.407 -0 -1.2 0
15.991 -15.682 21.203 -0 -1.2 0
15.84 -16.137 20.993 -0 -1.2 0
15.685 -16.587 20.776 -0 -1.2 0
15.525 -17.033 20.554 -0 -1.2 0
15.359 -17.474 20.325 -0 -1.2 0
15.19 -17.911 20.09 -0 -1.2 0
15.015 -18.341 19.849 -0 -1.2 0
14.837 -18.767 19.602 -0 -1.2 0
14.654 -19.187 19.35 -0 -1.2 0
14.465 -19.602 19.092 -0 -1.2 0
14.274 -20.012 18.827 -0 -1.2 0
14.077 -20.415 18.557 -0 -1.2 0
13.876 -20.812 18.283 -0 -1.2 0
13.672 -21.204 18.002 -0 -1.2 0
13.463 -21.59 17.715 -0 -1.2 0
13.25 -21.969 17.425 -0 -1.2 0
18.863 0.959 23.681 -0 -1.2 0
18.927 -1.132 23.72 -0 -1.2 0
18.929 -1.655 23.712 -0 -1.2 0
18.926 -2.179 23.697 -0 -1.2 0
18.916 -2.702 23.674 -0 -1.2 0
18.879 -3.746 23.609 -0 -1.2 0
18.852 -4.268 23.565 -0 -1.2 0
18.82 -4.788 23.514 -0 -1.2 0
18.782 -5.307 23.457 -0 -1.2 0
18.737 -5.824 23.392 -0 -1.2 0
18.633 -6.855 23.242 -0 -1.2 0
18.572 -7.368 23.156 -0 -1.2 0
18.505 -7.879 23.064 -0 -1.2 0
18.433 -8.388 22.964 -0 -1.2 0
18.355 -8.895 22.858 -0 -1.2 0
18.272 -9.399 22.744 -0 -1.2 0
18.183 -9.901 22.624 -0 -1.2 0
18.088 -10.4 22.497 -0 -1.2 0
17.988 -10.896 22.364 -0 -1.2 0
17.883 -11.39 22.223 -0 -1.2 0
17.772 -11.88 22.076 -0 -1.2 0
17.656 -12.366 21.923 -0 -1.2 0
17.534 -12.851 21.763 -0 -1.2 0
17.408 -13.33 21.596 -0 -1.2 0
17.275 -13.807 21.424 -0 -1.2 0
17.138 -14.278 21.244 -0 -1.2 0
16.996 -14.747 21.058 -0 -1.2 0
16.848 -15.211 20.866 -0 -1.2 0
16.695 -15.671 20.667 -0 -1.2 0
16.537 -16.127 20.463 -0 -1.2 0
16.374 -16.577 20.252 -0 -1.2 0
16.206 -17.024 20.035 -0 -1.2 0
16.033 -17.464 19.813 -0 -1.2 0
15.856 -17.901 19.584 -0 -1.2 0
15.674 -18.332 19.35 -0 -1.2 0
15.487 -18.758 19.109 -0 -1.2 0
15.295 -19.178 18.863 -0 -1.2 0
15.098 -19.593 18.611 -0 -1.2 0
14.897 -20.003 18.355 -0 -1.2 0
14.691 -20.406 18.092 -0 -1.2 0
14.482 -20.804 17.824 -0 -1.2 0
14.267 -21.195 17.55 -0 -1.2 0
14.048 -21.581 17.272 -0 -1.2 0
13.825 -21.961 16.989 -0 -1.2 0
19.773 -1.121 23.026 -0 -1.2 0
19.774 -1.644 23.019 -0 -1.2 0
19.769 -2.169 23.004 -0 -1.2 0
19.76 -2.691 22.982 -0 -1.2 0
19.743 -3.214 22.954 -0 -1.2 0
19.72 -3.735 22.919 -0 -1.2 0
19.691 -4.257 22.877 -0 -1.2 0
19.657 -4.777 22.827 -0 -1.2 0
19.616 -5.296 22.772 -0 -1.2 0
19.57 -5.814 22.709 -0 -1.2 0
19.517 -6.33 22.64 -0 -1.2 0
19.459 -6.845 22.564 -0 -1.2 0
19.395 -7.358 22.481 -0 -1.2 0
19.324 -7.869 22.391 -0 -1.2 0
19.248 -8.378 22.295 -0 -1.2 0
19.166 -8.885 22.192 -0 -1.2 0
19.079 -9.389 22.082 -0 -1.2 0
18.985 -9.891 21.966 -0 -1.2 0
18.886 -10.391 21.843 -0 -1.2 0
18.781 -10.886 21.713 -0 -1.2 0
18.671 -11.38 21.577 -0 -1.2 0
18.554 -11.87 21.435 -0 -1.2 0
18.433 -12.357 21.286 -0 -1.2 0
18.305 -12.841 21.132 -0 -1.2 0
18.172 -13.321 20.97 -0 -1.2 0
18.033 -13.797 20.802 -0 -1.2 0
17.889 -14.269 20.628 -0 -1.2 0
17.74 -14.738 20.448 -0 -1.2 0
17.585 -15.202 20.261 -0 -1.2 0
17.425 -15.662 20.07 -0 -1.2 0
17.259 -16.118 19.871 -0 -1.2 0
17.089 -16.568 19.667 -0 -1.2 0
16.912 -17.015 19.457 -0 -1.2 0
16.732 -17.455 19.241 -0 -1.2 0
16.546 -17.892 19.019 -0 -1.2 0
16.354 -18.323 18.792 -0 -1.2 0
16.158 -18.749 18.559 -0 -1.2 0
15.957 -19.17 18.321 -0 -1.2 0
15.752 -19.585 18.077 -0 -1.2 0
15.541 -19.994 17.827 -0 -1.2 0
15.326 -20.398 17.573 -0 -1.2 0
15.106 -20.796 17.314 -0 -1.2 0
14.882 -21.188 17.048 -0 -1.2 0
14.652 -21.574 16.778 -0 -1.2 0
14.419 -21.954 16.503 -0 -1.2 0
20.531 -1.113 22.36 -0 -1.2 0
20.532 -1.637 22.353 -0 -1.2 0
20.526 -2.161 22.339 -0 -1.2 0
20.515 -2.683 22.317 -0 -1.2 0
20.497 -3.206 22.29 -0 -1.2 0
20.473 -3.728 22.256 -0 -1.2 0
20.443 -4.25 22.216 -0 -1.2 0
20.406 -4.77 22.168 -0 -1.2 0
20.364 -5.289 22.115 -0 -1.2 0
20.314 -5.806 22.054 -0 -1.2 0
20.26 -6.323 21.987 -0 -1.2 0
20.199 -6.837 21.913 -0 -1.2 0
20.131 -7.35 21.833 -0 -1.2 0
20.058 -7.861 21.746 -0 -1.2 0
19.978 -8.37 21.653 -0 -1.2 0
19.892 -8.878 21.553 -0 -1.2 0
19.801 -9.382 21.446 -0 -1.2 0
19.704 -9.884 21.334 -0 -1.2 0
19.6 -10.383 21.215 -0 -1.2 0
19.491 -10.879 21.089 -0 -1.2 0
19.375 -11.373 20.957 -0 -1.2 0
19.253 -11.863 20.819 -0 -1.2 0
19.126 -12.35 20.676 -0 -1.2 0
18.994 -12.834 20.526 -0 -1.2 0
18.855 -13.314 20.369 -0 -1.2 0
18.711 -13.79 20.206 -0 -1.2 0
18.56 -14.262 20.037 -0 -1.2 0
18.404 -14.731 19.863 -0 -1.2 0
18.243 -15.195 19.683 -0 -1.2 0
18.076 -15.656 19.497 -0 -1.2 0
17.904 -16.111 19.304 -0 -1.2 0
17.727 -16.562 19.106 -0 -1.2 0
17.543 -17.008 18.902 -0 -1.2 0
17.355 -17.449 18.693 -0 -1.2 0
17.161 -17.886 18.479 -0 -1.2 0
16.963 -18.317 18.258 -0 -1.2 0
16.759 -18.743 18.032 -0 -1.2 0
16.549 -19.164 17.801 -0 -1.2 0
16.335 -19.579 17.565 -0 -1.2 0
16.116 -19.989 17.324 -0 -1.2 0
15.892 -20.392 17.077 -0 -1.2 0
15.663 -20.79 16.825 -0 -1.2 0
15.43 -21.182 16.568 -0 -1.2 0
15.192 -21.568 16.306 -0 -1.2 0
14.949 -21.948 16.039 -0 -1.2 0
21.198 0.984 21.631 -0 -1.2 0
21.224 0.46 21.65 -0 -1.2 0
21.244 -0.061 21.663 -0 -1.2 0
21.257 -0.584 21.668 -0 -1.2 0
21.264 -1.107 21.668 -0 -1.2 0
21.264 -1.63 21.661 -0 -1.2 0
21.258 -2.155 21.648 -0 -1.2 0
21.246 -2.677 21.628 -0 -1.2 0
21.227 -3.2 21.602 -0 -1.2 0
21.201 -3.721 21.569 -0 -1.2 0
21.169 -4.243 21.529 -0 -1.2 0
21.131 -4.763 21.483 -0 -1.2 0
21.086 -5.283 21.431 -0 -1.2 0
21.035 -5.8 21.373 -0 -1.2 0
20.977 -6.317 21.308 -0 -1.2 0
20.913 -6.831 21.238 -0 -1.2 0
20.843 -7.344 21.16 -0 -1.2 0
20.767 -7.855 21.076 -0 -1.2 0
20.684 -8.364 20.986 -0 -1.2 0
20.594 -8.872 20.889 -0 -1.2 0
20.499 -9.376 20.787 -0 -1.2 0
20.397 -9.878 20.678 -0 -1.2 0
20.289 -10.377 20.562 -0 -1.2 0
20.176 -10.873 20.441 -0 -1.2 0
20.056 -11.367 20.314 -0 -1.2 0
19.93 -11.858 20.181 -0 -1.2 0
19.797 -12.344 20.042 -0 -1.2 0
19.659 -12.828 19.896 -0 -1.2 0
19.515 -13.308 19.745 -0 -1.2 0
19.365 -13.785 19.587 -0 -1.2 0
19.209 -14.257 19.424 -0 -1.2 0
19.047 -14.726 19.256 -0 -1.2 0
18.879 -15.19 19.082 -0 -1.2 0
18.706 -15.65 18.901 -0 -1.2 0
18.527 -16.106 18.715 -0 -1.2 0
18.343 -16.556 18.524 -0 -1.2 0
18.152 -17.003 18.326 -0 -1.2 0
17.957 -17.444 18.125 -0 -1.2 0
17.756 -17.881 17.917 -0 -1.2 0
17.549 -18.312 17.704 -0 -1.2 0
17.338 -18.738 17.485 -0 -1.2 0
17.121 -19.159 17.261 -0 -1.2 0
16.898 -19.574 17.033 -0 -1.2 0
16.671 -19.984 16.8 -0 -1.2 0
16.439 -20.388 16.561 -0 -1.2 0
16.201 -20.786 16.317 -0 -1.2 0
15.959 -21.178 16.069 -0 -1.2 0
15.712 -21.564 15.815 -0 -1.2 0
15.46 -21.944 15.557 -0 -1.2 0
21.961 0.989 20.859 -0 -1.2 0
22.02 -0.579 20.895 -0 -1.2 0
22.026 -1.102 20.895 -0 -1.2 0
22.025 -1.625 20.889 -0 -1.2 0
22.019 -2.149 20.876 -0 -1.2 0
22.006 -2.672 20.857 -0 -1.2 0
21.985 -3.194 20.832 -0 -1.2 0
21.958 -3.716 20.801 -0 -1.2 0
21.925 -4.238 20.763 -0 -1.2 0
21.884 -4.758 20.72 -0 -1.2 0
21.838 -5.277 20.67 -0 -1.2 0
21.784 -5.795 20.613 -0 -1.2 0
21.723 -6.311 20.551 -0 -1.2 0
21.657 -6.826 20.483 -0 -1.2 0
21.583 -7.339 20.408 -0 -1.2 0
21.503 -7.85 20.327 -0 -1.2 0
21.417 -8.359 20.241 -0 -1.2 0
21.324 -8.867 20.149 -0 -1.2 0
21.224 -9.371 20.05 -0 -1.2 0
21.119 -9.873 19.945 -0 -1.2 0
21.007 -10.372 19.834 -0 -1.2 0
20.888 -10.868 19.718 -0 -1.2 0
20.764 -11.362 19.595 -0 -1.2 0
20.632 -11.853 19.468 -0 -1.2 0
20.495 -12.339 19.333 -0 -1.2 0
20.351 -12.824 19.194 -0 -1.2 0
20.201 -13.303 19.048 -0 -1.2 0
20.045 -13.78 18.897 -0 -1.2 0
19.883 -14.252 18.741 -0 -1.2 0
19.715 -14.721 18.578 -0 -1.2 0
19.54 -15.185 18.41 -0 -1.2 0
19.361 -15.646 18.236 -0 -1.2 0
19.175 -16.101 18.057 -0 -1.2 0
18.983 -16.552 17.873 -0 -1.2 0
18.785 -16.999 17.684 -0 -1.2 0
18.583 -17.44 17.49 -0 -1.2 0
18.374 -17.877 17.29 -0 -1.2 0
18.159 -18.308 17.084 -0 -1.2 0
17.94 -18.734 16.874 -0 -1.2 0
17.715 -19.155 16.659 -0 -1.2 0
17.484 -19.57 16.439 -0 -1.2 0
17.247 -19.98 16.214 -0 -1.2 0
17.007 -20.384 15.984 -0 -1.2 0
16.761 -20.782 15.749 -0 -1.2 0
16.509 -21.174 15.51 -0 -1.2 0
16.252 -21.56 15.266 -0 -1.2 0
15.991 -21.94 15.018 -0 -1.2 0
22.702 -0.575 20.154 -0 -1.2 0
22.707 -1.098 20.154 -0 -1.2 0
22.707 -1.622 20.148 -0 -1.2 0
22.699 -2.146 20.135 -0 -1.2 0
22.685 -2.668 20.117 -0 -1.2 0
22.663 -3.191 20.093 -0 -1.2 0
22.635 -3.713 20.063 -0 -1.2 0
22.6 -4.235 20.028 -0 -1.2 0
22.557 -4.755 19.986 -0 -1.2 0
22.509 -5.274 19.938 -0 -1.2 0
22.453 -5.791 19.884 -0 -1.2 0
22.39 -6.308 19.824 -0 -1.2 0
22.321 -6.823 19.758 -0 -1.2 0
22.245 -7.336 19.687 -0 -1.2 0
22.163 -7.847 19.609 -0 -1.2 0
22.073 -8.356 19.527 -0 -1.2 0
21.977 -8.863 19.437 -0 -1.2 0
21.874 -9.368 19.342 -0 -1.2 0
21.764 -9.869 19.242 -0 -1.2 0
21.648 -10.369 19.135 -0 -1.2 0
21.525 -10.865 19.023 -0 -1.2 0
21.395 -11.359 18.906 -0 -1.2 0
21.26 -11.85 18.783 -0 -1.2 0
21.118 -12.336 18.653 -0 -1.2 0
20.969 -12.821 18.519 -0 -1.2 0
20.814 -13.3 18.379 -0 -1.2 0
20.653 -13.777 18.233 -0 -1.2 0
20.486 -14.249 18.083 -0 -1.2 0
20.312 -14.718 17.927 -0 -1.2 0
20.132 -15.183 17.765 -0 -1.2 0
19.946 -15.643 17.598 -0 -1.2 0
19.753 -16.098 17.426 -0 -1.2 0
19.556 -16.549 17.249 -0 -1.2 0
19.352 -16.996 17.066 -0 -1.2 0
19.142 -17.437 16.879 -0 -1.2 0
18.926 -17.874 16.687 -0 -1.2 0
18.705 -18.305 16.49 -0 -1.2 0
18.478 -18.732 16.287 -0 -1.2 0
18.245 -19.152 16.08 -0 -1.2 0
18.007 -19.568 15.868 -0 -1.2 0
17.764 -19.978 15.652 -0 -1.2 0
17.514 -20.381 15.431 -0 -1.2 0
17.26 -20.779 15.205 -0 -1.2 0
17 -21.171 14.975 -0 -1.2 0
16.736 -21.558 14.74 -0 -1.2 0
16.466 -21.938 14.5 -0 -1.2 0
23.325 -0.051 19.407 -0 -1.2 0
23.339 -0.574 19.413 -0 -1.2 0
23.344 -1.097 19.413 -0 -1.2 0
23.343 -1.62 19.408 -0 -1.2 0
23.335 -2.144 19.397 -0 -1.2 0
23.319 -2.666 19.38 -0 -1.2 0
23.297 -3.189 19.357 -0 -1.2 0
23.268 -3.711 19.328 -0 -1.2 0
23.231 -4.233 19.293 -0 -1.2 0
23.187 -4.753 19.253 -0 -1.2 0
23.136 -5.272 19.207 -0 -1.2 0
23.078 -5.79 19.156 -0 -1.2 0
23.013 -6.306 19.099 -0 -1.2 0
22.942 -6.821 19.036 -0 -1.2 0
22.863 -7.334 18.967 -0 -1.2 0
22.777 -7.845 18.893 -0 -1.2 0
22.685 -8.354 18.812 -0 -1.2 0
22.586 -8.861 18.728 -0 -1.2 0
22.48 -9.366 18.637 -0 -1.2 0
22.367 -9.868 18.54 -0 -1.2 0
22.246 -10.367 18.438 -0 -1.2 0
22.12 -10.863 18.33 -0 -1.2 0
21.986 -11.358 18.218 -0 -1.2 0
21.847 -11.848 18.099 -0 -1.2 0
21.7 -12.334 17.975 -0 -1.2 0
21.547 -12.819 17.846 -0 -1.2 0
21.387 -13.299 17.711 -0 -1.2 0
21.221 -13.775 17.571 -0 -1.2 0
21.048 -14.247 17.426 -0 -1.2 0
20.869 -14.717 17.277 -0 -1.2 0
20.684 -15.181 17.122 -0 -1.2 0
20.492 -15.641 16.961 -0 -1.2 0
20.295 -16.097 16.796 -0 -1.2 0
20.09 -16.548 16.626 -0 -1.2 0
19.881 -16.995 16.45 -0 -1.2 0
19.664 -17.436 16.27 -0 -1.2 0
19.443 -17.873 16.085 -0 -1.2 0
19.214 -18.304 15.896 -0 -1.2 0
18.98 -18.73 15.701 -0 -1.2 0
18.741 -19.151 15.502 -0 -1.2 0
18.496 -19.566 15.299 -0 -1.2 0
18.245 -19.976 15.091 -0 -1.2 0
17.988 -20.38 14.878 -0 -1.2 0
17.727 -20.778 14.661 -0 -1.2 0
17.459 -21.17 14.44 -0 -1.2 0
17.187 -21.556 14.215 -0 -1.2 0
16.909 -21.937 13.984 -0 -1.2 0
23.963 0.472 18.575 -0 -1.2 0
23.984 -0.05 18.586 -0 -1.2 0
23.997 -0.573 18.592 -0 -1.2 0
24.002 -1.096 18.592 -0 -1.2 0
24 -1.619 18.588 -0 -1.2 0
23.991 -2.143 18.577 -0 -1.2 0
23.975 -2.666 18.561 -0 -1.2 0
23.951 -3.188 18.539 -0 -1.2 0
23.92 -3.71 18.511 -0 -1.2 0
23.882 -4.232 18.479 -0 -1.2 0
23.837 -4.752 18.441 -0 -1.2 0
23.784 -5.272 18.397 -0 -1.2 0
23.724 -5.789 18.348 -0 -1.2 0
23.657 -6.306 18.293 -0 -1.2 0
23.583 -6.82 18.234 -0 -1.2 0
23.502 -7.333 18.168 -0 -1.2 0
23.414 -7.844 18.097 -0 -1.2 0
23.318 -8.354 18.021 -0 -1.2 0
23.215 -8.861 17.939 -0 -1.2 0
23.106 -9.365 17.853 -0 -1.2 0
22.988 -9.867 17.761 -0 -1.2 0
22.865 -10.367 17.663 -0 -1.2 0
22.735 -10.863 17.561 -0 -1.2 0
22.597 -11.357 17.453 -0 -1.2 0
22.452 -11.847 17.34 -0 -1.2 0
22.302 -12.334 17.222 -0 -1.2 0
22.144 -12.818 17.099 -0 -1.2 0
21.979 -13.298 16.97 -0 -1.2 0
21.807 -13.775 16.837 -0 -1.2 0
21.629 -14.247 16.698 -0 -1.2 0
21.445 -14.716 16.555 -0 -1.2 0
21.254 -15.18 16.407 -0 -1.2 0
21.057 -15.641 16.255 -0 -1.2 0
20.852 -16.097 16.097 -0 -1.2 0
20.643 -16.547 15.934 -0 -1.2 0
20.426 -16.994 15.767 -0 -1.2 0
20.204 -17.435 15.595 -0 -1.2 0
19.975 -17.872 15.418 -0 -1.2 0
19.74 -18.304 15.236 -0 -1.2 0
19.499 -18.73 15.051 -0 -1.2 0
19.252 -19.15 14.861 -0 -1.2 0
19 -19.566 14.667 -0 -1.2 0
18.741 -19.976 14.468 -0 -1.2 0
18.478 -20.38 14.265 -0 -1.2 0
18.208 -20.778 14.058 -0 -1.2 0
17.933 -21.17 13.846 -0 -1.2 0
17.652 -21.556 13.631 -0 -1.2 0
17.367 -21.937 13.412 -0 -1.2 0
24.575 -2.164 17.793 -0 -1.2 0
24.557 -2.687 17.778 -0 -1.2 0
24.532 -3.209 17.757 -0 -1.2 0
24.5 -3.731 17.73 -0 -1.2 0
24.461 -4.253 17.699 -0 -1.2 0
24.413 -4.773 17.662 -0 -1.2 0
24.359 -5.292 17.62 -0 -1.2 0
24.297 -5.81 17.573 -0 -1.2 0
24.227 -6.326 17.521 -0 -1.2 0
24.151 -6.841 17.464 -0 -1.2 0
24.068 -7.354 17.4 -0 -1.2 0
23.976 -7.865 17.333 -0 -1.2 0
23.878 -8.374 17.26 -0 -1.2 0
23.772 -8.881 17.182 -0 -1.2 0
23.659 -9.385 17.099 -0 -1.2 0
23.539 -9.887 17.011 -0 -1.2 0
23.412 -10.387 16.917 -0 -1.2 0
23.277 -10.883 16.819 -0 -1.2 0
23.137 -11.377 16.716 -0 -1.2 0
22.988 -11.867 16.608 -0 -1.2 0
22.833 -12.353 16.494 -0 -1.2 0
22.67 -12.838 16.376 -0 -1.2 0
22.501 -13.317 16.253 -0 -1.2 0
22.325 -13.794 16.126 -0 -1.2 0
22.142 -14.266 15.993 -0 -1.2 0
21.953 -14.735 15.856 -0 -1.2 0
21.757 -15.199 15.714 -0 -1.2 0
21.553 -15.659 15.567 -0 -1.2 0
21.345 -16.115 15.417 -0 -1.2 0
21.128 -16.565 15.261 -0 -1.2 0
20.907 -17.012 15.101 -0 -1.2 0
20.678 -17.453 14.937 -0 -1.2 0
20.443 -17.889 14.767 -0 -1.2 0
20.202 -18.321 14.594 -0 -1.2 0
19.955 -18.747 14.416 -0 -1.2 0
19.702 -19.167 14.235 -0 -1.2 0
19.443 -19.582 14.048 -0 -1.2 0
19.178 -19.992 13.859 -0 -1.2 0
18.907 -20.396 13.664 -0 -1.2 0
18.63 -20.793 13.465 -0 -1.2 0
18.349 -21.185 13.264 -0 -1.2 0
18.061 -21.571 13.057 -0 -1.2 0
17.767 -21.952 12.847 -0 -1.2 0
25.127 -0.102 17.001 -0 -1.2 0
25.011 -4.284 16.898 -0 -1.2 0
24.962 -4.804 16.863 -0 -1.2 0
24.906 -5.323 16.822 -0 -1.2 0
24.842 -5.841 16.776 -0 -1.2 0
24.771 -6.357 16.727 -0 -1.2 0
24.693 -6.872 16.671 -0 -1.2 0
24.606 -7.384 16.611 -0 -1.2 0
24.512 -7.895 16.546 -0 -1.2 0
24.411 -8.404 16.476 -0 -1.2 0
24.302 -8.911 16.401 -0 -1.2 0
24.186 -9.416 16.321 -0 -1.2 0
24.062 -9.917 16.237 -0 -1.2 0
23.932 -10.417 16.147 -0 -1.2 0
23.794 -10.912 16.054 -0 -1.2 0
23.649 -11.406 15.955 -0 -1.2 0
23.496 -11.896 15.851 -0 -1.2 0
23.337 -12.382 15.743 -0 -1.2 0
23.17 -12.866 15.63 -0 -1.2 0
22.997 -13.346 15.512 -0 -1.2 0
22.817 -13.822 15.39 -0 -1.2 0
22.629 -14.294 15.263 -0 -1.2 0
22.435 -14.763 15.132 -0 -1.2 0
22.233 -15.227 14.998 -0 -1.2 0
22.025 -15.687 14.858 -0 -1.2 0
21.811 -16.142 14.713 -0 -1.2 0
21.59 -16.592 14.565 -0 -1.2 0
21.362 -17.038 14.412 -0 -1.2 0
21.128 -17.479 14.254 -0 -1.2 0
20.888 -17.915 14.092 -0 -1.2 0
20.641 -18.346 13.927 -0 -1.2 0
20.388 -18.772 13.757 -0 -1.2 0
20.128 -19.192 13.583 -0 -1.2 0
19.863 -19.607 13.406 -0 -1.2 0
19.591 -20.016 13.224 -0 -1.2 0
19.314 -20.42 13.039 -0 -1.2 0
19.03 -20.817 12.849 -0 -1.2 0
18.741 -21.209 12.656 -0 -1.2 0
18.446 -21.594 12.46 -0 -1.2 0
18.146 -21.974 12.26 -0 -1.2 0
25.647 0.953 16.096 -0 -1.2 0
25.676 0.429 16.11 -0 -1.2 0
25.61 -0.096 16.068 -0 -1.2 0
25.708 -0.615 16.124 -0 -1.2 0
25.712 -1.138 16.125 -0 -1.2 0
25.709 -1.661 16.12 -0 -1.2 0
25.698 -2.186 16.111 -0 -1.2 0
25.329 -6.347 15.864 -0 -1.2 0
25.249 -6.862 15.813 -0 -1.2 0
25.16 -7.375 15.756 -0 -1.2 0
25.063 -7.886 15.694 -0 -1.2 0
24.96 -8.395 15.629 -0 -1.2 0
24.848 -8.902 15.558 -0 -1.2 0
24.729 -9.406 15.483 -0 -1.2 0
24.603 -9.908 15.403 -0 -1.2 0
24.469 -10.407 15.319 -0 -1.2 0
24.328 -10.903 15.231 -0 -1.2 0
24.179 -11.397 15.137 -0 -1.2 0
24.023 -11.887 15.039 -0 -1.2 0
23.86 -12.373 14.938 -0 -1.2 0
23.69 -12.857 14.831 -0 -1.2 0
23.512 -13.337 14.72 -0 -1.2 0
23.327 -13.813 14.605 -0 -1.2 0
23.135 -14.285 14.485 -0 -1.2 0
22.936 -14.754 14.362 -0 -1.2 0
22.73 -15.218 14.234 -0 -1.2 0
22.518 -15.678 14.102 -0 -1.2 0
22.298 -16.133 13.965 -0 -1.2 0
22.072 -16.584 13.825 -0 -1.2 0
21.839 -17.03 13.68 -0 -1.2 0
21.599 -17.471 13.532 -0 -1.2 0
21.353 -17.907 13.379 -0 -1.2 0
21.1 -18.338 13.223 -0 -1.2 0
20.841 -18.764 13.063 -0 -1.2 0
20.576 -19.184 12.899 -0 -1.2 0
20.304 -19.599 12.731 -0 -1.2 0
20.027 -20.009 12.56 -0 -1.2 0
19.742 -20.412 12.385 -0 -1.2 0
19.452 -20.81 12.206 -0 -1.2 0
19.157 -21.201 12.024 -0 -1.2 0
18.855 -21.587 11.838 -0 -1.2 0
18.548 -21.967 11.648 -0 -1.2 0
26.147 0.961 15.262 -0 -1.2 0
26.208 -0.607 15.29 -0 -1.2 0
26.212 -1.13 15.29 -0 -1.2 0
26.208 -1.653 15.286 -0 -1.2 0
26.197 -2.178 15.277 -0 -1.2 0
26.177 -2.7 15.264 -0 -1.2 0
26.15 -3.223 15.247 -0 -1.2 0
26.115 -3.745 15.224 -0 -1.2 0
26.071 -4.266 15.198 -0 -1.2 0
25.207 -9.399 14.689 -0 -1.2 0
25.078 -9.9 14.613 -0 -1.2 0
24.941 -10.4 14.535 -0 -1.2 0
24.797 -10.896 14.451 -0 -1.2 0
24.645 -11.389 14.363 -0 -1.2 0
24.486 -11.88 14.271 -0 -1.2 0
24.32 -12.366 14.174 -0 -1.2 0
24.145 -12.85 14.074 -0 -1.2 0
23.964 -13.33 13.969 -0 -1.2 0
23.776 -13.806 13.861 -0 -1.2 0
23.58 -14.278 13.748 -0 -1.2 0
23.377 -14.747 13.631 -0 -1.2 0
23.167 -15.211 13.51 -0 -1.2 0
22.949 -15.671 13.386 -0 -1.2 0
22.726 -16.126 13.258 -0 -1.2 0
22.495 -16.577 13.125 -0 -1.2 0
22.257 -17.023 12.988 -0 -1.2 0
22.012 -17.464 12.849 -0 -1.2 0
21.761 -17.901 12.705 -0 -1.2 0
21.504 -18.332 12.557 -0 -1.2 0
21.24 -18.758 12.406 -0 -1.2 0
20.969 -19.178 12.251 -0 -1.2 0
20.691 -19.593 12.093 -0 -1.2 0
20.409 -20.003 11.931 -0 -1.2 0
20.119 -20.406 11.765 -0 -1.2 0
19.824 -20.804 11.597 -0 -1.2 0
19.522 -21.196 11.424 -0 -1.2 0
19.214 -21.581 11.249 -0 -1.2 0
18.901 -21.961 11.069 -0 -1.2 0
25.559 -9.893 13.745 -0 -1.2 0
25.42 -10.393 13.671 -0 -1.2 0
25.272 -10.889 13.593 -0 -1.2 0
25.118 -11.383 13.511 -0 -1.2 0
24.955 -11.873 13.425 -0 -1.2 0
24.786 -12.359 13.335 -0 -1.2 0
24.607 -12.844 13.242 -0 -1.2 0
24.423 -13.323 13.144 -0 -1.2 0
24.231 -13.8 13.043 -0 -1.2 0
24.03 -14.272 12.937 -0 -1.2 0
23.824 -14.741 12.828 -0 -1.2 0
23.609 -15.205 12.715 -0 -1.2 0
23.388 -15.665 12.599 -0 -1.2 0
23.16 -16.12 12.479 -0 -1.2 0
22.924 -16.571 12.355 -0 -1.2 0
22.681 -17.017 12.228 -0 -1.2 0
22.432 -17.458 12.097 -0 -1.2 0
22.176 -17.895 11.962 -0 -1.2 0
21.913 -18.326 11.824 -0 -1.2 0
21.643 -18.752 11.682 -0 -1.2 0
21.368 -19.172 11.538 -0 -1.2 0
21.084 -19.588 11.39 -0 -1.2 0
20.796 -19.997 11.238 -0 -1.2 0
20.5 -20.401 11.084 -0 -1.2 0
20.199 -20.798 10.926 -0 -1.2 0
19.891 -21.19 10.765 -0 -1.2 0
19.577 -21.576 10.6 -0 -1.2 0
19.258 -21.956 10.433 -0 -1.2 0
27.091 0.973 13.48 -0 -1.2 0
27.153 -0.595 13.507 -0 -1.2 0
27.157 -1.118 13.508 -0 -1.2 0
27.154 -1.641 13.505 -0 -1.2 0
27.141 -2.165 13.498 -0 -1.2 0
27.12 -2.688 13.487 -0 -1.2 0
27.092 -3.21 13.472 -0 -1.2 0
27.055 -3.732 13.454 -0 -1.2 0
27.01 -4.254 13.431 -0 -1.2 0
26.957 -4.774 13.405 -0 -1.2 0
26.895 -5.293 13.374 -0 -1.2 0
25.977 -9.888 12.926 -0 -1.2 0
25.835 -10.388 12.857 -0 -1.2 0
25.685 -10.884 12.785 -0 -1.2 0
25.528 -11.378 12.708 -0 -1.2 0
25.363 -11.868 12.628 -0 -1.2 0
25.189 -12.354 12.544 -0 -1.2 0
25.009 -12.839 12.456 -0 -1.2 0
24.821 -13.318 12.365 -0 -1.2 0
24.625 -13.795 12.271 -0 -1.2 0
24.422 -14.267 12.172 -0 -1.2 0
24.211 -14.736 12.071 -0 -1.2 0
23.993 -15.2 11.965 -0 -1.2 0
23.768 -15.66 11.857 -0 -1.2 0
23.535 -16.116 11.744 -0 -1.2 0
23.296 -16.566 11.629 -0 -1.2 0
23.049 -17.013 11.51 -0 -1.2 0
22.796 -17.454 11.387 -0 -1.2 0
22.535 -17.891 11.262 -0 -1.2 0
22.268 -18.322 11.133 -0 -1.2 0
21.994 -18.748 11 -0 -1.2 0
21.713 -19.168 10.866 -0 -1.2 0
21.426 -19.583 10.727 -0 -1.2 0
21.132 -19.993 10.585 -0 -1.2 0
20.831 -20.397 10.441 -0 -1.2 0
20.524 -20.794 10.293 -0 -1.2 0
20.212 -21.186 10.142 -0 -1.2 0
19.893 -21.572 9.989 -0 -1.2 0
19.568 -21.953 9.832 -0 -1.2 0
27.501 0.978 12.605 -0 -1.2 0
27.563 -0.59 12.631 -0 -1.2 0
27.567 -1.113 12.632 -0 -1.2 0
27.563 -1.637 12.63 -0 -1.2 0
27.551 -2.161 12.625 -0 -1.2 0
27.529 -2.683 12.615 -0 -1.2 0
27.5 -3.206 12.601 -0 -1.2 0
26.966 -7.351 12.363 -0 -1.2 0
26.222 -10.384 12.033 -0 -1.2 0
26.069 -10.88 11.966 -0 -1.2 0
25.91 -11.374 11.896 -0 -1.2 0
25.742 -11.864 11.821 -0 -1.2 0
25.565 -12.35 11.743 -0 -1.2 0
25.382 -12.835 11.662 -0 -1.2 0
25.191 -13.314 11.578 -0 -1.2 0
24.992 -13.791 11.49 -0 -1.2 0
24.786 -14.263 11.398 -0 -1.2 0
24.572 -14.732 11.304 -0 -1.2 0
24.351 -15.196 11.207 -0 -1.2 0
24.122 -15.657 11.105 -0 -1.2 0
23.886 -16.112 11.002 -0 -1.2 0
23.643 -16.563 10.894 -0 -1.2 0
23.392 -17.009 10.784 -0 -1.2 0
23.134 -17.45 10.67 -0 -1.2 0
22.87 -17.887 10.553 -0 -1.2 0
22.598 -18.318 10.433 -0 -1.2 0
22.32 -18.744 10.31 -0 -1.2 0
22.034 -19.165 10.185 -0 -1.2 0
21.743 -19.58 10.056 -0 -1.2 0
21.445 -19.99 9.924 -0 -1.2 0
21.14 -20.394 9.79 -0 -1.2 0
20.829 -20.791 9.652 -0 -1.2 0
20.511 -21.183 9.512 -0 -1.2 0
20.187 -21.569 9.37 -0 -1.2 0
19.857 -21.95 9.224 -0 -1.2 0
27.908 0.981 11.647 -0 -1.2 0
27.702 -5.286 11.567 -0 -1.2 0
27.63 -5.803 11.538 -0 -1.2 0
27.549 -6.32 11.507 -0 -1.2 0
27.46 -6.835 11.471 -0 -1.2 0
27.364 -7.348 11.432 -0 -1.2 0
27.022 -8.875 11.297 -0 -1.2 0
26.892 -9.379 11.245 -0 -1.2 0
26.754 -9.881 11.19 -0 -1.2 0
26.608 -10.381 11.132 -0 -1.2 0
26.453 -10.877 11.07 -0 -1.2 0
26.29 -11.371 11.005 -0 -1.2 0
26.119 -11.861 10.938 -0 -1.2 0
25.941 -12.347 10.867 -0 -1.2 0
25.755 -12.832 10.793 -0 -1.2 0
25.56 -13.312 10.715 -0 -1.2 0
25.359 -13.788 10.635 -0 -1.2 0
25.149 -14.26 10.551 -0 -1.2 0
24.932 -14.729 10.465 -0 -1.2 0
24.707 -15.193 10.376 -0 -1.2 0
24.475 -15.654 10.283 -0 -1.2 0
24.235 -16.109 10.187 -0 -1.2 0
23.988 -16.56 10.089 -0 -1.2 0
23.733 -17.007 9.989 -0 -1.2 0
23.472 -17.448 9.884 -0 -1.2 0
23.203 -17.885 9.777 -0 -1.2 0
22.928 -18.316 9.667 -0 -1.2 0
22.645 -18.742 9.554 -0 -1.2 0
22.356 -19.162 9.44 -0 -1.2 0
22.059 -19.578 9.321 -0 -1.2 0
21.757 -19.987 9.2 -0 -1.2 0
21.446 -20.391 9.078 -0 -1.2 0
21.131 -20.789 8.952 -0 -1.2 0
20.808 -21.181 8.823 -0 -1.2 0
20.479 -21.567 8.692 -0 -1.2 0
20.144 -21.947 8.559 -0 -1.2 0
28.258 0.983 10.744 -0 -1.2 0
28.216 -3.722 10.734 -0 -1.2 0
28.168 -4.244 10.718 -0 -1.2 0
28.112 -4.764 10.698 -0 -1.2 0
27.833 -5.251 10.598 -0 -1.2 0
27.974 -5.801 10.649 -0 -1.2 0
27.633 -6.268 10.527 -0 -1.2 0
27.802 -6.832 10.589 -0 -1.2 0
27.481 -8.365 10.475 -0 -1.2 0
27.358 -8.872 10.43 -0 -1.2 0
27.227 -9.377 10.384 -0 -1.2 0
27.086 -9.879 10.334 -0 -1.2 0
26.937 -10.378 10.28 -0 -1.2 0
26.781 -10.874 10.224 -0 -1.2 0
26.616 -11.368 10.165 -0 -1.2 0
26.444 -11.859 10.103 -0 -1.2 0
26.263 -12.345 10.04 -0 -1.2 0
26.074 -12.829 9.972 -0 -1.2 0
25.877 -13.309 9.901 -0 -1.2 0
25.673 -13.786 9.827 -0 -1.2 0
25.46 -14.258 9.751 -0 -1.2 0
25.241 -14.727 9.672 -0 -1.2 0
25.013 -15.191 9.591 -0 -1.2 0
24.777 -15.651 9.506 -0 -1.2 0
24.535 -16.107 9.42 -0 -1.2 0
24.285 -16.558 9.329 -0 -1.2 0
24.027 -17.004 9.237 -0 -1.2 0
23.762 -17.445 9.142 -0 -1.2 0
23.49 -17.882 9.044 -0 -1.2 0
23.211 -18.313 8.944 -0 -1.2 0
22.925 -18.74 8.84 -0 -1.2 0
22.632 -19.16 8.736 -0 -1.2 0
22.331 -19.576 8.627 -0 -1.2 0
22.025 -19.985 8.517 -0 -1.2 0
21.711 -20.389 8.404 -0 -1.2 0
21.391 -20.787 8.289 -0 -1.2 0
21.064 -21.179 8.171 -0 -1.2 0
20.731 -21.565 8.051 -0 -1.2 0
20.392 -21.945 7.929 -0 -1.2 0
28.656 -1.615 9.8 -0 -1.2 0
28.644 -2.139 9.796 -0 -1.2 0
28.622 -2.661 9.79 -0 -1.2 0
28.591 -3.184 9.78 -0 -1.2 0
28.552 -3.706 9.769 -0 -1.2 0
28.505 -4.228 9.754 -0 -1.2 0
28.448 -4.748 9.736 -0 -1.2 0
28.383 -5.267 9.716 -0 -1.2 0
28.309 -5.785 9.692 -0 -1.2 0
28.227 -6.301 9.666 -0 -1.2 0
27.697 -7.784 9.496 -0 -1.2 0
27.813 -8.349 9.535 -0 -1.2 0
27.688 -8.857 9.495 -0 -1.2 0
27.555 -9.361 9.452 -0 -1.2 0
27.413 -9.863 9.407 -0 -1.2 0
27.263 -10.363 9.359 -0 -1.2 0
27.105 -10.859 9.308 -0 -1.2 0
26.939 -11.353 9.255 -0 -1.2 0
26.765 -11.843 9.199 -0 -1.2 0
26.582 -12.33 9.141 -0 -1.2 0
26.391 -12.814 9.08 -0 -1.2 0
26.192 -13.294 9.016 -0 -1.2 0
25.986 -13.771 8.95 -0 -1.2 0
25.771 -14.243 8.881 -0 -1.2 0
25.548 -14.712 8.81 -0 -1.2 0
25.319 -15.177 8.737 -0 -1.2 0
25.081 -15.637 8.661 -0 -1.2 0
24.835 -16.093 8.581 -0 -1.2 0
24.583 -16.544 8.5 -0 -1.2 0
24.322 -16.991 8.417 -0 -1.2 0
24.054 -17.432 8.33 -0 -1.2 0
23.779 -17.869 8.242 -0 -1.2 0
23.497 -18.3 8.152 -0 -1.2 0
23.208 -18.727 8.059 -0 -1.2 0
22.912 -19.147 7.964 -0 -1.2 0
22.608 -19.563 7.866 -0 -1.2 0
22.297 -19.973 7.767 -0 -1.2 0
21.981 -20.377 7.665 -0 -1.2 0
21.657 -20.775 7.56 -0 -1.2 0
21.327 -21.167 7.455 -0 -1.2 0
20.991 -21.553 7.346 -0 -1.2 0
20.647 -21.934 7.236 -0 -1.2 0
28.971 -0.027 8.725 -0 -1.2 0
28.984 -0.55 8.729 -0 -1.2 0
28.99 -1.073 8.731 -0 -1.2 0
28.986 -1.596 8.73 -0 -1.2 0
28.881 -3.687 8.702 -0 -1.2 0
28.833 -4.209 8.689 -0 -1.2 0
28.776 -4.73 8.674 -0 -1.2 0
28.711 -5.249 8.656 -0 -1.2 0
28.637 -5.766 8.635 -0 -1.2 0
28.554 -6.283 8.612 -0 -1.2 0
28.362 -7.311 8.559 -0 -1.2 0
28.254 -7.822 8.529 -0 -1.2 0
27.818 -8.249 8.407 -0 -1.2 0
28.01 -8.839 8.461 -0 -1.2 0
27.876 -9.343 8.424 -0 -1.2 0
27.733 -9.845 8.384 -0 -1.2 0
27.581 -10.345 8.342 -0 -1.2 0
27.422 -10.841 8.298 -0 -1.2 0
27.255 -11.336 8.251 -0 -1.2 0
27.078 -11.826 8.202 -0 -1.2 0
26.893 -12.313 8.15 -0 -1.2 0
26.701 -12.797 8.096 -0 -1.2 0
26.5 -13.277 8.041 -0 -1.2 0
26.291 -13.754 7.982 -0 -1.2 0
26.074 -14.227 7.922 -0 -1.2 0
25.851 -14.696 7.858 -0 -1.2 0
25.618 -15.16 7.793 -0 -1.2 0
25.377 -15.621 7.726 -0 -1.2 0
25.129 -16.077 7.657 -0 -1.2 0
24.874 -16.528 7.585 -0 -1.2 0
24.611 -16.975 7.511 -0 -1.2 0
24.34 -17.416 7.436 -0 -1.2 0
24.063 -17.853 7.358 -0 -1.2 0
23.777 -18.285 7.278 -0 -1.2 0
23.485 -18.712 7.196 -0 -1.2 0
23.186 -19.132 7.112 -0 -1.2 0
22.879 -19.548 7.026 -0 -1.2 0
22.565 -19.958 6.939 -0 -1.2 0
22.245 -20.362 6.848 -0 -1.2 0
21.918 -20.761 6.757 -0 -1.2 0
21.584 -21.153 6.663 -0 -1.2 0
21.244 -21.54 6.567 -0 -1.2 0
20.898 -21.92 6.47 -0 -1.2 0
29.184 1.036 7.706 -0 -1.2 0
29.239 -0.009 7.721 -0 -1.2 0
29.253 -0.532 7.725 -0 -1.2 0
29.258 -1.055 7.726 -0 -1.2 0
29.254 -1.578 7.726 -0 -1.2 0
29.241 -2.102 7.723 -0 -1.2 0
29.22 -2.625 7.719 -0 -1.2 0
29.189 -3.148 7.711 -0 -1.2 0
28.63 -7.293 7.578 -0 -1.2 0
28.52 -7.804 7.552 -0 -1.2 0
28.402 -8.314 7.523 -0 -1.2 0
28.275 -8.821 7.493 -0 -1.2 0
27.995 -9.828 7.425 -0 -1.2 0
27.843 -10.328 7.388 -0 -1.2 0
27.682 -10.824 7.349 -0 -1.2 0
27.513 -11.319 7.309 -0 -1.2 0
27.336 -11.809 7.266 -0 -1.2 0
27.15 -12.296 7.221 -0 -1.2 0
26.956 -12.781 7.173 -0 -1.2 0
26.754 -13.261 7.124 -0 -1.2 0
26.544 -13.738 7.073 -0 -1.2 0
26.325 -14.21 7.021 -0 -1.2 0
26.098 -14.68 6.966 -0 -1.2 0
25.865 -15.144 6.909 -0 -1.2 0
25.622 -15.605 6.85 -0 -1.2 0
25.372 -16.061 6.789 -0 -1.2 0
25.115 -16.512 6.727 -0 -1.2 0
24.849 -16.959 6.663 -0 -1.2 0
24.577 -17.401 6.596 -0 -1.2 0
24.297 -17.838 6.528 -0 -1.2 0
24.008 -18.27 6.458 -0 -1.2 0
23.714 -18.697 6.387 -0 -1.2 0
23.412 -19.118 6.313 -0 -1.2 0
23.103 -19.534 6.238 -0 -1.2 0
22.787 -19.944 6.161 -0 -1.2 0
22.463 -20.349 6.082 -0 -1.2 0
22.133 -20.747 6.003 -0 -1.2 0
21.797 -21.14 5.92 -0 -1.2 0
21.454 -21.526 5.837 -0 -1.2 0
21.105 -21.907 5.751 -0 -1.2 0
28.962 -6.762 6.61 -0 -1.2 0
28.86 -7.275 6.588 -0 -1.2 0
28.75 -7.786 6.566 -0 -1.2 0
28.632 -8.296 6.542 -0 -1.2 0
28.504 -8.803 6.516 -0 -1.2 0
28.224 -9.81 6.458 -0 -1.2 0
28.07 -10.31 6.427 -0 -1.2 0
27.909 -10.806 6.394 -0 -1.2 0
27.738 -11.301 6.359 -0 -1.2 0
27.56 -11.792 6.322 -0 -1.2 0
27.373 -12.278 6.284 -0 -1.2 0
27.177 -12.763 6.244 -0 -1.2 0
26.974 -13.244 6.201 -0 -1.2 0
26.762 -13.721 6.158 -0 -1.2 0
26.543 -14.193 6.113 -0 -1.2 0
26.315 -14.663 6.066 -0 -1.2 0
26.078 -15.128 6.018 -0 -1.2 0
25.835 -15.589 5.967 -0 -1.2 0
25.583 -16.045 5.915 -0 -1.2 0
25.324 -16.496 5.862 -0 -1.2 0
24.5 -17.823 5.692 -0 -1.2 0
24.21 -18.255 5.632 -0 -1.2 0
23.914 -18.682 5.571 -0 -1.2 0
23.61 -19.103 5.509 -0 -1.2 0
22.98 -19.929 5.378 -0 -1.2 0
22.654 -20.334 5.311 -0 -1.2 0
22.322 -20.733 5.243 -0 -1.2 0
21.983 -21.126 5.172 -0 -1.2 0
21.638 -21.513 5.101 -0 -1.2 0
21.285 -21.894 5.029 -0 -1.2 0
29.685 -2.063 5.609 -0 -1.2 0
29.665 -2.585 5.606 -0 -1.2 0
29.634 -3.108 5.602 -0 -1.2 0
29.595 -3.63 5.595 -0 -1.2 0
29.114 -6.729 5.517 -0 -1.2 0
29.071 -7.254 5.51 -0 -1.2 0
28.961 -7.766 5.492 -0 -1.2 0
28.841 -8.275 5.472 -0 -1.2 0
28.577 -9.288 5.428 -0 -1.2 0
28.277 -10.29 5.379 -0 -1.2 0
28.115 -10.787 5.352 -0 -1.2 0
27.38 -12.744 5.23 -0 -1.2 0
26.741 -14.174 5.123 -0 -1.2 0
26.512 -14.644 5.085 -0 -1.2 0
26.275 -15.109 5.046 -0 -1.2 0
26.03 -15.57 5.005 -0 -1.2 0
24.687 -17.805 4.781 -0 -1.2 0
24.097 -18.665 4.681 -0 -1.2 0
23.791 -19.086 4.63 -0 -1.2 0
22.83 -20.318 4.47 -0 -1.2 0
22.496 -20.717 4.414 -0 -1.2 0
22.154 -21.11 4.357 -0 -1.2 0
21.807 -21.497 4.299 -0 -1.2 0
29.706 -4.132 4.562 -0 -1.2 0
29.648 -4.652 4.555 -0 -1.2 0
29.583 -5.172 4.547 -0 -1.2 0
29.508 -5.689 4.537 -0 -1.2 0
29.119 -7.746 4.487 -0 -1.2 0
28.999 -8.256 4.472 -0 -1.2 0
28.87 -8.763 4.455 -0 -1.2 0
28.734 -9.268 4.438 -0 -1.2 0
28.588 -9.771 4.419 -0 -1.2 0
26.424 -15.091 4.136 -0 -1.2 0
22.628 -20.702 3.639 -0 -1.2 0
21.58 -21.864 3.501 -0 -1.2 0
29.932 0.593 3.537 -0 -1.2 0
29.957 0.07 3.54 -0 -1.2 0
29.965 -2.022 3.543 -0 -1.2 0
29.944 -2.544 3.542 -0 -1.2 0
29.915 -3.067 3.539 -0 -1.2 0
29.876 -3.589 3.535 -0 -1.2 0
29.828 -4.111 3.531 -0 -1.2 0
29.771 -4.632 3.526 -0 -1.2 0
29.705 -5.151 3.52 -0 -1.2 0
29.63 -5.669 3.514 -0 -1.2 0
29.547 -6.186 3.506 -0 -1.2 0
29.454 -6.701 3.498 -0 -1.2 0
29.352 -7.214 3.489 -0 -1.2 0
29.241 -7.726 3.478 -0 -1.2 0
29.121 -8.236 3.467 -0 -1.2 0
28.993 -8.743 3.455 -0 -1.2 0
28.856 -9.249 3.442 -0 -1.2 0
28.709 -9.751 3.428 -0 -1.2 0
28.555 -10.251 3.414 -0 -1.2 0
28.391 -10.748 3.399 -0 -1.2 0
23.07 -20.286 2.893 -0 -1.2 0
21.682 -21.849 2.76 -0 -1.2 0
30.059 -0.451 2.46 -0 -1.2 0
30.066 -0.974 2.462 -0 -1.2 0
30.063 -1.497 2.462 -0 -1.2 0
30.051 -2.021 2.462 -0 -1.2 0
30.031 -2.544 2.461 -0 -1.2 0
30.001 -3.067 2.46 -0 -1.2 0
29.962 -3.589 2.459 -0 -1.2 0
29.914 -4.111 2.457 -0 -1.2 0
29.857 -4.631 2.455 -0 -1.2 0
29.791 -5.151 2.452 -0 -1.2 0
29.715 -5.669 2.447 -0 -1.2 0
29.631 -6.185 2.443 -0 -1.2 0
29.538 -6.701 2.439 -0 -1.2 0
29.436 -7.214 2.434 -0 -1.2 0
29.325 -7.725 2.428 -0 -1.2 0
29.205 -8.235 2.421 -0 -1.2 0
29.077 -8.743 2.414 -0 -1.2 0
28.939 -9.248 2.406 -0 -1.2 0
27.999 -9.512 2.35 -0 -1.2 0
28.637 -10.251 2.39 -0 -1.2 0
28.473 -10.748 2.381 -0 -1.2 0
28.301 -11.242 2.372 -0 -1.2 0
30.062 0.59 1.468 -0 -1.2 0
30.087 0.067 1.469 -0 -1.2 0
30.102 -0.455 1.471 -0 -1.2 0
30.109 -0.977 1.472 -0 -1.2 0
30.106 -1.501 1.474 -0 -1.2 0
30.094 -2.025 1.474 -0 -1.2 0
30.074 -2.548 1.475 -0 -1.2 0
30.044 -3.07 1.476 -0 -1.2 0
30.005 -3.592 1.475 -0 -1.2 0
29.957 -4.114 1.475 -0 -1.2 0
29.9 -4.635 1.475 -0 -1.2 0
29.833 -5.154 1.474 -0 -1.2 0
29.758 -5.672 1.473 -0 -1.2 0
29.673 -6.189 1.472 -0 -1.2 0
29.58 -6.704 1.47 -0 -1.2 0
29.478 -7.217 1.469 -0 -1.2 0
29.367 -7.729 1.467 -0 -1.2 0
29.247 -8.239 1.465 -0 -1.2 0
29.118 -8.747 1.463 -0 -1.2 0
28.98 -9.252 1.461 -0 -1.2 0
28.833 -9.754 1.458 -0 -1.2 0
30.071 0.586 0.479 -0 -1.2 0
30.096 0.063 0.48 -0 -1.2 0
30.112 -0.459 0.482 -0 -1.2 0
30.119 -0.982 0.483 -0 -1.2 0
30.116 -1.505 0.484 -0 -1.2 0
30.104 -2.029 0.486 -0 -1.2 0
30.083 -2.552 0.488 -0 -1.2 0
30.053 -3.074 0.49 -0 -1.2 0
30.015 -3.596 0.492 -0 -1.2 0
29.967 -4.119 0.493 -0 -1.2 0
29.909 -4.639 0.495 -0 -1.2 0
29.843 -5.158 0.497 -0 -1.2 0
29.768 -5.676 0.499 -0 -1.2 0
29.683 -6.193 0.5 -0 -1.2 0
29.59 -6.708 0.503 -0 -1.2 0
29.488 -7.221 0.505 -0 -1.2 0
29.376 -7.733 0.507 -0 -1.2 0
29.256 -8.243 0.509 -0 -1.2 0
29.126 -8.75 0.512 -0 -1.2 0
28.989 -9.256 0.514 -0 -1.2 0
28.842 -9.758 0.516 -0 -1.2 0
28.686 -10.258 0.519 -0 -1.2 0
25.624 1.143 -16.09 -0 -1.2 0
16.252 -21.925 -14.725 -0 -1.2 0
21.447 0.453 -21.403 -0 -1.2 0
15.781 -21.946 -15.196 -0 -1.2 0
15.78 -21.201 -16.176 -0 -1.2 0
16.746 -18.362 -18.376 -0 -1.2 0
