# .PCD v.7 - Point Cloud Data file format
FIELDS x y z vp_x vp_y vp_z
SIZE 4 4 4 4 4 4
TYPE F F F F F F
COUNT 1 1 1 1 1 1
WIDTH 1530
HEIGHT 1
VIEWPOINT 0 -1.20005 0 1 0 0 0
POINTS 1530
DATA ascii
-5.587 -21.612 21.097 -0 -1.2 0
-5.461 -21.99 20.757 -0 -1.2 0
-5.332 -22.362 20.411 -0 -1.2 0
-5.203 -22.727 20.059 -0 -1.2 0
-8.029 1.471 28.74 -0 -1.2 0
-7.096 -10.396 27.575 -0 -1.2 0
-7.027 -10.891 27.42 -0 -1.2 0
-6.958 -11.385 27.258 -0 -1.2 0
-6.885 -11.874 27.087 -0 -1.2 0
-6.81 -12.36 26.907 -0 -1.2 0
-6.734 -12.843 26.72 -0 -1.2 0
-6.655 -13.322 26.525 -0 -1.2 0
-6.575 -13.798 26.322 -0 -1.2 0
-6.492 -14.269 26.11 -0 -1.2 0
-6.407 -14.737 25.89 -0 -1.2 0
-6.321 -15.2 25.662 -0 -1.2 0
-6.232 -15.66 25.427 -0 -1.2 0
-6.142 -16.115 25.184 -0 -1.2 0
-6.049 -16.565 24.933 -0 -1.2 0
-5.954 -17.011 24.675 -0 -1.2 0
-5.859 -17.451 24.409 -0 -1.2 0
-5.761 -17.887 24.135 -0 -1.2 0
-5.662 -18.317 23.854 -0 -1.2 0
-5.56 -18.743 23.566 -0 -1.2 0
-5.457 -19.162 23.271 -0 -1.2 0
-5.352 -19.577 22.968 -0 -1.2 0
-5.246 -19.985 22.66 -0 -1.2 0
-5.138 -20.389 22.343 -0 -1.2 0
-5.028 -20.786 22.02 -0 -1.2 0
-4.917 -21.177 21.69 -0 -1.2 0
-4.805 -21.562 21.354 -0 -1.2 0
-4.691 -21.941 21.011 -0 -1.2 0
-4.576 -22.313 20.661 -0 -1.2 0
-4.458 -22.68 20.306 -0 -1.2 0
-6.131 -9.324 28.161 -0 -1.2 0
-6.072 -9.826 28.022 -0 -1.2 0
-6.011 -10.325 27.875 -0 -1.2 0
-5.949 -10.821 27.719 -0 -1.2 0
-5.884 -11.315 27.556 -0 -1.2 0
-5.819 -11.804 27.383 -0 -1.2 0
-5.462 -14.202 26.398 -0 -1.2 0
-5.386 -14.671 26.176 -0 -1.2 0
-5.307 -15.134 25.946 -0 -1.2 0
-5.227 -15.595 25.71 -0 -1.2 0
-5.147 -16.05 25.464 -0 -1.2 0
-5.064 -16.501 25.211 -0 -1.2 0
-4.979 -16.947 24.951 -0 -1.2 0
-4.893 -17.388 24.682 -0 -1.2 0
-4.805 -17.825 24.406 -0 -1.2 0
-4.716 -18.255 24.123 -0 -1.2 0
-4.626 -18.682 23.832 -0 -1.2 0
-4.535 -19.102 23.534 -0 -1.2 0
-4.441 -19.518 23.23 -0 -1.2 0
-4.346 -19.927 22.917 -0 -1.2 0
-4.25 -20.331 22.598 -0 -1.2 0
-4.153 -20.729 22.272 -0 -1.2 0
-4.055 -21.121 21.94 -0 -1.2 0
-3.955 -21.507 21.6 -0 -1.2 0
-3.854 -21.886 21.253 -0 -1.2 0
-3.752 -22.26 20.901 -0 -1.2 0
-3.648 -22.627 20.542 -0 -1.2 0
-5.812 1.094 29.337 -0 -1.2 0
-5.183 -8.244 28.66 -0 -1.2 0
-5.132 -8.75 28.538 -0 -1.2 0
-5.079 -9.255 28.407 -0 -1.2 0
-5.025 -9.757 28.268 -0 -1.2 0
-4.971 -10.256 28.12 -0 -1.2 0
-4.913 -10.752 27.964 -0 -1.2 0
-4.855 -11.246 27.799 -0 -1.2 0
-4.795 -11.736 27.625 -0 -1.2 0
-4.733 -12.224 27.443 -0 -1.2 0
-4.67 -12.708 27.253 -0 -1.2 0
-4.606 -13.187 27.056 -0 -1.2 0
-4.54 -13.665 26.849 -0 -1.2 0
-4.473 -14.137 26.634 -0 -1.2 0
-4.404 -14.606 26.411 -0 -1.2 0
-4.335 -15.07 26.179 -0 -1.2 0
-4.263 -15.531 25.94 -0 -1.2 0
-4.191 -15.987 25.693 -0 -1.2 0
-4.117 -16.439 25.439 -0 -1.2 0
-4.042 -16.885 25.176 -0 -1.2 0
-3.966 -17.327 24.906 -0 -1.2 0
-3.888 -17.764 24.628 -0 -1.2 0
-3.81 -18.195 24.344 -0 -1.2 0
-3.729 -18.623 24.051 -0 -1.2 0
-3.648 -19.044 23.75 -0 -1.2 0
-3.566 -19.46 23.444 -0 -1.2 0
-3.483 -19.87 23.129 -0 -1.2 0
-3.399 -20.275 22.807 -0 -1.2 0
-3.314 -20.673 22.48 -0 -1.2 0
-3.227 -21.066 22.144 -0 -1.2 0
-3.139 -21.453 21.802 -0 -1.2 0
-3.051 -21.833 21.454 -0 -1.2 0
-2.962 -22.208 21.098 -0 -1.2 0
-2.871 -22.576 20.737 -0 -1.2 0
-4.708 1.168 29.547 -0 -1.2 0
-4.187 -7.151 29.089 -0 -1.2 0
-4.144 -7.662 28.984 -0 -1.2 0
-4.098 -8.171 28.871 -0 -1.2 0
-4.051 -8.678 28.748 -0 -1.2 0
-4.004 -9.183 28.617 -0 -1.2 0
-3.955 -9.685 28.477 -0 -1.2 0
-3.904 -10.185 28.328 -0 -1.2 0
-3.853 -10.681 28.172 -0 -1.2 0
-3.801 -11.176 28.006 -0 -1.2 0
-3.747 -11.666 27.832 -0 -1.2 0
-3.692 -12.154 27.649 -0 -1.2 0
-3.625 -12.603 27.376 -0 -1.2 0
-3.527 -12.946 26.868 -0 -1.2 0
-3.405 -13.192 26.176 -0 -1.2 0
-3.461 -14.069 26.835 -0 -1.2 0
-3.401 -14.539 26.611 -0 -1.2 0
-3.339 -15.003 26.379 -0 -1.2 0
-3.277 -15.465 26.138 -0 -1.2 0
-3.213 -15.921 25.89 -0 -1.2 0
-3.148 -16.374 25.634 -0 -1.2 0
-3.083 -16.821 25.37 -0 -1.2 0
-3.016 -17.263 25.098 -0 -1.2 0
-2.949 -17.701 24.818 -0 -1.2 0
-2.881 -18.133 24.532 -0 -1.2 0
-2.812 -18.561 24.237 -0 -1.2 0
-2.742 -18.983 23.936 -0 -1.2 0
-2.671 -19.4 23.627 -0 -1.2 0
-2.599 -19.811 23.311 -0 -1.2 0
-2.526 -20.216 22.987 -0 -1.2 0
-2.453 -20.616 22.657 -0 -1.2 0
-2.379 -21.009 22.32 -0 -1.2 0
-2.304 -21.397 21.976 -0 -1.2 0
-2.229 -21.778 21.625 -0 -1.2 0
-2.152 -22.154 21.268 -0 -1.2 0
-2.076 -22.523 20.904 -0 -1.2 0
-3.597 1.227 29.716 -0 -1.2 0
-3.094 -7.094 29.256 -0 -1.2 0
-3.054 -7.605 29.151 -0 -1.2 0
-3.013 -8.114 29.036 -0 -1.2 0
-2.971 -8.621 28.914 -0 -1.2 0
-2.928 -9.126 28.782 -0 -1.2 0
-2.884 -9.629 28.641 -0 -1.2 0
-2.84 -10.129 28.492 -0 -1.2 0
-2.794 -10.626 28.334 -0 -1.2 0
-2.748 -11.121 28.167 -0 -1.2 0
-2.701 -11.611 27.993 -0 -1.2 0
-2.653 -12.1 27.809 -0 -1.2 0
-2.604 -12.584 27.616 -0 -1.2 0
-2.554 -13.065 27.416 -0 -1.2 0
-2.504 -13.543 27.207 -0 -1.2 0
-2.453 -14.016 26.99 -0 -1.2 0
-2.4 -14.486 26.765 -0 -1.2 0
-2.348 -14.951 26.531 -0 -1.2 0
-2.294 -15.413 26.29 -0 -1.2 0
-2.24 -15.87 26.04 -0 -1.2 0
-2.185 -16.323 25.782 -0 -1.2 0
-2.13 -16.771 25.517 -0 -1.2 0
-2.074 -17.214 25.244 -0 -1.2 0
-2.016 -17.652 24.964 -0 -1.2 0
-1.959 -18.085 24.675 -0 -1.2 0
-1.901 -18.514 24.379 -0 -1.2 0
-1.842 -18.936 24.076 -0 -1.2 0
-1.783 -19.353 23.765 -0 -1.2 0
-1.723 -19.765 23.447 -0 -1.2 0
-1.663 -20.171 23.123 -0 -1.2 0
-1.602 -20.571 22.79 -0 -1.2 0
-1.541 -20.966 22.452 -0 -1.2 0
-1.478 -21.354 22.105 -0 -1.2 0
-1.416 -21.736 21.753 -0 -1.2 0
-1.353 -22.112 21.394 -0 -1.2 0
-1.29 -22.482 21.028 -0 -1.2 0
-2.582 1.274 29.836 -0 -1.2 0
-2.096 -7.047 29.372 -0 -1.2 0
-2.06 -7.558 29.266 -0 -1.2 0
-2.023 -8.068 29.151 -0 -1.2 0
-1.985 -8.575 29.028 -0 -1.2 0
-1.947 -9.08 28.895 -0 -1.2 0
-1.909 -9.583 28.754 -0 -1.2 0
-1.869 -10.083 28.604 -0 -1.2 0
-1.829 -10.58 28.445 -0 -1.2 0
-1.788 -11.075 28.278 -0 -1.2 0
-1.747 -11.566 28.102 -0 -1.2 0
-1.705 -12.055 27.918 -0 -1.2 0
-1.663 -12.54 27.724 -0 -1.2 0
-1.62 -13.021 27.524 -0 -1.2 0
-1.577 -13.499 27.314 -0 -1.2 0
-1.533 -13.973 27.096 -0 -1.2 0
-1.489 -14.443 26.87 -0 -1.2 0
-1.444 -14.909 26.635 -0 -1.2 0
-1.399 -15.371 26.392 -0 -1.2 0
-1.354 -15.829 26.142 -0 -1.2 0
-1.307 -16.282 25.884 -0 -1.2 0
-1.261 -16.73 25.617 -0 -1.2 0
-1.214 -17.173 25.343 -0 -1.2 0
-1.167 -17.612 25.061 -0 -1.2 0
-1.12 -18.045 24.772 -0 -1.2 0
-1.071 -18.474 24.475 -0 -1.2 0
-1.023 -18.897 24.17 -0 -1.2 0
-0.975 -19.315 23.859 -0 -1.2 0
-0.926 -19.727 23.539 -0 -1.2 0
-0.877 -20.134 23.213 -0 -1.2 0
-0.827 -20.535 22.88 -0 -1.2 0
-0.777 -20.93 22.54 -0 -1.2 0
-0.727 -21.318 22.193 -0 -1.2 0
-0.676 -21.701 21.839 -0 -1.2 0
-0.626 -22.077 21.479 -0 -1.2 0
-0.575 -22.448 21.111 -0 -1.2 0
-1.577 1.321 29.919 -0 -1.2 0
-1.11 -7.001 29.452 -0 -1.2 0
-1.077 -7.513 29.346 -0 -1.2 0
-1.044 -8.022 29.23 -0 -1.2 0
-1.011 -8.53 29.107 -0 -1.2 0
-0.977 -9.035 28.974 -0 -1.2 0
-0.943 -9.538 28.833 -0 -1.2 0
-0.909 -10.039 28.682 -0 -1.2 0
-0.874 -10.536 28.523 -0 -1.2 0
-0.839 -11.031 28.355 -0 -1.2 0
-0.804 -11.522 28.179 -0 -1.2 0
-0.768 -12.011 27.994 -0 -1.2 0
-0.733 -12.497 27.801 -0 -1.2 0
-0.697 -12.978 27.599 -0 -1.2 0
-0.661 -13.457 27.388 -0 -1.2 0
-0.624 -13.93 27.169 -0 -1.2 0
-0.588 -14.401 26.943 -0 -1.2 0
-0.551 -14.867 26.708 -0 -1.2 0
-0.515 -15.33 26.464 -0 -1.2 0
-0.478 -15.788 26.213 -0 -1.2 0
-0.44 -16.241 25.955 -0 -1.2 0
-0.402 -16.69 25.687 -0 -1.2 0
-0.365 -17.134 25.412 -0 -1.2 0
-0.327 -17.573 25.13 -0 -1.2 0
-0.289 -18.007 24.839 -0 -1.2 0
-0.252 -18.436 24.541 -0 -1.2 0
-0.214 -18.86 24.237 -0 -1.2 0
-0.175 -19.278 23.924 -0 -1.2 0
-0.138 -19.691 23.604 -0 -1.2 0
-0.1 -20.098 23.277 -0 -1.2 0
-0.061 -20.499 22.942 -0 -1.2 0
-0.022 -20.894 22.602 -0 -1.2 0
0.015 -21.284 22.253 -0 -1.2 0
0.053 -21.667 21.899 -0 -1.2 0
0.091 -22.044 21.538 -0 -1.2 0
0.129 -22.415 21.17 -0 -1.2 0
-0.047 -6.952 29.503 -0 -1.2 0
-0.018 -7.464 29.396 -0 -1.2 0
0.01 -7.974 29.28 -0 -1.2 0
0.039 -8.481 29.156 -0 -1.2 0
0.068 -8.987 29.023 -0 -1.2 0
0.096 -9.491 28.881 -0 -1.2 0
0.125 -9.991 28.73 -0 -1.2 0
0.153 -10.489 28.571 -0 -1.2 0
0.183 -10.984 28.403 -0 -1.2 0
0.211 -11.476 28.226 -0 -1.2 0
0.239 -11.965 28.042 -0 -1.2 0
0.268 -12.451 27.848 -0 -1.2 0
0.297 -12.932 27.645 -0 -1.2 0
0.325 -13.411 27.435 -0 -1.2 0
0.354 -13.886 27.216 -0 -1.2 0
0.382 -14.357 26.988 -0 -1.2 0
0.41 -14.823 26.753 -0 -1.2 0
0.438 -15.286 26.509 -0 -1.2 0
0.466 -15.744 26.257 -0 -1.2 0
0.494 -16.199 25.998 -0 -1.2 0
0.522 -16.648 25.731 -0 -1.2 0
0.549 -17.092 25.455 -0 -1.2 0
0.576 -17.532 25.172 -0 -1.2 0
0.604 -17.966 24.882 -0 -1.2 0
0.631 -18.396 24.583 -0 -1.2 0
0.658 -18.82 24.277 -0 -1.2 0
0.684 -19.239 23.964 -0 -1.2 0
0.711 -19.652 23.644 -0 -1.2 0
0.737 -20.059 23.316 -0 -1.2 0
0.763 -20.461 22.982 -0 -1.2 0
0.789 -20.857 22.64 -0 -1.2 0
0.815 -21.247 22.291 -0 -1.2 0
0.84 -21.631 21.937 -0 -1.2 0
0.865 -22.008 21.574 -0 -1.2 0
0.891 -22.38 21.206 -0 -1.2 0
0.534 0.895 30.025 -0 -1.2 0
0.912 -6.393 29.612 -0 -1.2 0
0.937 -6.907 29.514 -0 -1.2 0
1.012 -8.437 29.168 -0 -1.2 0
1.036 -8.943 29.035 -0 -1.2 0
1.061 -9.447 28.893 -0 -1.2 0
1.084 -9.948 28.741 -0 -1.2 0
1.108 -10.445 28.582 -0 -1.2 0
1.13 -10.941 28.414 -0 -1.2 0
1.153 -11.433 28.237 -0 -1.2 0
1.175 -11.923 28.052 -0 -1.2 0
1.198 -12.408 27.858 -0 -1.2 0
1.219 -12.89 27.655 -0 -1.2 0
1.24 -13.37 27.445 -0 -1.2 0
1.262 -13.844 27.226 -0 -1.2 0
1.282 -14.316 26.998 -0 -1.2 0
1.302 -14.782 26.763 -0 -1.2 0
1.322 -15.246 26.519 -0 -1.2 0
1.341 -15.705 26.267 -0 -1.2 0
1.36 -16.159 26.007 -0 -1.2 0
1.379 -16.609 25.74 -0 -1.2 0
1.398 -17.053 25.464 -0 -1.2 0
1.415 -17.494 25.181 -0 -1.2 0
1.433 -17.928 24.891 -0 -1.2 0
1.45 -18.359 24.592 -0 -1.2 0
1.466 -18.783 24.286 -0 -1.2 0
1.482 -19.202 23.973 -0 -1.2 0
1.498 -19.616 23.652 -0 -1.2 0
1.513 -20.024 23.325 -0 -1.2 0
1.528 -20.426 22.99 -0 -1.2 0
1.542 -20.823 22.648 -0 -1.2 0
1.556 -21.213 22.301 -0 -1.2 0
1.57 -21.597 21.945 -0 -1.2 0
1.583 -21.976 21.583 -0 -1.2 0
1.595 -22.348 21.215 -0 -1.2 0
1.539 0.94 30.005 -0 -1.2 0
1.857 -5.317 29.758 -0 -1.2 0
1.88 -5.834 29.679 -0 -1.2 0
1.988 -8.393 29.146 -0 -1.2 0
2.045 -9.904 28.721 -0 -1.2 0
2.062 -10.403 28.56 -0 -1.2 0
2.079 -10.899 28.393 -0 -1.2 0
2.096 -11.391 28.216 -0 -1.2 0
2.112 -11.881 28.031 -0 -1.2 0
2.128 -12.367 27.836 -0 -1.2 0
2.143 -12.849 27.634 -0 -1.2 0
2.157 -13.328 27.424 -0 -1.2 0
2.17 -13.803 27.205 -0 -1.2 0
2.183 -14.275 26.978 -0 -1.2 0
2.195 -14.742 26.743 -0 -1.2 0
2.207 -15.206 26.499 -0 -1.2 0
2.218 -15.665 26.247 -0 -1.2 0
2.229 -16.12 25.987 -0 -1.2 0
2.238 -16.57 25.72 -0 -1.2 0
2.247 -17.015 25.445 -0 -1.2 0
2.255 -17.456 25.162 -0 -1.2 0
2.263 -17.891 24.871 -0 -1.2 0
2.27 -18.322 24.573 -0 -1.2 0
2.276 -18.747 24.268 -0 -1.2 0
2.282 -19.166 23.956 -0 -1.2 0
2.286 -19.58 23.635 -0 -1.2 0
2.291 -19.989 23.308 -0 -1.2 0
2.295 -20.392 22.973 -0 -1.2 0
2.297 -20.789 22.632 -0 -1.2 0
2.3 -21.18 22.283 -0 -1.2 0
2.301 -21.565 21.929 -0 -1.2 0
2.302 -21.944 21.567 -0 -1.2 0
2.302 -22.316 21.199 -0 -1.2 0
2.657 0.467 29.976 -0 -1.2 0
2.674 -0.059 29.866 -0 -1.2 0
2.714 -0.577 30.007 -0 -1.2 0
2.742 -1.099 30.009 -0 -1.2 0
2.769 -1.622 30.002 -0 -1.2 0
2.795 -2.144 29.986 -0 -1.2 0
2.821 -2.667 29.961 -0 -1.2 0
2.845 -3.189 29.926 -0 -1.2 0
2.868 -3.71 29.883 -0 -1.2 0
2.892 -4.23 29.83 -0 -1.2 0
2.913 -4.75 29.769 -0 -1.2 0
2.992 -6.816 29.433 -0 -1.2 0
3.071 -9.357 28.811 -0 -1.2 0
3.127 -12.75 27.45 -0 -1.2 0
3.148 -13.284 27.367 -0 -1.2 0
3.154 -13.76 27.149 -0 -1.2 0
3.158 -14.232 26.922 -0 -1.2 0
3.162 -14.699 26.687 -0 -1.2 0
3.165 -15.164 26.444 -0 -1.2 0
3.166 -15.623 26.193 -0 -1.2 0
3.168 -16.078 25.934 -0 -1.2 0
3.167 -16.529 25.667 -0 -1.2 0
3.166 -16.974 25.392 -0 -1.2 0
3.164 -17.415 25.11 -0 -1.2 0
3.161 -17.851 24.82 -0 -1.2 0
3.157 -18.282 24.523 -0 -1.2 0
3.152 -18.708 24.218 -0 -1.2 0
3.146 -19.128 23.906 -0 -1.2 0
3.14 -19.542 23.587 -0 -1.2 0
3.132 -19.952 23.26 -0 -1.2 0
3.124 -20.355 22.926 -0 -1.2 0
3.114 -20.753 22.586 -0 -1.2 0
3.103 -21.144 22.238 -0 -1.2 0
3.092 -21.529 21.884 -0 -1.2 0
3.08 -21.909 21.523 -0 -1.2 0
3.066 -22.282 21.156 -0 -1.2 0
3.697 -0.036 29.904 -0 -1.2 0
3.725 -0.558 29.915 -0 -1.2 0
3.753 -1.08 29.916 -0 -1.2 0
3.779 -1.602 29.909 -0 -1.2 0
3.805 -2.125 29.892 -0 -1.2 0
3.801 -2.636 29.648 -0 -1.2 0
3.95 -5.767 29.522 -0 -1.2 0
4.044 -9.84 28.564 -0 -1.2 0
4.05 -10.338 28.404 -0 -1.2 0
4.055 -10.835 28.237 -0 -1.2 0
4.064 -12.304 27.682 -0 -1.2 0
3.946 -12.441 26.669 -0 -1.2 0
4.063 -13.267 27.27 -0 -1.2 0
4.061 -13.743 27.053 -0 -1.2 0
4.058 -14.215 26.826 -0 -1.2 0
4.053 -14.683 26.591 -0 -1.2 0
4.047 -15.147 26.348 -0 -1.2 0
4.04 -15.607 26.098 -0 -1.2 0
4.032 -16.062 25.84 -0 -1.2 0
4.023 -16.513 25.573 -0 -1.2 0
4.012 -16.958 25.299 -0 -1.2 0
4.001 -17.4 25.017 -0 -1.2 0
3.987 -17.835 24.728 -0 -1.2 0
3.973 -18.267 24.431 -0 -1.2 0
3.958 -18.692 24.127 -0 -1.2 0
3.941 -19.113 23.815 -0 -1.2 0
3.923 -19.528 23.496 -0 -1.2 0
3.904 -19.937 23.171 -0 -1.2 0
3.884 -20.341 22.837 -0 -1.2 0
3.864 -20.739 22.498 -0 -1.2 0
3.841 -21.13 22.152 -0 -1.2 0
3.817 -21.516 21.798 -0 -1.2 0
3.793 -21.896 21.438 -0 -1.2 0
3.767 -22.269 21.071 -0 -1.2 0
4.682 0.512 29.758 -0 -1.2 0
4.713 -0.011 29.776 -0 -1.2 0
4.741 -0.533 29.787 -0 -1.2 0
4.769 -1.055 29.787 -0 -1.2 0
4.795 -1.578 29.78 -0 -1.2 0
4.819 -2.1 29.762 -0 -1.2 0
4.842 -2.623 29.737 -0 -1.2 0
4.884 -3.666 29.658 -0 -1.2 0
4.902 -4.186 29.604 -0 -1.2 0
4.933 -12.625 27.027 -0 -1.2 0
4.985 -13.245 27.144 -0 -1.2 0
4.975 -13.72 26.926 -0 -1.2 0
4.964 -14.193 26.7 -0 -1.2 0
4.951 -14.661 26.467 -0 -1.2 0
4.937 -15.125 26.225 -0 -1.2 0
4.921 -15.585 25.975 -0 -1.2 0
4.904 -16.041 25.717 -0 -1.2 0
4.886 -16.492 25.452 -0 -1.2 0
4.865 -16.937 25.179 -0 -1.2 0
4.844 -17.379 24.898 -0 -1.2 0
4.821 -17.815 24.61 -0 -1.2 0
4.796 -18.247 24.313 -0 -1.2 0
4.77 -18.673 24.01 -0 -1.2 0
4.743 -19.094 23.699 -0 -1.2 0
4.714 -19.508 23.382 -0 -1.2 0
4.684 -19.918 23.058 -0 -1.2 0
4.653 -20.322 22.726 -0 -1.2 0
4.62 -20.72 22.388 -0 -1.2 0
4.585 -21.112 22.042 -0 -1.2 0
4.55 -21.498 21.69 -0 -1.2 0
4.513 -21.878 21.331 -0 -1.2 0
4.474 -22.252 20.967 -0 -1.2 0
5.782 0.569 29.581 -0 -1.2 0
5.842 -0.476 29.609 -0 -1.2 0
5.87 -0.998 29.61 -0 -1.2 0
5.895 -1.52 29.602 -0 -1.2 0
5.919 -2.043 29.585 -0 -1.2 0
5.942 -2.566 29.56 -0 -1.2 0
5.961 -3.087 29.524 -0 -1.2 0
5.98 -3.609 29.481 -0 -1.2 0
5.997 -4.129 29.428 -0 -1.2 0
6.012 -4.65 29.367 -0 -1.2 0
6.025 -5.168 29.296 -0 -1.2 0
6.037 -5.686 29.216 -0 -1.2 0
6.046 -6.202 29.128 -0 -1.2 0
6.054 -6.716 29.03 -0 -1.2 0
6.066 -8.248 28.687 -0 -1.2 0
6.05 -10.757 27.941 -0 -1.2 0
6.004 -12.711 27.192 -0 -1.2 0
5.989 -13.192 26.983 -0 -1.2 0
5.971 -13.668 26.767 -0 -1.2 0
5.952 -14.142 26.543 -0 -1.2 0
5.93 -14.61 26.31 -0 -1.2 0
5.907 -15.075 26.07 -0 -1.2 0
5.882 -15.535 25.822 -0 -1.2 0
5.856 -15.991 25.566 -0 -1.2 0
5.828 -16.443 25.302 -0 -1.2 0
5.798 -16.889 25.031 -0 -1.2 0
5.765 -17.331 24.752 -0 -1.2 0
5.731 -17.768 24.466 -0 -1.2 0
5.697 -18.2 24.172 -0 -1.2 0
5.66 -18.626 23.871 -0 -1.2 0
5.621 -19.048 23.561 -0 -1.2 0
5.581 -19.463 23.246 -0 -1.2 0
5.539 -19.874 22.923 -0 -1.2 0
5.495 -20.278 22.594 -0 -1.2 0
5.449 -20.677 22.259 -0 -1.2 0
5.402 -21.07 21.915 -0 -1.2 0
5.354 -21.456 21.566 -0 -1.2 0
5.304 -21.837 21.209 -0 -1.2 0
5.251 -22.212 20.846 -0 -1.2 0
7.039 -9.209 28.221 -0 -1.2 0
7.031 -9.711 28.072 -0 -1.2 0
7.021 -10.21 27.916 -0 -1.2 0
7.008 -10.708 27.75 -0 -1.2 0
6.994 -11.201 27.577 -0 -1.2 0
6.708 -11.776 26.224 -0 -1.2 0
6.937 -12.663 27.007 -0 -1.2 0
6.914 -13.144 26.8 -0 -1.2 0
6.889 -13.621 26.586 -0 -1.2 0
6.862 -14.094 26.363 -0 -1.2 0
6.832 -14.563 26.132 -0 -1.2 0
6.801 -15.028 25.894 -0 -1.2 0
6.769 -15.489 25.647 -0 -1.2 0
6.733 -15.946 25.393 -0 -1.2 0
6.696 -16.397 25.132 -0 -1.2 0
6.656 -16.844 24.863 -0 -1.2 0
6.614 -17.287 24.585 -0 -1.2 0
6.571 -17.724 24.301 -0 -1.2 0
6.526 -18.157 24.009 -0 -1.2 0
6.479 -18.584 23.71 -0 -1.2 0
6.43 -19.006 23.404 -0 -1.2 0
6.378 -19.422 23.091 -0 -1.2 0
6.325 -19.833 22.77 -0 -1.2 0
6.27 -20.238 22.443 -0 -1.2 0
6.213 -20.637 22.109 -0 -1.2 0
6.154 -21.03 21.769 -0 -1.2 0
6.093 -21.418 21.423 -0 -1.2 0
6.031 -21.799 21.069 -0 -1.2 0
5.967 -22.174 20.709 -0 -1.2 0
7.903 -13.093 26.569 -0 -1.2 0
7.87 -13.57 26.355 -0 -1.2 0
7.834 -14.044 26.135 -0 -1.2 0
7.797 -14.513 25.907 -0 -1.2 0
7.757 -14.979 25.67 -0 -1.2 0
7.715 -15.44 25.426 -0 -1.2 0
7.67 -15.897 25.174 -0 -1.2 0
7.624 -16.349 24.915 -0 -1.2 0
7.573 -16.796 24.648 -0 -1.2 0
7.522 -17.24 24.373 -0 -1.2 0
7.468 -17.677 24.092 -0 -1.2 0
7.413 -18.111 23.803 -0 -1.2 0
7.354 -18.538 23.507 -0 -1.2 0
7.293 -18.961 23.204 -0 -1.2 0
7.231 -19.377 22.893 -0 -1.2 0
7.166 -19.789 22.576 -0 -1.2 0
7.099 -20.195 22.252 -0 -1.2 0
7.03 -20.595 21.921 -0 -1.2 0
6.958 -20.989 21.584 -0 -1.2 0
6.885 -21.377 21.24 -0 -1.2 0
6.809 -21.759 20.889 -0 -1.2 0
6.732 -22.135 20.533 -0 -1.2 0
8.635 -14.933 25.43 -0 -1.2 0
8.585 -15.394 25.188 -0 -1.2 0
8.531 -15.852 24.939 -0 -1.2 0
8.475 -16.305 24.682 -0 -1.2 0
8.417 -16.752 24.418 -0 -1.2 0
8.356 -17.196 24.147 -0 -1.2 0
8.292 -17.634 23.867 -0 -1.2 0
8.226 -18.068 23.581 -0 -1.2 0
8.158 -18.496 23.288 -0 -1.2 0
8.087 -18.919 22.987 -0 -1.2 0
8.014 -19.337 22.68 -0 -1.2 0
7.938 -19.749 22.366 -0 -1.2 0
7.86 -20.155 22.046 -0 -1.2 0
7.78 -20.556 21.718 -0 -1.2 0
7.696 -20.95 21.384 -0 -1.2 0
7.612 -21.339 21.043 -0 -1.2 0
7.525 -21.721 20.696 -0 -1.2 0
7.434 -22.098 20.343 -0 -1.2 0
9.415 -15.351 24.932 -0 -1.2 0
9.289 -16.262 24.431 -0 -1.2 0
9.222 -16.711 24.17 -0 -1.2 0
9.152 -17.155 23.901 -0 -1.2 0
9.079 -17.593 23.626 -0 -1.2 0
9.003 -18.028 23.342 -0 -1.2 0
8.925 -18.456 23.052 -0 -1.2 0
8.845 -18.88 22.755 -0 -1.2 0
8.762 -19.298 22.451 -0 -1.2 0
8.675 -19.71 22.14 -0 -1.2 0
8.587 -20.117 21.823 -0 -1.2 0
8.496 -20.518 21.5 -0 -1.2 0
8.402 -20.913 21.168 -0 -1.2 0
8.305 -21.303 20.832 -0 -1.2 0
8.207 -21.686 20.489 -0 -1.2 0
8.106 -22.063 20.14 -0 -1.2 0
10.271 -15.306 24.635 -0 -1.2 0
10.202 -15.765 24.392 -0 -1.2 0
10.129 -16.219 24.141 -0 -1.2 0
10.053 -16.667 23.883 -0 -1.2 0
9.973 -17.112 23.617 -0 -1.2 0
9.892 -17.551 23.345 -0 -1.2 0
9.806 -17.986 23.065 -0 -1.2 0
9.718 -18.415 22.779 -0 -1.2 0
9.627 -18.839 22.485 -0 -1.2 0
9.534 -19.257 22.186 -0 -1.2 0
9.437 -19.671 21.879 -0 -1.2 0
9.337 -20.078 21.565 -0 -1.2 0
9.235 -20.48 21.246 -0 -1.2 0
9.13 -20.875 20.92 -0 -1.2 0
9.022 -21.265 20.586 -0 -1.2 0
8.911 -21.649 20.248 -0 -1.2 0
8.798 -22.027 19.903 -0 -1.2 0
11.05 -15.266 24.336 -0 -1.2 0
10.972 -15.724 24.095 -0 -1.2 0
10.89 -16.178 23.848 -0 -1.2 0
10.806 -16.628 23.593 -0 -1.2 0
10.719 -17.073 23.332 -0 -1.2 0
10.628 -17.512 23.062 -0 -1.2 0
10.533 -17.948 22.787 -0 -1.2 0
10.436 -18.377 22.504 -0 -1.2 0
10.336 -18.802 22.215 -0 -1.2 0
10.233 -19.221 21.918 -0 -1.2 0
10.126 -19.635 21.615 -0 -1.2 0
10.016 -20.043 21.306 -0 -1.2 0
9.904 -20.445 20.99 -0 -1.2 0
9.789 -20.841 20.669 -0 -1.2 0
9.67 -21.231 20.34 -0 -1.2 0
9.548 -21.616 20.006 -0 -1.2 0
9.424 -21.994 19.666 -0 -1.2 0
11.794 -15.226 24.024 -0 -1.2 0
11.708 -15.685 23.787 -0 -1.2 0
11.619 -16.14 23.543 -0 -1.2 0
11.527 -16.589 23.292 -0 -1.2 0
11.43 -17.035 23.034 -0 -1.2 0
11.331 -17.475 22.769 -0 -1.2 0
11.228 -17.911 22.497 -0 -1.2 0
11.122 -18.341 22.218 -0 -1.2 0
11.011 -18.766 21.932 -0 -1.2 0
10.899 -19.185 21.641 -0 -1.2 0
10.782 -19.6 21.343 -0 -1.2 0
10.663 -20.008 21.037 -0 -1.2 0
10.54 -20.411 20.727 -0 -1.2 0
10.414 -20.808 20.409 -0 -1.2 0
10.284 -21.199 20.086 -0 -1.2 0
10.152 -21.584 19.756 -0 -1.2 0
10.017 -21.963 19.42 -0 -1.2 0
12.664 -14.723 23.891 -0 -1.2 0
12.574 -15.187 23.665 -0 -1.2 0
12.481 -15.646 23.433 -0 -1.2 0
12.382 -16.101 23.192 -0 -1.2 0
12.281 -16.551 22.946 -0 -1.2 0
12.176 -16.997 22.692 -0 -1.2 0
12.067 -17.438 22.431 -0 -1.2 0
11.955 -17.874 22.164 -0 -1.2 0
11.839 -18.305 21.89 -0 -1.2 0
11.719 -18.73 21.609 -0 -1.2 0
11.596 -19.15 21.322 -0 -1.2 0
11.47 -19.565 21.028 -0 -1.2 0
11.339 -19.974 20.729 -0 -1.2 0
11.206 -20.377 20.423 -0 -1.2 0
11.069 -20.775 20.111 -0 -1.2 0
10.928 -21.166 19.793 -0 -1.2 0
10.785 -21.552 19.468 -0 -1.2 0
10.638 -21.931 19.138 -0 -1.2 0
13.382 -14.689 23.532 -0 -1.2 0
13.284 -15.153 23.309 -0 -1.2 0
13.183 -15.613 23.08 -0 -1.2 0
13.078 -16.068 22.844 -0 -1.2 0
12.968 -16.518 22.602 -0 -1.2 0
12.855 -16.965 22.352 -0 -1.2 0
12.738 -17.405 22.096 -0 -1.2 0
12.617 -17.842 21.832 -0 -1.2 0
12.493 -18.273 21.563 -0 -1.2 0
12.364 -18.699 21.287 -0 -1.2 0
12.231 -19.12 21.005 -0 -1.2 0
12.095 -19.535 20.717 -0 -1.2 0
11.956 -19.945 20.422 -0 -1.2 0
11.812 -20.348 20.121 -0 -1.2 0
11.665 -20.746 19.814 -0 -1.2 0
11.515 -21.138 19.501 -0 -1.2 0
11.361 -21.524 19.182 -0 -1.2 0
11.204 -21.904 18.858 -0 -1.2 0
14.086 -14.656 23.15 -0 -1.2 0
13.982 -15.121 22.932 -0 -1.2 0
13.873 -15.581 22.707 -0 -1.2 0
13.76 -16.037 22.475 -0 -1.2 0
13.643 -16.487 22.236 -0 -1.2 0
13.522 -16.934 21.992 -0 -1.2 0
13.397 -17.375 21.74 -0 -1.2 0
13.267 -17.813 21.482 -0 -1.2 0
13.133 -18.244 21.217 -0 -1.2 0
12.996 -18.671 20.946 -0 -1.2 0
12.854 -19.091 20.669 -0 -1.2 0
12.709 -19.507 20.386 -0 -1.2 0
12.56 -19.917 20.096 -0 -1.2 0
12.407 -20.321 19.801 -0 -1.2 0
12.25 -20.719 19.499 -0 -1.2 0
12.09 -21.112 19.192 -0 -1.2 0
11.926 -21.498 18.879 -0 -1.2 0
11.758 -21.879 18.559 -0 -1.2 0
14.94 -14.155 22.919 -0 -1.2 0
14.832 -14.624 22.713 -0 -1.2 0
14.72 -15.089 22.499 -0 -1.2 0
14.603 -15.55 22.279 -0 -1.2 0
14.482 -16.006 22.053 -0 -1.2 0
14.356 -16.457 21.819 -0 -1.2 0
14.227 -16.904 21.579 -0 -1.2 0
14.092 -17.345 21.332 -0 -1.2 0
13.954 -17.783 21.08 -0 -1.2 0
13.812 -18.215 20.82 -0 -1.2 0
13.665 -18.642 20.555 -0 -1.2 0
13.513 -19.063 20.284 -0 -1.2 0
13.359 -19.479 20.006 -0 -1.2 0
13.199 -19.889 19.723 -0 -1.2 0
13.036 -20.294 19.433 -0 -1.2 0
12.869 -20.693 19.137 -0 -1.2 0
12.699 -21.085 18.837 -0 -1.2 0
12.524 -21.472 18.53 -0 -1.2 0
12.345 -21.854 18.218 -0 -1.2 0
15.631 -14.127 22.483 -0 -1.2 0
15.516 -14.596 22.281 -0 -1.2 0
15.397 -15.061 22.072 -0 -1.2 0
15.273 -15.522 21.856 -0 -1.2 0
15.144 -15.979 21.635 -0 -1.2 0
15.011 -16.43 21.406 -0 -1.2 0
14.434 -18.19 20.428 -0 -1.2 0
14.278 -18.617 20.168 -0 -1.2 0
14.119 -19.038 19.902 -0 -1.2 0
13.954 -19.455 19.631 -0 -1.2 0
13.787 -19.866 19.353 -0 -1.2 0
13.613 -20.271 19.069 -0 -1.2 0
13.437 -20.67 18.78 -0 -1.2 0
13.257 -21.063 18.486 -0 -1.2 0
13.072 -21.45 18.185 -0 -1.2 0
12.883 -21.832 17.88 -0 -1.2 0
16.307 -14.101 22.024 -0 -1.2 0
16.186 -14.571 21.827 -0 -1.2 0
16.06 -15.036 21.623 -0 -1.2 0
14.538 -19.433 19.236 -0 -1.2 0
14.36 -19.844 18.964 -0 -1.2 0
14.179 -20.249 18.688 -0 -1.2 0
13.993 -20.649 18.405 -0 -1.2 0
13.803 -21.042 18.117 -0 -1.2 0
13.609 -21.43 17.823 -0 -1.2 0
13.41 -21.812 17.524 -0 -1.2 0
17.198 -13.584 21.658 -0 -1.2 0
17.075 -14.058 21.473 -0 -1.2 0
16.948 -14.528 21.279 -0 -1.2 0
16.814 -14.994 21.081 -0 -1.2 0
16.676 -15.455 20.875 -0 -1.2 0
15.028 -19.806 18.49 -0 -1.2 0
14.837 -20.212 18.219 -0 -1.2 0
14.642 -20.612 17.944 -0 -1.2 0
14.442 -21.006 17.663 -0 -1.2 0
14.238 -21.395 17.377 -0 -1.2 0
14.03 -21.777 17.086 -0 -1.2 0
17.908 -13.532 21.116 -0 -1.2 0
16.897 -16.764 19.719 -0 -1.2 0
15.635 -19.762 18.035 -0 -1.2 0
15.436 -20.168 17.773 -0 -1.2 0
15.231 -20.569 17.504 -0 -1.2 0
15.022 -20.964 17.232 -0 -1.2 0
15.794 -20.524 17.059 -0 -1.2 0
22.145 -9.85 18.884 -0 -1.2 0
21.915 -10.846 18.656 -0 -1.2 0
22.868 -9.305 18.261 -0 -1.2 0
25.922 0.438 15.797 -0 -1.2 0
25.275 -8.386 15.198 -0 -1.2 0
25.167 -8.892 15.122 -0 -1.2 0
25.052 -9.396 15.041 -0 -1.2 0
24.513 -11.387 14.675 -0 -1.2 0
26.463 0.408 14.858 -0 -1.2 0
25.676 -8.921 14.207 -0 -1.2 0
25.005 -11.414 13.783 -0 -1.2 0
26.925 0.382 13.987 -0 -1.2 0
26.11 -8.946 13.356 -0 -1.2 0
25.988 -9.45 13.284 -0 -1.2 0
25.859 -9.952 13.207 -0 -1.2 0
24.917 -13.875 11.643 -0 -1.2 0
27.786 0.357 12.134 -0 -1.2 0
27.809 -0.165 12.132 -0 -1.2 0
27.824 -0.688 12.126 -0 -1.2 0
27.832 -1.211 12.117 -0 -1.2 0
27.83 -1.735 12.104 -0 -1.2 0
27.819 -2.258 12.088 -0 -1.2 0
27.8 -2.781 12.068 -0 -1.2 0
27.773 -3.303 12.045 -0 -1.2 0
27.737 -3.825 12.018 -0 -1.2 0
27.694 -4.346 11.987 -0 -1.2 0
27.434 -6.418 11.832 -0 -1.2 0
27.152 -7.955 11.679 -0 -1.2 0
28.153 0.379 11.228 -0 -1.2 0
28.176 -0.143 11.225 -0 -1.2 0
28.191 -0.665 11.22 -0 -1.2 0
28.198 -1.189 11.211 -0 -1.2 0
28.196 -1.713 11.199 -0 -1.2 0
28.185 -2.236 11.183 -0 -1.2 0
28.166 -2.758 11.164 -0 -1.2 0
28.138 -3.281 11.143 -0 -1.2 0
28.101 -3.803 11.118 -0 -1.2 0
28.057 -4.324 11.09 -0 -1.2 0
27.506 -7.934 10.805 -0 -1.2 0
27.273 -8.949 10.695 -0 -1.2 0
26.708 -10.949 10.439 -0 -1.2 0
28.512 -0.122 10.304 -0 -1.2 0
28.526 -0.645 10.299 -0 -1.2 0
28.532 -1.168 10.291 -0 -1.2 0
28.53 -1.692 10.28 -0 -1.2 0
28.52 -2.215 10.266 -0 -1.2 0
28.5 -2.738 10.248 -0 -1.2 0
28.471 -3.26 10.229 -0 -1.2 0
28.434 -3.783 10.205 -0 -1.2 0
28.389 -4.303 10.18 -0 -1.2 0
28.335 -4.823 10.15 -0 -1.2 0
28.12 -6.376 10.047 -0 -1.2 0
27.716 -8.423 9.868 -0 -1.2 0
27.324 -9.935 9.705 -0 -1.2 0
28.839 -0.101 9.301 -0 -1.2 0
28.854 -0.624 9.296 -0 -1.2 0
28.859 -1.147 9.289 -0 -1.2 0
28.857 -1.671 9.278 -0 -1.2 0
28.845 -2.194 9.265 -0 -1.2 0
28.826 -2.717 9.25 -0 -1.2 0
28.797 -3.239 9.231 -0 -1.2 0
28.759 -3.762 9.211 -0 -1.2 0
28.658 -4.803 9.161 -0 -1.2 0
28.351 -6.87 9.03 -0 -1.2 0
28.252 -7.382 8.991 -0 -1.2 0
28.146 -7.893 8.95 -0 -1.2 0
28.03 -8.402 8.905 -0 -1.2 0
27.906 -8.909 8.86 -0 -1.2 0
29.109 -0.083 8.361 -0 -1.2 0
29.125 -0.606 8.356 -0 -1.2 0
29.131 -1.129 8.35 -0 -1.2 0
29.128 -1.653 8.34 -0 -1.2 0
29.116 -2.176 8.327 -0 -1.2 0
29.095 -2.699 8.313 -0 -1.2 0
29.066 -3.221 8.296 -0 -1.2 0
29.027 -3.744 8.278 -0 -1.2 0
28.981 -4.265 8.257 -0 -1.2 0
28.925 -4.785 8.232 -0 -1.2 0
28.032 -9.396 7.918 -0 -1.2 0
26.235 -14.275 7.359 -0 -1.2 0
29.364 -0.589 7.4 -0 -1.2 0
29.37 -1.112 7.393 -0 -1.2 0
29.367 -1.636 7.385 -0 -1.2 0
29.355 -2.159 7.373 -0 -1.2 0
29.335 -2.682 7.361 -0 -1.2 0
29.305 -3.204 7.346 -0 -1.2 0
29.266 -3.727 7.329 -0 -1.2 0
27.964 -10.381 6.927 -0 -1.2 0
22.583 -20.389 5.537 -0 -1.2 0
29.386 -4.752 6.247 -0 -1.2 0
29.32 -5.271 6.228 -0 -1.2 0
29.245 -5.788 6.206 -0 -1.2 0
24.601 -17.869 5.148 -0 -1.2 0
29.764 -0.561 5.363 -0 -1.2 0
29.77 -1.085 5.358 -0 -1.2 0
29.766 -1.609 5.351 -0 -1.2 0
29.754 -2.132 5.342 -0 -1.2 0
29.732 -2.655 5.332 -0 -1.2 0
29.701 -3.177 5.321 -0 -1.2 0
29.614 -4.221 5.295 -0 -1.2 0
29.331 -6.294 5.225 -0 -1.2 0
28.339 -10.355 5.019 -0 -1.2 0
29.889 -0.038 4.388 -0 -1.2 0
29.903 -0.56 4.384 -0 -1.2 0
29.909 -1.084 4.378 -0 -1.2 0
29.905 -1.608 4.372 -0 -1.2 0
29.892 -2.131 4.365 -0 -1.2 0
29.871 -2.654 4.357 -0 -1.2 0
29.751 -4.22 4.326 -0 -1.2 0
29.036 -8.342 4.195 -0 -1.2 0
30.004 -0.039 3.318 -0 -1.2 0
30.018 -0.562 3.314 -0 -1.2 0
30.022 -1.085 3.31 -0 -1.2 0
30.019 -1.609 3.305 -0 -1.2 0
29.983 -2.655 3.293 -0 -1.2 0
29.952 -3.178 3.286 -0 -1.2 0
29.66 -5.779 3.238 -0 -1.2 0
29.574 -6.295 3.226 -0 -1.2 0
29.376 -7.323 3.199 -0 -1.2 0
29.264 -7.834 3.185 -0 -1.2 0
29.142 -8.343 3.171 -0 -1.2 0
29.012 -8.85 3.156 -0 -1.2 0
28.874 -9.354 3.139 -0 -1.2 0
26.539 -15.17 2.887 -0 -1.2 0
24.332 -18.719 2.666 -0 -1.2 0
30.073 -0.042 2.311 -0 -1.2 0
30.088 -0.565 2.308 -0 -1.2 0
30.092 -1.088 2.305 -0 -1.2 0
30.088 -1.613 2.301 -0 -1.2 0
30.074 -2.136 2.296 -0 -1.2 0
30.052 -2.659 2.292 -0 -1.2 0
30.02 -3.181 2.286 -0 -1.2 0
29.98 -3.704 2.281 -0 -1.2 0
29.93 -4.225 2.275 -0 -1.2 0
29.871 -4.745 2.267 -0 -1.2 0
29.803 -5.264 2.26 -0 -1.2 0
29.726 -5.782 2.253 -0 -1.2 0
29.64 -6.298 2.244 -0 -1.2 0
29.545 -6.813 2.236 -0 -1.2 0
29.328 -7.837 2.218 -0 -1.2 0
29.206 -8.347 2.208 -0 -1.2 0
29.076 -8.854 2.197 -0 -1.2 0
28.937 -9.358 2.187 -0 -1.2 0
28.788 -9.86 2.175 -0 -1.2 0
26.344 -15.634 2.008 -0 -1.2 0
26.087 -16.089 1.992 -0 -1.2 0
25.821 -16.541 1.975 -0 -1.2 0
22.055 -21.55 1.745 -0 -1.2 0
30.11 -0.048 1.302 -0 -1.2 0
30.123 -0.571 1.3 -0 -1.2 0
30.129 -1.094 1.298 -0 -1.2 0
30.124 -1.619 1.294 -0 -1.2 0
30.11 -2.141 1.292 -0 -1.2 0
30.088 -2.664 1.289 -0 -1.2 0
30.056 -3.187 1.285 -0 -1.2 0
30.014 -3.71 1.282 -0 -1.2 0
29.964 -4.231 1.278 -0 -1.2 0
29.672 -6.304 1.262 -0 -1.2 0
29.577 -6.819 1.257 -0 -1.2 0
29.473 -7.332 1.253 -0 -1.2 0
29.36 -7.843 1.248 -0 -1.2 0
29.238 -8.353 1.244 -0 -1.2 0
29.106 -8.859 1.238 -0 -1.2 0
28.967 -9.364 1.233 -0 -1.2 0
26.111 -16.094 1.147 -0 -1.2 0
22.072 -21.554 1.046 -0 -1.2 0
30.109 -0.057 0.217 -0 -1.2 0
30.122 -0.58 0.215 -0 -1.2 0
30.127 -1.103 0.213 -0 -1.2 0
30.122 -1.627 0.211 -0 -1.2 0
30.108 -2.15 0.21 -0 -1.2 0
30.085 -2.673 0.208 -0 -1.2 0
30.011 -3.718 0.206 -0 -1.2 0
29.961 -4.239 0.205 -0 -1.2 0
29.902 -4.76 0.205 -0 -1.2 0
29.833 -5.278 0.204 -0 -1.2 0
29.756 -5.796 0.203 -0 -1.2 0
29.669 -6.313 0.203 -0 -1.2 0
29.573 -6.827 0.203 -0 -1.2 0
29.469 -7.34 0.203 -0 -1.2 0
29.356 -7.851 0.204 -0 -1.2 0
29.233 -8.361 0.204 -0 -1.2 0
29.102 -8.868 0.205 -0 -1.2 0
28.813 -9.874 0.207 -0 -1.2 0
28.655 -10.373 0.208 -0 -1.2 0
28.489 -10.87 0.21 -0 -1.2 0
27.529 -13.305 0.219 -0 -1.2 0
27.311 -13.781 0.221 -0 -1.2 0
22.762 -20.782 0.283 -0 -1.2 0
22.415 -21.174 0.289 -0 -1.2 0
22.061 -21.561 0.294 -0 -1.2 0
30.129 0.23 -1.107 -0 -1.2 0
30.148 -0.291 -1.093 -0 -1.2 0
30.157 -0.815 -1.079 -0 -1.2 0
30.158 -1.338 -1.065 -0 -1.2 0
30.149 -1.862 -1.051 -0 -1.2 0
30.132 -2.384 -1.037 -0 -1.2 0
30.106 -2.908 -1.022 -0 -1.2 0
30.069 -3.43 -1.008 -0 -1.2 0
30.024 -3.952 -0.993 -0 -1.2 0
29.971 -4.472 -0.979 -0 -1.2 0
29.907 -4.992 -0.964 -0 -1.2 0
29.835 -5.51 -0.949 -0 -1.2 0
29.754 -6.027 -0.934 -0 -1.2 0
29.663 -6.542 -0.919 -0 -1.2 0
29.564 -7.056 -0.904 -0 -1.2 0
29.456 -7.569 -0.889 -0 -1.2 0
29.213 -8.586 -0.858 -0 -1.2 0
28.782 -10.096 -0.812 -0 -1.2 0
28.621 -10.594 -0.798 -0 -1.2 0
28.451 -11.088 -0.782 -0 -1.2 0
28.272 -11.581 -0.766 -0 -1.2 0
28.085 -12.07 -0.751 -0 -1.2 0
27.89 -12.556 -0.736 -0 -1.2 0
27.686 -13.037 -0.721 -0 -1.2 0
27.473 -13.516 -0.705 -0 -1.2 0
27.253 -13.99 -0.689 -0 -1.2 0
27.024 -14.461 -0.674 -0 -1.2 0
26.787 -14.928 -0.659 -0 -1.2 0
26.027 -16.301 -0.612 -0 -1.2 0
25.758 -16.75 -0.597 -0 -1.2 0
25.482 -17.194 -0.582 -0 -1.2 0
25.196 -17.634 -0.566 -0 -1.2 0
22.996 -20.56 -0.461 -0 -1.2 0
22.653 -20.955 -0.446 -0 -1.2 0
30.115 -0.321 -2.15 -0 -1.2 0
30.125 -0.845 -2.135 -0 -1.2 0
30.126 -1.368 -2.12 -0 -1.2 0
30.117 -1.891 -2.104 -0 -1.2 0
30.1 -2.414 -2.088 -0 -1.2 0
30.073 -2.937 -2.071 -0 -1.2 0
30.037 -3.459 -2.054 -0 -1.2 0
29.992 -3.981 -2.037 -0 -1.2 0
29.938 -4.501 -2.018 -0 -1.2 0
29.875 -5.021 -2 -0 -1.2 0
29.803 -5.539 -1.982 -0 -1.2 0
29.722 -6.055 -1.963 -0 -1.2 0
29.632 -6.571 -1.943 -0 -1.2 0
29.533 -7.085 -1.924 -0 -1.2 0
29.182 -8.614 -1.863 -0 -1.2 0
28.056 -12.096 -1.707 -0 -1.2 0
27.861 -12.582 -1.683 -0 -1.2 0
27.657 -13.063 -1.66 -0 -1.2 0
27.445 -13.542 -1.635 -0 -1.2 0
27.225 -14.016 -1.611 -0 -1.2 0
26.996 -14.487 -1.586 -0 -1.2 0
26.759 -14.953 -1.561 -0 -1.2 0
26.514 -15.415 -1.536 -0 -1.2 0
26.261 -15.873 -1.51 -0 -1.2 0
26 -16.325 -1.485 -0 -1.2 0
25.732 -16.774 -1.459 -0 -1.2 0
25.455 -17.218 -1.433 -0 -1.2 0
25.17 -17.657 -1.406 -0 -1.2 0
24.879 -18.091 -1.379 -0 -1.2 0
24.58 -18.519 -1.353 -0 -1.2 0
24.273 -18.943 -1.326 -0 -1.2 0
22.973 -20.581 -1.216 -0 -1.2 0
22.631 -20.976 -1.188 -0 -1.2 0
30.058 -0.874 -3.13 -0 -1.2 0
30.059 -1.397 -3.114 -0 -1.2 0
30.051 -1.92 -3.097 -0 -1.2 0
30.033 -2.443 -3.08 -0 -1.2 0
30.007 -2.966 -3.061 -0 -1.2 0
29.971 -3.488 -3.042 -0 -1.2 0
29.927 -4.009 -3.022 -0 -1.2 0
29.873 -4.529 -3.002 -0 -1.2 0
29.81 -5.049 -2.98 -0 -1.2 0
29.738 -5.567 -2.958 -0 -1.2 0
29.657 -6.084 -2.936 -0 -1.2 0
29.567 -6.599 -2.912 -0 -1.2 0
29.469 -7.113 -2.888 -0 -1.2 0
29.361 -7.625 -2.863 -0 -1.2 0
29.244 -8.135 -2.838 -0 -1.2 0
28.182 -11.635 -2.643 -0 -1.2 0
27.996 -12.123 -2.612 -0 -1.2 0
27.801 -12.608 -2.581 -0 -1.2 0
27.597 -13.089 -2.55 -0 -1.2 0
27.387 -13.567 -2.517 -0 -1.2 0
27.167 -14.041 -2.484 -0 -1.2 0
26.939 -14.512 -2.451 -0 -1.2 0
26.702 -14.978 -2.417 -0 -1.2 0
26.457 -15.439 -2.383 -0 -1.2 0
26.205 -15.897 -2.349 -0 -1.2 0
25.945 -16.349 -2.313 -0 -1.2 0
25.677 -16.798 -2.277 -0 -1.2 0
25.402 -17.241 -2.241 -0 -1.2 0
25.118 -17.68 -2.205 -0 -1.2 0
24.827 -18.113 -2.167 -0 -1.2 0
24.528 -18.542 -2.129 -0 -1.2 0
24.221 -18.965 -2.092 -0 -1.2 0
23.909 -19.382 -2.052 -0 -1.2 0
23.588 -19.794 -2.013 -0 -1.2 0
23.26 -20.201 -1.974 -0 -1.2 0
22.583 -20.997 -1.895 -0 -1.2 0
29.959 -0.903 -4.131 -0 -1.2 0
29.96 -1.426 -4.114 -0 -1.2 0
29.951 -1.949 -4.096 -0 -1.2 0
29.934 -2.472 -4.078 -0 -1.2 0
29.907 -2.995 -4.058 -0 -1.2 0
29.873 -3.517 -4.038 -0 -1.2 0
29.828 -4.038 -4.016 -0 -1.2 0
29.774 -4.558 -3.994 -0 -1.2 0
29.711 -5.078 -3.969 -0 -1.2 0
29.64 -5.596 -3.945 -0 -1.2 0
29.56 -6.112 -3.919 -0 -1.2 0
29.265 -7.653 -3.837 -0 -1.2 0
29.024 -8.67 -3.776 -0 -1.2 0
28.09 -11.662 -3.573 -0 -1.2 0
26.615 -15.003 -3.297 -0 -1.2 0
26.372 -15.465 -3.253 -0 -1.2 0
26.121 -15.922 -3.21 -0 -1.2 0
25.861 -16.374 -3.165 -0 -1.2 0
25.036 -17.704 -3.028 -0 -1.2 0
24.746 -18.137 -2.981 -0 -1.2 0
24.448 -18.565 -2.932 -0 -1.2 0
23.831 -19.405 -2.834 -0 -1.2 0
23.512 -19.817 -2.784 -0 -1.2 0
29.762 -3.026 -5.129 -0 -1.2 0
29.726 -3.548 -5.106 -0 -1.2 0
29.682 -4.069 -5.082 -0 -1.2 0
29.567 -5.108 -5.031 -0 -1.2 0
29.416 -6.143 -4.974 -0 -1.2 0
28.882 -8.7 -4.809 -0 -1.2 0
27.375 -13.144 -4.435 -0 -1.2 0
26.488 -15.03 -4.238 -0 -1.2 0
26.246 -15.491 -4.186 -0 -1.2 0
25.996 -15.949 -4.133 -0 -1.2 0
25.737 -16.4 -4.078 -0 -1.2 0
25.198 -17.291 -3.967 -0 -1.2 0
24.628 -18.162 -3.852 -0 -1.2 0
23.075 -20.246 -3.546 -0 -1.2 0
22.404 -21.041 -3.418 -0 -1.2 0
26.339 -15.053 -5.111 -0 -1.2 0
26.098 -15.514 -5.05 -0 -1.2 0
25.85 -15.971 -4.988 -0 -1.2 0
25.159 -16.892 -5.688 -0 -1.2 0
22.134 -21.078 -4.872 -0 -1.2 0
23.233 -19.49 -6.033 -0 -1.2 0
27.865 -0.581 -12.048 -0 -1.2 0
27.877 -1.105 -12.032 -0 -1.2 0
27.88 -1.627 -12.012 -0 -1.2 0
27.474 -0.606 -12.939 -0 -1.2 0
27.486 -1.13 -12.922 -0 -1.2 0
27.035 -1.159 -13.858 -0 -1.2 0
27.039 -1.681 -13.837 -0 -1.2 0
27.035 -2.204 -13.812 -0 -1.2 0
26.137 -0.686 -15.499 -0 -1.2 0
25.632 -1.241 -16.334 -0 -1.2 0
25.638 -1.763 -16.311 -0 -1.2 0
25.636 -2.286 -16.283 -0 -1.2 0
25.074 -0.714 -17.181 -0 -1.2 0
25.094 -1.76 -17.141 -0 -1.2 0
25.094 -2.283 -17.113 -0 -1.2 0
24.484 -0.737 -18.016 -0 -1.2 0
24.499 -1.261 -17.997 -0 -1.2 0
24.507 -1.783 -17.975 -0 -1.2 0
24.507 -2.306 -17.945 -0 -1.2 0
23.852 -1.827 -18.835 -0 -1.2 0
23.852 -2.35 -18.806 -0 -1.2 0
23.208 -1.346 -19.633 -0 -1.2 0
23.216 -1.868 -19.609 -0 -1.2 0
23.218 -2.391 -19.579 -0 -1.2 0
22.531 -1.389 -20.402 -0 -1.2 0
17.269 -21.364 -14.433 -0 -1.2 0
17.195 -20.616 -15.525 -0 -1.2 0
16.72 -21.398 -15.015 -0 -1.2 0
18.624 -16.409 -18.403 -0 -1.2 0
17.087 -19.844 -16.571 -0 -1.2 0
16.871 -20.249 -16.319 -0 -1.2 0
16.424 -21.042 -15.801 -0 -1.2 0
16.193 -21.429 -15.535 -0 -1.2 0
18.587 -14.615 -19.806 -0 -1.2 0
17.097 -18.631 -17.854 -0 -1.2 0
16.905 -19.053 -17.61 -0 -1.2 0
16.707 -19.468 -17.361 -0 -1.2 0
16.506 -19.878 -17.106 -0 -1.2 0
16.298 -20.283 -16.846 -0 -1.2 0
15.869 -21.074 -16.312 -0 -1.2 0
15.646 -21.462 -16.037 -0 -1.2 0
16.463 -18.668 -18.395 -0 -1.2 0
16.279 -19.09 -18.144 -0 -1.2 0
16.091 -19.505 -17.888 -0 -1.2 0
15.896 -19.914 -17.625 -0 -1.2 0
15.698 -20.318 -17.357 -0 -1.2 0
15.494 -20.716 -17.085 -0 -1.2 0
15.287 -21.109 -16.807 -0 -1.2 0
15.074 -21.495 -16.525 -0 -1.2 0
17.471 -13.756 -21.32 -0 -1.2 0
16.026 -18.28 -19.13 -0 -1.2 0
15.854 -18.705 -18.878 -0 -1.2 0
15.677 -19.126 -18.621 -0 -1.2 0
15.495 -19.541 -18.358 -0 -1.2 0
15.309 -19.95 -18.09 -0 -1.2 0
15.119 -20.353 -17.816 -0 -1.2 0
14.923 -20.751 -17.537 -0 -1.2 0
14.723 -21.143 -17.253 -0 -1.2 0
14.519 -21.529 -16.964 -0 -1.2 0
16.54 -14.735 -21.44 -0 -1.2 0
15.394 -18.315 -19.6 -0 -1.2 0
15.23 -18.74 -19.343 -0 -1.2 0
15.06 -19.16 -19.08 -0 -1.2 0
14.886 -19.574 -18.812 -0 -1.2 0
14.709 -19.983 -18.538 -0 -1.2 0
14.526 -20.386 -18.257 -0 -1.2 0
14.338 -20.783 -17.972 -0 -1.2 0
14.147 -21.175 -17.681 -0 -1.2 0
13.951 -21.56 -17.386 -0 -1.2 0
17.16 -4.309 -24.826 -0 -1.2 0
16.121 -13.358 -22.562 -0 -1.2 0
15.282 -16.599 -21.075 -0 -1.2 0
15.144 -17.043 -20.837 -0 -1.2 0
14.049 -20.016 -18.999 -0 -1.2 0
13.875 -20.419 -18.712 -0 -1.2 0
13.697 -20.816 -18.421 -0 -1.2 0
13.515 -21.206 -18.124 -0 -1.2 0
13.328 -21.592 -17.821 -0 -1.2 0
13.59 -19.635 -19.688 -0 -1.2 0
12.919 -21.232 -18.512 -0 -1.2 0
12.742 -21.617 -18.204 -0 -1.2 0
14.572 -13.892 -23.278 -0 -1.2 0
12.95 -19.66 -20.079 -0 -1.2 0
12.797 -20.068 -19.788 -0 -1.2 0
12.64 -20.469 -19.493 -0 -1.2 0
12.478 -20.866 -19.19 -0 -1.2 0
12.314 -21.256 -18.882 -0 -1.2 0
12.145 -21.64 -18.568 -0 -1.2 0
14.103 -11.999 -24.497 -0 -1.2 0
11.652 -21.279 -19.261 -0 -1.2 0
11.493 -21.663 -18.941 -0 -1.2 0
11.451 -20.105 -20.535 -0 -1.2 0
10.876 -21.676 -19.275 -0 -1.2 0
12.957 -0.758 -27.384 -0 -1.2 0
12.927 -1.28 -27.267 -0 -1.2 0
12.935 -1.8 -27.233 -0 -1.2 0
12.93 -2.32 -27.171 -0 -1.2 0
12.944 -2.839 -27.147 -0 -1.2 0
12.948 -6.996 -26.739 -0 -1.2 0
12.922 -7.508 -26.633 -0 -1.2 0
12.892 -8.018 -26.518 -0 -1.2 0
12.731 -10.036 -25.98 -0 -1.2 0
12.446 -12.495 -25.132 -0 -1.2 0
10.914 -19.693 -21.186 -0 -1.2 0
10.789 -20.1 -20.882 -0 -1.2 0
10.529 -20.897 -20.254 -0 -1.2 0
10.395 -21.287 -19.932 -0 -1.2 0
11.963 -1.341 -27.818 -0 -1.2 0
9.914 -20.546 -20.885 -0 -1.2 0
9.795 -20.941 -20.562 -0 -1.2 0
9.672 -21.33 -20.234 -0 -1.2 0
9.546 -21.714 -19.9 -0 -1.2 0
10.995 -1.401 -28.196 -0 -1.2 0
11.014 -1.925 -28.179 -0 -1.2 0
11.029 -2.447 -28.152 -0 -1.2 0
11.041 -2.969 -28.117 -0 -1.2 0
11.058 -4.533 -27.96 -0 -1.2 0
10.864 -10.15 -26.744 -0 -1.2 0
8.984 -21.374 -20.488 -0 -1.2 0
8.871 -21.756 -20.149 -0 -1.2 0
9.998 -1.464 -28.547 -0 -1.2 0
10.017 -1.988 -28.529 -0 -1.2 0
10.035 -2.51 -28.502 -0 -1.2 0
9.641 -13.62 -25.766 -0 -1.2 0
8.373 -21.031 -21.063 -0 -1.2 0
8.274 -21.418 -20.725 -0 -1.2 0
8.173 -21.8 -20.38 -0 -1.2 0
8.918 -2.057 -28.873 -0 -1.2 0
8.935 -2.579 -28.845 -0 -1.2 0
8.964 -3.622 -28.762 -0 -1.2 0
8.97 -7.753 -28.088 -0 -1.2 0
8.285 -13.654 -24.863 -0 -1.2 0
7.575 -21.081 -21.299 -0 -1.2 0
7.49 -21.468 -20.956 -0 -1.2 0
7.403 -21.849 -20.607 -0 -1.2 0
7.873 -2.126 -29.153 -0 -1.2 0
7.893 -2.648 -29.124 -0 -1.2 0
7.566 -15.608 -25.367 -0 -1.2 0
7.023 -19.939 -22.488 -0 -1.2 0
6.818 -21.132 -21.487 -0 -1.2 0
6.746 -21.517 -21.14 -0 -1.2 0
6.672 -21.897 -20.787 -0 -1.2 0
6.775 -1.15 -29.427 -0 -1.2 0
6.8 -1.672 -29.416 -0 -1.2 0
6.823 -2.196 -29.396 -0 -1.2 0
6.844 -2.717 -29.367 -0 -1.2 0
6.864 -3.239 -29.329 -0 -1.2 0
6.278 -19.583 -22.983 -0 -1.2 0
6.172 -20.394 -22.329 -0 -1.2 0
6.058 -21.182 -21.649 -0 -1.2 0
5.998 -21.567 -21.299 -0 -1.2 0
5.936 -21.946 -20.942 -0 -1.2 0
5.607 -1.227 -29.654 -0 -1.2 0
5.633 -1.749 -29.642 -0 -1.2 0
5.657 -2.273 -29.622 -0 -1.2 0
5.679 -2.795 -29.591 -0 -1.2 0
5.7 -3.316 -29.553 -0 -1.2 0
5.778 -5.912 -29.225 -0 -1.2 0
5.415 -19.229 -23.464 -0 -1.2 0
5.378 -19.643 -23.144 -0 -1.2 0
5.298 -20.452 -22.485 -0 -1.2 0
5.256 -20.848 -22.145 -0 -1.2 0
5.211 -21.238 -21.798 -0 -1.2 0
5.166 -21.623 -21.445 -0 -1.2 0
5.119 -22.001 -21.086 -0 -1.2 0
4.603 -1.803 -29.8 -0 -1.2 0
4.628 -2.327 -29.778 -0 -1.2 0
4.651 -2.848 -29.749 -0 -1.2 0
4.674 -3.37 -29.71 -0 -1.2 0
4.763 -5.965 -29.381 -0 -1.2 0
4.691 -17.566 -24.797 -0 -1.2 0
4.649 -18.43 -24.206 -0 -1.2 0
4.625 -18.854 -23.899 -0 -1.2 0
4.6 -19.272 -23.585 -0 -1.2 0
4.574 -19.685 -23.264 -0 -1.2 0
4.545 -20.092 -22.936 -0 -1.2 0
4.516 -20.493 -22.601 -0 -1.2 0
4.486 -20.889 -22.259 -0 -1.2 0
4.453 -21.278 -21.911 -0 -1.2 0
4.421 -21.661 -21.556 -0 -1.2 0
4.386 -22.039 -21.194 -0 -1.2 0
3.59 -1.851 -29.92 -0 -1.2 0
3.78 -6.527 -29.407 -0 -1.2 0
3.847 -9.074 -28.809 -0 -1.2 0
3.846 -17.606 -24.898 -0 -1.2 0
3.835 -18.041 -24.605 -0 -1.2 0
3.823 -18.469 -24.305 -0 -1.2 0
3.81 -18.892 -23.996 -0 -1.2 0
3.795 -19.31 -23.682 -0 -1.2 0
3.779 -19.722 -23.359 -0 -1.2 0
3.762 -20.129 -23.03 -0 -1.2 0
3.745 -20.53 -22.694 -0 -1.2 0
3.725 -20.925 -22.35 -0 -1.2 0
3.705 -21.313 -22 -0 -1.2 0
3.684 -21.696 -21.643 -0 -1.2 0
3.662 -22.073 -21.28 -0 -1.2 0
2.699 -6.578 -29.499 -0 -1.2 0
2.718 -7.091 -29.397 -0 -1.2 0
2.907 -14.483 -26.817 -0 -1.2 0
2.917 -15.411 -26.331 -0 -1.2 0
2.927 -16.768 -25.542 -0 -1.2 0
2.929 -17.65 -24.977 -0 -1.2 0
2.928 -18.083 -24.682 -0 -1.2 0
2.928 -18.511 -24.381 -0 -1.2 0
2.925 -18.934 -24.072 -0 -1.2 0
2.922 -19.351 -23.756 -0 -1.2 0
2.919 -19.763 -23.432 -0 -1.2 0
2.913 -20.169 -23.102 -0 -1.2 0
2.908 -20.569 -22.764 -0 -1.2 0
2.901 -20.963 -22.42 -0 -1.2 0
2.894 -21.352 -22.069 -0 -1.2 0
2.886 -21.734 -21.711 -0 -1.2 0
2.877 -22.11 -21.347 -0 -1.2 0
1.861 -10.17 -28.643 -0 -1.2 0
1.98 -13.582 -27.315 -0 -1.2 0
2.009 -14.524 -26.86 -0 -1.2 0
2.022 -14.99 -26.621 -0 -1.2 0
2.049 -15.908 -26.117 -0 -1.2 0
2.071 -16.807 -25.582 -0 -1.2 0
2.082 -17.25 -25.303 -0 -1.2 0
2.091 -17.688 -25.016 -0 -1.2 0
2.101 -18.121 -24.721 -0 -1.2 0
2.11 -18.548 -24.419 -0 -1.2 0
2.119 -18.971 -24.11 -0 -1.2 0
2.126 -19.387 -23.793 -0 -1.2 0
2.132 -19.799 -23.469 -0 -1.2 0
2.139 -20.204 -23.138 -0 -1.2 0
2.145 -20.604 -22.8 -0 -1.2 0
2.149 -20.998 -22.455 -0 -1.2 0
2.154 -21.385 -22.103 -0 -1.2 0
2.158 -21.767 -21.745 -0 -1.2 0
2.16 -22.143 -21.379 -0 -1.2 0
0.947 -11.204 -28.32 -0 -1.2 0
0.982 -12.034 -27.578 -0 -1.2 0
1.017 -12.666 -27.751 -0 -1.2 0
1.107 -14.565 -26.875 -0 -1.2 0
1.129 -15.031 -26.635 -0 -1.2 0
1.15 -15.491 -26.387 -0 -1.2 0
1.191 -16.4 -25.867 -0 -1.2 0
1.212 -16.846 -25.595 -0 -1.2 0
1.232 -17.289 -25.316 -0 -1.2 0
1.251 -17.726 -25.029 -0 -1.2 0
1.27 -18.159 -24.734 -0 -1.2 0
1.289 -18.586 -24.432 -0 -1.2 0
1.308 -19.008 -24.122 -0 -1.2 0
1.326 -19.423 -23.805 -0 -1.2 0
1.344 -19.835 -23.481 -0 -1.2 0
1.36 -20.24 -23.15 -0 -1.2 0
1.377 -20.639 -22.811 -0 -1.2 0
1.394 -21.032 -22.466 -0 -1.2 0
1.409 -21.419 -22.114 -0 -1.2 0
1.426 -21.8 -21.755 -0 -1.2 0
1.44 -22.176 -21.39 -0 -1.2 0
-0.685 -0.477 -30.058 -0 -1.2 0
-0.63 -1.521 -30.062 -0 -1.2 0
-0.602 -2.043 -30.051 -0 -1.2 0
-0.373 -6.202 -29.632 -0 -1.2 0
-0.344 -6.717 -29.539 -0 -1.2 0
-0.314 -7.229 -29.437 -0 -1.2 0
-0.284 -7.74 -29.326 -0 -1.2 0
-0.254 -8.249 -29.206 -0 -1.2 0
-0.195 -9.26 -28.939 -0 -1.2 0
-0.135 -10.261 -28.638 -0 -1.2 0
-0.014 -12.228 -27.93 -0 -1.2 0
0.136 -14.609 -26.856 -0 -1.2 0
0.166 -15.075 -26.617 -0 -1.2 0
0.256 -16.442 -25.85 -0 -1.2 0
0.286 -16.888 -25.578 -0 -1.2 0
0.316 -17.331 -25.299 -0 -1.2 0
0.346 -17.767 -25.012 -0 -1.2 0
0.375 -18.199 -24.718 -0 -1.2 0
0.406 -18.626 -24.416 -0 -1.2 0
0.434 -19.047 -24.106 -0 -1.2 0
0.464 -19.463 -23.79 -0 -1.2 0
0.493 -19.873 -23.466 -0 -1.2 0
0.523 -20.278 -23.135 -0 -1.2 0
0.552 -20.676 -22.796 -0 -1.2 0
0.581 -21.069 -22.451 -0 -1.2 0
0.609 -21.456 -22.099 -0 -1.2 0
0.638 -21.836 -21.741 -0 -1.2 0
0.666 -22.211 -21.375 -0 -1.2 0
-1.715 0.001 -29.982 -0 -1.2 0
-1.689 -0.521 -29.999 -0 -1.2 0
-1.661 -1.043 -30.006 -0 -1.2 0
-1.634 -1.565 -30.004 -0 -1.2 0
-1.606 -2.087 -29.992 -0 -1.2 0
-1.577 -2.611 -29.972 -0 -1.2 0
-1.548 -3.132 -29.943 -0 -1.2 0
-1.519 -3.653 -29.905 -0 -1.2 0
-1.489 -4.174 -29.856 -0 -1.2 0
-1.458 -4.694 -29.8 -0 -1.2 0
-1.427 -5.213 -29.734 -0 -1.2 0
-1.395 -5.73 -29.66 -0 -1.2 0
-1.363 -6.245 -29.576 -0 -1.2 0
-1.331 -6.76 -29.483 -0 -1.2 0
-1.232 -8.291 -29.151 -0 -1.2 0
-1.198 -8.798 -29.022 -0 -1.2 0
-1.163 -9.302 -28.885 -0 -1.2 0
-0.986 -11.783 -28.068 -0 -1.2 0
-0.839 -13.708 -27.261 -0 -1.2 0
-0.725 -15.114 -26.567 -0 -1.2 0
-0.686 -15.573 -26.32 -0 -1.2 0
-0.648 -16.029 -26.065 -0 -1.2 0
-0.609 -16.48 -25.802 -0 -1.2 0
-0.57 -16.926 -25.531 -0 -1.2 0
-0.531 -17.368 -25.252 -0 -1.2 0
-0.492 -17.804 -24.966 -0 -1.2 0
-0.453 -18.236 -24.672 -0 -1.2 0
-0.413 -18.662 -24.37 -0 -1.2 0
-0.373 -19.083 -24.061 -0 -1.2 0
-0.333 -19.498 -23.745 -0 -1.2 0
-0.293 -19.908 -23.422 -0 -1.2 0
-0.253 -20.312 -23.091 -0 -1.2 0
-0.213 -20.71 -22.754 -0 -1.2 0
-0.172 -21.102 -22.408 -0 -1.2 0
-0.131 -21.488 -22.057 -0 -1.2 0
-0.091 -21.868 -21.7 -0 -1.2 0
-0.051 -22.242 -21.335 -0 -1.2 0
-2.729 -0.018 -29.891 -0 -1.2 0
-2.703 -0.54 -29.908 -0 -1.2 0
-2.677 -1.062 -29.915 -0 -1.2 0
-2.649 -1.584 -29.914 -0 -1.2 0
-2.621 -2.107 -29.904 -0 -1.2 0
-2.592 -2.63 -29.884 -0 -1.2 0
-2.562 -3.151 -29.856 -0 -1.2 0
-2.532 -3.673 -29.818 -0 -1.2 0
-2.5 -4.193 -29.771 -0 -1.2 0
-2.468 -4.713 -29.715 -0 -1.2 0
-2.435 -5.232 -29.65 -0 -1.2 0
-2.401 -5.749 -29.576 -0 -1.2 0
-2.367 -6.265 -29.493 -0 -1.2 0
-2.332 -6.779 -29.401 -0 -1.2 0
-2.296 -7.291 -29.3 -0 -1.2 0
-2.26 -7.802 -29.19 -0 -1.2 0
-2.222 -8.31 -29.071 -0 -1.2 0
-2.184 -8.817 -28.944 -0 -1.2 0
-2.145 -9.321 -28.806 -0 -1.2 0
-2.106 -9.823 -28.661 -0 -1.2 0
-2.066 -10.321 -28.507 -0 -1.2 0
-1.984 -11.31 -28.174 -0 -1.2 0
-1.9 -12.287 -27.805 -0 -1.2 0
-1.856 -12.77 -27.609 -0 -1.2 0
-1.812 -13.251 -27.404 -0 -1.2 0
-1.768 -13.726 -27.191 -0 -1.2 0
-1.723 -14.199 -26.969 -0 -1.2 0
-1.678 -14.666 -26.739 -0 -1.2 0
-1.632 -15.131 -26.501 -0 -1.2 0
-1.585 -15.591 -26.255 -0 -1.2 0
-1.538 -16.046 -26.001 -0 -1.2 0
-1.491 -16.497 -25.738 -0 -1.2 0
-1.443 -16.943 -25.469 -0 -1.2 0
-1.395 -17.385 -25.192 -0 -1.2 0
-1.346 -17.82 -24.906 -0 -1.2 0
-1.297 -18.252 -24.613 -0 -1.2 0
-1.247 -18.678 -24.313 -0 -1.2 0
-1.197 -19.099 -24.005 -0 -1.2 0
-1.147 -19.513 -23.691 -0 -1.2 0
-1.095 -19.923 -23.368 -0 -1.2 0
-1.045 -20.327 -23.039 -0 -1.2 0
-0.993 -20.725 -22.702 -0 -1.2 0
-0.942 -21.117 -22.359 -0 -1.2 0
-0.889 -21.503 -22.01 -0 -1.2 0
-0.837 -21.883 -21.653 -0 -1.2 0
-0.785 -22.256 -21.289 -0 -1.2 0
-3.596 -4.222 -29.637 -0 -1.2 0
-3.561 -4.742 -29.583 -0 -1.2 0
-3.526 -5.261 -29.518 -0 -1.2 0
-3.49 -5.778 -29.445 -0 -1.2 0
-3.453 -6.293 -29.363 -0 -1.2 0
-3.414 -6.808 -29.272 -0 -1.2 0
-3.375 -7.32 -29.171 -0 -1.2 0
-3.335 -7.83 -29.062 -0 -1.2 0
-3.293 -8.339 -28.945 -0 -1.2 0
-3.251 -8.845 -28.818 -0 -1.2 0
-3.207 -9.349 -28.682 -0 -1.2 0
-3.163 -9.851 -28.539 -0 -1.2 0
-3.117 -10.349 -28.386 -0 -1.2 0
-3.07 -10.845 -28.224 -0 -1.2 0
-3.023 -11.338 -28.054 -0 -1.2 0
-2.974 -11.828 -27.876 -0 -1.2 0
-2.925 -12.315 -27.689 -0 -1.2 0
-2.875 -12.797 -27.493 -0 -1.2 0
-2.824 -13.277 -27.289 -0 -1.2 0
-2.772 -13.753 -27.077 -0 -1.2 0
-2.719 -14.225 -26.856 -0 -1.2 0
-2.666 -14.693 -26.628 -0 -1.2 0
-2.611 -15.157 -26.391 -0 -1.2 0
-2.556 -15.616 -26.146 -0 -1.2 0
-2.499 -16.072 -25.894 -0 -1.2 0
-2.442 -16.522 -25.633 -0 -1.2 0
-2.386 -16.968 -25.365 -0 -1.2 0
-2.327 -17.409 -25.089 -0 -1.2 0
-2.268 -17.845 -24.806 -0 -1.2 0
-2.208 -18.276 -24.514 -0 -1.2 0
-2.147 -18.702 -24.215 -0 -1.2 0
-2.086 -19.122 -23.91 -0 -1.2 0
-2.024 -19.537 -23.596 -0 -1.2 0
-1.963 -19.946 -23.276 -0 -1.2 0
-1.899 -20.35 -22.948 -0 -1.2 0
-1.835 -20.747 -22.613 -0 -1.2 0
-1.771 -21.139 -22.271 -0 -1.2 0
-1.706 -21.524 -21.924 -0 -1.2 0
-1.641 -21.904 -21.568 -0 -1.2 0
-1.575 -22.277 -21.208 -0 -1.2 0
-4.463 -6.346 -29.198 -0 -1.2 0
-4.421 -6.86 -29.106 -0 -1.2 0
-4.379 -7.372 -29.007 -0 -1.2 0
-4.334 -7.882 -28.899 -0 -1.2 0
-4.289 -8.39 -28.781 -0 -1.2 0
-4.241 -8.896 -28.655 -0 -1.2 0
-4.193 -9.401 -28.521 -0 -1.2 0
-4.144 -9.902 -28.377 -0 -1.2 0
-4.093 -10.4 -28.225 -0 -1.2 0
-4.041 -10.896 -28.064 -0 -1.2 0
-3.988 -11.388 -27.895 -0 -1.2 0
-3.933 -11.878 -27.718 -0 -1.2 0
-3.877 -12.364 -27.532 -0 -1.2 0
-3.821 -12.846 -27.337 -0 -1.2 0
-3.762 -13.326 -27.134 -0 -1.2 0
-3.703 -13.801 -26.923 -0 -1.2 0
-3.643 -14.273 -26.704 -0 -1.2 0
-3.581 -14.74 -26.476 -0 -1.2 0
-3.518 -15.204 -26.241 -0 -1.2 0
-3.455 -15.663 -25.998 -0 -1.2 0
-3.389 -16.118 -25.746 -0 -1.2 0
-3.324 -16.568 -25.487 -0 -1.2 0
-3.257 -17.013 -25.219 -0 -1.2 0
-3.189 -17.454 -24.945 -0 -1.2 0
-3.12 -17.889 -24.663 -0 -1.2 0
-3.05 -18.32 -24.374 -0 -1.2 0
-2.979 -18.745 -24.076 -0 -1.2 0
-2.907 -19.165 -23.772 -0 -1.2 0
-2.835 -19.579 -23.459 -0 -1.2 0
-2.762 -19.988 -23.141 -0 -1.2 0
-2.687 -20.391 -22.814 -0 -1.2 0
-2.612 -20.788 -22.482 -0 -1.2 0
-2.536 -21.179 -22.142 -0 -1.2 0
-2.459 -21.563 -21.796 -0 -1.2 0
-2.381 -21.942 -21.442 -0 -1.2 0
-2.304 -22.315 -21.083 -0 -1.2 0
-5.229 -8.948 -28.46 -0 -1.2 0
-5.176 -9.452 -28.326 -0 -1.2 0
-5.122 -9.952 -28.183 -0 -1.2 0
-5.065 -10.45 -28.032 -0 -1.2 0
-5.008 -10.946 -27.873 -0 -1.2 0
-4.948 -11.438 -27.705 -0 -1.2 0
-4.887 -11.927 -27.528 -0 -1.2 0
-4.825 -12.413 -27.343 -0 -1.2 0
-4.762 -12.895 -27.15 -0 -1.2 0
-4.696 -13.375 -26.948 -0 -1.2 0
-4.63 -13.849 -26.739 -0 -1.2 0
-4.562 -14.321 -26.521 -0 -1.2 0
-4.492 -14.787 -26.295 -0 -1.2 0
-4.422 -15.251 -26.061 -0 -1.2 0
-4.349 -15.71 -25.819 -0 -1.2 0
-4.276 -16.164 -25.57 -0 -1.2 0
