# .PCD v.7 - Point Cloud Data file format
FIELDS x y z vp_x vp_y vp_z
SIZE 4 4 4 4 4 4
TYPE F F F F F F
COUNT 1 1 1 1 1 1
WIDTH 1483
HEIGHT 1
VIEWPOINT 0 -1.2001 0 1 0 0 0
POINTS 1483
DATA ascii
-2.511 -7.786 29.211 -0 -1.2 0
-2.488 -8.295 29.091 -0 -1.2 0
-2.464 -8.803 28.963 -0 -1.2 0
-2.438 -9.307 28.826 -0 -1.2 0
-2.412 -9.809 28.68 -0 -1.2 0
-2.385 -10.309 28.525 -0 -1.2 0
-2.359 -10.805 28.362 -0 -1.2 0
-2.33 -11.3 28.191 -0 -1.2 0
-2.301 -11.79 28.01 -0 -1.2 0
-2.272 -12.277 27.821 -0 -1.2 0
-2.241 -12.762 27.624 -0 -1.2 0
-2.21 -13.242 27.418 -0 -1.2 0
-2.179 -13.719 27.204 -0 -1.2 0
-2.146 -14.192 26.981 -0 -1.2 0
-2.114 -14.661 26.751 -0 -1.2 0
-2.08 -15.126 26.512 -0 -1.2 0
-2.046 -15.587 26.266 -0 -1.2 0
-2.011 -16.043 26.012 -0 -1.2 0
-1.976 -16.494 25.748 -0 -1.2 0
-1.939 -16.941 25.479 -0 -1.2 0
-1.902 -17.382 25.2 -0 -1.2 0
-1.865 -17.82 24.914 -0 -1.2 0
-1.827 -18.252 24.621 -0 -1.2 0
-1.789 -18.679 24.32 -0 -1.2 0
-1.75 -19.1 24.012 -0 -1.2 0
-1.71 -19.516 23.696 -0 -1.2 0
-1.67 -19.926 23.373 -0 -1.2 0
-1.631 -20.331 23.044 -0 -1.2 0
-1.589 -20.73 22.707 -0 -1.2 0
-1.548 -21.122 22.363 -0 -1.2 0
-1.505 -21.509 22.012 -0 -1.2 0
-1.463 -21.89 21.655 -0 -1.2 0
-1.975 0.567 29.978 -0 -1.2 0
-1.964 0.045 30.002 -0 -1.2 0
-1.822 -5.175 29.756 -0 -1.2 0
-1.805 -5.693 29.681 -0 -1.2 0
-1.787 -6.209 29.598 -0 -1.2 0
-1.769 -6.724 29.505 -0 -1.2 0
-1.75 -7.237 29.404 -0 -1.2 0
-1.73 -7.749 29.293 -0 -1.2 0
-1.709 -8.258 29.173 -0 -1.2 0
-1.689 -8.766 29.046 -0 -1.2 0
-1.669 -9.271 28.908 -0 -1.2 0
-1.646 -9.773 28.762 -0 -1.2 0
-1.625 -10.273 28.608 -0 -1.2 0
-1.602 -10.769 28.444 -0 -1.2 0
-1.579 -11.264 28.272 -0 -1.2 0
-1.555 -11.755 28.092 -0 -1.2 0
-1.532 -12.242 27.903 -0 -1.2 0
-1.507 -12.727 27.706 -0 -1.2 0
-1.482 -13.207 27.499 -0 -1.2 0
-1.456 -13.685 27.286 -0 -1.2 0
-1.43 -14.157 27.062 -0 -1.2 0
-1.404 -14.627 26.832 -0 -1.2 0
-1.377 -15.092 26.593 -0 -1.2 0
-1.35 -15.553 26.346 -0 -1.2 0
-1.322 -16.01 26.091 -0 -1.2 0
-1.295 -16.461 25.828 -0 -1.2 0
-1.266 -16.909 25.557 -0 -1.2 0
-1.238 -17.351 25.279 -0 -1.2 0
-1.208 -17.789 24.993 -0 -1.2 0
-1.179 -18.221 24.699 -0 -1.2 0
-1.148 -18.648 24.399 -0 -1.2 0
-1.118 -19.07 24.09 -0 -1.2 0
-1.088 -19.486 23.773 -0 -1.2 0
-1.057 -19.897 23.45 -0 -1.2 0
-1.026 -20.302 23.12 -0 -1.2 0
-0.994 -20.701 22.783 -0 -1.2 0
-0.962 -21.094 22.438 -0 -1.2 0
-0.929 -21.482 22.088 -0 -1.2 0
-0.897 -21.863 21.73 -0 -1.2 0
-1.112 0.581 30.04 -0 -1.2 0
-1.101 0.058 30.064 -0 -1.2 0
-0.972 -5.162 29.816 -0 -1.2 0
-0.958 -5.68 29.742 -0 -1.2 0
-0.942 -6.196 29.657 -0 -1.2 0
-0.927 -6.711 29.564 -0 -1.2 0
-0.911 -7.225 29.463 -0 -1.2 0
-0.895 -7.736 29.352 -0 -1.2 0
-0.879 -8.245 29.232 -0 -1.2 0
-0.863 -8.753 29.103 -0 -1.2 0
-0.847 -9.258 28.966 -0 -1.2 0
-0.83 -9.76 28.82 -0 -1.2 0
-0.812 -10.261 28.665 -0 -1.2 0
-0.795 -10.757 28.501 -0 -1.2 0
-0.777 -11.252 28.329 -0 -1.2 0
-0.759 -11.743 28.147 -0 -1.2 0
-0.741 -12.23 27.958 -0 -1.2 0
-0.723 -12.715 27.76 -0 -1.2 0
-0.704 -13.195 27.553 -0 -1.2 0
-0.686 -13.673 27.339 -0 -1.2 0
-0.666 -14.146 27.116 -0 -1.2 0
-0.647 -14.615 26.885 -0 -1.2 0
-0.628 -15.081 26.645 -0 -1.2 0
-0.608 -15.542 26.398 -0 -1.2 0
-0.588 -15.998 26.142 -0 -1.2 0
-0.568 -16.45 25.879 -0 -1.2 0
-0.547 -16.898 25.608 -0 -1.2 0
-0.528 -17.34 25.329 -0 -1.2 0
-0.507 -17.778 25.042 -0 -1.2 0
-0.486 -18.21 24.748 -0 -1.2 0
-0.465 -18.637 24.446 -0 -1.2 0
-0.444 -19.059 24.136 -0 -1.2 0
-0.423 -19.476 23.821 -0 -1.2 0
-0.402 -19.887 23.497 -0 -1.2 0
-0.381 -20.292 23.165 -0 -1.2 0
-0.359 -20.691 22.827 -0 -1.2 0
-0.337 -21.084 22.483 -0 -1.2 0
-0.316 -21.472 22.131 -0 -1.2 0
-0.293 -21.854 21.773 -0 -1.2 0
-0.294 0.533 30.076 -0 -1.2 0
-0.284 0.01 30.099 -0 -1.2 0
-0.165 -5.209 29.839 -0 -1.2 0
-0.153 -5.727 29.763 -0 -1.2 0
-0.141 -6.244 29.678 -0 -1.2 0
-0.128 -6.758 29.584 -0 -1.2 0
-0.116 -7.271 29.48 -0 -1.2 0
-0.104 -7.783 29.369 -0 -1.2 0
-0.092 -8.292 29.248 -0 -1.2 0
-0.079 -8.799 29.118 -0 -1.2 0
-0.066 -9.304 28.979 -0 -1.2 0
-0.054 -9.806 28.832 -0 -1.2 0
-0.042 -10.306 28.676 -0 -1.2 0
-0.029 -10.802 28.511 -0 -1.2 0
-0.016 -11.297 28.338 -0 -1.2 0
-0.003 -11.787 28.155 -0 -1.2 0
0.008 -12.274 27.964 -0 -1.2 0
0.021 -12.759 27.766 -0 -1.2 0
0.033 -13.239 27.557 -0 -1.2 0
0.046 -13.716 27.342 -0 -1.2 0
0.059 -14.189 27.117 -0 -1.2 0
0.071 -14.658 26.885 -0 -1.2 0
0.084 -15.123 26.645 -0 -1.2 0
0.097 -15.584 26.396 -0 -1.2 0
0.11 -16.04 26.139 -0 -1.2 0
0.121 -16.491 25.875 -0 -1.2 0
0.134 -16.939 25.602 -0 -1.2 0
0.147 -17.38 25.321 -0 -1.2 0
0.159 -17.818 25.034 -0 -1.2 0
0.172 -18.25 24.739 -0 -1.2 0
0.184 -18.676 24.435 -0 -1.2 0
0.196 -19.098 24.125 -0 -1.2 0
0.208 -19.514 23.808 -0 -1.2 0
0.22 -19.924 23.483 -0 -1.2 0
0.233 -20.329 23.151 -0 -1.2 0
0.244 -20.727 22.812 -0 -1.2 0
0.257 -21.12 22.465 -0 -1.2 0
0.268 -21.507 22.113 -0 -1.2 0
0.28 -21.888 21.754 -0 -1.2 0
0.745 -5.7 29.775 -0 -1.2 0
0.755 -6.217 29.69 -0 -1.2 0
0.765 -6.732 29.596 -0 -1.2 0
0.774 -7.245 29.493 -0 -1.2 0
0.784 -7.756 29.382 -0 -1.2 0
0.793 -8.266 29.261 -0 -1.2 0
0.802 -8.773 29.131 -0 -1.2 0
0.812 -9.278 28.992 -0 -1.2 0
0.82 -9.78 28.845 -0 -1.2 0
0.829 -10.28 28.688 -0 -1.2 0
0.837 -10.777 28.524 -0 -1.2 0
0.845 -11.271 28.35 -0 -1.2 0
0.852 -11.762 28.169 -0 -1.2 0
0.86 -12.249 27.978 -0 -1.2 0
0.867 -12.734 27.779 -0 -1.2 0
0.874 -13.214 27.571 -0 -1.2 0
0.88 -13.692 27.356 -0 -1.2 0
0.888 -14.164 27.131 -0 -1.2 0
0.893 -14.634 26.9 -0 -1.2 0
0.899 -15.099 26.659 -0 -1.2 0
0.905 -15.56 26.41 -0 -1.2 0
0.91 -16.016 26.154 -0 -1.2 0
0.915 -16.468 25.89 -0 -1.2 0
0.92 -16.915 25.618 -0 -1.2 0
0.925 -17.357 25.337 -0 -1.2 0
0.929 -17.795 25.049 -0 -1.2 0
0.933 -18.227 24.754 -0 -1.2 0
0.937 -18.654 24.451 -0 -1.2 0
0.94 -19.076 24.141 -0 -1.2 0
0.943 -19.492 23.823 -0 -1.2 0
0.946 -19.903 23.498 -0 -1.2 0
0.948 -20.308 23.166 -0 -1.2 0
0.95 -20.707 22.827 -0 -1.2 0
0.953 -21.1 22.482 -0 -1.2 0
0.954 -21.487 22.129 -0 -1.2 0
0.956 -21.868 21.77 -0 -1.2 0
1.743 -7.725 29.366 -0 -1.2 0
1.749 -8.235 29.246 -0 -1.2 0
1.755 -8.742 29.116 -0 -1.2 0
1.759 -9.247 28.978 -0 -1.2 0
1.764 -9.75 28.831 -0 -1.2 0
1.768 -10.25 28.676 -0 -1.2 0
1.771 -10.746 28.511 -0 -1.2 0
1.774 -11.241 28.338 -0 -1.2 0
1.777 -11.732 28.156 -0 -1.2 0
1.778 -12.219 27.966 -0 -1.2 0
1.779 -12.704 27.767 -0 -1.2 0
1.78 -13.185 27.56 -0 -1.2 0
1.781 -13.663 27.345 -0 -1.2 0
1.78 -14.135 27.121 -0 -1.2 0
1.78 -14.605 26.889 -0 -1.2 0
1.778 -15.07 26.649 -0 -1.2 0
1.777 -15.532 26.401 -0 -1.2 0
1.774 -15.988 26.145 -0 -1.2 0
1.772 -16.44 25.881 -0 -1.2 0
1.768 -16.888 25.609 -0 -1.2 0
1.764 -17.33 25.329 -0 -1.2 0
1.76 -17.768 25.042 -0 -1.2 0
1.754 -18.201 24.747 -0 -1.2 0
1.749 -18.628 24.444 -0 -1.2 0
1.742 -19.05 24.135 -0 -1.2 0
1.736 -19.467 23.817 -0 -1.2 0
1.729 -19.878 23.494 -0 -1.2 0
1.721 -20.283 23.162 -0 -1.2 0
1.713 -20.682 22.824 -0 -1.2 0
1.704 -21.076 22.478 -0 -1.2 0
1.695 -21.463 22.127 -0 -1.2 0
1.685 -21.845 21.768 -0 -1.2 0
2.688 -9.215 28.933 -0 -1.2 0
2.688 -9.717 28.787 -0 -1.2 0
2.687 -10.218 28.631 -0 -1.2 0
2.686 -10.715 28.467 -0 -1.2 0
2.648 -14.575 26.85 -0 -1.2 0
2.639 -15.041 26.611 -0 -1.2 0
2.629 -15.502 26.363 -0 -1.2 0
2.619 -15.959 26.108 -0 -1.2 0
2.608 -16.411 25.844 -0 -1.2 0
2.597 -16.859 25.573 -0 -1.2 0
2.585 -17.301 25.294 -0 -1.2 0
2.571 -17.74 25.007 -0 -1.2 0
2.558 -18.173 24.714 -0 -1.2 0
2.543 -18.601 24.412 -0 -1.2 0
2.528 -19.023 24.103 -0 -1.2 0
2.511 -19.44 23.787 -0 -1.2 0
2.495 -19.851 23.463 -0 -1.2 0
2.476 -20.257 23.133 -0 -1.2 0
2.459 -20.656 22.795 -0 -1.2 0
2.439 -21.05 22.451 -0 -1.2 0
2.419 -21.438 22.1 -0 -1.2 0
2.399 -21.82 21.742 -0 -1.2 0
3.451 -16.379 25.782 -0 -1.2 0
3.431 -16.827 25.512 -0 -1.2 0
3.411 -17.27 25.235 -0 -1.2 0
3.389 -17.709 24.949 -0 -1.2 0
3.366 -18.142 24.656 -0 -1.2 0
3.342 -18.57 24.355 -0 -1.2 0
3.316 -18.992 24.047 -0 -1.2 0
3.291 -19.41 23.732 -0 -1.2 0
3.264 -19.821 23.409 -0 -1.2 0
3.236 -20.227 23.08 -0 -1.2 0
3.207 -20.627 22.744 -0 -1.2 0
3.177 -21.022 22.4 -0 -1.2 0
3.147 -21.41 22.05 -0 -1.2 0
3.115 -21.793 21.694 -0 -1.2 0
4.355 -16.342 25.685 -0 -1.2 0
4.327 -16.791 25.416 -0 -1.2 0
4.297 -17.234 25.139 -0 -1.2 0
4.265 -17.673 24.856 -0 -1.2 0
4.233 -18.107 24.564 -0 -1.2 0
4.199 -18.535 24.265 -0 -1.2 0
4.165 -18.958 23.959 -0 -1.2 0
4.128 -19.376 23.645 -0 -1.2 0
4.091 -19.788 23.324 -0 -1.2 0
4.052 -20.195 22.997 -0 -1.2 0
4.011 -20.595 22.662 -0 -1.2 0
3.971 -20.99 22.32 -0 -1.2 0
3.928 -21.379 21.972 -0 -1.2 0
3.885 -21.762 21.617 -0 -1.2 0
5.193 -16.306 25.568 -0 -1.2 0
5.157 -16.756 25.301 -0 -1.2 0
5.118 -17.199 25.026 -0 -1.2 0
5.078 -17.639 24.744 -0 -1.2 0
5.037 -18.072 24.454 -0 -1.2 0
4.993 -18.501 24.156 -0 -1.2 0
4.949 -18.925 23.852 -0 -1.2 0
4.903 -19.343 23.54 -0 -1.2 0
4.856 -19.756 23.221 -0 -1.2 0
4.807 -20.162 22.896 -0 -1.2 0
4.758 -20.563 22.563 -0 -1.2 0
4.706 -20.959 22.224 -0 -1.2 0
4.652 -21.348 21.877 -0 -1.2 0
4.598 -21.731 21.524 -0 -1.2 0
6.055 -16.268 25.418 -0 -1.2 0
6.009 -16.717 25.153 -0 -1.2 0
5.963 -17.161 24.88 -0 -1.2 0
5.914 -17.601 24.6 -0 -1.2 0
5.863 -18.035 24.312 -0 -1.2 0
5.811 -18.465 24.016 -0 -1.2 0
5.757 -18.888 23.715 -0 -1.2 0
5.701 -19.307 23.405 -0 -1.2 0
5.643 -19.72 23.088 -0 -1.2 0
5.584 -20.127 22.765 -0 -1.2 0
5.524 -20.529 22.435 -0 -1.2 0
5.46 -20.925 22.097 -0 -1.2 0
5.397 -21.314 21.754 -0 -1.2 0
5.331 -21.699 21.403 -0 -1.2 0
6.996 -15.772 25.488 -0 -1.2 0
6.943 -16.226 25.233 -0 -1.2 0
6.888 -16.676 24.971 -0 -1.2 0
6.832 -17.12 24.701 -0 -1.2 0
6.773 -17.561 24.422 -0 -1.2 0
6.713 -17.996 24.138 -0 -1.2 0
6.65 -18.425 23.845 -0 -1.2 0
6.584 -18.85 23.546 -0 -1.2 0
6.517 -19.269 23.239 -0 -1.2 0
6.449 -19.683 22.925 -0 -1.2 0
6.378 -20.09 22.605 -0 -1.2 0
6.305 -20.492 22.278 -0 -1.2 0
6.231 -20.889 21.944 -0 -1.2 0
6.154 -21.279 21.603 -0 -1.2 0
6.076 -21.664 21.256 -0 -1.2 0
7.818 -15.736 25.286 -0 -1.2 0
7.756 -16.19 25.033 -0 -1.2 0
7.693 -16.64 24.774 -0 -1.2 0
7.627 -17.085 24.507 -0 -1.2 0
7.559 -17.526 24.231 -0 -1.2 0
7.489 -17.961 23.949 -0 -1.2 0
7.416 -18.391 23.66 -0 -1.2 0
7.341 -18.816 23.364 -0 -1.2 0
7.264 -19.236 23.06 -0 -1.2 0
7.184 -19.65 22.749 -0 -1.2 0
7.103 -20.058 22.432 -0 -1.2 0
7.02 -20.46 22.108 -0 -1.2 0
6.934 -20.857 21.777 -0 -1.2 0
6.845 -21.248 21.439 -0 -1.2 0
6.756 -21.633 21.096 -0 -1.2 0
8.628 -15.7 25.06 -0 -1.2 0
8.558 -16.154 24.81 -0 -1.2 0
8.485 -16.605 24.552 -0 -1.2 0
8.411 -17.05 24.288 -0 -1.2 0
8.334 -17.491 24.017 -0 -1.2 0
8.253 -17.927 23.737 -0 -1.2 0
8.172 -18.357 23.451 -0 -1.2 0
8.087 -18.783 23.158 -0 -1.2 0
7.999 -19.203 22.858 -0 -1.2 0
7.91 -19.617 22.551 -0 -1.2 0
7.818 -20.026 22.237 -0 -1.2 0
7.723 -20.429 21.916 -0 -1.2 0
7.627 -20.826 21.59 -0 -1.2 0
7.527 -21.218 21.256 -0 -1.2 0
7.426 -21.603 20.915 -0 -1.2 0
9.56 -15.201 25.026 -0 -1.2 0
9.485 -15.661 24.787 -0 -1.2 0
9.406 -16.116 24.542 -0 -1.2 0
9.325 -16.567 24.287 -0 -1.2 0
9.241 -17.012 24.027 -0 -1.2 0
9.154 -17.454 23.759 -0 -1.2 0
9.064 -17.89 23.483 -0 -1.2 0
8.972 -18.321 23.2 -0 -1.2 0
8.876 -18.747 22.911 -0 -1.2 0
8.778 -19.168 22.615 -0 -1.2 0
8.678 -19.582 22.312 -0 -1.2 0
8.575 -19.992 22.003 -0 -1.2 0
8.469 -20.395 21.686 -0 -1.2 0
8.36 -20.793 21.364 -0 -1.2 0
8.249 -21.185 21.035 -0 -1.2 0
8.136 -21.571 20.699 -0 -1.2 0
10.356 -15.167 24.743 -0 -1.2 0
10.272 -15.627 24.508 -0 -1.2 0
10.185 -16.082 24.265 -0 -1.2 0
10.095 -16.534 24.015 -0 -1.2 0
10.003 -16.979 23.757 -0 -1.2 0
9.907 -17.421 23.493 -0 -1.2 0
9.807 -17.858 23.221 -0 -1.2 0
9.705 -18.289 22.943 -0 -1.2 0
9.6 -18.715 22.658 -0 -1.2 0
9.493 -19.137 22.365 -0 -1.2 0
9.383 -19.552 22.067 -0 -1.2 0
9.269 -19.962 21.761 -0 -1.2 0
9.153 -20.366 21.449 -0 -1.2 0
9.033 -20.764 21.13 -0 -1.2 0
8.912 -21.156 20.806 -0 -1.2 0
8.788 -21.543 20.475 -0 -1.2 0
11.048 -15.594 24.203 -0 -1.2 0
10.952 -16.049 23.964 -0 -1.2 0
10.854 -16.501 23.718 -0 -1.2 0
10.752 -16.947 23.464 -0 -1.2 0
10.647 -17.39 23.204 -0 -1.2 0
10.54 -17.826 22.937 -0 -1.2 0
10.429 -18.259 22.662 -0 -1.2 0
10.315 -18.685 22.382 -0 -1.2 0
10.197 -19.106 22.094 -0 -1.2 0
10.076 -19.522 21.799 -0 -1.2 0
9.953 -19.932 21.498 -0 -1.2 0
9.827 -20.337 21.191 -0 -1.2 0
9.698 -20.735 20.877 -0 -1.2 0
9.565 -21.128 20.556 -0 -1.2 0
9.429 -21.515 20.231 -0 -1.2 0
11.782 -16.015 23.605 -0 -1.2 0
11.675 -16.467 23.363 -0 -1.2 0
11.563 -16.914 23.114 -0 -1.2 0
11.449 -17.356 22.859 -0 -1.2 0
11.332 -17.794 22.596 -0 -1.2 0
11.21 -18.226 22.327 -0 -1.2 0
11.086 -18.653 22.05 -0 -1.2 0
10.958 -19.075 21.768 -0 -1.2 0
10.827 -19.491 21.478 -0 -1.2 0
10.692 -19.901 21.182 -0 -1.2 0
10.555 -20.306 20.88 -0 -1.2 0
10.414 -20.705 20.572 -0 -1.2 0
10.27 -21.099 20.258 -0 -1.2 0
10.123 -21.486 19.938 -0 -1.2 0
12.323 -16.871 22.763 -0 -1.2 0
12.2 -17.315 22.512 -0 -1.2 0
12.073 -17.752 22.255 -0 -1.2 0
11.943 -18.185 21.99 -0 -1.2 0
11.809 -18.612 21.719 -0 -1.2 0
11.672 -19.035 21.442 -0 -1.2 0
11.531 -19.452 21.158 -0 -1.2 0
11.386 -19.863 20.868 -0 -1.2 0
11.238 -20.268 20.571 -0 -1.2 0
11.087 -20.668 20.269 -0 -1.2 0
10.932 -21.062 19.961 -0 -1.2 0
10.775 -21.45 19.646 -0 -1.2 0
12.664 -18.154 21.62 -0 -1.2 0
12.521 -18.581 21.355 -0 -1.2 0
12.374 -19.004 21.083 -0 -1.2 0
12.224 -19.421 20.805 -0 -1.2 0
12.069 -19.833 20.521 -0 -1.2 0
11.911 -20.239 20.23 -0 -1.2 0
11.749 -20.639 19.933 -0 -1.2 0
11.584 -21.033 19.632 -0 -1.2 0
11.415 -21.422 19.323 -0 -1.2 0
13.274 -18.563 20.924 -0 -1.2 0
13.115 -18.987 20.658 -0 -1.2 0
12.955 -19.404 20.386 -0 -1.2 0
12.789 -19.816 20.108 -0 -1.2 0
12.62 -20.222 19.825 -0 -1.2 0
12.447 -20.622 19.534 -0 -1.2 0
12.271 -21.017 19.239 -0 -1.2 0
12.09 -21.406 18.937 -0 -1.2 0
13.946 -18.547 20.504 -0 -1.2 0
13.78 -18.971 20.245 -0 -1.2 0
13.61 -19.388 19.979 -0 -1.2 0
13.435 -19.8 19.708 -0 -1.2 0
13.256 -20.207 19.43 -0 -1.2 0
13.073 -20.607 19.147 -0 -1.2 0
12.886 -21.002 18.858 -0 -1.2 0
12.696 -21.391 18.564 -0 -1.2 0
14.425 -18.957 19.812 -0 -1.2 0
14.246 -19.375 19.552 -0 -1.2 0
14.062 -19.787 19.287 -0 -1.2 0
13.874 -20.194 19.016 -0 -1.2 0
13.681 -20.594 18.74 -0 -1.2 0
13.484 -20.989 18.458 -0 -1.2 0
13.283 -21.379 18.171 -0 -1.2 0
14.915 -19.362 19.07 -0 -1.2 0
14.721 -19.774 18.813 -0 -1.2 0
14.523 -20.181 18.549 -0 -1.2 0
14.32 -20.582 18.28 -0 -1.2 0
14.113 -20.977 18.006 -0 -1.2 0
13.902 -21.366 17.726 -0 -1.2 0
15.11 -20.169 18.094 -0 -1.2 0
14.898 -20.57 17.833 -0 -1.2 0
14.682 -20.965 17.567 -0 -1.2 0
14.461 -21.355 17.294 -0 -1.2 0
15.474 -20.56 17.353 -0 -1.2 0
15.248 -20.955 17.094 -0 -1.2 0
15.017 -21.345 16.83 -0 -1.2 0
15.851 -20.937 16.564 -0 -1.2 0
15.611 -21.327 16.31 -0 -1.2 0
16.17 -21.292 15.806 -0 -1.2 0
16.712 -21.258 15.28 -0 -1.2 0
20.881 -21.75 -6.924 -0 -1.2 0
20.54 -22.127 -6.794 -0 -1.2 0
20.98 -21.392 -7.696 -0 -1.2 0
20.65 -21.775 -7.559 -0 -1.2 0
20.314 -22.151 -7.418 -0 -1.2 0
21.032 -21.034 -8.502 -0 -1.2 0
20.713 -21.422 -8.355 -0 -1.2 0
20.388 -21.804 -8.206 -0 -1.2 0
20.056 -22.181 -8.054 -0 -1.2 0
20.761 -21.061 -9.114 -0 -1.2 0
20.447 -21.449 -8.958 -0 -1.2 0
20.124 -21.831 -8.799 -0 -1.2 0
19.797 -22.207 -8.638 -0 -1.2 0
20.75 -20.698 -9.934 -0 -1.2 0
20.446 -21.091 -9.77 -0 -1.2 0
20.135 -21.479 -9.603 -0 -1.2 0
19.819 -21.86 -9.433 -0 -1.2 0
19.496 -22.235 -9.261 -0 -1.2 0
19.832 -21.505 -10.181 -0 -1.2 0
19.52 -21.886 -10.001 -0 -1.2 0
19.203 -22.26 -9.819 -0 -1.2 0
19.204 -21.911 -10.565 -0 -1.2 0
18.891 -22.285 -10.373 -0 -1.2 0
19.143 -21.559 -11.364 -0 -1.2 0
18.842 -21.939 -11.165 -0 -1.2 0
18.535 -22.313 -10.963 -0 -1.2 0
19.365 -20.802 -12.314 -0 -1.2 0
19.082 -21.193 -12.113 -0 -1.2 0
18.792 -21.579 -11.909 -0 -1.2 0
18.497 -21.958 -11.701 -0 -1.2 0
18.198 -22.332 -11.49 -0 -1.2 0
18.989 -20.813 -12.88 -0 -1.2 0
18.712 -21.204 -12.67 -0 -1.2 0
18.429 -21.59 -12.457 -0 -1.2 0
18.14 -21.969 -12.24 -0 -1.2 0
17.846 -22.342 -12.02 -0 -1.2 0
19.084 -20.026 -13.908 -0 -1.2 0
18.825 -20.429 -13.697 -0 -1.2 0
18.56 -20.826 -13.481 -0 -1.2 0
18.29 -21.218 -13.263 -0 -1.2 0
18.014 -21.603 -13.039 -0 -1.2 0
17.732 -21.982 -12.813 -0 -1.2 0
17.446 -22.355 -12.583 -0 -1.2 0
18.412 -20.439 -14.24 -0 -1.2 0
18.153 -20.836 -14.016 -0 -1.2 0
17.89 -21.227 -13.789 -0 -1.2 0
17.621 -21.612 -13.557 -0 -1.2 0
17.346 -21.991 -13.322 -0 -1.2 0
17.066 -22.364 -13.083 -0 -1.2 0
17.975 -20.451 -14.775 -0 -1.2 0
17.723 -20.848 -14.544 -0 -1.2 0
17.467 -21.239 -14.308 -0 -1.2 0
17.205 -21.624 -14.068 -0 -1.2 0
16.938 -22.002 -13.825 -0 -1.2 0
16.665 -22.375 -13.577 -0 -1.2 0
17.477 -20.465 -15.346 -0 -1.2 0
17.234 -20.862 -15.107 -0 -1.2 0
16.985 -21.252 -14.863 -0 -1.2 0
16.731 -21.637 -14.614 -0 -1.2 0
16.472 -22.016 -14.361 -0 -1.2 0
16.208 -22.388 -14.104 -0 -1.2 0
17.463 -19.666 -16.332 -0 -1.2 0
16.769 -20.874 -15.604 -0 -1.2 0
16.529 -21.264 -15.352 -0 -1.2 0
16.282 -21.649 -15.096 -0 -1.2 0
16.031 -22.027 -14.835 -0 -1.2 0
15.775 -22.399 -14.569 -0 -1.2 0
17.381 -18.845 -17.314 -0 -1.2 0
16.742 -20.086 -16.594 -0 -1.2 0
16.518 -20.489 -16.345 -0 -1.2 0
16.29 -20.885 -16.09 -0 -1.2 0
16.057 -21.275 -15.83 -0 -1.2 0
15.819 -21.659 -15.566 -0 -1.2 0
15.575 -22.037 -15.298 -0 -1.2 0
15.327 -22.409 -15.024 -0 -1.2 0
16.895 -18.841 -17.792 -0 -1.2 0
16.693 -19.26 -17.552 -0 -1.2 0
16.487 -19.673 -17.306 -0 -1.2 0
16.275 -20.082 -17.056 -0 -1.2 0
16.059 -20.484 -16.8 -0 -1.2 0
15.837 -20.88 -16.54 -0 -1.2 0
15.611 -21.271 -16.273 -0 -1.2 0
15.38 -21.655 -16.003 -0 -1.2 0
15.145 -22.033 -15.728 -0 -1.2 0
14.905 -22.405 -15.448 -0 -1.2 0
16.55 -18.409 -18.529 -0 -1.2 0
16.361 -18.834 -18.289 -0 -1.2 0
16.167 -19.253 -18.043 -0 -1.2 0
15.968 -19.667 -17.791 -0 -1.2 0
15.763 -20.075 -17.535 -0 -1.2 0
15.554 -20.478 -17.273 -0 -1.2 0
15.341 -20.874 -17.007 -0 -1.2 0
15.122 -21.265 -16.734 -0 -1.2 0
14.899 -21.649 -16.457 -0 -1.2 0
14.672 -22.027 -16.175 -0 -1.2 0
14.44 -22.4 -15.888 -0 -1.2 0
16.035 -18.401 -18.98 -0 -1.2 0
15.853 -18.826 -18.735 -0 -1.2 0
15.665 -19.245 -18.484 -0 -1.2 0
15.472 -19.659 -18.227 -0 -1.2 0
15.276 -20.067 -17.965 -0 -1.2 0
15.075 -20.47 -17.698 -0 -1.2 0
14.868 -20.866 -17.426 -0 -1.2 0
14.657 -21.257 -17.147 -0 -1.2 0
14.442 -21.641 -16.865 -0 -1.2 0
14.222 -22.02 -16.577 -0 -1.2 0
13.999 -22.392 -16.284 -0 -1.2 0
15.458 -18.395 -19.455 -0 -1.2 0
15.283 -18.819 -19.204 -0 -1.2 0
15.103 -19.239 -18.948 -0 -1.2 0
14.918 -19.653 -18.686 -0 -1.2 0
14.729 -20.061 -18.418 -0 -1.2 0
14.535 -20.464 -18.146 -0 -1.2 0
14.337 -20.861 -17.867 -0 -1.2 0
14.135 -21.251 -17.583 -0 -1.2 0
13.929 -21.636 -17.294 -0 -1.2 0
13.718 -22.014 -16.999 -0 -1.2 0
13.503 -22.387 -16.7 -0 -1.2 0
14.756 -18.806 -19.615 -0 -1.2 0
14.583 -19.226 -19.354 -0 -1.2 0
14.406 -19.64 -19.087 -0 -1.2 0
14.224 -20.049 -18.815 -0 -1.2 0
14.038 -20.452 -18.537 -0 -1.2 0
13.848 -20.849 -18.254 -0 -1.2 0
13.653 -21.239 -17.964 -0 -1.2 0
13.455 -21.624 -17.67 -0 -1.2 0
13.252 -22.003 -17.37 -0 -1.2 0
13.046 -22.376 -17.066 -0 -1.2 0
14.042 -19.217 -19.752 -0 -1.2 0
13.872 -19.631 -19.481 -0 -1.2 0
13.699 -20.04 -19.204 -0 -1.2 0
13.52 -20.443 -18.922 -0 -1.2 0
13.338 -20.839 -18.632 -0 -1.2 0
13.151 -21.23 -18.338 -0 -1.2 0
12.961 -21.615 -18.039 -0 -1.2 0
12.767 -21.994 -17.734 -0 -1.2 0
12.569 -22.367 -17.423 -0 -1.2 0
13.438 -19.208 -20.169 -0 -1.2 0
13.276 -19.622 -19.893 -0 -1.2 0
13.111 -20.031 -19.611 -0 -1.2 0
12.941 -20.434 -19.323 -0 -1.2 0
12.768 -20.832 -19.029 -0 -1.2 0
12.59 -21.223 -18.729 -0 -1.2 0
12.41 -21.608 -18.425 -0 -1.2 0
12.225 -21.987 -18.114 -0 -1.2 0
12.036 -22.36 -17.798 -0 -1.2 0
12.822 -19.258 -20.507 -0 -1.2 0
12.668 -19.672 -20.225 -0 -1.2 0
12.511 -20.08 -19.937 -0 -1.2 0
12.349 -20.482 -19.644 -0 -1.2 0
12.184 -20.879 -19.345 -0 -1.2 0
12.016 -21.269 -19.039 -0 -1.2 0
11.844 -21.653 -18.728 -0 -1.2 0
11.667 -22.032 -18.411 -0 -1.2 0
11.488 -22.404 -18.089 -0 -1.2 0
11.985 -19.704 -20.597 -0 -1.2 0
11.836 -20.112 -20.304 -0 -1.2 0
11.685 -20.514 -20.004 -0 -1.2 0
11.53 -20.91 -19.699 -0 -1.2 0
11.371 -21.299 -19.387 -0 -1.2 0
11.209 -21.683 -19.071 -0 -1.2 0
11.043 -22.061 -18.748 -0 -1.2 0
10.874 -22.433 -18.42 -0 -1.2 0
11.214 -19.726 -20.996 -0 -1.2 0
11.076 -20.134 -20.697 -0 -1.2 0
10.935 -20.535 -20.391 -0 -1.2 0
10.791 -20.931 -20.081 -0 -1.2 0
10.643 -21.32 -19.764 -0 -1.2 0
10.493 -21.704 -19.441 -0 -1.2 0
10.339 -22.081 -19.111 -0 -1.2 0
10.181 -22.453 -18.777 -0 -1.2 0
10.487 -19.746 -21.337 -0 -1.2 0
10.36 -20.153 -21.034 -0 -1.2 0
10.229 -20.554 -20.724 -0 -1.2 0
10.095 -20.95 -20.408 -0 -1.2 0
9.958 -21.339 -20.086 -0 -1.2 0
9.818 -21.722 -19.758 -0 -1.2 0
9.675 -22.099 -19.424 -0 -1.2 0
9.529 -22.47 -19.084 -0 -1.2 0
9.749 -19.764 -21.655 -0 -1.2 0
9.631 -20.171 -21.347 -0 -1.2 0
9.511 -20.572 -21.033 -0 -1.2 0
9.388 -20.967 -20.713 -0 -1.2 0
9.261 -21.356 -20.386 -0 -1.2 0
9.132 -21.739 -20.052 -0 -1.2 0
9 -22.116 -19.713 -0 -1.2 0
8.866 -22.487 -19.368 -0 -1.2 0
8.849 -20.191 -21.653 -0 -1.2 0
8.739 -20.592 -21.333 -0 -1.2 0
8.627 -20.987 -21.008 -0 -1.2 0
8.513 -21.375 -20.677 -0 -1.2 0
8.395 -21.758 -20.339 -0 -1.2 0
8.275 -22.134 -19.996 -0 -1.2 0
8.153 -22.505 -19.645 -0 -1.2 0
8.114 -20.209 -21.907 -0 -1.2 0
8.014 -20.609 -21.585 -0 -1.2 0
7.913 -21.004 -21.256 -0 -1.2 0
7.809 -21.392 -20.92 -0 -1.2 0
7.703 -21.774 -20.579 -0 -1.2 0
7.595 -22.151 -20.231 -0 -1.2 0
7.485 -22.521 -19.877 -0 -1.2 0
7.369 -20.226 -22.139 -0 -1.2 0
7.28 -20.626 -21.813 -0 -1.2 0
7.19 -21.02 -21.481 -0 -1.2 0
7.097 -21.409 -21.142 -0 -1.2 0
7.003 -21.791 -20.797 -0 -1.2 0
6.906 -22.167 -20.445 -0 -1.2 0
6.806 -22.537 -20.088 -0 -1.2 0
6.596 -20.252 -22.343 -0 -1.2 0
6.519 -20.652 -22.013 -0 -1.2 0
6.44 -21.046 -21.678 -0 -1.2 0
6.359 -21.434 -21.335 -0 -1.2 0
6.275 -21.815 -20.987 -0 -1.2 0
6.19 -22.191 -20.632 -0 -1.2 0
6.103 -22.56 -20.271 -0 -1.2 0
5.939 -20.288 -22.478 -0 -1.2 0
5.871 -20.687 -22.146 -0 -1.2 0
5.801 -21.08 -21.808 -0 -1.2 0
5.729 -21.468 -21.463 -0 -1.2 0
5.656 -21.849 -21.112 -0 -1.2 0
5.581 -22.224 -20.754 -0 -1.2 0
5.504 -22.593 -20.39 -0 -1.2 0
5.271 -20.322 -22.599 -0 -1.2 0
5.212 -20.721 -22.265 -0 -1.2 0
5.151 -21.113 -21.924 -0 -1.2 0
5.09 -21.5 -21.577 -0 -1.2 0
5.026 -21.881 -21.223 -0 -1.2 0
4.961 -22.255 -20.863 -0 -1.2 0
4.895 -22.624 -20.496 -0 -1.2 0
4.491 -20.755 -22.374 -0 -1.2 0
4.441 -21.148 -22.031 -0 -1.2 0
4.39 -21.534 -21.682 -0 -1.2 0
4.337 -21.914 -21.325 -0 -1.2 0
4.283 -22.288 -20.963 -0 -1.2 0
4.228 -22.656 -20.593 -0 -1.2 0
3.858 -20.787 -22.445 -0 -1.2 0
3.817 -21.179 -22.1 -0 -1.2 0
3.775 -21.565 -21.749 -0 -1.2 0
3.732 -21.944 -21.39 -0 -1.2 0
3.687 -22.318 -21.026 -0 -1.2 0
3.642 -22.685 -20.655 -0 -1.2 0
3.239 -20.818 -22.498 -0 -1.2 0
3.207 -21.209 -22.152 -0 -1.2 0
3.174 -21.594 -21.799 -0 -1.2 0
3.14 -21.973 -21.439 -0 -1.2 0
3.106 -22.346 -21.074 -0 -1.2 0
3.07 -22.713 -20.701 -0 -1.2 0
2.564 -20.849 -22.54 -0 -1.2 0
2.542 -21.24 -22.193 -0 -1.2 0
2.519 -21.625 -21.838 -0 -1.2 0
2.495 -22.003 -21.478 -0 -1.2 0
2.471 -22.376 -21.11 -0 -1.2 0
2.445 -22.742 -20.736 -0 -1.2 0
1.941 -20.857 -22.576 -0 -1.2 0
1.927 -21.248 -22.229 -0 -1.2 0
1.914 -21.632 -21.873 -0 -1.2 0
1.899 -22.011 -21.511 -0 -1.2 0
1.885 -22.383 -21.144 -0 -1.2 0
1.869 -22.75 -20.77 -0 -1.2 0
1.304 -21.212 -22.291 -0 -1.2 0
1.3 -21.597 -21.936 -0 -1.2 0
1.296 -21.977 -21.575 -0 -1.2 0
1.29 -22.349 -21.208 -0 -1.2 0
1.284 -22.716 -20.833 -0 -1.2 0
0.138 -0.138 -30.03 -0 -1.2 0
0.151 -0.662 -30.042 -0 -1.2 0
0.163 -1.185 -30.046 -0 -1.2 0
0.176 -1.708 -30.039 -0 -1.2 0
0.188 -2.231 -30.025 -0 -1.2 0
0.2 -2.753 -30 -0 -1.2 0
0.213 -3.277 -29.967 -0 -1.2 0
0.225 -3.798 -29.924 -0 -1.2 0
0.237 -4.319 -29.873 -0 -1.2 0
0.249 -4.838 -29.812 -0 -1.2 0
0.261 -5.358 -29.742 -0 -1.2 0
0.274 -5.875 -29.663 -0 -1.2 0
0.285 -6.392 -29.576 -0 -1.2 0
0.297 -6.906 -29.478 -0 -1.2 0
0.308 -7.418 -29.373 -0 -1.2 0
0.321 -7.929 -29.259 -0 -1.2 0
0.332 -8.438 -29.134 -0 -1.2 0
0.355 -9.448 -28.861 -0 -1.2 0
0.366 -9.95 -28.711 -0 -1.2 0
0.388 -10.944 -28.385 -0 -1.2 0
0.421 -12.414 -27.831 -0 -1.2 0
0.472 -14.792 -26.739 -0 -1.2 0
0.482 -15.255 -26.495 -0 -1.2 0
0.501 -16.17 -25.986 -0 -1.2 0
0.597 -20.841 -22.634 -0 -1.2 0
0.612 -21.617 -21.931 -0 -1.2 0
0.621 -21.996 -21.57 -0 -1.2 0
0.628 -22.368 -21.201 -0 -1.2 0
0.635 -22.735 -20.826 -0 -1.2 0
-0.763 -0.167 -30.002 -0 -1.2 0
-0.75 -0.692 -30.014 -0 -1.2 0
-0.737 -1.215 -30.017 -0 -1.2 0
-0.724 -1.737 -30.012 -0 -1.2 0
-0.71 -2.26 -29.996 -0 -1.2 0
-0.697 -2.782 -29.972 -0 -1.2 0
-0.682 -3.306 -29.938 -0 -1.2 0
-0.668 -3.827 -29.895 -0 -1.2 0
-0.654 -4.348 -29.844 -0 -1.2 0
-0.639 -4.867 -29.783 -0 -1.2 0
-0.625 -5.387 -29.713 -0 -1.2 0
-0.61 -5.904 -29.635 -0 -1.2 0
-0.564 -7.447 -29.343 -0 -1.2 0
-0.548 -7.957 -29.229 -0 -1.2 0
-0.516 -8.972 -28.973 -0 -1.2 0
-0.5 -9.476 -28.832 -0 -1.2 0
-0.484 -9.978 -28.682 -0 -1.2 0
-0.433 -11.465 -28.179 -0 -1.2 0
-0.399 -12.441 -27.801 -0 -1.2 0
-0.149 -18.821 -24.239 -0 -1.2 0
-0.13 -19.241 -23.926 -0 -1.2 0
-0.018 -21.638 -21.901 -0 -1.2 0
0 -22.016 -21.54 -0 -1.2 0
0.019 -22.388 -21.171 -0 -1.2 0
0.037 -22.754 -20.797 -0 -1.2 0
-1.529 -4.898 -29.729 -0 -1.2 0
-1.512 -5.417 -29.66 -0 -1.2 0
-1.494 -5.935 -29.581 -0 -1.2 0
-1.476 -6.451 -29.493 -0 -1.2 0
-1.456 -6.964 -29.396 -0 -1.2 0
-1.437 -7.477 -29.29 -0 -1.2 0
-1.417 -7.987 -29.176 -0 -1.2 0
-1.397 -8.496 -29.052 -0 -1.2 0
-1.355 -9.505 -28.778 -0 -1.2 0
-1.313 -10.505 -28.469 -0 -1.2 0
-1.124 -14.377 -26.892 -0 -1.2 0
-0.884 -18.421 -24.493 -0 -1.2 0
-0.77 -20.087 -23.23 -0 -1.2 0
-0.741 -20.489 -22.897 -0 -1.2 0
-0.653 -21.66 -21.853 -0 -1.2 0
-0.622 -22.038 -21.492 -0 -1.2 0
-0.592 -22.41 -21.125 -0 -1.2 0
-0.562 -22.775 -20.75 -0 -1.2 0
-2.484 -6.486 -29.401 -0 -1.2 0
-2.438 -7.512 -29.198 -0 -1.2 0
-2.281 -10.54 -28.379 -0 -1.2 0
-1.382 -21.685 -21.776 -0 -1.2 0
-1.34 -22.063 -21.415 -0 -1.2 0
-1.297 -22.434 -21.049 -0 -1.2 0
-1.253 -22.8 -20.676 -0 -1.2 0
-3.652 -0.273 -29.738 -0 -1.2 0
-3.639 -0.798 -29.75 -0 -1.2 0
-3.625 -1.321 -29.753 -0 -1.2 0
-3.609 -1.843 -29.746 -0 -1.2 0
-3.536 -3.932 -29.63 -0 -1.2 0
-3.515 -4.453 -29.578 -0 -1.2 0
-3.493 -4.972 -29.517 -0 -1.2 0
-3.47 -5.491 -29.447 -0 -1.2 0
-3.179 -10.576 -28.261 -0 -1.2 0
-2.878 -14.444 -26.691 -0 -1.2 0
-2.836 -14.911 -26.457 -0 -1.2 0
-2.705 -16.285 -25.708 -0 -1.2 0
-2.659 -16.734 -25.443 -0 -1.2 0
-2.269 -20.143 -23.047 -0 -1.2 0
-2.002 -22.09 -21.319 -0 -1.2 0
-1.947 -22.461 -20.954 -0 -1.2 0
-1.891 -22.826 -20.582 -0 -1.2 0
-2.73 -21.742 -21.558 -0 -1.2 0
-2.664 -22.119 -21.2 -0 -1.2 0
-2.597 -22.489 -20.837 -0 -1.2 0
-2.528 -22.853 -20.466 -0 -1.2 0
-5.423 -5.576 -29.103 -0 -1.2 0
-3.22 -22.884 -20.319 -0 -1.2 0
-6.605 -0.404 -29.173 -0 -1.2 0
-6.443 -4.582 -29.011 -0 -1.2 0
-6.384 -5.62 -28.881 -0 -1.2 0
-6.316 -6.652 -28.717 -0 -1.2 0
-6.279 -7.165 -28.621 -0 -1.2 0
-6.157 -8.694 -28.282 -0 -1.2 0
-4.351 -21.038 -21.914 -0 -1.2 0
-4.262 -21.425 -21.573 -0 -1.2 0
-4.173 -21.807 -21.226 -0 -1.2 0
-4.082 -22.182 -20.873 -0 -1.2 0
-3.989 -22.552 -20.513 -0 -1.2 0
-3.897 -22.915 -20.147 -0 -1.2 0
-7.564 -0.448 -28.924 -0 -1.2 0
-7.552 -0.972 -28.934 -0 -1.2 0
-7.537 -1.495 -28.936 -0 -1.2 0
-7.52 -2.017 -28.928 -0 -1.2 0
-7.5 -2.54 -28.912 -0 -1.2 0
-7.479 -3.062 -28.888 -0 -1.2 0
-7.455 -3.585 -28.854 -0 -1.2 0
-7.428 -4.105 -28.812 -0 -1.2 0
-7.4 -4.626 -28.76 -0 -1.2 0
-7.369 -5.145 -28.699 -0 -1.2 0
-7.336 -5.664 -28.631 -0 -1.2 0
-7.263 -6.695 -28.467 -0 -1.2 0
-7.224 -7.208 -28.371 -0 -1.2 0
-7.138 -8.229 -28.156 -0 -1.2 0
-6.992 -9.744 -27.766 -0 -1.2 0
-5.555 -19.045 -23.296 -0 -1.2 0
-5.372 -19.873 -22.682 -0 -1.2 0
-4.883 -21.839 -21.027 -0 -1.2 0
-4.78 -22.214 -20.675 -0 -1.2 0
-4.677 -22.583 -20.318 -0 -1.2 0
-4.572 -22.945 -19.955 -0 -1.2 0
-8.578 -1.017 -28.63 -0 -1.2 0
-8.564 -1.54 -28.632 -0 -1.2 0
-8.547 -2.062 -28.624 -0 -1.2 0
-8.527 -2.585 -28.608 -0 -1.2 0
-8.505 -3.107 -28.582 -0 -1.2 0
-8.479 -3.63 -28.548 -0 -1.2 0
-8.452 -4.15 -28.506 -0 -1.2 0
-8.422 -4.671 -28.454 -0 -1.2 0
-8.389 -5.189 -28.394 -0 -1.2 0
-8.316 -6.225 -28.249 -0 -1.2 0
-8.276 -6.74 -28.163 -0 -1.2 0
-8.14 -8.273 -27.853 -0 -1.2 0
-8.037 -9.285 -27.604 -0 -1.2 0
-7.864 -10.784 -27.168 -0 -1.2 0
-6.083 -20.313 -22.111 -0 -1.2 0
-5.975 -20.712 -21.789 -0 -1.2 0
-5.755 -21.492 -21.127 -0 -1.2 0
-5.528 -22.247 -20.438 -0 -1.2 0
-5.412 -22.615 -20.083 -0 -1.2 0
-5.294 -22.977 -19.723 -0 -1.2 0
-9.516 -1.059 -28.314 -0 -1.2 0
-9.501 -1.582 -28.315 -0 -1.2 0
-9.484 -2.104 -28.308 -0 -1.2 0
-9.464 -2.627 -28.29 -0 -1.2 0
-9.442 -3.149 -28.265 -0 -1.2 0
-9.416 -3.672 -28.232 -0 -1.2 0
-9.387 -4.192 -28.189 -0 -1.2 0
-9.244 -6.266 -27.934 -0 -1.2 0
-9.201 -6.781 -27.848 -0 -1.2 0
-9.107 -7.805 -27.652 -0 -1.2 0
-9.056 -8.314 -27.54 -0 -1.2 0
-8.147 -14.678 -25.347 -0 -1.2 0
-6.933 -19.941 -22.161 -0 -1.2 0
-6.459 -21.523 -20.873 -0 -1.2 0
-6.336 -21.903 -20.535 -0 -1.2 0
-6.21 -22.277 -20.191 -0 -1.2 0
-6.083 -22.645 -19.84 -0 -1.2 0
-5.953 -23.006 -19.484 -0 -1.2 0
-10.438 -1.099 -27.972 -0 -1.2 0
-10.423 -1.622 -27.972 -0 -1.2 0
-10.407 -2.145 -27.964 -0 -1.2 0
-10.307 -4.233 -27.846 -0 -1.2 0
-10.274 -4.753 -27.795 -0 -1.2 0
-10.238 -5.272 -27.736 -0 -1.2 0
-10.198 -5.79 -27.668 -0 -1.2 0
-10.012 -7.845 -27.312 -0 -1.2 0
-9.957 -8.354 -27.201 -0 -1.2 0
-9.839 -9.365 -26.956 -0 -1.2 0
-8.687 -16.095 -24.339 -0 -1.2 0
-8.145 -18.302 -23.04 -0 -1.2 0
-7.911 -19.148 -22.471 -0 -1.2 0
-7.667 -19.973 -21.874 -0 -1.2 0
-7.414 -20.775 -21.251 -0 -1.2 0
-7.284 -21.167 -20.928 -0 -1.2 0
-7.152 -21.553 -20.6 -0 -1.2 0
-7.017 -21.933 -20.266 -0 -1.2 0
-6.881 -22.306 -19.925 -0 -1.2 0
-6.742 -22.673 -19.579 -0 -1.2 0
-6.601 -23.034 -19.225 -0 -1.2 0
-11.081 -6.862 -27.107 -0 -1.2 0
-11.029 -7.374 -27.015 -0 -1.2 0
-10.975 -7.885 -26.913 -0 -1.2 0
-10.335 -12.372 -25.641 -0 -1.2 0
-9.209 -17.469 -23.227 -0 -1.2 0
-8.967 -18.336 -22.692 -0 -1.2 0
-8.841 -18.761 -22.415 -0 -1.2 0
-8.713 -19.182 -22.129 -0 -1.2 0
-8.313 -20.409 -21.236 -0 -1.2 0
-8.174 -20.807 -20.924 -0 -1.2 0
-8.034 -21.199 -20.607 -0 -1.2 0
-7.89 -21.584 -20.283 -0 -1.2 0
-7.745 -21.963 -19.952 -0 -1.2 0
-7.596 -22.336 -19.617 -0 -1.2 0
-7.446 -22.703 -19.274 -0 -1.2 0
-7.293 -23.063 -18.926 -0 -1.2 0
-12.318 -1.181 -27.165 -0 -1.2 0
-12.304 -1.704 -27.165 -0 -1.2 0
-12.287 -2.226 -27.156 -0 -1.2 0
-12.266 -2.749 -27.139 -0 -1.2 0
-12.242 -3.271 -27.113 -0 -1.2 0
-12.214 -3.793 -27.079 -0 -1.2 0
-12.182 -4.313 -27.037 -0 -1.2 0
-12.147 -4.833 -26.988 -0 -1.2 0
-11.967 -6.901 -26.703 -0 -1.2 0
-11.73 -8.939 -26.288 -0 -1.2 0
-11.589 -9.945 -26.032 -0 -1.2 0
-11.513 -10.444 -25.892 -0 -1.2 0
-11.352 -11.433 -25.588 -0 -1.2 0
-11.266 -11.923 -25.424 -0 -1.2 0
-10.68 -14.787 -24.281 -0 -1.2 0
-10.457 -15.71 -23.839 -0 -1.2 0
-10.341 -16.166 -23.607 -0 -1.2 0
-10.223 -16.616 -23.368 -0 -1.2 0
-10.101 -17.062 -23.122 -0 -1.2 0
-9.976 -17.503 -22.868 -0 -1.2 0
-9.847 -17.938 -22.608 -0 -1.2 0
-9.716 -18.369 -22.34 -0 -1.2 0
-9.582 -18.794 -22.066 -0 -1.2 0
-9.446 -19.214 -21.786 -0 -1.2 0
-9.163 -20.037 -21.203 -0 -1.2 0
-9.017 -20.44 -20.902 -0 -1.2 0
-8.869 -20.838 -20.596 -0 -1.2 0
-8.718 -21.229 -20.282 -0 -1.2 0
-8.564 -21.614 -19.962 -0 -1.2 0
-8.408 -21.992 -19.636 -0 -1.2 0
-8.249 -22.365 -19.304 -0 -1.2 0
-8.088 -22.731 -18.966 -0 -1.2 0
-7.924 -23.091 -18.622 -0 -1.2 0
-13.223 -1.23 -26.72 -0 -1.2 0
-13.21 -1.753 -26.72 -0 -1.2 0
-13.192 -2.275 -26.71 -0 -1.2 0
-13.171 -2.798 -26.693 -0 -1.2 0
-13.146 -3.32 -26.667 -0 -1.2 0
-13.117 -3.842 -26.633 -0 -1.2 0
-13.084 -4.363 -26.591 -0 -1.2 0
-13.047 -4.882 -26.541 -0 -1.2 0
-13.006 -5.401 -26.483 -0 -1.2 0
-12.961 -5.919 -26.416 -0 -1.2 0
-12.912 -6.435 -26.342 -0 -1.2 0
-12.859 -6.949 -26.259 -0 -1.2 0
-12.459 -9.992 -25.595 -0 -1.2 0
-12.117 -11.969 -24.994 -0 -1.2 0
-11.822 -13.417 -24.463 -0 -1.2 0
-11.716 -13.892 -24.271 -0 -1.2 0
-11.607 -14.364 -24.072 -0 -1.2 0
-11.494 -14.831 -23.865 -0 -1.2 0
-11.378 -15.295 -23.65 -0 -1.2 0
-11.257 -15.753 -23.429 -0 -1.2 0
-11.134 -16.209 -23.2 -0 -1.2 0
-11.007 -16.658 -22.965 -0 -1.2 0
-10.878 -17.104 -22.721 -0 -1.2 0
-10.744 -17.544 -22.471 -0 -1.2 0
-10.607 -17.979 -22.214 -0 -1.2 0
-10.468 -18.41 -21.951 -0 -1.2 0
-10.325 -18.834 -21.68 -0 -1.2 0
-10.179 -19.254 -21.403 -0 -1.2 0
-10.029 -19.668 -21.119 -0 -1.2 0
-9.877 -20.076 -20.83 -0 -1.2 0
-9.721 -20.478 -20.533 -0 -1.2 0
-9.563 -20.875 -20.229 -0 -1.2 0
-9.402 -21.266 -19.921 -0 -1.2 0
-9.239 -21.65 -19.606 -0 -1.2 0
-9.071 -22.028 -19.284 -0 -1.2 0
-8.902 -22.4 -18.957 -0 -1.2 0
-8.73 -22.766 -18.623 -0 -1.2 0
-8.555 -23.125 -18.285 -0 -1.2 0
-14.201 -1.272 -26.201 -0 -1.2 0
-14.189 -1.795 -26.2 -0 -1.2 0
-14.172 -2.318 -26.19 -0 -1.2 0
-14.15 -2.84 -26.172 -0 -1.2 0
-14.124 -3.362 -26.147 -0 -1.2 0
-14.094 -3.884 -26.112 -0 -1.2 0
-14.059 -4.404 -26.071 -0 -1.2 0
-14.021 -4.924 -26.021 -0 -1.2 0
-13.978 -5.443 -25.964 -0 -1.2 0
-13.931 -5.961 -25.898 -0 -1.2 0
-13.824 -6.991 -25.742 -0 -1.2 0
-13.764 -7.503 -25.653 -0 -1.2 0
-12.613 -13.93 -23.785 -0 -1.2 0
-12.497 -14.402 -23.589 -0 -1.2 0
-12.376 -14.869 -23.385 -0 -1.2 0
-12.253 -15.332 -23.174 -0 -1.2 0
-12.125 -15.791 -22.956 -0 -1.2 0
-11.994 -16.245 -22.731 -0 -1.2 0
-11.859 -16.695 -22.499 -0 -1.2 0
-11.721 -17.14 -22.26 -0 -1.2 0
-11.578 -17.58 -22.014 -0 -1.2 0
-11.432 -18.014 -21.762 -0 -1.2 0
-11.284 -18.444 -21.503 -0 -1.2 0
-11.131 -18.868 -21.237 -0 -1.2 0
-10.974 -19.288 -20.964 -0 -1.2 0
-10.816 -19.701 -20.685 -0 -1.2 0
-10.653 -20.109 -20.401 -0 -1.2 0
-10.487 -20.511 -20.11 -0 -1.2 0
-10.318 -20.907 -19.811 -0 -1.2 0
-10.146 -21.297 -19.507 -0 -1.2 0
-9.971 -21.681 -19.198 -0 -1.2 0
-9.792 -22.059 -18.883 -0 -1.2 0
-9.611 -22.43 -18.561 -0 -1.2 0
-9.426 -22.795 -18.234 -0 -1.2 0
-9.239 -23.154 -17.9 -0 -1.2 0
-15.108 -0.77 -25.673 -0 -1.2 0
-15.101 -1.294 -25.679 -0 -1.2 0
-15.089 -1.817 -25.678 -0 -1.2 0
-15.071 -2.34 -25.668 -0 -1.2 0
-15.05 -2.862 -25.651 -0 -1.2 0
-15.024 -3.384 -25.625 -0 -1.2 0
-14.992 -3.906 -25.591 -0 -1.2 0
-14.957 -4.426 -25.55 -0 -1.2 0
-14.918 -4.946 -25.501 -0 -1.2 0
-14.873 -5.465 -25.444 -0 -1.2 0
-14.824 -5.983 -25.379 -0 -1.2 0
-14.771 -6.498 -25.307 -0 -1.2 0
-14.713 -7.013 -25.226 -0 -1.2 0
-14.65 -7.525 -25.138 -0 -1.2 0
-13.318 -14.423 -23.109 -0 -1.2 0
-13.192 -14.889 -22.909 -0 -1.2 0
-13.061 -15.352 -22.702 -0 -1.2 0
-12.927 -15.81 -22.488 -0 -1.2 0
-12.787 -16.265 -22.268 -0 -1.2 0
-12.645 -16.714 -22.04 -0 -1.2 0
-12.499 -17.159 -21.804 -0 -1.2 0
-12.349 -17.599 -21.564 -0 -1.2 0
-12.195 -18.033 -21.316 -0 -1.2 0
-12.038 -18.463 -21.061 -0 -1.2 0
-11.876 -18.887 -20.8 -0 -1.2 0
-11.711 -19.306 -20.533 -0 -1.2 0
-11.543 -19.719 -20.259 -0 -1.2 0
-11.371 -20.127 -19.979 -0 -1.2 0
-11.195 -20.528 -19.693 -0 -1.2 0
-11.017 -20.924 -19.401 -0 -1.2 0
-10.835 -21.314 -19.103 -0 -1.2 0
-10.65 -21.698 -18.799 -0 -1.2 0
-10.461 -22.075 -18.488 -0 -1.2 0
-10.268 -22.446 -18.173 -0 -1.2 0
-10.074 -22.811 -17.851 -0 -1.2 0
-9.875 -23.17 -17.525 -0 -1.2 0
-15.934 -1.313 -25.053 -0 -1.2 0
-15.777 -2.345 -24.839 -0 -1.2 0
-15.761 -2.862 -24.83 -0 -1.2 0
-15.745 -3.381 -24.822 -0 -1.2 0
-15.724 -3.899 -24.806 -0 -1.2 0
-15.715 -4.42 -24.807 -0 -1.2 0
-15.695 -4.942 -24.794 -0 -1.2 0
-15.686 -5.467 -24.796 -0 -1.2 0
-15.672 -5.993 -24.791 -0 -1.2 0
-15.642 -6.518 -24.762 -0 -1.2 0
-15.582 -7.032 -24.683 -0 -1.2 0
-14.122 -14.44 -22.605 -0 -1.2 0
-13.989 -14.907 -22.409 -0 -1.2 0
-13.853 -15.37 -22.205 -0 -1.2 0
-13.711 -15.828 -21.996 -0 -1.2 0
-13.565 -16.282 -21.779 -0 -1.2 0
-13.415 -16.731 -21.555 -0 -1.2 0
-13.262 -17.176 -21.326 -0 -1.2 0
-13.104 -17.615 -21.089 -0 -1.2 0
-12.942 -18.049 -20.846 -0 -1.2 0
-12.776 -18.479 -20.597 -0 -1.2 0
-12.606 -18.903 -20.341 -0 -1.2 0
-12.432 -19.322 -20.078 -0 -1.2 0
-12.255 -19.735 -19.81 -0 -1.2 0
-12.074 -20.142 -19.535 -0 -1.2 0
-11.889 -20.543 -19.255 -0 -1.2 0
-11.701 -20.939 -18.969 -0 -1.2 0
-11.509 -21.329 -18.676 -0 -1.2 0
-11.313 -21.712 -18.378 -0 -1.2 0
-11.114 -22.09 -18.075 -0 -1.2 0
-10.912 -22.46 -17.765 -0 -1.2 0
-10.707 -22.825 -17.45 -0 -1.2 0
-10.497 -23.183 -17.13 -0 -1.2 0
-14.956 -14.459 -22.042 -0 -1.2 0
-14.817 -14.925 -21.851 -0 -1.2 0
-14.672 -15.388 -21.652 -0 -1.2 0
-14.525 -15.846 -21.446 -0 -1.2 0
-14.371 -16.3 -21.235 -0 -1.2 0
-14.213 -16.749 -21.016 -0 -1.2 0
-14.052 -17.193 -20.791 -0 -1.2 0
-13.886 -17.633 -20.56 -0 -1.2 0
-13.716 -18.066 -20.323 -0 -1.2 0
-13.541 -18.496 -20.079 -0 -1.2 0
-13.363 -18.919 -19.828 -0 -1.2 0
-13.18 -19.338 -19.572 -0 -1.2 0
-12.994 -19.751 -19.31 -0 -1.2 0
-12.803 -20.158 -19.041 -0 -1.2 0
-12.609 -20.559 -18.767 -0 -1.2 0
-12.41 -20.955 -18.487 -0 -1.2 0
-12.208 -21.344 -18.202 -0 -1.2 0
-12.002 -21.728 -17.91 -0 -1.2 0
-11.793 -22.105 -17.613 -0 -1.2 0
-11.58 -22.475 -17.311 -0 -1.2 0
-11.363 -22.839 -17.003 -0 -1.2 0
-11.143 -23.197 -16.69 -0 -1.2 0
-16.903 -7.989 -22.961 -0 -1.2 0
-16.881 -8.514 -22.943 -0 -1.2 0
-15.852 -14.003 -21.671 -0 -1.2 0
-15.712 -14.475 -21.49 -0 -1.2 0
-15.566 -14.941 -21.302 -0 -1.2 0
-15.416 -15.404 -21.109 -0 -1.2 0
-15.26 -15.861 -20.908 -0 -1.2 0
-15.1 -16.315 -20.7 -0 -1.2 0
-14.936 -16.764 -20.487 -0 -1.2 0
-14.767 -17.208 -20.267 -0 -1.2 0
-14.594 -17.647 -20.041 -0 -1.2 0
-14.417 -18.081 -19.809 -0 -1.2 0
-14.234 -18.511 -19.57 -0 -1.2 0
-14.048 -18.934 -19.325 -0 -1.2 0
-13.856 -19.353 -19.075 -0 -1.2 0
-13.662 -19.765 -18.818 -0 -1.2 0
-13.463 -20.172 -18.556 -0 -1.2 0
-13.26 -20.573 -18.288 -0 -1.2 0
-13.052 -20.969 -18.014 -0 -1.2 0
-12.841 -21.358 -17.734 -0 -1.2 0
-12.626 -21.741 -17.45 -0 -1.2 0
-12.406 -22.117 -17.159 -0 -1.2 0
-12.184 -22.488 -16.864 -0 -1.2 0
-11.957 -22.852 -16.563 -0 -1.2 0
-11.727 -23.21 -16.257 -0 -1.2 0
-18.531 -0.319 -23.272 -0 -1.2 0
-18.526 -1.366 -23.287 -0 -1.2 0
-18.435 -1.886 -23.182 -0 -1.2 0
-18.443 -2.408 -23.203 -0 -1.2 0
-18.476 -2.934 -23.257 -0 -1.2 0
-18.448 -3.456 -23.233 -0 -1.2 0
-18.415 -3.978 -23.201 -0 -1.2 0
-18.375 -4.499 -23.162 -0 -1.2 0
-18.331 -5.018 -23.116 -0 -1.2 0
-17.863 -8.614 -22.595 -0 -1.2 0
-17.128 -12.098 -21.733 -0 -1.2 0
-17.003 -12.582 -21.582 -0 -1.2 0
-16.871 -13.065 -21.425 -0 -1.2 0
-16.734 -13.543 -21.262 -0 -1.2 0
-16.593 -14.017 -21.092 -0 -1.2 0
-16.447 -14.488 -20.915 -0 -1.2 0
-16.296 -14.954 -20.731 -0 -1.2 0
-16.138 -15.417 -20.541 -0 -1.2 0
-15.977 -15.874 -20.346 -0 -1.2 0
-15.812 -16.328 -20.143 -0 -1.2 0
-15.64 -16.777 -19.935 -0 -1.2 0
-15.464 -17.221 -19.72 -0 -1.2 0
-15.284 -17.66 -19.499 -0 -1.2 0
-15.099 -18.094 -19.273 -0 -1.2 0
-14.909 -18.523 -19.04 -0 -1.2 0
-14.715 -18.946 -18.8 -0 -1.2 0
-14.516 -19.365 -18.556 -0 -1.2 0
-14.313 -19.777 -18.306 -0 -1.2 0
-14.105 -20.184 -18.049 -0 -1.2 0
-13.893 -20.585 -17.788 -0 -1.2 0
-13.677 -20.98 -17.521 -0 -1.2 0
-13.457 -21.369 -17.248 -0 -1.2 0
-13.233 -21.752 -16.971 -0 -1.2 0
-13.005 -22.128 -16.687 -0 -1.2 0
-12.772 -22.498 -16.399 -0 -1.2 0
-12.536 -22.862 -16.105 -0 -1.2 0
-12.297 -23.22 -15.808 -0 -1.2 0
-19.378 -0.857 -22.578 -0 -1.2 0
-19.374 -1.382 -22.582 -0 -1.2 0
-19.362 -1.905 -22.579 -0 -1.2 0
-19.346 -2.427 -22.569 -0 -1.2 0
-19.323 -2.95 -22.551 -0 -1.2 0
-19.296 -3.472 -22.527 -0 -1.2 0
-19.261 -3.994 -22.496 -0 -1.2 0
-19.175 -5.034 -22.413 -0 -1.2 0
-19.124 -5.552 -22.36 -0 -1.2 0
-19.066 -6.07 -22.302 -0 -1.2 0
-18.933 -7.099 -22.163 -0 -1.2 0
-18.778 -8.121 -21.998 -0 -1.2 0
-18.692 -8.629 -21.905 -0 -1.2 0
-18.398 -10.138 -21.585 -0 -1.2 0
-17.929 -12.112 -21.064 -0 -1.2 0
-17.798 -12.597 -20.918 -0 -1.2 0
-17.662 -13.079 -20.764 -0 -1.2 0
-17.52 -13.557 -20.605 -0 -1.2 0
-17.373 -14.031 -20.44 -0 -1.2 0
-17.221 -14.502 -20.267 -0 -1.2 0
-17.064 -14.968 -20.09 -0 -1.2 0
-16.9 -15.431 -19.905 -0 -1.2 0
-16.732 -15.888 -19.714 -0 -1.2 0
-16.56 -16.342 -19.517 -0 -1.2 0
-16.382 -16.79 -19.315 -0 -1.2 0
-16.198 -17.235 -19.106 -0 -1.2 0
-16.011 -17.673 -18.891 -0 -1.2 0
-15.817 -18.107 -18.67 -0 -1.2 0
-15.619 -18.536 -18.444 -0 -1.2 0
-15.417 -18.959 -18.212 -0 -1.2 0
-15.21 -19.377 -17.974 -0 -1.2 0
-14.999 -19.789 -17.73 -0 -1.2 0
-14.782 -20.196 -17.482 -0 -1.2 0
-14.561 -20.597 -17.227 -0 -1.2 0
-14.336 -20.992 -16.968 -0 -1.2 0
-14.106 -21.381 -16.703 -0 -1.2 0
-13.873 -21.763 -16.433 -0 -1.2 0
-13.634 -22.14 -16.158 -0 -1.2 0
-13.392 -22.51 -15.878 -0 -1.2 0
-13.146 -22.873 -15.592 -0 -1.2 0
-12.896 -23.231 -15.302 -0 -1.2 0
-20.163 -0.881 -21.873 -0 -1.2 0
-20.159 -1.405 -21.876 -0 -1.2 0
-20.148 -1.928 -21.872 -0 -1.2 0
-20.132 -2.451 -21.862 -0 -1.2 0
-20.109 -2.973 -21.845 -0 -1.2 0
-20.08 -3.495 -21.821 -0 -1.2 0
-20.044 -4.017 -21.79 -0 -1.2 0
-19.957 -5.057 -21.709 -0 -1.2 0
-19.844 -6.093 -21.6 -0 -1.2 0
-19.778 -6.608 -21.535 -0 -1.2 0
-19.706 -7.122 -21.465 -0 -1.2 0
-19.63 -7.634 -21.387 -0 -1.2 0
-19.546 -8.144 -21.303 -0 -1.2 0
-19.456 -8.652 -21.212 -0 -1.2 0
-19.154 -10.161 -20.9 -0 -1.2 0
-18.798 -11.645 -20.529 -0 -1.2 0
-18.531 -12.619 -20.252 -0 -1.2 0
-18.39 -13.101 -20.102 -0 -1.2 0
-18.243 -13.579 -19.947 -0 -1.2 0
-18.091 -14.052 -19.786 -0 -1.2 0
-17.933 -14.523 -19.619 -0 -1.2 0
-17.769 -14.989 -19.446 -0 -1.2 0
-17.6 -15.451 -19.266 -0 -1.2 0
-17.425 -15.908 -19.081 -0 -1.2 0
-17.246 -16.362 -18.889 -0 -1.2 0
-17.061 -16.81 -18.692 -0 -1.2 0
-16.871 -17.254 -18.489 -0 -1.2 0
-16.676 -17.693 -18.28 -0 -1.2 0
-16.476 -18.126 -18.066 -0 -1.2 0
-16.27 -18.555 -17.846 -0 -1.2 0
-16.06 -18.978 -17.621 -0 -1.2 0
-15.845 -19.396 -17.389 -0 -1.2 0
-15.625 -19.808 -17.153 -0 -1.2 0
-15.401 -20.214 -16.911 -0 -1.2 0
-15.172 -20.615 -16.664 -0 -1.2 0
-14.937 -21.009 -16.412 -0 -1.2 0
-14.699 -21.398 -16.155 -0 -1.2 0
-14.456 -21.78 -15.892 -0 -1.2 0
-14.208 -22.156 -15.625 -0 -1.2 0
-13.957 -22.526 -15.353 -0 -1.2 0
-13.701 -22.89 -15.075 -0 -1.2 0
-13.441 -23.247 -14.794 -0 -1.2 0
-20.716 -5.104 -20.972 -0 -1.2 0
-20.66 -5.622 -20.921 -0 -1.2 0
-20.531 -6.655 -20.802 -0 -1.2 0
-20.289 -8.191 -20.575 -0 -1.2 0
-20.197 -8.698 -20.486 -0 -1.2 0
-19.993 -9.706 -20.29 -0 -1.2 0
-19.765 -10.704 -20.069 -0 -1.2 0
-19.641 -11.199 -19.949 -0 -1.2 0
-19.236 -12.663 -19.552 -0 -1.2 0
-19.09 -13.145 -19.407 -0 -1.2 0
-18.937 -13.622 -19.257 -0 -1.2 0
-18.779 -14.096 -19.1 -0 -1.2 0
-18.615 -14.566 -18.938 -0 -1.2 0
-18.445 -15.032 -18.769 -0 -1.2 0
-18.27 -15.494 -18.595 -0 -1.2 0
-18.089 -15.95 -18.415 -0 -1.2 0
-17.902 -16.404 -18.23 -0 -1.2 0
-17.71 -16.851 -18.038 -0 -1.2 0
-17.513 -17.295 -17.841 -0 -1.2 0
-17.311 -17.733 -17.639 -0 -1.2 0
-17.103 -18.166 -17.43 -0 -1.2 0
-16.889 -18.594 -17.217 -0 -1.2 0
-16.671 -19.016 -16.998 -0 -1.2 0
-16.448 -19.434 -16.774 -0 -1.2 0
-16.22 -19.845 -16.545 -0 -1.2 0
-15.987 -20.252 -16.31 -0 -1.2 0
-15.749 -20.651 -16.071 -0 -1.2 0
-15.506 -21.046 -15.826 -0 -1.2 0
-15.259 -21.434 -15.577 -0 -1.2 0
-15.006 -21.815 -15.322 -0 -1.2 0
-14.75 -22.191 -15.063 -0 -1.2 0
-14.488 -22.56 -14.799 -0 -1.2 0
-14.222 -22.923 -14.531 -0 -1.2 0
-13.952 -23.279 -14.258 -0 -1.2 0
-21.669 -3.069 -20.282 -0 -1.2 0
-21.638 -3.591 -20.259 -0 -1.2 0
-21.599 -4.113 -20.229 -0 -1.2 0
-21.556 -4.633 -20.192 -0 -1.2 0
-21.505 -5.153 -20.15 -0 -1.2 0
-20.256 -11.736 -19.035 -0 -1.2 0
-20.116 -12.224 -18.907 -0 -1.2 0
-19.97 -12.708 -18.773 -0 -1.2 0
-19.817 -13.19 -18.633 -0 -1.2 0
-19.659 -13.667 -18.488 -0 -1.2 0
-19.494 -14.139 -18.337 -0 -1.2 0
-19.324 -14.61 -18.179 -0 -1.2 0
-19.148 -15.075 -18.016 -0 -1.2 0
-18.966 -15.536 -17.848 -0 -1.2 0
-18.779 -15.993 -17.674 -0 -1.2 0
-18.585 -16.445 -17.495 -0 -1.2 0
-18.386 -16.893 -17.31 -0 -1.2 0
-18.181 -17.336 -17.12 -0 -1.2 0
-17.971 -17.774 -16.924 -0 -1.2 0
-17.756 -18.206 -16.723 -0 -1.2 0
-17.534 -18.634 -16.517 -0 -1.2 0
-17.308 -19.055 -16.306 -0 -1.2 0
-17.076 -19.473 -16.09 -0 -1.2 0
-16.839 -19.884 -15.868 -0 -1.2 0
-16.596 -20.289 -15.642 -0 -1.2 0
-16.349 -20.688 -15.411 -0 -1.2 0
-16.098 -21.082 -15.174 -0 -1.2 0
-15.841 -21.47 -14.934 -0 -1.2 0
-15.579 -21.851 -14.688 -0 -1.2 0
-15.312 -22.226 -14.439 -0 -1.2 0
-15.041 -22.594 -14.184 -0 -1.2 0
-14.765 -22.956 -13.925 -0 -1.2 0
-14.485 -23.312 -13.662 -0 -1.2 0
-22.416 -2.597 -19.492 -0 -1.2 0
-22.391 -3.119 -19.474 -0 -1.2 0
-22.359 -3.641 -19.45 -0 -1.2 0
-22.32 -4.163 -19.421 -0 -1.2 0
-22.161 -5.72 -19.296 -0 -1.2 0
-22.095 -6.237 -19.242 -0 -1.2 0
-22.022 -6.752 -19.183 -0 -1.2 0
-21.943 -7.265 -19.117 -0 -1.2 0
-21.763 -8.286 -18.968 -0 -1.2 0
-21.664 -8.793 -18.884 -0 -1.2 0
-21.201 -10.798 -18.493 -0 -1.2 0
-21.068 -11.291 -18.38 -0 -1.2 0
-20.929 -11.782 -18.262 -0 -1.2 0
-20.784 -12.27 -18.137 -0 -1.2 0
-20.633 -12.754 -18.008 -0 -1.2 0
-20.476 -13.235 -17.873 -0 -1.2 0
-20.312 -13.712 -17.733 -0 -1.2 0
-20.142 -14.184 -17.586 -0 -1.2 0
-19.966 -14.654 -17.434 -0 -1.2 0
-19.784 -15.119 -17.277 -0 -1.2 0
-19.596 -15.58 -17.114 -0 -1.2 0
-19.401 -16.036 -16.946 -0 -1.2 0
-19.202 -16.488 -16.773 -0 -1.2 0
-18.996 -16.935 -16.595 -0 -1.2 0
-18.784 -17.378 -16.411 -0 -1.2 0
-18.567 -17.815 -16.222 -0 -1.2 0
-18.344 -18.247 -16.028 -0 -1.2 0
-18.115 -18.674 -15.83 -0 -1.2 0
-17.882 -19.095 -15.625 -0 -1.2 0
-17.642 -19.512 -15.416 -0 -1.2 0
-17.397 -19.922 -15.204 -0 -1.2 0
-17.147 -20.327 -14.985 -0 -1.2 0
-16.891 -20.726 -14.762 -0 -1.2 0
-16.63 -21.119 -14.535 -0 -1.2 0
-16.365 -21.506 -14.303 -0 -1.2 0
-16.095 -21.887 -14.066 -0 -1.2 0
-15.819 -22.261 -13.825 -0 -1.2 0
-15.539 -22.629 -13.579 -0 -1.2 0
-15.253 -22.99 -13.33 -0 -1.2 0
-14.964 -23.346 -13.076 -0 -1.2 0
-23.157 -0.028 -18.634 -0 -1.2 0
-23.13 -2.644 -18.634 -0 -1.2 0
-23.104 -3.166 -18.617 -0 -1.2 0
-23.071 -3.688 -18.593 -0 -1.2 0
-23.031 -4.21 -18.564 -0 -1.2 0
-22.984 -4.73 -18.53 -0 -1.2 0
-22.929 -5.249 -18.488 -0 -1.2 0
-22.868 -5.767 -18.442 -0 -1.2 0
-22.799 -6.284 -18.39 -0 -1.2 0
-22.724 -6.799 -18.332 -0 -1.2 0
-22.553 -7.823 -18.199 -0 -1.2 0
-22.456 -8.332 -18.124 -0 -1.2 0
-22.128 -9.846 -17.866 -0 -1.2 0
-21.876 -10.842 -17.664 -0 -1.2 0
-21.446 -12.314 -17.323 -0 -1.2 0
-21.29 -12.798 -17.198 -0 -1.2 0
-21.128 -13.278 -17.067 -0 -1.2 0
-20.959 -13.755 -16.932 -0 -1.2 0
-20.784 -14.227 -16.791 -0 -1.2 0
-20.602 -14.697 -16.644 -0 -1.2 0
-20.413 -15.161 -16.494 -0 -1.2 0
-20.22 -15.622 -16.337 -0 -1.2 0
-20.019 -16.077 -16.176 -0 -1.2 0
-19.813 -16.529 -16.009 -0 -1.2 0
-19.601 -16.976 -15.837 -0 -1.2 0
-19.382 -17.418 -15.66 -0 -1.2 0
-19.158 -17.854 -15.479 -0 -1.2 0
-18.927 -18.286 -15.292 -0 -1.2 0
-18.691 -18.713 -15.101 -0 -1.2 0
-18.45 -19.133 -14.906 -0 -1.2 0
-18.203 -19.55 -14.705 -0 -1.2 0
-17.95 -19.959 -14.5 -0 -1.2 0
-17.691 -20.364 -14.29 -0 -1.2 0
-17.428 -20.762 -14.076 -0 -1.2 0
-17.159 -21.155 -13.857 -0 -1.2 0
-16.885 -21.541 -13.634 -0 -1.2 0
-16.605 -21.921 -13.407 -0 -1.2 0
-16.322 -22.295 -13.175 -0 -1.2 0
-16.032 -22.662 -12.939 -0 -1.2 0
-15.738 -23.023 -12.7 -0 -1.2 0
-15.439 -23.378 -12.456 -0 -1.2 0
-23.892 -0.074 -17.69 -0 -1.2 0
-23.865 -2.69 -17.685 -0 -1.2 0
-23.839 -3.212 -17.668 -0 -1.2 0
-23.804 -3.734 -17.645 -0 -1.2 0
-23.762 -4.256 -17.616 -0 -1.2 0
-23.714 -4.775 -17.582 -0 -1.2 0
-23.657 -5.294 -17.543 -0 -1.2 0
-23.593 -5.812 -17.497 -0 -1.2 0
-23.524 -6.329 -17.447 -0 -1.2 0
-23.446 -6.844 -17.391 -0 -1.2 0
-23.361 -7.357 -17.33 -0 -1.2 0
-23.269 -7.868 -17.263 -0 -1.2 0
-23.17 -8.377 -17.19 -0 -1.2 0
-22.951 -9.388 -17.03 -0 -1.2 0
-22.83 -9.89 -16.942 -0 -1.2 0
-22.704 -10.389 -16.848 -0 -1.2 0
-22.569 -10.886 -16.749 -0 -1.2 0
-22.429 -11.379 -16.645 -0 -1.2 0
-22.282 -11.869 -16.536 -0 -1.2 0
-22.127 -12.357 -16.421 -0 -1.2 0
-21.966 -12.84 -16.301 -0 -1.2 0
-21.798 -13.321 -16.177 -0 -1.2 0
-21.624 -13.797 -16.047 -0 -1.2 0
-21.443 -14.268 -15.912 -0 -1.2 0
-21.256 -14.738 -15.772 -0 -1.2 0
-21.061 -15.202 -15.627 -0 -1.2 0
-20.861 -15.662 -15.478 -0 -1.2 0
-20.655 -16.117 -15.324 -0 -1.2 0
-20.442 -16.569 -15.163 -0 -1.2 0
-20.222 -17.015 -15 -0 -1.2 0
-19.997 -17.456 -14.831 -0 -1.2 0
-19.765 -17.893 -14.657 -0 -1.2 0
-19.528 -18.324 -14.479 -0 -1.2 0
-19.285 -18.75 -14.297 -0 -1.2 0
-19.035 -19.17 -14.109 -0 -1.2 0
-18.78 -19.586 -13.918 -0 -1.2 0
-18.519 -19.995 -13.722 -0 -1.2 0
-18.253 -20.399 -13.522 -0 -1.2 0
-17.981 -20.797 -13.317 -0 -1.2 0
-17.704 -21.189 -13.108 -0 -1.2 0
-17.421 -21.575 -12.896 -0 -1.2 0
-17.132 -21.954 -12.679 -0 -1.2 0
-16.839 -22.327 -12.458 -0 -1.2 0
-16.541 -22.694 -12.233 -0 -1.2 0
-16.237 -23.054 -12.004 -0 -1.2 0
-15.929 -23.408 -11.772 -0 -1.2 0
-24.544 -0.123 -16.782 -0 -1.2 0
-24.536 -2.217 -16.785 -0 -1.2 0
-24.516 -2.739 -16.773 -0 -1.2 0
-24.487 -3.261 -16.755 -0 -1.2 0
-24.452 -3.782 -16.732 -0 -1.2 0
-24.3 -5.343 -16.632 -0 -1.2 0
-24.235 -5.86 -16.589 -0 -1.2 0
-24.162 -6.377 -16.54 -0 -1.2 0
-24.083 -6.892 -16.485 -0 -1.2 0
-23.995 -7.405 -16.426 -0 -1.2 0
-23.901 -7.915 -16.362 -0 -1.2 0
