# .PCD v.7 - Point Cloud Data file format
FIELDS x y z vp_x vp_y vp_z
SIZE 4 4 4 4 4 4
TYPE F F F F F F
COUNT 1 1 1 1 1 1
WIDTH 1514
HEIGHT 1
VIEWPOINT 0 -1.2001 0 1 0 0 0
POINTS 1514
DATA ascii
-15.368 -14.495 21.786 -0 -1.2 0
-15.218 -14.962 21.601 -0 -1.2 0
-15.062 -15.423 21.41 -0 -1.2 0
-14.903 -15.882 21.212 -0 -1.2 0
-14.739 -16.335 21.006 -0 -1.2 0
-14.571 -16.783 20.796 -0 -1.2 0
-14.397 -17.227 20.578 -0 -1.2 0
-13.853 -18.527 19.887 -0 -1.2 0
-13.663 -18.951 19.644 -0 -1.2 0
-13.469 -19.368 19.395 -0 -1.2 0
-13.27 -19.781 19.141 -0 -1.2 0
-13.068 -20.187 18.88 -0 -1.2 0
-12.861 -20.588 18.614 -0 -1.2 0
-12.651 -20.983 18.341 -0 -1.2 0
-12.437 -21.371 18.063 -0 -1.2 0
-12.219 -21.754 17.78 -0 -1.2 0
-11.997 -22.13 17.491 -0 -1.2 0
-11.772 -22.5 17.197 -0 -1.2 0
-11.543 -22.864 16.897 -0 -1.2 0
-16.724 -2.406 24.663 -0 -1.2 0
-16.695 -2.929 24.649 -0 -1.2 0
-16.661 -3.452 24.629 -0 -1.2 0
-16.283 -7.077 24.269 -0 -1.2 0
-16.208 -7.589 24.188 -0 -1.2 0
-15.44 -11.6 23.271 -0 -1.2 0
-15.322 -12.088 23.124 -0 -1.2 0
-15.201 -12.574 22.97 -0 -1.2 0
-15.074 -13.056 22.809 -0 -1.2 0
-14.943 -13.533 22.641 -0 -1.2 0
-14.806 -14.008 22.465 -0 -1.2 0
-14.666 -14.478 22.284 -0 -1.2 0
-14.522 -14.945 22.094 -0 -1.2 0
-14.372 -15.406 21.898 -0 -1.2 0
-14.218 -15.864 21.696 -0 -1.2 0
-14.06 -16.318 21.487 -0 -1.2 0
-13.898 -16.766 21.271 -0 -1.2 0
-13.732 -17.21 21.048 -0 -1.2 0
-13.562 -17.649 20.82 -0 -1.2 0
-13.387 -18.083 20.585 -0 -1.2 0
-13.208 -18.511 20.343 -0 -1.2 0
-13.024 -18.935 20.095 -0 -1.2 0
-12.838 -19.353 19.841 -0 -1.2 0
-12.647 -19.765 19.581 -0 -1.2 0
-12.453 -20.171 19.315 -0 -1.2 0
-12.254 -20.573 19.042 -0 -1.2 0
-12.052 -20.968 18.764 -0 -1.2 0
-11.846 -21.356 18.481 -0 -1.2 0
-11.637 -21.739 18.191 -0 -1.2 0
-11.425 -22.115 17.896 -0 -1.2 0
-11.208 -22.486 17.596 -0 -1.2 0
-10.989 -22.85 17.289 -0 -1.2 0
-15.976 -1.832 25.188 -0 -1.2 0
-15.954 -2.354 25.183 -0 -1.2 0
-15.926 -2.876 25.169 -0 -1.2 0
-15.892 -3.399 25.147 -0 -1.2 0
-15.856 -3.92 25.119 -0 -1.2 0
-15.813 -4.441 25.081 -0 -1.2 0
-15.765 -4.96 25.037 -0 -1.2 0
-15.713 -5.479 24.985 -0 -1.2 0
-15.656 -5.996 24.924 -0 -1.2 0
-15.458 -7.538 24.7 -0 -1.2 0
-15.032 -10.066 24.172 -0 -1.2 0
-14.934 -10.564 24.044 -0 -1.2 0
-14.829 -11.058 23.909 -0 -1.2 0
-14.721 -11.551 23.766 -0 -1.2 0
-14.609 -12.039 23.616 -0 -1.2 0
-14.493 -12.525 23.459 -0 -1.2 0
-14.371 -13.007 23.295 -0 -1.2 0
-14.245 -13.485 23.123 -0 -1.2 0
-14.116 -13.961 22.944 -0 -1.2 0
-13.981 -14.431 22.759 -0 -1.2 0
-13.842 -14.898 22.566 -0 -1.2 0
-13.7 -15.36 22.367 -0 -1.2 0
-13.553 -15.819 22.16 -0 -1.2 0
-13.402 -16.272 21.946 -0 -1.2 0
-13.247 -16.722 21.727 -0 -1.2 0
-13.087 -17.166 21.5 -0 -1.2 0
-12.925 -17.605 21.267 -0 -1.2 0
-12.757 -18.04 21.027 -0 -1.2 0
-12.587 -18.468 20.78 -0 -1.2 0
-12.411 -18.893 20.527 -0 -1.2 0
-12.233 -19.311 20.269 -0 -1.2 0
-12.05 -19.724 20.003 -0 -1.2 0
-11.865 -20.131 19.732 -0 -1.2 0
-11.675 -20.533 19.454 -0 -1.2 0
-11.482 -20.928 19.171 -0 -1.2 0
-11.285 -21.318 18.881 -0 -1.2 0
-11.086 -21.701 18.586 -0 -1.2 0
-10.882 -22.078 18.286 -0 -1.2 0
-10.675 -22.449 17.979 -0 -1.2 0
-10.465 -22.814 17.666 -0 -1.2 0
-15.107 -1.252 25.743 -0 -1.2 0
-15.09 -1.775 25.745 -0 -1.2 0
-15.067 -2.297 25.739 -0 -1.2 0
-15.041 -2.819 25.725 -0 -1.2 0
-15.009 -3.343 25.703 -0 -1.2 0
-14.974 -3.864 25.673 -0 -1.2 0
-14.932 -4.384 25.636 -0 -1.2 0
-14.888 -4.904 25.59 -0 -1.2 0
-14.838 -5.423 25.538 -0 -1.2 0
-14.783 -5.94 25.477 -0 -1.2 0
-14.725 -6.456 25.408 -0 -1.2 0
-14.662 -6.97 25.331 -0 -1.2 0
-14.594 -7.482 25.247 -0 -1.2 0
-14.522 -7.992 25.155 -0 -1.2 0
-14.445 -8.5 25.055 -0 -1.2 0
-14.364 -9.006 24.947 -0 -1.2 0
-14.279 -9.51 24.832 -0 -1.2 0
-14.189 -10.011 24.709 -0 -1.2 0
-14.096 -10.51 24.579 -0 -1.2 0
-13.997 -11.005 24.441 -0 -1.2 0
-13.894 -11.498 24.295 -0 -1.2 0
-13.788 -11.986 24.142 -0 -1.2 0
-13.677 -12.473 23.982 -0 -1.2 0
-13.562 -12.955 23.814 -0 -1.2 0
-13.443 -13.433 23.64 -0 -1.2 0
-13.32 -13.909 23.458 -0 -1.2 0
-13.192 -14.38 23.268 -0 -1.2 0
-13.061 -14.848 23.071 -0 -1.2 0
-12.925 -15.31 22.867 -0 -1.2 0
-12.786 -15.769 22.657 -0 -1.2 0
-12.643 -16.223 22.439 -0 -1.2 0
-12.496 -16.673 22.214 -0 -1.2 0
-12.345 -17.118 21.983 -0 -1.2 0
-12.191 -17.557 21.746 -0 -1.2 0
-12.033 -17.993 21.501 -0 -1.2 0
-11.871 -18.422 21.249 -0 -1.2 0
-11.704 -18.847 20.991 -0 -1.2 0
-11.536 -19.266 20.726 -0 -1.2 0
-11.363 -19.679 20.456 -0 -1.2 0
-11.187 -20.087 20.179 -0 -1.2 0
-11.008 -20.489 19.895 -0 -1.2 0
-10.825 -20.886 19.606 -0 -1.2 0
-10.639 -21.276 19.311 -0 -1.2 0
-10.449 -21.659 19.01 -0 -1.2 0
-10.256 -22.037 18.702 -0 -1.2 0
-10.061 -22.409 18.389 -0 -1.2 0
-9.862 -22.774 18.071 -0 -1.2 0
-14.268 -1.2 26.23 -0 -1.2 0
-14.251 -1.723 26.232 -0 -1.2 0
-14.229 -2.245 26.227 -0 -1.2 0
-14.204 -2.768 26.213 -0 -1.2 0
-14.172 -3.291 26.19 -0 -1.2 0
-14.139 -3.812 26.16 -0 -1.2 0
-14.099 -4.333 26.122 -0 -1.2 0
-14.056 -4.852 26.077 -0 -1.2 0
-14.008 -5.372 26.022 -0 -1.2 0
-13.957 -5.889 25.961 -0 -1.2 0
-13.9 -6.405 25.89 -0 -1.2 0
-13.841 -6.919 25.813 -0 -1.2 0
-13.776 -7.432 25.727 -0 -1.2 0
-13.707 -7.942 25.633 -0 -1.2 0
-13.634 -8.45 25.532 -0 -1.2 0
-13.557 -8.956 25.422 -0 -1.2 0
-13.477 -9.46 25.305 -0 -1.2 0
-13.392 -9.962 25.181 -0 -1.2 0
-13.302 -10.461 25.048 -0 -1.2 0
-13.209 -10.956 24.907 -0 -1.2 0
-13.112 -11.449 24.76 -0 -1.2 0
-13.01 -11.938 24.604 -0 -1.2 0
-12.905 -12.425 24.441 -0 -1.2 0
-12.796 -12.908 24.27 -0 -1.2 0
-12.683 -13.386 24.093 -0 -1.2 0
-12.566 -13.863 23.907 -0 -1.2 0
-12.445 -14.334 23.714 -0 -1.2 0
-12.32 -14.802 23.514 -0 -1.2 0
-12.192 -15.265 23.307 -0 -1.2 0
-12.059 -15.724 23.093 -0 -1.2 0
-11.924 -16.179 22.871 -0 -1.2 0
-11.785 -16.629 22.643 -0 -1.2 0
-11.642 -17.074 22.408 -0 -1.2 0
-11.495 -17.514 22.165 -0 -1.2 0
-11.346 -17.95 21.916 -0 -1.2 0
-11.192 -18.38 21.66 -0 -1.2 0
-11.035 -18.805 21.397 -0 -1.2 0
-10.875 -19.225 21.129 -0 -1.2 0
-10.712 -19.639 20.853 -0 -1.2 0
-10.544 -20.047 20.572 -0 -1.2 0
-10.375 -20.45 20.283 -0 -1.2 0
-10.202 -20.847 19.988 -0 -1.2 0
-10.026 -21.237 19.687 -0 -1.2 0
-9.846 -21.622 19.381 -0 -1.2 0
-9.664 -22 19.069 -0 -1.2 0
-9.479 -22.372 18.75 -0 -1.2 0
-9.291 -22.739 18.426 -0 -1.2 0
-13.347 -1.146 26.725 -0 -1.2 0
-13.33 -1.668 26.728 -0 -1.2 0
-13.309 -2.191 26.721 -0 -1.2 0
-13.285 -2.713 26.708 -0 -1.2 0
-13.255 -3.237 26.686 -0 -1.2 0
-13.223 -3.758 26.656 -0 -1.2 0
-13.186 -4.279 26.617 -0 -1.2 0
-13.145 -4.798 26.571 -0 -1.2 0
-13.099 -5.318 26.515 -0 -1.2 0
-13.05 -5.835 26.452 -0 -1.2 0
-12.997 -6.351 26.382 -0 -1.2 0
-12.941 -6.865 26.303 -0 -1.2 0
-12.88 -7.378 26.215 -0 -1.2 0
-12.815 -7.889 26.12 -0 -1.2 0
-12.745 -8.397 26.017 -0 -1.2 0
-12.673 -8.904 25.905 -0 -1.2 0
-12.597 -9.408 25.787 -0 -1.2 0
-12.517 -9.91 25.66 -0 -1.2 0
-12.432 -10.409 25.525 -0 -1.2 0
-12.344 -10.905 25.382 -0 -1.2 0
-12.252 -11.398 25.231 -0 -1.2 0
-12.157 -11.887 25.073 -0 -1.2 0
-12.058 -12.375 24.907 -0 -1.2 0
-11.955 -12.858 24.734 -0 -1.2 0
-11.849 -13.337 24.553 -0 -1.2 0
-11.739 -13.813 24.365 -0 -1.2 0
-11.625 -14.285 24.168 -0 -1.2 0
-11.508 -14.753 23.965 -0 -1.2 0
-11.388 -15.217 23.754 -0 -1.2 0
-11.263 -15.677 23.536 -0 -1.2 0
-11.135 -16.132 23.311 -0 -1.2 0
-11.005 -16.582 23.078 -0 -1.2 0
-10.87 -17.028 22.838 -0 -1.2 0
-10.732 -17.469 22.592 -0 -1.2 0
-10.592 -17.905 22.339 -0 -1.2 0
-10.448 -18.335 22.078 -0 -1.2 0
-10.301 -18.761 21.811 -0 -1.2 0
-10.151 -19.181 21.538 -0 -1.2 0
-9.997 -19.596 21.257 -0 -1.2 0
-9.841 -20.005 20.97 -0 -1.2 0
-9.681 -20.408 20.677 -0 -1.2 0
-9.518 -20.806 20.377 -0 -1.2 0
-9.353 -21.197 20.071 -0 -1.2 0
-9.185 -21.582 19.759 -0 -1.2 0
-9.014 -21.961 19.441 -0 -1.2 0
-8.841 -22.334 19.117 -0 -1.2 0
-8.664 -22.701 18.787 -0 -1.2 0
-12.5 -0.049 27.127 -0 -1.2 0
-12.49 -0.574 27.146 -0 -1.2 0
-12.345 -1.097 26.866 -0 -1.2 0
-12.329 -1.614 26.869 -0 -1.2 0
-12.354 -2.134 26.963 -0 -1.2 0
-12.368 -2.658 27.031 -0 -1.2 0
-12.34 -3.178 27.008 -0 -1.2 0
-12.267 -3.69 26.887 -0 -1.2 0
-12.248 -4.211 26.885 -0 -1.2 0
-12.222 -4.732 26.865 -0 -1.2 0
-12.24 -5.269 26.945 -0 -1.2 0
-12.194 -5.787 26.881 -0 -1.2 0
-12.144 -6.303 26.809 -0 -1.2 0
-12.09 -6.817 26.729 -0 -1.2 0
-12.033 -7.33 26.641 -0 -1.2 0
-11.971 -7.841 26.544 -0 -1.2 0
-11.906 -8.35 26.439 -0 -1.2 0
-11.838 -8.856 26.327 -0 -1.2 0
-11.766 -9.361 26.206 -0 -1.2 0
-11.69 -9.863 26.077 -0 -1.2 0
-11.611 -10.362 25.94 -0 -1.2 0
-11.527 -10.858 25.796 -0 -1.2 0
-11.441 -11.352 25.643 -0 -1.2 0
-11.352 -11.842 25.483 -0 -1.2 0
-11.258 -12.329 25.314 -0 -1.2 0
-11.162 -12.812 25.138 -0 -1.2 0
-11.062 -13.292 24.955 -0 -1.2 0
-10.958 -13.769 24.763 -0 -1.2 0
-10.851 -14.241 24.564 -0 -1.2 0
-10.741 -14.71 24.358 -0 -1.2 0
-10.628 -15.173 24.144 -0 -1.2 0
-10.511 -15.634 23.922 -0 -1.2 0
-10.391 -16.089 23.693 -0 -1.2 0
-10.268 -16.54 23.458 -0 -1.2 0
-10.142 -16.986 23.215 -0 -1.2 0
-10.013 -17.427 22.964 -0 -1.2 0
-9.88 -17.864 22.707 -0 -1.2 0
-9.745 -18.295 22.443 -0 -1.2 0
-9.607 -18.722 22.172 -0 -1.2 0
-9.466 -19.142 21.894 -0 -1.2 0
-9.322 -19.557 21.61 -0 -1.2 0
-9.175 -19.967 21.319 -0 -1.2 0
-9.025 -20.371 21.02 -0 -1.2 0
-8.873 -20.769 20.716 -0 -1.2 0
-8.718 -21.161 20.406 -0 -1.2 0
-8.56 -21.546 20.089 -0 -1.2 0
-8.399 -21.926 19.767 -0 -1.2 0
-8.237 -22.3 19.437 -0 -1.2 0
-8.071 -22.667 19.103 -0 -1.2 0
-11.616 -0.001 27.529 -0 -1.2 0
-11.208 -4.639 26.915 -0 -1.2 0
-11.369 -5.222 27.345 -0 -1.2 0
-11.326 -5.739 27.281 -0 -1.2 0
-11.278 -6.256 27.208 -0 -1.2 0
-11.227 -6.77 27.126 -0 -1.2 0
-11.173 -7.283 27.038 -0 -1.2 0
-11.115 -7.794 26.94 -0 -1.2 0
-11.054 -8.303 26.834 -0 -1.2 0
-10.989 -8.81 26.719 -0 -1.2 0
-10.922 -9.315 26.597 -0 -1.2 0
-10.851 -9.817 26.466 -0 -1.2 0
-10.777 -10.317 26.328 -0 -1.2 0
-10.699 -10.813 26.181 -0 -1.2 0
-10.618 -11.307 26.027 -0 -1.2 0
-10.533 -11.797 25.864 -0 -1.2 0
-10.446 -12.285 25.693 -0 -1.2 0
-10.355 -12.768 25.515 -0 -1.2 0
-10.261 -13.248 25.328 -0 -1.2 0
-10.165 -13.725 25.135 -0 -1.2 0
-10.065 -14.198 24.934 -0 -1.2 0
-9.962 -14.667 24.724 -0 -1.2 0
-9.856 -15.131 24.507 -0 -1.2 0
-9.747 -15.592 24.283 -0 -1.2 0
-9.635 -16.048 24.051 -0 -1.2 0
-9.52 -16.499 23.812 -0 -1.2 0
-9.402 -16.946 23.565 -0 -1.2 0
-9.282 -17.387 23.312 -0 -1.2 0
-9.158 -17.825 23.051 -0 -1.2 0
-9.032 -18.256 22.784 -0 -1.2 0
-8.902 -18.683 22.509 -0 -1.2 0
-8.771 -19.104 22.227 -0 -1.2 0
-8.636 -19.52 21.938 -0 -1.2 0
-8.5 -19.93 21.643 -0 -1.2 0
-8.36 -20.334 21.341 -0 -1.2 0
-8.218 -20.733 21.033 -0 -1.2 0
-8.072 -21.125 20.718 -0 -1.2 0
-7.925 -21.511 20.397 -0 -1.2 0
-7.776 -21.892 20.07 -0 -1.2 0
-7.624 -22.266 19.736 -0 -1.2 0
-7.469 -22.634 19.396 -0 -1.2 0
-10.722 0.044 27.903 -0 -1.2 0
-10.486 -5.176 27.719 -0 -1.2 0
-10.444 -5.693 27.654 -0 -1.2 0
-10.4 -6.21 27.579 -0 -1.2 0
-10.352 -6.724 27.498 -0 -1.2 0
-10.301 -7.238 27.407 -0 -1.2 0
-10.247 -7.749 27.308 -0 -1.2 0
-10.19 -8.258 27.201 -0 -1.2 0
-10.13 -8.765 27.086 -0 -1.2 0
-10.067 -9.27 26.962 -0 -1.2 0
-10 -9.773 26.83 -0 -1.2 0
-9.931 -10.272 26.689 -0 -1.2 0
-9.858 -10.769 26.541 -0 -1.2 0
-9.783 -11.263 26.384 -0 -1.2 0
-9.704 -11.753 26.219 -0 -1.2 0
-9.623 -12.242 26.047 -0 -1.2 0
-9.539 -12.726 25.866 -0 -1.2 0
-9.452 -13.206 25.678 -0 -1.2 0
-9.362 -13.683 25.481 -0 -1.2 0
-9.268 -14.156 25.277 -0 -1.2 0
-9.173 -14.626 25.065 -0 -1.2 0
-9.074 -15.09 24.846 -0 -1.2 0
-8.973 -15.551 24.619 -0 -1.2 0
-8.868 -16.007 24.384 -0 -1.2 0
-8.762 -16.46 24.142 -0 -1.2 0
-8.652 -16.907 23.893 -0 -1.2 0
-8.54 -17.348 23.636 -0 -1.2 0
-8.425 -17.786 23.372 -0 -1.2 0
-8.308 -18.218 23.101 -0 -1.2 0
-8.189 -18.645 22.823 -0 -1.2 0
-8.066 -19.067 22.538 -0 -1.2 0
-7.942 -19.483 22.246 -0 -1.2 0
-7.814 -19.894 21.946 -0 -1.2 0
-7.685 -20.299 21.641 -0 -1.2 0
-7.553 -20.698 21.329 -0 -1.2 0
-7.419 -21.091 21.01 -0 -1.2 0
-7.282 -21.478 20.684 -0 -1.2 0
-7.144 -21.858 20.353 -0 -1.2 0
-7.003 -22.233 20.016 -0 -1.2 0
-6.86 -22.602 19.671 -0 -1.2 0
-9.699 0.075 28.289 -0 -1.2 0
-9.47 -5.145 28.102 -0 -1.2 0
-9.432 -5.663 28.035 -0 -1.2 0
-9.39 -6.179 27.96 -0 -1.2 0
-9.346 -6.694 27.878 -0 -1.2 0
-9.298 -7.207 27.786 -0 -1.2 0
-9.249 -7.719 27.685 -0 -1.2 0
-9.195 -8.228 27.576 -0 -1.2 0
-9.14 -8.735 27.46 -0 -1.2 0
-9.08 -9.24 27.334 -0 -1.2 0
-9.019 -9.743 27.2 -0 -1.2 0
-8.955 -10.243 27.058 -0 -1.2 0
-8.888 -10.739 26.907 -0 -1.2 0
-8.819 -11.234 26.749 -0 -1.2 0
-8.746 -11.724 26.582 -0 -1.2 0
-8.671 -12.213 26.407 -0 -1.2 0
-8.594 -12.697 26.224 -0 -1.2 0
-8.514 -13.177 26.033 -0 -1.2 0
-8.431 -13.655 25.834 -0 -1.2 0
-8.345 -14.128 25.627 -0 -1.2 0
-8.257 -14.598 25.413 -0 -1.2 0
-8.167 -15.062 25.19 -0 -1.2 0
-8.074 -15.524 24.96 -0 -1.2 0
-7.978 -15.98 24.722 -0 -1.2 0
-7.881 -16.433 24.477 -0 -1.2 0
-7.78 -16.88 24.223 -0 -1.2 0
-7.678 -17.322 23.963 -0 -1.2 0
-7.573 -17.76 23.695 -0 -1.2 0
-7.466 -18.192 23.421 -0 -1.2 0
-7.356 -18.62 23.139 -0 -1.2 0
-7.244 -19.042 22.85 -0 -1.2 0
-7.13 -19.459 22.554 -0 -1.2 0
-7.014 -19.869 22.251 -0 -1.2 0
-6.896 -20.275 21.942 -0 -1.2 0
-6.776 -20.674 21.625 -0 -1.2 0
-6.654 -21.067 21.302 -0 -1.2 0
-6.529 -21.455 20.972 -0 -1.2 0
-6.403 -21.836 20.636 -0 -1.2 0
-6.274 -22.211 20.294 -0 -1.2 0
-6.143 -22.58 19.946 -0 -1.2 0
-8.804 0.097 28.596 -0 -1.2 0
-8.582 -5.123 28.404 -0 -1.2 0
-8.545 -5.641 28.338 -0 -1.2 0
-8.506 -6.158 28.262 -0 -1.2 0
-8.464 -6.672 28.178 -0 -1.2 0
-8.42 -7.186 28.085 -0 -1.2 0
-8.372 -7.697 27.983 -0 -1.2 0
-8.323 -8.207 27.873 -0 -1.2 0
-8.27 -8.714 27.755 -0 -1.2 0
-8.216 -9.219 27.628 -0 -1.2 0
-8.159 -9.722 27.493 -0 -1.2 0
-8.099 -10.222 27.349 -0 -1.2 0
-8.037 -10.719 27.197 -0 -1.2 0
-7.973 -11.213 27.037 -0 -1.2 0
-7.906 -11.704 26.868 -0 -1.2 0
-7.836 -12.192 26.691 -0 -1.2 0
-7.765 -12.677 26.506 -0 -1.2 0
-7.691 -13.157 26.313 -0 -1.2 0
-7.614 -13.635 26.112 -0 -1.2 0
-7.536 -14.108 25.903 -0 -1.2 0
-7.454 -14.578 25.686 -0 -1.2 0
-7.371 -15.043 25.461 -0 -1.2 0
-7.285 -15.505 25.228 -0 -1.2 0
-7.197 -15.961 24.988 -0 -1.2 0
-7.107 -16.414 24.739 -0 -1.2 0
-7.015 -16.862 24.484 -0 -1.2 0
-6.92 -17.304 24.221 -0 -1.2 0
-6.824 -17.742 23.951 -0 -1.2 0
-6.726 -18.174 23.673 -0 -1.2 0
-6.625 -18.602 23.388 -0 -1.2 0
-6.523 -19.024 23.096 -0 -1.2 0
-6.418 -19.441 22.797 -0 -1.2 0
-6.311 -19.852 22.491 -0 -1.2 0
-6.203 -20.258 22.178 -0 -1.2 0
-6.092 -20.658 21.858 -0 -1.2 0
-5.98 -21.051 21.532 -0 -1.2 0
-5.866 -21.439 21.199 -0 -1.2 0
-5.75 -21.82 20.859 -0 -1.2 0
-5.633 -22.195 20.513 -0 -1.2 0
-5.513 -22.565 20.161 -0 -1.2 0
-7.877 0.641 28.853 -0 -1.2 0
-7.869 0.119 28.883 -0 -1.2 0
-7.858 -0.404 28.903 -0 -1.2 0
-7.791 -2.495 28.896 -0 -1.2 0
-7.769 -3.018 28.872 -0 -1.2 0
-7.654 -5.101 28.688 -0 -1.2 0
-7.619 -5.619 28.62 -0 -1.2 0
-7.583 -6.136 28.544 -0 -1.2 0
-7.543 -6.651 28.459 -0 -1.2 0
-7.503 -7.164 28.365 -0 -1.2 0
-7.459 -7.676 28.262 -0 -1.2 0
-7.413 -8.185 28.151 -0 -1.2 0
-7.364 -8.693 28.031 -0 -1.2 0
-7.314 -9.198 27.903 -0 -1.2 0
-7.261 -9.701 27.766 -0 -1.2 0
-7.206 -10.201 27.621 -0 -1.2 0
-7.149 -10.698 27.467 -0 -1.2 0
-7.09 -11.193 27.305 -0 -1.2 0
-7.028 -11.683 27.135 -0 -1.2 0
-6.965 -12.172 26.956 -0 -1.2 0
-6.9 -12.656 26.77 -0 -1.2 0
-6.832 -13.137 26.575 -0 -1.2 0
-6.762 -13.615 26.371 -0 -1.2 0
-6.69 -14.088 26.16 -0 -1.2 0
-6.616 -14.558 25.941 -0 -1.2 0
-6.54 -15.024 25.714 -0 -1.2 0
-6.462 -15.485 25.478 -0 -1.2 0
-6.382 -15.942 25.236 -0 -1.2 0
-6.3 -16.395 24.985 -0 -1.2 0
-6.216 -16.843 24.727 -0 -1.2 0
-6.13 -17.285 24.462 -0 -1.2 0
-6.043 -17.724 24.189 -0 -1.2 0
-5.953 -18.156 23.909 -0 -1.2 0
-5.862 -18.584 23.621 -0 -1.2 0
-5.769 -19.007 23.326 -0 -1.2 0
-5.674 -19.424 23.024 -0 -1.2 0
-5.577 -19.835 22.715 -0 -1.2 0
-5.479 -20.241 22.399 -0 -1.2 0
-5.379 -20.641 22.075 -0 -1.2 0
-5.278 -21.035 21.746 -0 -1.2 0
-5.174 -21.422 21.41 -0 -1.2 0
-5.07 -21.804 21.067 -0 -1.2 0
-4.963 -22.18 20.718 -0 -1.2 0
-4.856 -22.549 20.362 -0 -1.2 0
-7.001 0.661 29.093 -0 -1.2 0
-6.993 0.139 29.122 -0 -1.2 0
-6.784 -5.081 28.925 -0 -1.2 0
-6.752 -5.599 28.856 -0 -1.2 0
-6.717 -6.116 28.779 -0 -1.2 0
-6.681 -6.631 28.693 -0 -1.2 0
-6.643 -7.145 28.599 -0 -1.2 0
-6.602 -7.656 28.495 -0 -1.2 0
-6.56 -8.166 28.382 -0 -1.2 0
-6.515 -8.673 28.262 -0 -1.2 0
-6.468 -9.178 28.132 -0 -1.2 0
-6.42 -9.681 27.995 -0 -1.2 0
-6.369 -10.182 27.848 -0 -1.2 0
-6.316 -10.679 27.693 -0 -1.2 0
-6.263 -11.174 27.53 -0 -1.2 0
-6.206 -11.664 27.358 -0 -1.2 0
-6.148 -12.153 27.177 -0 -1.2 0
-6.088 -12.638 26.989 -0 -1.2 0
-6.026 -13.118 26.792 -0 -1.2 0
-5.962 -13.597 26.588 -0 -1.2 0
-5.897 -14.07 26.375 -0 -1.2 0
-5.829 -14.54 26.154 -0 -1.2 0
-5.761 -15.006 25.925 -0 -1.2 0
-5.69 -15.468 25.687 -0 -1.2 0
-5.617 -15.925 25.443 -0 -1.2 0
-5.543 -16.378 25.19 -0 -1.2 0
-5.467 -16.825 24.93 -0 -1.2 0
-5.389 -17.268 24.663 -0 -1.2 0
-5.31 -17.707 24.388 -0 -1.2 0
-5.229 -18.139 24.105 -0 -1.2 0
-5.146 -18.568 23.815 -0 -1.2 0
-5.062 -18.99 23.517 -0 -1.2 0
-4.977 -19.408 23.212 -0 -1.2 0
-4.889 -19.819 22.901 -0 -1.2 0
-4.8 -20.225 22.582 -0 -1.2 0
-4.711 -20.625 22.257 -0 -1.2 0
-4.619 -21.019 21.925 -0 -1.2 0
-4.526 -21.407 21.586 -0 -1.2 0
-4.432 -21.789 21.24 -0 -1.2 0
-4.336 -22.165 20.889 -0 -1.2 0
-4.239 -22.535 20.53 -0 -1.2 0
-6.111 0.159 29.336 -0 -1.2 0
-6.033 -2.455 29.348 -0 -1.2 0
-6.012 -2.978 29.323 -0 -1.2 0
-5.909 -5.061 29.136 -0 -1.2 0
-5.879 -5.579 29.067 -0 -1.2 0
-5.846 -6.096 28.989 -0 -1.2 0
-5.813 -6.611 28.902 -0 -1.2 0
-5.777 -7.125 28.807 -0 -1.2 0
-5.739 -7.636 28.703 -0 -1.2 0
-5.701 -8.146 28.59 -0 -1.2 0
-5.66 -8.654 28.467 -0 -1.2 0
-5.618 -9.159 28.337 -0 -1.2 0
-5.573 -9.662 28.198 -0 -1.2 0
-5.527 -10.162 28.051 -0 -1.2 0
-5.479 -10.66 27.894 -0 -1.2 0
-5.43 -11.155 27.73 -0 -1.2 0
-5.379 -11.646 27.557 -0 -1.2 0
-5.327 -12.134 27.375 -0 -1.2 0
-5.272 -12.619 27.186 -0 -1.2 0
-5.216 -13.1 26.987 -0 -1.2 0
-5.159 -13.578 26.781 -0 -1.2 0
-5.099 -14.052 26.566 -0 -1.2 0
-5.039 -14.522 26.344 -0 -1.2 0
-4.977 -14.988 26.112 -0 -1.2 0
-4.914 -15.45 25.874 -0 -1.2 0
-4.848 -15.907 25.628 -0 -1.2 0
-4.781 -16.36 25.374 -0 -1.2 0
-4.714 -16.808 25.112 -0 -1.2 0
-4.643 -17.251 24.842 -0 -1.2 0
-4.573 -17.69 24.564 -0 -1.2 0
-4.5 -18.123 24.28 -0 -1.2 0
-4.427 -18.552 23.988 -0 -1.2 0
-4.351 -18.974 23.688 -0 -1.2 0
-4.275 -19.392 23.382 -0 -1.2 0
-4.197 -19.803 23.068 -0 -1.2 0
-4.118 -20.21 22.747 -0 -1.2 0
-4.039 -20.61 22.42 -0 -1.2 0
-3.956 -21.004 22.085 -0 -1.2 0
-3.874 -21.392 21.744 -0 -1.2 0
-3.79 -21.775 21.395 -0 -1.2 0
-3.705 -22.151 21.041 -0 -1.2 0
-3.618 -22.521 20.68 -0 -1.2 0
-5.199 0.18 29.526 -0 -1.2 0
-5.187 -0.343 29.546 -0 -1.2 0
-4.976 -5.559 29.254 -0 -1.2 0
-4.947 -6.076 29.176 -0 -1.2 0
-4.915 -6.591 29.088 -0 -1.2 0
-4.883 -7.105 28.992 -0 -1.2 0
-4.848 -7.616 28.887 -0 -1.2 0
-4.813 -8.126 28.773 -0 -1.2 0
-4.776 -8.634 28.651 -0 -1.2 0
-4.737 -9.139 28.52 -0 -1.2 0
-4.697 -9.642 28.379 -0 -1.2 0
-4.656 -10.143 28.231 -0 -1.2 0
-4.613 -10.64 28.074 -0 -1.2 0
-4.569 -11.135 27.907 -0 -1.2 0
-4.524 -11.626 27.733 -0 -1.2 0
-4.477 -12.115 27.551 -0 -1.2 0
-4.429 -12.6 27.36 -0 -1.2 0
-4.379 -13.081 27.16 -0 -1.2 0
-4.328 -13.56 26.952 -0 -1.2 0
-4.275 -14.033 26.737 -0 -1.2 0
-4.222 -14.504 26.512 -0 -1.2 0
-4.166 -14.969 26.28 -0 -1.2 0
-4.11 -15.432 26.04 -0 -1.2 0
-4.052 -15.889 25.792 -0 -1.2 0
-3.994 -16.342 25.536 -0 -1.2 0
-3.934 -16.791 25.272 -0 -1.2 0
-3.873 -17.234 25.001 -0 -1.2 0
-3.811 -17.673 24.722 -0 -1.2 0
-3.747 -18.106 24.436 -0 -1.2 0
-3.682 -18.535 24.141 -0 -1.2 0
-3.616 -18.958 23.84 -0 -1.2 0
-3.549 -19.375 23.531 -0 -1.2 0
-3.481 -19.787 23.216 -0 -1.2 0
-3.412 -20.194 22.893 -0 -1.2 0
-3.343 -20.594 22.563 -0 -1.2 0
-3.271 -20.989 22.227 -0 -1.2 0
-3.199 -21.377 21.883 -0 -1.2 0
-3.126 -21.76 21.533 -0 -1.2 0
-3.052 -22.136 21.177 -0 -1.2 0
-2.977 -22.506 20.814 -0 -1.2 0
-4.208 0.202 29.7 -0 -1.2 0
-4.196 -0.321 29.72 -0 -1.2 0
-4.131 -2.412 29.711 -0 -1.2 0
-4.11 -2.936 29.685 -0 -1.2 0
-3.995 -5.537 29.425 -0 -1.2 0
-3.968 -6.054 29.345 -0 -1.2 0
-3.939 -6.569 29.258 -0 -1.2 0
-3.91 -7.083 29.161 -0 -1.2 0
-3.88 -7.595 29.055 -0 -1.2 0
-3.848 -8.105 28.941 -0 -1.2 0
-3.815 -8.612 28.817 -0 -1.2 0
-3.781 -9.118 28.685 -0 -1.2 0
-3.746 -9.621 28.544 -0 -1.2 0
-3.709 -10.122 28.395 -0 -1.2 0
-3.672 -10.619 28.236 -0 -1.2 0
-3.633 -11.114 28.07 -0 -1.2 0
-3.594 -11.606 27.894 -0 -1.2 0
-3.553 -12.095 27.71 -0 -1.2 0
-3.511 -12.58 27.518 -0 -1.2 0
-3.468 -13.061 27.317 -0 -1.2 0
-3.423 -13.54 27.109 -0 -1.2 0
-3.379 -14.013 26.892 -0 -1.2 0
-3.332 -14.484 26.666 -0 -1.2 0
-3.285 -14.95 26.433 -0 -1.2 0
-3.237 -15.412 26.19 -0 -1.2 0
-3.188 -15.87 25.941 -0 -1.2 0
-3.138 -16.323 25.684 -0 -1.2 0
-3.087 -16.772 25.419 -0 -1.2 0
-3.035 -17.215 25.145 -0 -1.2 0
-2.982 -17.654 24.865 -0 -1.2 0
-2.928 -18.088 24.577 -0 -1.2 0
-2.873 -18.517 24.282 -0 -1.2 0
-2.817 -18.94 23.978 -0 -1.2 0
-2.761 -19.358 23.668 -0 -1.2 0
-2.704 -19.77 23.35 -0 -1.2 0
-2.645 -20.177 23.026 -0 -1.2 0
-2.586 -20.577 22.694 -0 -1.2 0
-2.527 -20.972 22.356 -0 -1.2 0
-2.466 -21.361 22.011 -0 -1.2 0
-2.404 -21.744 21.658 -0 -1.2 0
-2.342 -22.12 21.299 -0 -1.2 0
-2.28 -22.491 20.934 -0 -1.2 0
-3.285 -0.271 29.852 -0 -1.2 0
-3.093 -5.488 29.56 -0 -1.2 0
-3.068 -6.005 29.481 -0 -1.2 0
-3.043 -6.52 29.392 -0 -1.2 0
-3.016 -7.034 29.295 -0 -1.2 0
-2.989 -7.546 29.189 -0 -1.2 0
-2.96 -8.056 29.075 -0 -1.2 0
-2.931 -8.564 28.951 -0 -1.2 0
-2.902 -9.07 28.819 -0 -1.2 0
-2.871 -9.573 28.678 -0 -1.2 0
-2.839 -10.074 28.528 -0 -1.2 0
-2.806 -10.572 28.37 -0 -1.2 0
-2.772 -11.067 28.203 -0 -1.2 0
-2.738 -11.559 28.027 -0 -1.2 0
-2.702 -12.048 27.843 -0 -1.2 0
-2.667 -12.533 27.65 -0 -1.2 0
-2.63 -13.015 27.449 -0 -1.2 0
-2.592 -13.494 27.24 -0 -1.2 0
-2.553 -13.968 27.022 -0 -1.2 0
-2.514 -14.439 26.796 -0 -1.2 0
-2.473 -14.905 26.562 -0 -1.2 0
-2.433 -15.368 26.32 -0 -1.2 0
-2.391 -15.826 26.071 -0 -1.2 0
-2.349 -16.28 25.813 -0 -1.2 0
-2.306 -16.729 25.546 -0 -1.2 0
-2.262 -17.173 25.273 -0 -1.2 0
-2.218 -17.613 24.991 -0 -1.2 0
-2.172 -18.046 24.702 -0 -1.2 0
-2.126 -18.476 24.405 -0 -1.2 0
-2.08 -18.899 24.102 -0 -1.2 0
-2.034 -19.318 23.791 -0 -1.2 0
-1.985 -19.73 23.472 -0 -1.2 0
-1.937 -20.138 23.146 -0 -1.2 0
-1.888 -20.539 22.814 -0 -1.2 0
-1.839 -20.935 22.475 -0 -1.2 0
-1.788 -21.324 22.128 -0 -1.2 0
-1.738 -21.707 21.775 -0 -1.2 0
-1.686 -22.084 21.415 -0 -1.2 0
-1.635 -22.455 21.049 -0 -1.2 0
-2.324 0.326 29.94 -0 -1.2 0
-2.309 -0.197 29.962 -0 -1.2 0
-2.126 -5.414 29.676 -0 -1.2 0
-2.104 -5.931 29.598 -0 -1.2 0
-2.081 -6.447 29.511 -0 -1.2 0
-2.058 -6.961 29.413 -0 -1.2 0
-2.033 -7.473 29.308 -0 -1.2 0
-2.009 -7.983 29.194 -0 -1.2 0
-1.984 -8.492 29.072 -0 -1.2 0
-1.958 -8.998 28.939 -0 -1.2 0
-1.932 -9.502 28.798 -0 -1.2 0
-1.904 -10.003 28.649 -0 -1.2 0
-1.877 -10.501 28.491 -0 -1.2 0
-1.848 -10.997 28.324 -0 -1.2 0
-1.82 -11.489 28.148 -0 -1.2 0
-1.791 -11.979 27.965 -0 -1.2 0
-1.761 -12.464 27.772 -0 -1.2 0
-1.731 -12.946 27.571 -0 -1.2 0
-1.699 -13.426 27.361 -0 -1.2 0
-1.668 -13.901 27.144 -0 -1.2 0
-1.636 -14.372 26.918 -0 -1.2 0
-1.603 -14.839 26.684 -0 -1.2 0
-1.57 -15.303 26.442 -0 -1.2 0
-1.537 -15.761 26.191 -0 -1.2 0
-1.502 -16.216 25.933 -0 -1.2 0
-1.468 -16.665 25.668 -0 -1.2 0
-1.434 -17.11 25.394 -0 -1.2 0
-1.398 -17.55 25.112 -0 -1.2 0
-1.362 -17.985 24.823 -0 -1.2 0
-1.325 -18.415 24.527 -0 -1.2 0
-1.289 -18.839 24.223 -0 -1.2 0
-1.252 -19.259 23.91 -0 -1.2 0
-1.215 -19.672 23.591 -0 -1.2 0
-1.177 -20.08 23.265 -0 -1.2 0
-1.139 -20.482 22.933 -0 -1.2 0
-1.1 -20.879 22.593 -0 -1.2 0
-1.062 -21.269 22.246 -0 -1.2 0
-1.023 -21.653 21.892 -0 -1.2 0
-0.983 -22.031 21.532 -0 -1.2 0
-0.943 -22.403 21.165 -0 -1.2 0
-1.389 -0.127 30.034 -0 -1.2 0
-1.213 -5.345 29.756 -0 -1.2 0
-1.193 -5.862 29.678 -0 -1.2 0
-1.173 -6.378 29.591 -0 -1.2 0
-1.152 -6.892 29.495 -0 -1.2 0
-1.132 -7.405 29.39 -0 -1.2 0
-1.111 -7.915 29.276 -0 -1.2 0
-1.089 -8.424 29.154 -0 -1.2 0
-1.068 -8.93 29.022 -0 -1.2 0
-1.045 -9.435 28.882 -0 -1.2 0
-1.023 -9.936 28.733 -0 -1.2 0
-1 -10.434 28.576 -0 -1.2 0
-0.977 -10.931 28.409 -0 -1.2 0
-0.953 -11.423 28.234 -0 -1.2 0
-0.93 -11.913 28.05 -0 -1.2 0
-0.906 -12.4 27.858 -0 -1.2 0
-0.881 -12.882 27.657 -0 -1.2 0
-0.856 -13.362 27.449 -0 -1.2 0
-0.832 -13.837 27.231 -0 -1.2 0
-0.806 -14.31 27.006 -0 -1.2 0
-0.781 -14.777 26.771 -0 -1.2 0
-0.755 -15.241 26.53 -0 -1.2 0
-0.729 -15.7 26.279 -0 -1.2 0
-0.703 -16.155 26.022 -0 -1.2 0
-0.676 -16.605 25.755 -0 -1.2 0
-0.65 -17.051 25.482 -0 -1.2 0
-0.623 -17.492 25.2 -0 -1.2 0
-0.596 -17.927 24.911 -0 -1.2 0
-0.569 -18.358 24.615 -0 -1.2 0
-0.542 -18.783 24.31 -0 -1.2 0
-0.515 -19.203 23.999 -0 -1.2 0
-0.487 -19.617 23.68 -0 -1.2 0
-0.459 -20.026 23.354 -0 -1.2 0
-0.431 -20.429 23.021 -0 -1.2 0
-0.403 -20.826 22.681 -0 -1.2 0
-0.374 -21.217 22.334 -0 -1.2 0
-0.346 -21.602 21.98 -0 -1.2 0
-0.317 -21.981 21.62 -0 -1.2 0
-0.289 -22.354 21.252 -0 -1.2 0
-0.483 0.466 30.057 -0 -1.2 0
-0.467 -0.057 30.081 -0 -1.2 0
-0.299 -5.275 29.809 -0 -1.2 0
-0.281 -5.793 29.732 -0 -1.2 0
-0.264 -6.309 29.645 -0 -1.2 0
-0.247 -6.823 29.55 -0 -1.2 0
-0.229 -7.336 29.445 -0 -1.2 0
-0.211 -7.847 29.333 -0 -1.2 0
-0.193 -8.356 29.211 -0 -1.2 0
-0.175 -8.862 29.08 -0 -1.2 0
-0.158 -9.367 28.94 -0 -1.2 0
-0.14 -9.869 28.791 -0 -1.2 0
-0.121 -10.368 28.634 -0 -1.2 0
-0.104 -10.864 28.469 -0 -1.2 0
-0.085 -11.357 28.294 -0 -1.2 0
-0.067 -11.848 28.11 -0 -1.2 0
-0.049 -12.334 27.919 -0 -1.2 0
-0.031 -12.817 27.718 -0 -1.2 0
-0.013 -13.298 27.511 -0 -1.2 0
0.005 -13.774 27.293 -0 -1.2 0
0.023 -14.246 27.068 -0 -1.2 0
0.042 -14.714 26.834 -0 -1.2 0
0.06 -15.179 26.593 -0 -1.2 0
0.078 -15.639 26.344 -0 -1.2 0
0.097 -16.094 26.086 -0 -1.2 0
0.115 -16.545 25.82 -0 -1.2 0
0.133 -16.991 25.547 -0 -1.2 0
0.151 -17.433 25.266 -0 -1.2 0
0.169 -17.868 24.977 -0 -1.2 0
0.187 -18.3 24.681 -0 -1.2 0
0.205 -18.726 24.377 -0 -1.2 0
0.223 -19.147 24.066 -0 -1.2 0
0.241 -19.562 23.747 -0 -1.2 0
0.259 -19.971 23.421 -0 -1.2 0
0.277 -20.375 23.088 -0 -1.2 0
0.295 -20.773 22.748 -0 -1.2 0
0.312 -21.165 22.402 -0 -1.2 0
0.33 -21.55 22.048 -0 -1.2 0
0.347 -21.93 21.688 -0 -1.2 0
0.365 -22.304 21.321 -0 -1.2 0
0.524 0.018 30.097 -0 -1.2 0
0.682 -5.2 29.833 -0 -1.2 0
0.698 -5.718 29.757 -0 -1.2 0
0.712 -6.234 29.671 -0 -1.2 0
0.726 -6.749 29.577 -0 -1.2 0
0.741 -7.262 29.474 -0 -1.2 0
0.755 -7.773 29.361 -0 -1.2 0
0.769 -8.282 29.24 -0 -1.2 0
0.783 -8.789 29.11 -0 -1.2 0
0.796 -9.294 28.971 -0 -1.2 0
0.809 -9.796 28.823 -0 -1.2 0
0.822 -10.295 28.667 -0 -1.2 0
0.834 -10.793 28.502 -0 -1.2 0
0.847 -11.286 28.328 -0 -1.2 0
0.859 -11.777 28.146 -0 -1.2 0
0.871 -12.264 27.954 -0 -1.2 0
0.883 -12.747 27.755 -0 -1.2 0
0.894 -13.229 27.547 -0 -1.2 0
0.905 -13.705 27.331 -0 -1.2 0
0.915 -14.178 27.106 -0 -1.2 0
0.926 -14.647 26.874 -0 -1.2 0
0.936 -15.112 26.633 -0 -1.2 0
0.947 -15.572 26.384 -0 -1.2 0
0.957 -16.029 26.127 -0 -1.2 0
0.966 -16.48 25.862 -0 -1.2 0
0.976 -16.927 25.589 -0 -1.2 0
0.984 -17.369 25.309 -0 -1.2 0
0.993 -17.806 25.021 -0 -1.2 0
1.001 -18.238 24.726 -0 -1.2 0
1.01 -18.665 24.422 -0 -1.2 0
1.017 -19.086 24.111 -0 -1.2 0
1.025 -19.502 23.794 -0 -1.2 0
1.031 -19.912 23.469 -0 -1.2 0
1.038 -20.317 23.136 -0 -1.2 0
1.045 -20.716 22.797 -0 -1.2 0
1.051 -21.108 22.451 -0 -1.2 0
1.057 -21.495 22.098 -0 -1.2 0
1.063 -21.876 21.738 -0 -1.2 0
1.069 -22.25 21.372 -0 -1.2 0
1.457 0.089 30.084 -0 -1.2 0
1.607 -5.13 29.827 -0 -1.2 0
1.62 -5.648 29.752 -0 -1.2 0
1.632 -6.164 29.667 -0 -1.2 0
1.644 -6.68 29.573 -0 -1.2 0
1.654 -7.193 29.471 -0 -1.2 0
1.665 -7.704 29.359 -0 -1.2 0
1.675 -8.213 29.239 -0 -1.2 0
1.685 -8.721 29.109 -0 -1.2 0
1.693 -9.226 28.971 -0 -1.2 0
1.702 -9.729 28.825 -0 -1.2 0
1.71 -10.228 28.668 -0 -1.2 0
1.718 -10.726 28.505 -0 -1.2 0
1.724 -11.219 28.332 -0 -1.2 0
1.731 -11.711 28.15 -0 -1.2 0
1.737 -12.199 27.96 -0 -1.2 0
1.743 -12.682 27.761 -0 -1.2 0
1.748 -13.164 27.555 -0 -1.2 0
1.752 -13.641 27.339 -0 -1.2 0
1.756 -14.115 27.116 -0 -1.2 0
1.759 -14.584 26.883 -0 -1.2 0
1.762 -15.05 26.644 -0 -1.2 0
1.765 -15.511 26.395 -0 -1.2 0
1.767 -15.968 26.14 -0 -1.2 0
1.767 -16.42 25.876 -0 -1.2 0
1.768 -16.867 25.604 -0 -1.2 0
1.769 -17.31 25.324 -0 -1.2 0
1.768 -17.747 25.037 -0 -1.2 0
1.768 -18.18 24.743 -0 -1.2 0
1.766 -18.607 24.44 -0 -1.2 0
1.764 -19.03 24.131 -0 -1.2 0
1.762 -19.446 23.814 -0 -1.2 0
1.759 -19.857 23.489 -0 -1.2 0
1.756 -20.263 23.157 -0 -1.2 0
1.751 -20.662 22.82 -0 -1.2 0
1.747 -21.056 22.474 -0 -1.2 0
1.742 -21.443 22.122 -0 -1.2 0
1.737 -21.825 21.763 -0 -1.2 0
1.73 -22.2 21.399 -0 -1.2 0
2.547 -5.06 29.79 -0 -1.2 0
2.557 -5.578 29.714 -0 -1.2 0
2.566 -6.094 29.631 -0 -1.2 0
2.574 -6.61 29.538 -0 -1.2 0
2.583 -7.123 29.437 -0 -1.2 0
2.589 -7.635 29.326 -0 -1.2 0
2.596 -8.144 29.207 -0 -1.2 0
2.601 -8.652 29.079 -0 -1.2 0
2.606 -9.158 28.941 -0 -1.2 0
2.609 -9.661 28.795 -0 -1.2 0
2.613 -10.161 28.64 -0 -1.2 0
2.615 -10.658 28.478 -0 -1.2 0
2.616 -11.152 28.306 -0 -1.2 0
2.617 -11.645 28.125 -0 -1.2 0
2.617 -12.133 27.936 -0 -1.2 0
2.616 -12.617 27.739 -0 -1.2 0
2.614 -13.099 27.533 -0 -1.2 0
2.612 -13.576 27.319 -0 -1.2 0
2.609 -14.051 27.096 -0 -1.2 0
2.605 -14.52 26.865 -0 -1.2 0
2.601 -14.987 26.626 -0 -1.2 0
2.595 -15.448 26.379 -0 -1.2 0
2.588 -15.906 26.125 -0 -1.2 0
2.582 -16.359 25.862 -0 -1.2 0
2.574 -16.806 25.591 -0 -1.2 0
2.565 -17.25 25.313 -0 -1.2 0
2.556 -17.688 25.027 -0 -1.2 0
2.546 -18.122 24.733 -0 -1.2 0
2.535 -18.55 24.432 -0 -1.2 0
2.523 -18.973 24.124 -0 -1.2 0
2.511 -19.39 23.808 -0 -1.2 0
2.498 -19.802 23.486 -0 -1.2 0
2.484 -20.208 23.155 -0 -1.2 0
2.469 -20.608 22.818 -0 -1.2 0
2.454 -21.003 22.474 -0 -1.2 0
2.437 -21.391 22.124 -0 -1.2 0
2.42 -21.774 21.766 -0 -1.2 0
2.403 -22.15 21.402 -0 -1.2 0
3.588 -6.554 29.463 -0 -1.2 0
3.591 -7.068 29.363 -0 -1.2 0
3.595 -7.58 29.252 -0 -1.2 0
3.597 -8.09 29.134 -0 -1.2 0
3.597 -8.597 29.007 -0 -1.2 0
3.597 -9.103 28.87 -0 -1.2 0
3.596 -9.607 28.725 -0 -1.2 0
3.593 -10.107 28.572 -0 -1.2 0
3.59 -10.605 28.409 -0 -1.2 0
3.585 -11.099 28.238 -0 -1.2 0
3.579 -11.592 28.059 -0 -1.2 0
3.572 -12.08 27.871 -0 -1.2 0
3.565 -12.565 27.675 -0 -1.2 0
3.557 -13.047 27.469 -0 -1.2 0
3.547 -13.525 27.257 -0 -1.2 0
3.535 -14 27.035 -0 -1.2 0
3.523 -14.47 26.806 -0 -1.2 0
3.51 -14.937 26.568 -0 -1.2 0
3.496 -15.399 26.323 -0 -1.2 0
3.48 -15.857 26.069 -0 -1.2 0
3.464 -16.31 25.807 -0 -1.2 0
3.447 -16.758 25.539 -0 -1.2 0
3.428 -17.203 25.261 -0 -1.2 0
3.408 -17.641 24.976 -0 -1.2 0
3.389 -18.076 24.684 -0 -1.2 0
3.366 -18.504 24.385 -0 -1.2 0
3.344 -18.928 24.078 -0 -1.2 0
3.321 -19.345 23.763 -0 -1.2 0
3.296 -19.758 23.442 -0 -1.2 0
3.271 -20.165 23.113 -0 -1.2 0
3.245 -20.566 22.778 -0 -1.2 0
3.217 -20.961 22.435 -0 -1.2 0
3.189 -21.35 22.086 -0 -1.2 0
3.16 -21.733 21.73 -0 -1.2 0
3.129 -22.11 21.368 -0 -1.2 0
4.504 -10.58 28.305 -0 -1.2 0
4.493 -11.074 28.134 -0 -1.2 0
4.481 -11.567 27.956 -0 -1.2 0
4.468 -12.055 27.769 -0 -1.2 0
4.452 -12.54 27.573 -0 -1.2 0
4.437 -13.023 27.37 -0 -1.2 0
4.42 -13.501 27.157 -0 -1.2 0
4.401 -13.976 26.938 -0 -1.2 0
4.381 -14.446 26.709 -0 -1.2 0
4.36 -14.913 26.472 -0 -1.2 0
4.337 -15.375 26.228 -0 -1.2 0
4.313 -15.834 25.975 -0 -1.2 0
4.288 -16.287 25.714 -0 -1.2 0
4.261 -16.736 25.446 -0 -1.2 0
4.233 -17.18 25.171 -0 -1.2 0
4.204 -17.619 24.887 -0 -1.2 0
4.174 -18.054 24.596 -0 -1.2 0
4.143 -18.483 24.298 -0 -1.2 0
4.11 -18.906 23.992 -0 -1.2 0
4.076 -19.324 23.679 -0 -1.2 0
4.04 -19.738 23.359 -0 -1.2 0
4.005 -20.145 23.032 -0 -1.2 0
3.967 -20.546 22.698 -0 -1.2 0
3.928 -20.941 22.357 -0 -1.2 0
3.887 -21.33 22.009 -0 -1.2 0
3.846 -21.714 21.655 -0 -1.2 0
3.803 -22.091 21.293 -0 -1.2 0
5.49 -8.546 28.756 -0 -1.2 0
5.44 -10.555 28.165 -0 -1.2 0
5.424 -11.05 27.996 -0 -1.2 0
5.405 -11.542 27.818 -0 -1.2 0
5.021 -17.598 24.766 -0 -1.2 0
4.981 -18.033 24.477 -0 -1.2 0
4.939 -18.462 24.18 -0 -1.2 0
4.896 -18.886 23.876 -0 -1.2 0
4.85 -19.304 23.565 -0 -1.2 0
4.805 -19.717 23.246 -0 -1.2 0
4.757 -20.125 22.921 -0 -1.2 0
4.708 -20.526 22.589 -0 -1.2 0
4.656 -20.922 22.25 -0 -1.2 0
4.605 -21.312 21.905 -0 -1.2 0
4.552 -21.695 21.551 -0 -1.2 0
4.496 -22.073 21.193 -0 -1.2 0
5.915 -17.575 24.601 -0 -1.2 0
5.864 -18.011 24.314 -0 -1.2 0
5.811 -18.44 24.02 -0 -1.2 0
5.755 -18.864 23.718 -0 -1.2 0
5.698 -19.283 23.409 -0 -1.2 0
5.641 -19.697 23.094 -0 -1.2 0
5.58 -20.104 22.77 -0 -1.2 0
5.518 -20.506 22.44 -0 -1.2 0
5.455 -20.902 22.104 -0 -1.2 0
5.389 -21.292 21.76 -0 -1.2 0
5.323 -21.676 21.411 -0 -1.2 0
5.255 -22.054 21.055 -0 -1.2 0
6.739 -17.556 24.417 -0 -1.2 0
6.677 -17.992 24.133 -0 -1.2 0
6.613 -18.421 23.84 -0 -1.2 0
6.549 -18.846 23.541 -0 -1.2 0
6.481 -19.265 23.235 -0 -1.2 0
6.41 -19.679 22.922 -0 -1.2 0
6.339 -20.087 22.602 -0 -1.2 0
6.266 -20.489 22.274 -0 -1.2 0
6.19 -20.885 21.941 -0 -1.2 0
6.113 -21.275 21.6 -0 -1.2 0
6.034 -21.66 21.253 -0 -1.2 0
5.953 -22.038 20.9 -0 -1.2 0
7.556 -17.538 24.205 -0 -1.2 0
7.484 -17.974 23.924 -0 -1.2 0
7.41 -18.404 23.635 -0 -1.2 0
7.334 -18.829 23.338 -0 -1.2 0
7.256 -19.248 23.034 -0 -1.2 0
7.175 -19.662 22.724 -0 -1.2 0
7.092 -20.07 22.407 -0 -1.2 0
7.007 -20.473 22.083 -0 -1.2 0
6.92 -20.869 21.752 -0 -1.2 0
6.831 -21.26 21.416 -0 -1.2 0
6.74 -21.644 21.072 -0 -1.2 0
6.647 -22.023 20.721 -0 -1.2 0
8.486 -17.081 24.224 -0 -1.2 0
8.406 -17.521 23.952 -0 -1.2 0
8.324 -17.957 23.673 -0 -1.2 0
8.239 -18.387 23.388 -0 -1.2 0
8.152 -18.812 23.094 -0 -1.2 0
8.062 -19.232 22.795 -0 -1.2 0
7.97 -19.646 22.487 -0 -1.2 0
7.875 -20.055 22.174 -0 -1.2 0
7.779 -20.457 21.854 -0 -1.2 0
7.679 -20.854 21.527 -0 -1.2 0
7.577 -21.245 21.194 -0 -1.2 0
7.473 -21.629 20.854 -0 -1.2 0
7.367 -22.008 20.508 -0 -1.2 0
9.262 -17.067 23.963 -0 -1.2 0
9.173 -17.507 23.694 -0 -1.2 0
9.08 -17.943 23.419 -0 -1.2 0
8.986 -18.373 23.136 -0 -1.2 0
8.889 -18.799 22.846 -0 -1.2 0
8.789 -19.218 22.55 -0 -1.2 0
8.687 -19.633 22.247 -0 -1.2 0
8.581 -20.041 21.937 -0 -1.2 0
8.473 -20.444 21.62 -0 -1.2 0
8.362 -20.841 21.298 -0 -1.2 0
8.249 -21.232 20.968 -0 -1.2 0
8.134 -21.617 20.633 -0 -1.2 0
8.016 -21.996 20.291 -0 -1.2 0
9.996 -17.054 23.689 -0 -1.2 0
9.897 -17.494 23.425 -0 -1.2 0
9.796 -17.931 23.153 -0 -1.2 0
9.692 -18.361 22.873 -0 -1.2 0
9.584 -18.787 22.588 -0 -1.2 0
9.474 -19.206 22.295 -0 -1.2 0
9.362 -19.621 21.996 -0 -1.2 0
9.245 -20.03 21.69 -0 -1.2 0
9.127 -20.433 21.378 -0 -1.2 0
9.005 -20.83 21.06 -0 -1.2 0
8.882 -21.221 20.735 -0 -1.2 0
8.754 -21.607 20.403 -0 -1.2 0
8.625 -21.986 20.065 -0 -1.2 0
10.775 -17.044 23.368 -0 -1.2 0
10.667 -17.484 23.108 -0 -1.2 0
10.556 -17.92 22.84 -0 -1.2 0
10.441 -18.351 22.565 -0 -1.2 0
10.323 -18.777 22.283 -0 -1.2 0
10.203 -19.197 21.995 -0 -1.2 0
10.078 -19.611 21.701 -0 -1.2 0
9.951 -20.02 21.4 -0 -1.2 0
9.821 -20.424 21.092 -0 -1.2 0
9.689 -20.821 20.778 -0 -1.2 0
9.553 -21.212 20.458 -0 -1.2 0
9.414 -21.598 20.132 -0 -1.2 0
9.272 -21.977 19.8 -0 -1.2 0
11.62 -16.59 23.286 -0 -1.2 0
11.506 -17.036 23.036 -0 -1.2 0
11.389 -17.476 22.78 -0 -1.2 0
11.268 -17.913 22.516 -0 -1.2 0
11.144 -18.344 22.246 -0 -1.2 0
11.017 -18.769 21.969 -0 -1.2 0
10.886 -19.189 21.686 -0 -1.2 0
10.751 -19.604 21.396 -0 -1.2 0
10.614 -20.014 21.099 -0 -1.2 0
10.473 -20.417 20.797 -0 -1.2 0
10.33 -20.814 20.487 -0 -1.2 0
10.183 -21.206 20.173 -0 -1.2 0
10.032 -21.591 19.851 -0 -1.2 0
9.88 -21.971 19.524 -0 -1.2 0
12.349 -16.585 22.924 -0 -1.2 0
12.227 -17.031 22.679 -0 -1.2 0
12.1 -17.471 22.427 -0 -1.2 0
11.97 -17.908 22.167 -0 -1.2 0
11.836 -18.339 21.902 -0 -1.2 0
11.7 -18.765 21.63 -0 -1.2 0
11.559 -19.185 21.351 -0 -1.2 0
11.415 -19.6 21.066 -0 -1.2 0
11.267 -20.009 20.774 -0 -1.2 0
11.116 -20.412 20.478 -0 -1.2 0
10.961 -20.81 20.174 -0 -1.2 0
10.804 -21.202 19.864 -0 -1.2 0
10.643 -21.587 19.548 -0 -1.2 0
10.479 -21.967 19.227 -0 -1.2 0
12.986 -17.028 22.267 -0 -1.2 0
12.851 -17.469 22.019 -0 -1.2 0
12.711 -17.906 21.766 -0 -1.2 0
12.567 -18.336 21.505 -0 -1.2 0
12.42 -18.762 21.239 -0 -1.2 0
12.269 -19.182 20.966 -0 -1.2 0
12.114 -19.598 20.687 -0 -1.2 0
11.956 -20.007 20.401 -0 -1.2 0
11.793 -20.41 20.11 -0 -1.2 0
11.628 -20.808 19.812 -0 -1.2 0
11.459 -21.2 19.509 -0 -1.2 0
11.286 -21.585 19.199 -0 -1.2 0
11.109 -21.965 18.885 -0 -1.2 0
13.534 -17.469 21.618 -0 -1.2 0
13.385 -17.906 21.37 -0 -1.2 0
13.233 -18.337 21.115 -0 -1.2 0
13.076 -18.763 20.853 -0 -1.2 0
12.915 -19.183 20.586 -0 -1.2 0
12.75 -19.598 20.313 -0 -1.2 0
12.582 -20.007 20.032 -0 -1.2 0
12.41 -20.411 19.747 -0 -1.2 0
12.234 -20.808 19.455 -0 -1.2 0
12.054 -21.2 19.158 -0 -1.2 0
11.87 -21.586 18.855 -0 -1.2 0
11.684 -21.966 18.546 -0 -1.2 0
13.884 -18.34 20.7 -0 -1.2 0
13.719 -18.766 20.445 -0 -1.2 0
13.548 -19.186 20.184 -0 -1.2 0
13.374 -19.601 19.916 -0 -1.2 0
13.196 -20.01 19.642 -0 -1.2 0
13.014 -20.413 19.363 -0 -1.2 0
12.828 -20.811 19.078 -0 -1.2 0
12.638 -21.203 18.787 -0 -1.2 0
12.444 -21.588 18.491 -0 -1.2 0
12.246 -21.968 18.188 -0 -1.2 0
14.444 -18.761 19.952 -0 -1.2 0
14.265 -19.181 19.698 -0 -1.2 0
14.081 -19.596 19.437 -0 -1.2 0
13.892 -20.006 19.17 -0 -1.2 0
13.7 -20.409 18.898 -0 -1.2 0
13.504 -20.807 18.619 -0 -1.2 0
13.302 -21.198 18.336 -0 -1.2 0
13.098 -21.584 18.046 -0 -1.2 0
12.889 -21.964 17.753 -0 -1.2 0
14.912 -19.177 19.224 -0 -1.2 0
14.72 -19.592 18.969 -0 -1.2 0
14.523 -20.002 18.709 -0 -1.2 0
14.32 -20.405 18.444 -0 -1.2 0
14.115 -20.803 18.173 -0 -1.2 0
13.905 -21.195 17.896 -0 -1.2 0
13.69 -21.58 17.615 -0 -1.2 0
13.471 -21.96 17.328 -0 -1.2 0
15.33 -19.589 18.49 -0 -1.2 0
15.124 -19.998 18.237 -0 -1.2 0
14.913 -20.402 17.979 -0 -1.2 0
14.698 -20.799 17.715 -0 -1.2 0
14.478 -21.191 17.446 -0 -1.2 0
14.255 -21.577 17.172 -0 -1.2 0
14.027 -21.957 16.892 -0 -1.2 0
15.295 -20.796 17.214 -0 -1.2 0
15.065 -21.188 16.952 -0 -1.2 0
14.832 -21.574 16.687 -0 -1.2 0
14.594 -21.954 16.416 -0 -1.2 0
15.832 -20.793 16.729 -0 -1.2 0
15.595 -21.185 16.475 -0 -1.2 0
15.352 -21.571 16.218 -0 -1.2 0
15.106 -21.951 15.954 -0 -1.2 0
16.107 -21.182 15.982 -0 -1.2 0
15.857 -21.569 15.731 -0 -1.2 0
15.601 -21.949 15.477 -0 -1.2 0
16.399 -21.566 15.171 -0 -1.2 0
16.134 -21.946 14.926 -0 -1.2 0
16.643 -21.948 14.352 -0 -1.2 0
17.11 -21.955 13.777 -0 -1.2 0
17.779 -21.634 -13.384 -0 -1.2 0
17.572 -21.262 -14.215 -0 -1.2 0
17.301 -21.647 -13.984 -0 -1.2 0
17.358 -20.884 -14.999 -0 -1.2 0
17.099 -21.274 -14.763 -0 -1.2 0
16.836 -21.659 -14.523 -0 -1.2 0
16.86 -20.897 -15.54 -0 -1.2 0
16.61 -21.287 -15.295 -0 -1.2 0
16.355 -21.671 -15.046 -0 -1.2 0
16.554 -20.514 -16.339 -0 -1.2 0
16.318 -20.91 -16.091 -0 -1.2 0
16.078 -21.3 -15.837 -0 -1.2 0
15.831 -21.684 -15.579 -0 -1.2 0
16.282 -20.119 -17.066 -0 -1.2 0
16.059 -20.521 -16.814 -0 -1.2 0
15.832 -20.917 -16.558 -0 -1.2 0
15.6 -21.306 -16.297 -0 -1.2 0
15.363 -21.691 -16.03 -0 -1.2 0
15.765 -20.128 -17.532 -0 -1.2 0
15.55 -20.529 -17.273 -0 -1.2 0
15.332 -20.925 -17.008 -0 -1.2 0
15.108 -21.315 -16.739 -0 -1.2 0
14.88 -21.699 -16.466 -0 -1.2 0
15.391 -19.731 -18.275 -0 -1.2 0
15.191 -20.138 -18.014 -0 -1.2 0
14.986 -20.539 -17.748 -0 -1.2 0
14.776 -20.935 -17.476 -0 -1.2 0
14.562 -21.325 -17.199 -0 -1.2 0
14.344 -21.708 -16.917 -0 -1.2 0
15.395 -18.488 -19.473 -0 -1.2 0
15.216 -18.911 -19.221 -0 -1.2 0
15.033 -19.329 -18.965 -0 -1.2 0
14.846 -19.742 -18.703 -0 -1.2 0
14.654 -20.149 -18.436 -0 -1.2 0
14.458 -20.55 -18.163 -0 -1.2 0
14.257 -20.945 -17.884 -0 -1.2 0
14.051 -21.335 -17.6 -0 -1.2 0
13.842 -21.718 -17.311 -0 -1.2 0
14.293 -19.754 -19.109 -0 -1.2 0
14.109 -20.16 -18.835 -0 -1.2 0
13.921 -20.561 -18.556 -0 -1.2 0
13.73 -20.956 -18.271 -0 -1.2 0
13.533 -21.346 -17.98 -0 -1.2 0
13.333 -21.729 -17.685 -0 -1.2 0
14.17 -18.516 -20.339 -0 -1.2 0
14.008 -18.939 -20.077 -0 -1.2 0
13.843 -19.357 -19.809 -0 -1.2 0
13.673 -19.769 -19.534 -0 -1.2 0
13.499 -20.175 -19.253 -0 -1.2 0
13.321 -20.576 -18.967 -0 -1.2 0
13.139 -20.971 -18.675 -0 -1.2 0
12.954 -21.36 -18.379 -0 -1.2 0
12.763 -21.743 -18.076 -0 -1.2 0
13.992 -17.231 -21.496 -0 -1.2 0
13.851 -17.67 -21.248 -0 -1.2 0
13.707 -18.103 -20.992 -0 -1.2 0
13.558 -18.531 -20.73 -0 -1.2 0
13.405 -18.954 -20.462 -0 -1.2 0
13.249 -19.372 -20.188 -0 -1.2 0
13.087 -19.784 -19.908 -0 -1.2 0
12.923 -20.19 -19.621 -0 -1.2 0
12.754 -20.591 -19.329 -0 -1.2 0
12.582 -20.985 -19.032 -0 -1.2 0
12.406 -21.374 -18.729 -0 -1.2 0
12.226 -21.757 -18.419 -0 -1.2 0
13.291 -17.276 -21.892 -0 -1.2 0
13.158 -17.715 -21.638 -0 -1.2 0
13.021 -18.147 -21.376 -0 -1.2 0
12.881 -18.575 -21.11 -0 -1.2 0
12.737 -18.997 -20.836 -0 -1.2 0
12.588 -19.415 -20.556 -0 -1.2 0
12.436 -19.826 -20.271 -0 -1.2 0
12.28 -20.232 -19.979 -0 -1.2 0
12.12 -20.632 -19.681 -0 -1.2 0
11.957 -21.026 -19.377 -0 -1.2 0
11.79 -21.414 -19.067 -0 -1.2 0
11.62 -21.796 -18.753 -0 -1.2 0
12.398 -17.762 -22.032 -0 -1.2 0
12.269 -18.194 -21.766 -0 -1.2 0
12.138 -18.622 -21.493 -0 -1.2 0
12.002 -19.043 -21.214 -0 -1.2 0
11.864 -19.46 -20.929 -0 -1.2 0
11.721 -19.871 -20.638 -0 -1.2 0
11.575 -20.276 -20.339 -0 -1.2 0
11.425 -20.675 -20.036 -0 -1.2 0
11.272 -21.068 -19.727 -0 -1.2 0
11.115 -21.456 -19.411 -0 -1.2 0
10.955 -21.837 -19.089 -0 -1.2 0
11.679 -17.805 -22.376 -0 -1.2 0
11.56 -18.237 -22.106 -0 -1.2 0
11.436 -18.664 -21.828 -0 -1.2 0
11.31 -19.085 -21.545 -0 -1.2 0
11.179 -19.501 -21.254 -0 -1.2 0
11.045 -19.911 -20.957 -0 -1.2 0
10.908 -20.316 -20.655 -0 -1.2 0
10.768 -20.714 -20.346 -0 -1.2 0
10.624 -21.107 -20.031 -0 -1.2 0
10.478 -21.494 -19.71 -0 -1.2 0
10.328 -21.875 -19.383 -0 -1.2 0
10.952 -17.849 -22.693 -0 -1.2 0
10.841 -18.28 -22.418 -0 -1.2 0
10.726 -18.706 -22.136 -0 -1.2 0
10.608 -19.127 -21.848 -0 -1.2 0
10.486 -19.542 -21.554 -0 -1.2 0
10.362 -19.952 -21.252 -0 -1.2 0
10.234 -20.356 -20.945 -0 -1.2 0
10.104 -20.754 -20.632 -0 -1.2 0
9.97 -21.146 -20.311 -0 -1.2 0
9.833 -21.532 -19.985 -0 -1.2 0
9.693 -21.913 -19.653 -0 -1.2 0
10.049 -18.322 -22.737 -0 -1.2 0
9.944 -18.748 -22.451 -0 -1.2 0
9.836 -19.168 -22.158 -0 -1.2 0
9.724 -19.583 -21.86 -0 -1.2 0
9.609 -19.992 -21.553 -0 -1.2 0
9.492 -20.396 -21.241 -0 -1.2 0
9.372 -20.793 -20.922 -0 -1.2 0
9.249 -21.185 -20.596 -0 -1.2 0
9.123 -21.57 -20.265 -0 -1.2 0
8.995 -21.95 -19.928 -0 -1.2 0
9.307 -18.362 -23.007 -0 -1.2 0
9.21 -18.787 -22.717 -0 -1.2 0
9.11 -19.206 -22.421 -0 -1.2 0
9.008 -19.621 -22.118 -0 -1.2 0
8.904 -20.03 -21.807 -0 -1.2 0
8.795 -20.432 -21.491 -0 -1.2 0
8.686 -20.829 -21.167 -0 -1.2 0
8.572 -21.22 -20.839 -0 -1.2 0
8.457 -21.605 -20.502 -0 -1.2 0
8.339 -21.985 -20.161 -0 -1.2 0
8.556 -18.4 -23.253 -0 -1.2 0
8.467 -18.825 -22.959 -0 -1.2 0
8.377 -19.244 -22.659 -0 -1.2 0
8.285 -19.658 -22.352 -0 -1.2 0
8.189 -20.066 -22.038 -0 -1.2 0
8.091 -20.468 -21.718 -0 -1.2 0
7.991 -20.864 -21.391 -0 -1.2 0
7.888 -21.255 -21.058 -0 -1.2 0
7.783 -21.639 -20.719 -0 -1.2 0
7.675 -22.018 -20.373 -0 -1.2 0
7.689 -18.848 -23.198 -0 -1.2 0
7.609 -19.266 -22.895 -0 -1.2 0
7.526 -19.68 -22.584 -0 -1.2 0
7.441 -20.088 -22.267 -0 -1.2 0
7.354 -20.49 -21.944 -0 -1.2 0
7.265 -20.886 -21.613 -0 -1.2 0
7.173 -21.276 -21.276 -0 -1.2 0
7.08 -21.66 -20.933 -0 -1.2 0
6.984 -22.039 -20.583 -0 -1.2 0
6.991 -18.864 -23.389 -0 -1.2 0
6.92 -19.283 -23.084 -0 -1.2 0
6.847 -19.696 -22.77 -0 -1.2 0
6.772 -20.104 -22.451 -0 -1.2 0
6.694 -20.506 -22.124 -0 -1.2 0
6.615 -20.901 -21.791 -0 -1.2 0
6.533 -21.291 -21.451 -0 -1.2 0
6.45 -21.675 -21.105 -0 -1.2 0
6.364 -22.053 -20.752 -0 -1.2 0
6.288 -18.88 -23.56 -0 -1.2 0
6.226 -19.298 -23.252 -0 -1.2 0
6.162 -19.712 -22.936 -0 -1.2 0
6.096 -20.119 -22.614 -0 -1.2 0
6.029 -20.521 -22.285 -0 -1.2 0
5.959 -20.916 -21.949 -0 -1.2 0
5.888 -21.306 -21.606 -0 -1.2 0
5.815 -21.69 -21.258 -0 -1.2 0
5.74 -22.068 -20.903 -0 -1.2 0
5.524 -18.898 -23.721 -0 -1.2 0
5.472 -19.316 -23.411 -0 -1.2 0
5.418 -19.729 -23.094 -0 -1.2 0
5.363 -20.136 -22.769 -0 -1.2 0
5.306 -20.538 -22.438 -0 -1.2 0
5.247 -20.933 -22.1 -0 -1.2 0
5.187 -21.322 -21.755 -0 -1.2 0
5.125 -21.706 -21.403 -0 -1.2 0
5.063 -22.083 -21.045 -0 -1.2 0
4.793 -18.915 -23.85 -0 -1.2 0
4.75 -19.332 -23.538 -0 -1.2 0
4.706 -19.745 -23.219 -0 -1.2 0
4.661 -20.152 -22.892 -0 -1.2 0
4.614 -20.553 -22.559 -0 -1.2 0
4.566 -20.948 -22.22 -0 -1.2 0
4.517 -21.338 -21.873 -0 -1.2 0
4.465 -21.721 -21.519 -0 -1.2 0
4.413 -22.098 -21.159 -0 -1.2 0
4.053 -18.931 -23.958 -0 -1.2 0
4.021 -19.349 -23.645 -0 -1.2 0
3.986 -19.761 -23.324 -0 -1.2 0
3.951 -20.168 -22.997 -0 -1.2 0
3.914 -20.569 -22.662 -0 -1.2 0
3.877 -20.964 -22.32 -0 -1.2 0
3.838 -21.353 -21.972 -0 -1.2 0
3.798 -21.736 -21.616 -0 -1.2 0
3.757 -22.113 -21.255 -0 -1.2 0
3.252 -18.949 -24.05 -0 -1.2 0
3.23 -19.366 -23.735 -0 -1.2 0
3.207 -19.778 -23.413 -0 -1.2 0
3.182 -20.185 -23.084 -0 -1.2 0
3.157 -20.586 -22.747 -0 -1.2 0
3.13 -20.98 -22.405 -0 -1.2 0
3.103 -21.369 -22.055 -0 -1.2 0
3.076 -21.751 -21.698 -0 -1.2 0
3.047 -22.128 -21.336 -0 -1.2 0
2.522 -18.989 -24.088 -0 -1.2 0
2.51 -19.406 -23.773 -0 -1.2 0
2.496 -19.818 -23.449 -0 -1.2 0
2.482 -20.224 -23.119 -0 -1.2 0
2.467 -20.624 -22.781 -0 -1.2 0
2.451 -21.018 -22.438 -0 -1.2 0
2.435 -21.406 -22.086 -0 -1.2 0
2.418 -21.788 -21.729 -0 -1.2 0
2.4 -22.164 -21.364 -0 -1.2 0
1.79 -19.048 -24.09 -0 -1.2 0
1.788 -19.464 -23.773 -0 -1.2 0
1.784 -19.876 -23.448 -0 -1.2 0
1.78 -20.281 -23.117 -0 -1.2 0
1.775 -20.68 -22.778 -0 -1.2 0
1.771 -21.073 -22.432 -0 -1.2 0
1.765 -21.46 -22.08 -0 -1.2 0
1.759 -21.841 -21.721 -0 -1.2 0
1.752 -22.217 -21.355 -0 -1.2 0
0.996 -19.107 -24.074 -0 -1.2 0
1.004 -19.522 -23.756 -0 -1.2 0
1.012 -19.933 -23.43 -0 -1.2 0
1.019 -20.337 -23.098 -0 -1.2 0
1.025 -20.735 -22.758 -0 -1.2 0
1.032 -21.128 -22.411 -0 -1.2 0
1.038 -21.514 -22.059 -0 -1.2 0
1.043 -21.894 -21.698 -0 -1.2 0
1.05 -22.269 -21.332 -0 -1.2 0
0.262 -19.164 -24.031 -0 -1.2 0
0.297 -19.988 -23.387 -0 -1.2 0
0.315 -20.392 -23.054 -0 -1.2 0
0.331 -20.789 -22.714 -0 -1.2 0
0.348 -21.181 -22.366 -0 -1.2 0
0.365 -21.566 -22.012 -0 -1.2 0
0.382 -21.946 -21.652 -0 -1.2 0
0.399 -22.319 -21.285 -0 -1.2 0
-0.475 -19.224 -23.963 -0 -1.2 0
-0.448 -19.637 -23.643 -0 -1.2 0
-0.42 -20.046 -23.317 -0 -1.2 0
-0.393 -20.449 -22.984 -0 -1.2 0
-0.365 -20.845 -22.643 -0 -1.2 0
-0.338 -21.236 -22.296 -0 -1.2 0
-0.31 -21.621 -21.942 -0 -1.2 0
-0.282 -21.999 -21.581 -0 -1.2 0
-0.253 -22.372 -21.214 -0 -1.2 0
-2.365 -0.227 -29.935 -0 -1.2 0
-2.35 -0.75 -29.946 -0 -1.2 0
-2.335 -1.273 -29.95 -0 -1.2 0
-2.317 -1.795 -29.943 -0 -1.2 0
-2.223 -4.405 -29.775 -0 -1.2 0
-2.202 -4.926 -29.714 -0 -1.2 0
-2.181 -5.444 -29.645 -0 -1.2 0
-2.159 -5.961 -29.566 -0 -1.2 0
-2.135 -6.476 -29.478 -0 -1.2 0
-2.112 -6.991 -29.382 -0 -1.2 0
-2.087 -7.503 -29.275 -0 -1.2 0
-2.062 -8.013 -29.161 -0 -1.2 0
-2.037 -8.521 -29.038 -0 -1.2 0
-2.01 -9.027 -28.905 -0 -1.2 0
-1.984 -9.531 -28.764 -0 -1.2 0
-1.957 -10.032 -28.613 -0 -1.2 0
-1.928 -10.53 -28.455 -0 -1.2 0
-1.899 -11.025 -28.288 -0 -1.2 0
-1.748 -13.454 -27.324 -0 -1.2 0
-1.715 -13.928 -27.105 -0 -1.2 0
-1.683 -14.4 -26.88 -0 -1.2 0
-1.292 -19.283 -23.868 -0 -1.2 0
-1.254 -19.696 -23.549 -0 -1.2 0
-1.137 -20.902 -22.549 -0 -1.2 0
-1.098 -21.291 -22.202 -0 -1.2 0
-1.058 -21.675 -21.848 -0 -1.2 0
-1.018 -22.053 -21.487 -0 -1.2 0
-0.977 -22.425 -21.12 -0 -1.2 0
-3.311 -0.299 -29.828 -0 -1.2 0
-3.164 -4.476 -29.663 -0 -1.2 0
-3.141 -4.997 -29.602 -0 -1.2 0
-3.118 -5.515 -29.532 -0 -1.2 0
-3.093 -6.032 -29.452 -0 -1.2 0
-3.067 -6.547 -29.365 -0 -1.2 0
-3.04 -7.061 -29.267 -0 -1.2 0
-3.013 -7.573 -29.161 -0 -1.2 0
-2.984 -8.083 -29.046 -0 -1.2 0
-2.955 -8.59 -28.922 -0 -1.2 0
-2.893 -9.6 -28.648 -0 -1.2 0
-2.828 -10.598 -28.339 -0 -1.2 0
-2.794 -11.093 -28.172 -0 -1.2 0
-2.759 -11.584 -27.995 -0 -1.2 0
-2.65 -13.04 -27.416 -0 -1.2 0
-2.612 -13.519 -27.207 -0 -1.2 0
-2.367 -16.304 -25.777 -0 -1.2 0
-2.235 -17.636 -24.955 -0 -1.2 0
-2.188 -18.069 -24.665 -0 -1.2 0
-2.142 -18.499 -24.369 -0 -1.2 0
-1.902 -20.561 -22.776 -0 -1.2 0
-1.852 -20.956 -22.436 -0 -1.2 0
-1.801 -21.345 -22.089 -0 -1.2 0
-1.75 -21.728 -21.736 -0 -1.2 0
-1.698 -22.105 -21.376 -0 -1.2 0
-1.646 -22.475 -21.009 -0 -1.2 0
-4.007 -6.6 -29.221 -0 -1.2 0
-3.977 -7.114 -29.123 -0 -1.2 0
-3.947 -7.626 -29.017 -0 -1.2 0
-3.881 -8.643 -28.779 -0 -1.2 0
-3.774 -10.152 -28.355 -0 -1.2 0
-3.737 -10.649 -28.196 -0 -1.2 0
-3.297 -15.441 -26.147 -0 -1.2 0
-3.248 -15.898 -25.897 -0 -1.2 0
-3.039 -17.681 -24.82 -0 -1.2 0
-2.984 -18.114 -24.531 -0 -1.2 0
-2.928 -18.543 -24.235 -0 -1.2 0
-2.815 -19.384 -23.621 -0 -1.2 0
-2.698 -20.202 -22.979 -0 -1.2 0
-2.638 -20.602 -22.647 -0 -1.2 0
-2.577 -20.997 -22.308 -0 -1.2 0
-2.516 -21.385 -21.963 -0 -1.2 0
-2.454 -21.767 -21.61 -0 -1.2 0
-2.39 -22.144 -21.251 -0 -1.2 0
-2.326 -22.514 -20.886 -0 -1.2 0
-5.153 -5.08 -29.271 -0 -1.2 0
