# .PCD v.7 - Point Cloud Data file format
FIELDS x y z vp_x vp_y vp_z
SIZE 4 4 4 4 4 4
TYPE F F F F F F
COUNT 1 1 1 1 1 1
WIDTH 1669
HEIGHT 1
VIEWPOINT 0 -1.20014 0 1 0 0 0
POINTS 1669
DATA ascii
-0.798 0.025 1.598 -0 -1.2 0
-0.827 0.022 1.663 -0 -1.2 0
-0.86 0.022 1.736 -0 -1.2 0
-0.897 0.026 1.818 -0 -1.2 0
-0.93 0.02 1.892 -0 -1.2 0
-0.972 0.021 1.984 -0 -1.2 0
-1.016 0.024 2.084 -0 -1.2 0
-1.061 0.023 2.184 -0 -1.2 0
-1.11 0.023 2.295 -0 -1.2 0
-1.163 0.023 2.414 -0 -1.2 0
-1.224 0.025 2.551 -0 -1.2 0
-1.294 0.029 2.705 -0 -1.2 0
-1.359 0.025 2.852 -0 -1.2 0
-1.437 0.024 3.026 -0 -1.2 0
-1.531 0.03 3.235 -0 -1.2 0
-1.629 0.031 3.454 -0 -1.2 0
-1.731 0.025 3.683 -0 -1.2 0
-1.862 0.029 3.975 -0 -1.2 0
-2.005 0.029 4.294 -0 -1.2 0
-2.168 0.027 4.66 -0 -1.2 0
-2.376 0.034 5.125 -0 -1.2 0
-2.633 0.044 5.699 -0 -1.2 0
-2.936 0.05 6.374 -0 -1.2 0
-3.331 0.064 7.259 -0 -1.2 0
-3.527 -0.017 7.702 -0 -1.2 0
-3.569 -0.156 7.802 -0 -1.2 0
-3.568 -0.308 7.807 -0 -1.2 0
-3.468 -0.478 7.593 -0 -1.2 0
-4.61 -0.467 10.144 -0 -1.2 0
-3.421 -0.778 7.501 -0 -1.2 0
-3.4 -0.924 7.461 -0 -1.2 0
-4.603 -1.055 10.156 -0 -1.2 0
-4.603 -1.25 10.166 -0 -1.2 0
-4.614 -1.447 10.201 -0 -1.2 0
-4.531 -1.635 10.021 -0 -1.2 0
-4.624 -1.845 10.241 -0 -1.2 0
-4.626 -2.044 10.257 -0 -1.2 0
-4.616 -2.242 10.241 -0 -1.2 0
-4.615 -2.443 10.25 -0 -1.2 0
-4.613 -2.644 10.256 -0 -1.2 0
-4.61 -2.846 10.259 -0 -1.2 0
-4.61 -3.05 10.267 -0 -1.2 0
-4.611 -3.257 10.281 -0 -1.2 0
-4.607 -3.463 10.283 -0 -1.2 0
-4.606 -3.671 10.289 -0 -1.2 0
-4.603 -3.881 10.293 -0 -1.2 0
-4.603 -4.094 10.302 -0 -1.2 0
-4.597 -4.305 10.299 -0 -1.2 0
-4.596 -4.523 10.309 -0 -1.2 0
-4.587 -4.736 10.298 -0 -1.2 0
-4.584 -4.956 10.301 -0 -1.2 0
-4.585 -5.184 10.317 -0 -1.2 0
-4.583 -5.41 10.32 -0 -1.2 0
-4.417 -5.479 9.954 -0 -1.2 0
-4.563 -5.858 10.299 -0 -1.2 0
-4.562 -6.096 10.307 -0 -1.2 0
-4.558 -6.335 10.311 -0 -1.2 0
-4.556 -6.58 10.318 -0 -1.2 0
-4.556 -6.832 10.329 -0 -1.2 0
-4.55 -7.081 10.327 -0 -1.2 0
-4.545 -7.336 10.328 -0 -1.2 0
-4.54 -7.598 10.332 -0 -1.2 0
-4.534 -7.861 10.331 -0 -1.2 0
-4.526 -8.127 10.325 -0 -1.2 0
-4.395 -8.199 10.036 -0 -1.2 0
-4.229 -8.202 9.663 -0 -1.2 0
-4.145 -8.335 9.482 -0 -1.2 0
-4.047 -8.44 9.27 -0 -1.2 0
-0.458 0.025 0.95 -0 -1.2 0
-0.473 0.026 0.988 -0 -1.2 0
-0.486 0.019 1.02 -0 -1.2 0
-0.501 0.018 1.058 -0 -1.2 0
-0.521 0.023 1.104 -0 -1.2 0
-0.537 0.02 1.144 -0 -1.2 0
-0.553 0.015 1.183 -0 -1.2 0
-0.575 0.022 1.237 -0 -1.2 0
-0.598 0.028 1.292 -0 -1.2 0
-0.617 0.025 1.34 -0 -1.2 0
-0.637 0.021 1.388 -0 -1.2 0
-0.659 0.021 1.444 -0 -1.2 0
-0.682 0.02 1.501 -0 -1.2 0
-0.71 0.022 1.566 -0 -1.2 0
-0.739 0.026 1.639 -0 -1.2 0
-0.766 0.024 1.705 -0 -1.2 0
-0.797 0.024 1.78 -0 -1.2 0
-0.831 0.028 1.863 -0 -1.2 0
-0.858 0.018 1.931 -0 -1.2 0
-0.9 0.023 2.031 -0 -1.2 0
-0.941 0.026 2.133 -0 -1.2 0
-0.98 0.021 2.227 -0 -1.2 0
-1.029 0.025 2.347 -0 -1.2 0
-1.078 0.025 2.468 -0 -1.2 0
-1.134 0.027 2.605 -0 -1.2 0
-1.195 0.028 2.754 -0 -1.2 0
-1.256 0.024 2.903 -0 -1.2 0
-1.328 0.024 3.079 -0 -1.2 0
-1.415 0.029 3.291 -0 -1.2 0
-1.502 0.027 3.504 -0 -1.2 0
-1.593 0.02 3.727 -0 -1.2 0
-1.714 0.025 4.023 -0 -1.2 0
-1.851 0.028 4.356 -0 -1.2 0
-2.002 0.027 4.727 -0 -1.2 0
-2.183 0.027 5.17 -0 -1.2 0
-2.422 0.039 5.753 -0 -1.2 0
-2.702 0.046 6.436 -0 -1.2 0
-3.065 0.059 7.325 -0 -1.2 0
-3.301 -0.002 7.902 -0 -1.2 0
-3.384 -0.13 8.114 -0 -1.2 0
-3.323 -0.3 7.972 -0 -1.2 0
-3.313 -0.454 7.958 -0 -1.2 0
-3.276 -0.612 7.876 -0 -1.2 0
-3.61 -0.726 8.697 -0 -1.2 0
-4.106 -5.491 10.153 -0 -1.2 0
-3.98 -5.579 9.852 -0 -1.2 0
-4.264 -8.252 10.683 -0 -1.2 0
-4.204 -8.437 10.544 -0 -1.2 0
-4.06 -8.468 10.193 -0 -1.2 0
-0.419 0.018 0.975 -0 -1.2 0
-0.433 0.02 1.013 -0 -1.2 0
-0.447 0.02 1.052 -0 -1.2 0
-0.461 0.019 1.09 -0 -1.2 0
-0.479 0.023 1.136 -0 -1.2 0
-0.494 0.02 1.176 -0 -1.2 0
-0.509 0.016 1.216 -0 -1.2 0
-0.529 0.023 1.271 -0 -1.2 0
-0.547 0.022 1.319 -0 -1.2 0
-0.568 0.026 1.375 -0 -1.2 0
-0.586 0.022 1.424 -0 -1.2 0
-0.607 0.022 1.481 -0 -1.2 0
-0.631 0.026 1.547 -0 -1.2 0
-0.652 0.023 1.605 -0 -1.2 0
-0.678 0.022 1.671 -0 -1.2 0
-0.702 0.02 1.738 -0 -1.2 0
-0.73 0.021 1.812 -0 -1.2 0
-0.765 0.029 1.905 -0 -1.2 0
-0.79 0.019 1.973 -0 -1.2 0
-0.828 0.025 2.075 -0 -1.2 0
-0.863 0.023 2.17 -0 -1.2 0
-0.898 0.019 2.265 -0 -1.2 0
-0.943 0.022 2.386 -0 -1.2 0
-0.989 0.022 2.508 -0 -1.2 0
-1.041 0.025 2.648 -0 -1.2 0
-1.09 0.02 2.781 -0 -1.2 0
-1.145 0.015 2.932 -0 -1.2 0
-1.215 0.019 3.119 -0 -1.2 0
-1.285 0.016 3.306 -0 -1.2 0
-1.376 0.024 3.549 -0 -1.2 0
-1.456 0.014 3.766 -0 -1.2 0
-1.567 0.019 4.065 -0 -1.2 0
-1.692 0.023 4.403 -0 -1.2 0
-1.836 0.024 4.786 -0 -1.2 0
-2.003 0.025 5.237 -0 -1.2 0
-2.208 0.031 5.789 -0 -1.2 0
-2.463 0.037 6.473 -0 -1.2 0
-2.793 0.051 7.362 -0 -1.2 0
-3.218 0.067 8.504 -0 -1.2 0
-3.553 0.012 9.408 -0 -1.2 0
-3.385 -0.209 8.969 -0 -1.2 0
-3.362 -0.383 8.918 -0 -1.2 0
-3.384 -0.546 8.986 -0 -1.2 0
-3.377 -0.716 8.976 -0 -1.2 0
-0.381 0.026 1.013 -0 -1.2 0
-0.394 0.027 1.052 -0 -1.2 0
-0.407 0.027 1.091 -0 -1.2 0
-0.418 0.02 1.124 -0 -1.2 0
-0.434 0.024 1.171 -0 -1.2 0
-0.448 0.021 1.211 -0 -1.2 0
-0.461 0.016 1.252 -0 -1.2 0
-0.479 0.024 1.307 -0 -1.2 0
-0.495 0.023 1.356 -0 -1.2 0
-0.511 0.02 1.404 -0 -1.2 0
-0.531 0.023 1.461 -0 -1.2 0
-0.55 0.023 1.519 -0 -1.2 0
-0.569 0.021 1.577 -0 -1.2 0
-0.588 0.018 1.636 -0 -1.2 0
-0.61 0.018 1.703 -0 -1.2 0
-0.639 0.026 1.787 -0 -1.2 0
-0.661 0.022 1.855 -0 -1.2 0
-0.689 0.025 1.94 -0 -1.2 0
-0.715 0.02 2.018 -0 -1.2 0
-0.747 0.022 2.113 -0 -1.2 0
-0.778 0.02 2.208 -0 -1.2 0
-0.813 0.02 2.312 -0 -1.2 0
-0.851 0.02 2.427 -0 -1.2 0
-0.892 0.019 2.55 -0 -1.2 0
-0.937 0.019 2.684 -0 -1.2 0
-0.984 0.017 2.826 -0 -1.2 0
-1.035 0.014 2.979 -0 -1.2 0
-1.091 0.012 3.15 -0 -1.2 0
-1.161 0.015 3.358 -0 -1.2 0
-1.233 0.015 3.577 -0 -1.2 0
-1.312 0.011 3.814 -0 -1.2 0
-1.406 0.012 4.099 -0 -1.2 0
-1.523 0.018 4.449 -0 -1.2 0
-1.652 0.02 4.838 -0 -1.2 0
-1.801 0.021 5.284 -0 -1.2 0
-1.993 0.03 5.861 -0 -1.2 0
-2.213 0.034 6.526 -0 -1.2 0
-2.506 0.046 7.408 -0 -1.2 0
-2.904 0.067 8.602 -0 -1.2 0
-3.415 0.086 10.138 -0 -1.2 0
-4.245 0.142 12.632 -0 -1.2 0
-7.603 -5.247 23.073 -0 -1.2 0
-7.506 -6.073 22.834 -0 -1.2 0
-6.803 -6.419 20.739 -0 -1.2 0
-7.09 -7.072 21.644 -0 -1.2 0
-0.344 0.027 1.042 -0 -1.2 0
-0.354 0.021 1.074 -0 -1.2 0
-0.365 0.021 1.114 -0 -1.2 0
-0.377 0.02 1.154 -0 -1.2 0
-0.389 0.019 1.194 -0 -1.2 0
-0.404 0.022 1.242 -0 -1.2 0
-0.416 0.017 1.283 -0 -1.2 0
-0.43 0.018 1.331 -0 -1.2 0
-0.442 0.012 1.373 -0 -1.2 0
-0.459 0.015 1.43 -0 -1.2 0
-0.476 0.017 1.488 -0 -1.2 0
-0.496 0.024 1.554 -0 -1.2 0
-0.514 0.022 1.613 -0 -1.2 0
-0.531 0.019 1.672 -0 -1.2 0
-0.556 0.029 1.755 -0 -1.2 0
-0.576 0.027 1.823 -0 -1.2 0
-0.597 0.023 1.892 -0 -1.2 0
-0.62 0.021 1.97 -0 -1.2 0
-0.645 0.021 2.056 -0 -1.2 0
-0.673 0.023 2.152 -0 -1.2 0
-0.705 0.025 2.258 -0 -1.2 0
-0.731 0.017 2.346 -0 -1.2 0
-0.767 0.021 2.47 -0 -1.2 0
-0.805 0.021 2.595 -0 -1.2 0
-0.845 0.021 2.73 -0 -1.2 0
-0.887 0.018 2.874 -0 -1.2 0
-0.936 0.018 3.037 -0 -1.2 0
-0.987 0.017 3.21 -0 -1.2 0
-1.044 0.014 3.402 -0 -1.2 0
-1.118 0.021 3.65 -0 -1.2 0
-1.189 0.018 3.891 -0 -1.2 0
-1.274 0.018 4.178 -0 -1.2 0
-1.365 0.013 4.485 -0 -1.2 0
-1.481 0.016 4.878 -0 -1.2 0
-1.618 0.019 5.338 -0 -1.2 0
-1.786 0.026 5.903 -0 -1.2 0
-1.996 0.037 6.611 -0 -1.2 0
-2.275 0.056 7.549 -0 -1.2 0
-2.622 0.073 8.718 -0 -1.2 0
-3.102 0.1 10.337 -0 -1.2 0
-3.786 0.134 12.637 -0 -1.2 0
-4.944 0.211 16.537 -0 -1.2 0
-6.993 -5.324 23.828 -0 -1.2 0
-6.927 -5.734 23.634 -0 -1.2 0
-6.444 -5.832 22.014 -0 -1.2 0
-6.153 -6.025 21.043 -0 -1.2 0
-5.951 -6.26 20.381 -0 -1.2 0
-6.216 -6.909 21.316 -0 -1.2 0
-6.221 -7.338 21.366 -0 -1.2 0
-6.692 -8.272 23.018 -0 -1.2 0
-6.465 -8.481 22.265 -0 -1.2 0
-0.302 0.02 1.062 -0 -1.2 0
-0.312 0.021 1.101 -0 -1.2 0
-0.323 0.022 1.141 -0 -1.2 0
-0.333 0.021 1.182 -0 -1.2 0
-0.345 0.025 1.23 -0 -1.2 0
-0.357 0.023 1.271 -0 -1.2 0
-0.369 0.025 1.32 -0 -1.2 0
-0.378 0.013 1.354 -0 -1.2 0
-0.391 0.012 1.403 -0 -1.2 0
-0.407 0.022 1.469 -0 -1.2 0
-0.418 0.013 1.511 -0 -1.2 0
-0.435 0.019 1.578 -0 -1.2 0
-0.451 0.018 1.637 -0 -1.2 0
-0.469 0.02 1.705 -0 -1.2 0
-0.486 0.02 1.773 -0 -1.2 0
-0.506 0.023 1.85 -0 -1.2 0
-0.524 0.019 1.92 -0 -1.2 0
-0.546 0.022 2.007 -0 -1.2 0
-0.568 0.017 2.086 -0 -1.2 0
-0.595 0.024 2.191 -0 -1.2 0
-0.62 0.023 2.288 -0 -1.2 0
-0.645 0.018 2.387 -0 -1.2 0
-0.676 0.018 2.503 -0 -1.2 0
-0.708 0.019 2.628 -0 -1.2 0
-0.743 0.018 2.764 -0 -1.2 0
-0.779 0.013 2.9 -0 -1.2 0
-0.821 0.014 3.065 -0 -1.2 0
-0.866 0.011 3.24 -0 -1.2 0
-0.917 0.01 3.434 -0 -1.2 0
-0.982 0.018 3.685 -0 -1.2 0
-1.042 0.012 3.918 -0 -1.2 0
-1.122 0.018 4.226 -0 -1.2 0
-1.205 0.015 4.546 -0 -1.2 0
-1.303 0.015 4.923 -0 -1.2 0
-1.428 0.022 5.407 -0 -1.2 0
-1.566 0.022 5.939 -0 -1.2 0
-1.747 0.03 6.635 -0 -1.2 0
-1.99 0.05 7.573 -0 -1.2 0
-2.297 0.069 8.753 -0 -1.2 0
-2.713 0.094 10.359 -0 -1.2 0
-3.308 0.129 12.651 -0 -1.2 0
-4.262 0.189 16.328 -0 -1.2 0
-4.953 -5.22 19.414 -0 -1.2 0
-4.98 -5.617 19.551 -0 -1.2 0
-5.07 -6.085 19.935 -0 -1.2 0
-5.787 -7.235 22.795 -0 -1.2 0
-5.733 -7.623 22.615 -0 -1.2 0
-5.52 -7.814 21.807 -0 -1.2 0
-5.793 -8.608 22.921 -0 -1.2 0
-5.362 -8.926 21.287 -0 -1.2 0
-0.259 0.021 1.091 -0 -1.2 0
-0.267 0.022 1.131 -0 -1.2 0
-0.276 0.022 1.171 -0 -1.2 0
-0.285 0.022 1.212 -0 -1.2 0
-0.294 0.02 1.253 -0 -1.2 0
-0.303 0.017 1.294 -0 -1.2 0
-0.313 0.019 1.344 -0 -1.2 0
-0.325 0.02 1.393 -0 -1.2 0
-0.336 0.019 1.443 -0 -1.2 0
-0.347 0.017 1.494 -0 -1.2 0
-0.36 0.019 1.552 -0 -1.2 0
-0.373 0.02 1.611 -0 -1.2 0
-0.388 0.024 1.678 -0 -1.2 0
-0.399 0.016 1.73 -0 -1.2 0
-0.416 0.021 1.808 -0 -1.2 0
-0.432 0.019 1.877 -0 -1.2 0
-0.451 0.025 1.964 -0 -1.2 0
-0.466 0.018 2.035 -0 -1.2 0
-0.485 0.019 2.123 -0 -1.2 0
-0.508 0.025 2.229 -0 -1.2 0
-0.531 0.024 2.328 -0 -1.2 0
-0.552 0.02 2.426 -0 -1.2 0
-0.578 0.02 2.544 -0 -1.2 0
-0.603 0.017 2.662 -0 -1.2 0
-0.636 0.02 2.808 -0 -1.2 0
-0.664 0.012 2.937 -0 -1.2 0
-0.702 0.016 3.112 -0 -1.2 0
-0.741 0.013 3.288 -0 -1.2 0
-0.786 0.015 3.493 -0 -1.2 0
-0.842 0.023 3.746 -0 -1.2 0
-0.891 0.014 3.972 -0 -1.2 0
-0.958 0.019 4.274 -0 -1.2 0
-1.028 0.016 4.596 -0 -1.2 0
-1.114 0.018 4.987 -0 -1.2 0
-1.213 0.017 5.436 -0 -1.2 0
-1.335 0.021 5.993 -0 -1.2 0
-1.492 0.033 6.704 -0 -1.2 0
-1.689 0.045 7.602 -0 -1.2 0
-1.955 0.068 8.812 -0 -1.2 0
-2.301 0.09 10.383 -0 -1.2 0
-2.812 0.129 12.706 -0 -1.2 0
-3.598 0.182 16.279 -0 -1.2 0
-4.779 -4.104 22.051 -0 -1.2 0
-5.576 -5.078 25.767 -0 -1.2 0
-4.163 -4.79 19.306 -0 -1.2 0
-4.182 -5.172 19.425 -0 -1.2 0
-4.518 -5.899 21.023 -0 -1.2 0
-4.631 -6.432 21.586 -0 -1.2 0
-4.453 -6.63 20.793 -0 -1.2 0
-5.269 -8.125 24.645 -0 -1.2 0
-4.682 -7.779 21.945 -0 -1.2 0
-4.452 -7.871 20.906 -0 -1.2 0
-4.916 -9.045 23.126 -0 -1.2 0
-5.04 -9.735 23.753 -0 -1.2 0
-5.152 -10.434 24.328 -0 -1.2 0
-4.686 -11.027 22.263 -0 -1.2 0
-4.941 -12.621 23.565 -0 -1.2 0
-0.218 0.021 1.115 -0 -1.2 0
-0.225 0.023 1.155 -0 -1.2 0
-0.231 0.016 1.189 -0 -1.2 0
-0.24 0.022 1.237 -0 -1.2 0
-0.248 0.021 1.278 -0 -1.2 0
-0.256 0.024 1.327 -0 -1.2 0
-0.264 0.02 1.369 -0 -1.2 0
-0.273 0.021 1.419 -0 -1.2 0
-0.282 0.02 1.47 -0 -1.2 0
-0.293 0.018 1.52 -0 -1.2 0
-0.303 0.02 1.58 -0 -1.2 0
-0.314 0.021 1.639 -0 -1.2 0
-0.325 0.02 1.699 -0 -1.2 0
-0.339 0.028 1.777 -0 -1.2 0
-0.35 0.022 1.838 -0 -1.2 0
-0.364 0.025 1.916 -0 -1.2 0
-0.379 0.026 1.995 -0 -1.2 0
-0.396 0.029 2.084 -0 -1.2 0
-0.409 0.02 2.155 -0 -1.2 0
-0.43 0.031 2.27 -0 -1.2 0
-0.446 0.025 2.36 -0 -1.2 0
-0.466 0.025 2.469 -0 -1.2 0
-0.486 0.021 2.578 -0 -1.2 0
-0.509 0.018 2.697 -0 -1.2 0
-0.535 0.021 2.844 -0 -1.2 0
-0.562 0.02 2.992 -0 -1.2 0
-0.593 0.021 3.159 -0 -1.2 0
-0.626 0.019 3.337 -0 -1.2 0
-0.663 0.02 3.543 -0 -1.2 0
-0.711 0.028 3.798 -0 -1.2 0
-0.754 0.022 4.035 -0 -1.2 0
-0.809 0.025 4.34 -0 -1.2 0
-0.873 0.028 4.684 -0 -1.2 0
-0.947 0.031 5.087 -0 -1.2 0
-1.03 0.031 5.539 -0 -1.2 0
-1.142 0.043 6.147 -0 -1.2 0
-1.268 0.048 6.836 -0 -1.2 0
-1.438 0.063 7.76 -0 -1.2 0
-1.671 0.091 9.027 -0 -1.2 0
-1.962 0.112 10.609 -0 -1.2 0
-2.399 0.152 12.988 -0 -1.2 0
-3.663 -4.207 20.349 -0 -1.2 0
-4.074 -4.974 22.671 -0 -1.2 0
-4.435 -5.775 24.721 -0 -1.2 0
-3.406 -5.411 19.082 -0 -1.2 0
-4.032 -7.071 22.67 -0 -1.2 0
-3.701 -6.989 20.858 -0 -1.2 0
-3.75 -7.486 21.18 -0 -1.2 0
-3.662 -7.751 20.731 -0 -1.2 0
-3.731 -8.304 21.166 -0 -1.2 0
-3.732 -8.742 21.216 -0 -1.2 0
-3.995 -9.754 22.762 -0 -1.2 0
-4.196 -10.696 23.958 -0 -1.2 0
-4.088 -12.523 23.566 -0 -1.2 0
-4.195 -13.38 24.241 -0 -1.2 0
-3.981 -13.297 23.067 -0 -1.2 0
-0.176 0.023 1.139 -0 -1.2 0
-0.183 0.031 1.187 -0 -1.2 0
-0.188 0.025 1.22 -0 -1.2 0
-0.195 0.031 1.269 -0 -1.2 0
-0.201 0.028 1.31 -0 -1.2 0
-0.207 0.026 1.352 -0 -1.2 0
-0.213 0.021 1.395 -0 -1.2 0
-0.22 0.023 1.445 -0 -1.2 0
-0.228 0.022 1.495 -0 -1.2 0
-0.235 0.019 1.546 -0 -1.2 0
-0.244 0.022 1.606 -0 -1.2 0
-0.255 0.028 1.674 -0 -1.2 0
-0.264 0.027 1.735 -0 -1.2 0
-0.274 0.029 1.804 -0 -1.2 0
-0.284 0.029 1.874 -0 -1.2 0
-0.296 0.032 1.953 -0 -1.2 0
-0.306 0.028 2.024 -0 -1.2 0
-0.319 0.031 2.113 -0 -1.2 0
-0.331 0.027 2.193 -0 -1.2 0
-0.348 0.033 2.301 -0 -1.2 0
-0.362 0.031 2.401 -0 -1.2 0
-0.378 0.031 2.51 -0 -1.2 0
-0.394 0.027 2.62 -0 -1.2 0
-0.413 0.027 2.749 -0 -1.2 0
-0.434 0.027 2.888 -0 -1.2 0
-0.455 0.026 3.037 -0 -1.2 0
-0.481 0.026 3.205 -0 -1.2 0
-0.508 0.028 3.393 -0 -1.2 0
-0.539 0.028 3.601 -0 -1.2 0
-0.576 0.033 3.847 -0 -1.2 0
-0.612 0.029 4.094 -0 -1.2 0
-0.658 0.036 4.41 -0 -1.2 0
-0.709 0.036 4.747 -0 -1.2 0
-0.772 0.043 5.172 -0 -1.2 0
-0.841 0.045 5.647 -0 -1.2 0
-0.93 0.055 6.249 -0 -1.2 0
-1.038 0.066 6.981 -0 -1.2 0
-1.188 0.093 7.988 -0 -1.2 0
-1.374 0.116 9.244 -0 -1.2 0
-1.627 0.147 10.953 -0 -1.2 0
-1.98 0.183 13.337 -0 -1.2 0
-3.006 -3.879 20.835 -0 -1.2 0
-3.379 -4.649 23.457 -0 -1.2 0
-3.371 -5.95 23.575 -0 -1.2 0
-3.285 -6.705 23.097 -0 -1.2 0
-2.981 -7.005 21.08 -0 -1.2 0
-2.994 -7.875 21.281 -0 -1.2 0
-3.037 -8.856 21.699 -0 -1.2 0
-2.905 -8.956 20.82 -0 -1.2 0
-3.007 -10.158 21.673 -0 -1.2 0
-2.988 -10.574 21.596 -0 -1.2 0
-2.93 -10.865 21.241 -0 -1.2 0
-3.247 -12.457 23.6 -0 -1.2 0
-0.13 0.023 1.163 -0 -1.2 0
-0.134 0.025 1.203 -0 -1.2 0
-0.139 0.025 1.244 -0 -1.2 0
-0.144 0.031 1.293 -0 -1.2 0
-0.149 0.029 1.335 -0 -1.2 0
-0.153 0.026 1.377 -0 -1.2 0
-0.159 0.028 1.427 -0 -1.2 0
-0.163 0.023 1.47 -0 -1.2 0
-0.17 0.028 1.529 -0 -1.2 0
-0.175 0.026 1.58 -0 -1.2 0
-0.182 0.028 1.64 -0 -1.2 0
-0.188 0.029 1.701 -0 -1.2 0
-0.196 0.032 1.77 -0 -1.2 0
-0.203 0.03 1.831 -0 -1.2 0
-0.212 0.034 1.91 -0 -1.2 0
-0.219 0.032 1.981 -0 -1.2 0
-0.227 0.029 2.052 -0 -1.2 0
-0.236 0.031 2.141 -0 -1.2 0
-0.245 0.027 2.222 -0 -1.2 0
-0.257 0.033 2.331 -0 -1.2 0
-0.268 0.032 2.431 -0 -1.2 0
-0.28 0.032 2.541 -0 -1.2 0
-0.292 0.032 2.66 -0 -1.2 0
-0.307 0.032 2.79 -0 -1.2 0
-0.322 0.031 2.929 -0 -1.2 0
-0.34 0.033 3.088 -0 -1.2 0
-0.357 0.03 3.248 -0 -1.2 0
-0.379 0.037 3.456 -0 -1.2 0
-0.403 0.04 3.675 -0 -1.2 0
-0.429 0.042 3.913 -0 -1.2 0
-0.458 0.043 4.182 -0 -1.2 0
-0.489 0.042 4.47 -0 -1.2 0
-0.527 0.04 4.809 -0 -1.2 0
-0.573 0.048 5.236 -0 -1.2 0
-0.624 0.048 5.703 -0 -1.2 0
-0.694 0.065 6.347 -0 -1.2 0
-0.773 0.073 7.072 -0 -1.2 0
-0.89 0.108 8.144 -0 -1.2 0
-1.026 0.128 9.396 -0 -1.2 0
-1.213 0.158 11.115 -0 -1.2 0
-1.491 0.207 13.658 -0 -1.2 0
-2.503 -3.818 23.675 -0 -1.2 0
-2.316 -4.015 21.989 -0 -1.2 0
-2.436 -5.017 23.269 -0 -1.2 0
-2.422 -5.427 23.217 -0 -1.2 0
-2.421 -5.861 23.276 -0 -1.2 0
-2.422 -6.306 23.365 -0 -1.2 0
-2.424 -6.761 23.466 -0 -1.2 0
-2.422 -7.214 23.529 -0 -1.2 0
-2.116 -6.85 20.65 -0 -1.2 0
-2.154 -7.37 21.082 -0 -1.2 0
-2.205 -7.958 21.663 -0 -1.2 0
-2.42 -9.111 23.843 -0 -1.2 0
-2.319 -9.256 22.943 -0 -1.2 0
-2.421 -10.119 24.028 -0 -1.2 0
-2.214 -9.826 22.074 -0 -1.2 0
-2.414 -11.138 24.144 -0 -1.2 0
-2.195 -10.724 22.06 -0 -1.2 0
-0.088 0.031 1.19 -0 -1.2 0
-0.091 0.025 1.223 -0 -1.2 0
-0.094 0.032 1.272 -0 -1.2 0
-0.097 0.032 1.314 -0 -1.2 0
-0.1 0.029 1.355 -0 -1.2 0
-0.104 0.032 1.405 -0 -1.2 0
-0.107 0.029 1.448 -0 -1.2 0
-0.11 0.023 1.491 -0 -1.2 0
-0.114 0.029 1.55 -0 -1.2 0
-0.118 0.026 1.601 -0 -1.2 0
-0.122 0.022 1.653 -0 -1.2 0
-0.127 0.029 1.722 -0 -1.2 0
-0.131 0.028 1.783 -0 -1.2 0
-0.136 0.03 1.853 -0 -1.2 0
-0.142 0.035 1.932 -0 -1.2 0
-0.148 0.037 2.012 -0 -1.2 0
-0.154 0.033 2.083 -0 -1.2 0
-0.159 0.032 2.164 -0 -1.2 0
-0.166 0.031 2.254 -0 -1.2 0
-0.173 0.033 2.354 -0 -1.2 0
-0.181 0.036 2.464 -0 -1.2 0
-0.189 0.036 2.574 -0 -1.2 0
-0.198 0.036 2.694 -0 -1.2 0
-0.207 0.036 2.824 -0 -1.2 0
-0.217 0.035 2.964 -0 -1.2 0
-0.229 0.037 3.124 -0 -1.2 0
-0.24 0.034 3.284 -0 -1.2 0
-0.254 0.035 3.474 -0 -1.2 0
-0.271 0.04 3.702 -0 -1.2 0
-0.288 0.039 3.932 -0 -1.2 0
-0.307 0.042 4.201 -0 -1.2 0
-0.33 0.044 4.51 -0 -1.2 0
-0.356 0.05 4.879 -0 -1.2 0
-0.388 0.055 5.298 -0 -1.2 0
-0.425 0.065 5.815 -0 -1.2 0
-0.47 0.075 6.433 -0 -1.2 0
-0.526 0.088 7.201 -0 -1.2 0
-0.604 0.118 8.255 -0 -1.2 0
-0.698 0.142 9.541 -0 -1.2 0
-0.827 0.176 11.316 -0 -1.2 0
-1.019 0.228 13.937 -0 -1.2 0
-1.675 0.289 22.945 -0 -1.2 0
-1.708 -0.087 23.494 -0 -1.2 0
-1.698 -0.499 23.459 -0 -1.2 0
-1.688 -0.908 23.427 -0 -1.2 0
-1.678 -1.316 23.407 -0 -1.2 0
-1.669 -1.723 23.38 -0 -1.2 0
-1.663 -2.132 23.397 -0 -1.2 0
-1.656 -2.543 23.416 -0 -1.2 0
-1.647 -2.95 23.388 -0 -1.2 0
-1.641 -3.363 23.402 -0 -1.2 0
-1.646 -3.796 23.587 -0 -1.2 0
-1.74 -5.337 25.266 -0 -1.2 0
-1.93 -6.327 28.141 -0 -1.2 0
-1.445 -6.254 21.458 -0 -1.2 0
-1.478 -6.806 22.052 -0 -1.2 0
-1.395 -7.335 21.047 -0 -1.2 0
-1.528 -8.399 23.143 -0 -1.2 0
-1.521 -9.349 23.29 -0 -1.2 0
-1.439 -9.887 22.312 -0 -1.2 0
-1.389 -10.068 21.658 -0 -1.2 0
-1.383 -10.524 21.682 -0 -1.2 0
-1.428 -11.365 22.532 -0 -1.2 0
-1.378 -11.531 21.883 -0 -1.2 0
-1.41 -12.327 22.529 -0 -1.2 0
-1.333 -12.26 21.454 -0 -1.2 0
-0.045 0.024 1.202 -0 -1.2 0
-0.047 0.032 1.25 -0 -1.2 0
-0.048 0.033 1.291 -0 -1.2 0
-0.05 0.032 1.333 -0 -1.2 0
-0.051 0.023 1.368 -0 -1.2 0
-0.053 0.027 1.417 -0 -1.2 0
-0.055 0.029 1.468 -0 -1.2 0
-0.057 0.029 1.519 -0 -1.2 0
-0.059 0.029 1.57 -0 -1.2 0
-0.061 0.032 1.63 -0 -1.2 0
-0.063 0.029 1.682 -0 -1.2 0
-0.065 0.029 1.742 -0 -1.2 0
-0.067 0.028 1.804 -0 -1.2 0
-0.07 0.03 1.874 -0 -1.2 0
-0.073 0.035 1.953 -0 -1.2 0
-0.076 0.038 2.033 -0 -1.2 0
-0.078 0.029 2.096 -0 -1.2 0
-0.081 0.032 2.185 -0 -1.2 0
-0.085 0.032 2.276 -0 -1.2 0
-0.089 0.039 2.385 -0 -1.2 0
-0.092 0.036 2.486 -0 -1.2 0
-0.096 0.036 2.596 -0 -1.2 0
-0.101 0.04 2.725 -0 -1.2 0
-0.106 0.036 2.847 -0 -1.2 0
-0.111 0.04 2.996 -0 -1.2 0
-0.117 0.037 3.147 -0 -1.2 0
-0.124 0.04 3.326 -0 -1.2 0
-0.131 0.038 3.507 -0 -1.2 0
-0.139 0.044 3.736 -0 -1.2 0
-0.148 0.046 3.976 -0 -1.2 0
-0.158 0.047 4.246 -0 -1.2 0
-0.17 0.052 4.565 -0 -1.2 0
-0.183 0.058 4.935 -0 -1.2 0
-0.199 0.063 5.364 -0 -1.2 0
-0.219 0.073 5.883 -0 -1.2 0
-0.243 0.088 6.532 -0 -1.2 0
-0.271 0.098 7.291 -0 -1.2 0
-0.311 0.126 8.339 -0 -1.2 0
-0.359 0.149 9.626 -0 -1.2 0
-0.427 0.186 11.444 -0 -1.2 0
-0.522 0.23 13.992 -0 -1.2 0
-0.861 0.297 23.136 -0 -1.2 0
-0.778 -4.577 23.283 -0 -1.2 0
-0.836 -5.313 25.191 -0 -1.2 0
-0.825 -5.752 25.124 -0 -1.2 0
-0.604 -4.898 18.712 -0 -1.2 0
-0.802 -7.136 25.177 -0 -1.2 0
-0.718 -6.998 22.853 -0 -1.2 0
-0.788 -8.096 25.27 -0 -1.2 0
-0.721 -8.023 23.419 -0 -1.2 0
-0.672 -8.058 22.122 -0 -1.2 0
-0.662 -9.517 22.572 -0 -1.2 0
-0.663 -10.665 23.152 -0 -1.2 0
-0.621 -11.841 22.584 -0 -1.2 0
-0.6 -12.777 22.498 -0 -1.2 0
-0.002 0.031 1.226 -0 -1.2 0
-0.002 0.025 1.26 -0 -1.2 0
-0.003 0.033 1.308 -0 -1.2 0
-0.003 0.025 1.343 -0 -1.2 0
-0.003 0.029 1.392 -0 -1.2 0
-0.003 0.033 1.442 -0 -1.2 0
-0.003 0.029 1.485 -0 -1.2 0
-0.003 0.03 1.536 -0 -1.2 0
-0.003 0.029 1.587 -0 -1.2 0
-0.003 0.033 1.647 -0 -1.2 0
-0.003 0.035 1.707 -0 -1.2 0
-0.004 0.035 1.768 -0 -1.2 0
-0.004 0.033 1.829 -0 -1.2 0
-0.004 0.031 1.891 -0 -1.2 0
-0.004 0.035 1.97 -0 -1.2 0
-0.004 0.033 2.041 -0 -1.2 0
-0.004 0.033 2.122 -0 -1.2 0
-0.005 0.037 2.212 -0 -1.2 0
-0.005 0.032 2.293 -0 -1.2 0
-0.005 0.039 2.402 -0 -1.2 0
-0.005 0.037 2.503 -0 -1.2 0
-0.006 0.041 2.623 -0 -1.2 0
-0.006 0.041 2.743 -0 -1.2 0
-0.006 0.037 2.864 -0 -1.2 0
-0.007 0.04 3.014 -0 -1.2 0
-0.007 0.041 3.174 -0 -1.2 0
-0.007 0.044 3.354 -0 -1.2 0
-0.008 0.041 3.535 -0 -1.2 0
-0.008 0.047 3.764 -0 -1.2 0
-0.009 0.051 4.014 -0 -1.2 0
-0.01 0.05 4.274 -0 -1.2 0
-0.01 0.057 4.604 -0 -1.2 0
-0.011 0.062 4.973 -0 -1.2 0
-0.012 0.07 5.413 -0 -1.2 0
-0.013 0.079 5.932 -0 -1.2 0
-0.015 0.091 6.572 -0 -1.2 0
-0.017 0.101 7.321 -0 -1.2 0
-0.02 0.134 8.41 -0 -1.2 0
-0.023 0.16 9.728 -0 -1.2 0
-0.028 0.202 11.607 -0 -1.2 0
-0.033 0.217 13.878 -0 -1.2 0
-0.053 0.258 22.52 -0 -1.2 0
-0.046 -0.137 22.43 -0 -1.2 0
0.035 -4.456 20.111 -0 -1.2 0
0.04 -4.551 18.683 -0 -1.2 0
0.046 -4.816 18.336 -0 -1.2 0
0.071 -7.07 24.933 -0 -1.2 0
0.062 -5.682 17.798 -0 -1.2 0
0.079 -6.777 19.247 -0 -1.2 0
0.092 -7.558 19.388 -0 -1.2 0
0.101 -8.101 19.857 -0 -1.2 0
0.103 -8.129 18.889 -0 -1.2 0
0.133 -10.404 23.703 -0 -1.2 0
0.148 -11.213 23.346 -0 -1.2 0
0.04 0.031 1.243 -0 -1.2 0
0.041 0.033 1.284 -0 -1.2 0
0.042 0.026 1.318 -0 -1.2 0
0.043 0.025 1.36 -0 -1.2 0
0.045 0.03 1.409 -0 -1.2 0
0.047 0.033 1.459 -0 -1.2 0
0.048 0.029 1.502 -0 -1.2 0
0.05 0.03 1.553 -0 -1.2 0
0.052 0.029 1.604 -0 -1.2 0
0.054 0.033 1.664 -0 -1.2 0
0.055 0.029 1.716 -0 -1.2 0
0.058 0.035 1.785 -0 -1.2 0
0.06 0.028 1.838 -0 -1.2 0
0.062 0.031 1.908 -0 -1.2 0
0.065 0.03 1.978 -0 -1.2 0
0.067 0.033 2.058 -0 -1.2 0
0.071 0.034 2.139 -0 -1.2 0
0.074 0.037 2.228 -0 -1.2 0
0.076 0.032 2.31 -0 -1.2 0
0.08 0.034 2.41 -0 -1.2 0
0.084 0.037 2.52 -0 -1.2 0
0.088 0.041 2.639 -0 -1.2 0
0.092 0.041 2.76 -0 -1.2 0
0.096 0.041 2.89 -0 -1.2 0
0.101 0.04 3.031 -0 -1.2 0
0.106 0.037 3.181 -0 -1.2 0
0.112 0.044 3.37 -0 -1.2 0
0.119 0.047 3.57 -0 -1.2 0
0.127 0.053 3.799 -0 -1.2 0
0.135 0.057 4.049 -0 -1.2 0
0.144 0.056 4.309 -0 -1.2 0
0.155 0.062 4.638 -0 -1.2 0
0.167 0.067 5.008 -0 -1.2 0
0.182 0.068 5.418 -0 -1.2 0
0.199 0.071 5.908 -0 -1.2 0
0.221 0.09 6.576 -0 -1.2 0
0.247 0.103 7.345 -0 -1.2 0
0.282 0.128 8.383 -0 -1.2 0
0.328 0.157 9.731 -0 -1.2 0
0.394 0.208 11.678 -0 -1.2 0
0.47 0.216 13.878 -0 -1.2 0
0.755 0.24 22.236 -0 -1.2 0
0.755 -0.154 22.066 -0 -1.2 0
0.774 -4.163 20.547 -0 -1.2 0
0.739 -4.66 19.277 -0 -1.2 0
0.716 -4.847 18.487 -0 -1.2 0
0.689 -4.996 17.648 -0 -1.2 0
0.707 -5.392 17.956 -0 -1.2 0
0.79 -6.882 19.604 -0 -1.2 0
0.794 -7.24 19.556 -0 -1.2 0
0.807 -7.667 19.712 -0 -1.2 0
0.762 -7.601 18.445 -0 -1.2 0
0.801 -8.259 19.236 -0 -1.2 0
0.824 -8.801 19.638 -0 -1.2 0
0.08 0.031 1.258 -0 -1.2 0
0.083 0.033 1.299 -0 -1.2 0
0.086 0.033 1.34 -0 -1.2 0
0.088 0.025 1.375 -0 -1.2 0
0.091 0.03 1.424 -0 -1.2 0
0.095 0.033 1.474 -0 -1.2 0
0.097 0.022 1.509 -0 -1.2 0
0.101 0.03 1.567 -0 -1.2 0
0.104 0.029 1.618 -0 -1.2 0
0.109 0.027 1.67 -0 -1.2 0
0.113 0.035 1.738 -0 -1.2 0
0.117 0.03 1.791 -0 -1.2 0
0.121 0.028 1.852 -0 -1.2 0
0.126 0.036 1.93 -0 -1.2 0
0.131 0.035 2.001 -0 -1.2 0
0.136 0.033 2.072 -0 -1.2 0
0.142 0.039 2.161 -0 -1.2 0
0.147 0.037 2.242 -0 -1.2 0
0.152 0.028 2.314 -0 -1.2 0
0.16 0.034 2.423 -0 -1.2 0
0.167 0.037 2.533 -0 -1.2 0
0.174 0.037 2.643 -0 -1.2 0
0.183 0.041 2.772 -0 -1.2 0
0.192 0.041 2.902 -0 -1.2 0
0.202 0.04 3.042 -0 -1.2 0
0.213 0.041 3.202 -0 -1.2 0
0.224 0.041 3.372 -0 -1.2 0
0.237 0.038 3.552 -0 -1.2 0
0.253 0.05 3.8 -0 -1.2 0
0.269 0.049 4.03 -0 -1.2 0
0.287 0.052 4.309 -0 -1.2 0
0.31 0.057 4.628 -0 -1.2 0
0.335 0.062 4.997 -0 -1.2 0
0.362 0.063 5.406 -0 -1.2 0
0.395 0.065 5.885 -0 -1.2 0
0.44 0.084 6.553 -0 -1.2 0
0.491 0.094 7.301 -0 -1.2 0
0.559 0.115 8.306 -0 -1.2 0
0.649 0.143 9.622 -0 -1.2 0
0.78 0.196 11.566 -0 -1.2 0
0.931 0.206 13.782 -0 -1.2 0
1.546 0.276 22.822 -0 -1.2 0
1.487 -0.163 21.845 -0 -1.2 0
1.658 -0.48 24.271 -0 -1.2 0
1.397 -4.018 19.558 -0 -1.2 0
1.561 -5.115 21.69 -0 -1.2 0
1.325 -5.442 18.142 -0 -1.2 0
1.312 -6.018 17.797 -0 -1.2 0
1.367 -6.55 18.464 -0 -1.2 0
1.39 -6.975 18.699 -0 -1.2 0
1.879 -10.434 25.005 -0 -1.2 0
1.514 -8.96 20.015 -0 -1.2 0
1.499 -9.241 19.718 -0 -1.2 0
0.122 0.033 1.271 -0 -1.2 0
0.125 0.027 1.304 -0 -1.2 0
0.13 0.034 1.353 -0 -1.2 0
0.134 0.027 1.387 -0 -1.2 0
0.139 0.031 1.436 -0 -1.2 0
0.144 0.034 1.486 -0 -1.2 0
0.148 0.031 1.528 -0 -1.2 0
0.153 0.031 1.579 -0 -1.2 0
0.159 0.031 1.63 -0 -1.2 0
0.164 0.028 1.681 -0 -1.2 0
0.17 0.031 1.741 -0 -1.2 0
0.176 0.031 1.802 -0 -1.2 0
0.183 0.03 1.863 -0 -1.2 0
0.189 0.026 1.924 -0 -1.2 0
0.196 0.027 1.994 -0 -1.2 0
0.204 0.029 2.073 -0 -1.2 0
0.213 0.035 2.162 -0 -1.2 0
0.221 0.034 2.243 -0 -1.2 0
0.229 0.029 2.324 -0 -1.2 0
0.24 0.035 2.432 -0 -1.2 0
0.251 0.034 2.533 -0 -1.2 0
0.262 0.034 2.642 -0 -1.2 0
0.274 0.034 2.762 -0 -1.2 0
0.288 0.034 2.892 -0 -1.2 0
0.303 0.037 3.041 -0 -1.2 0
0.318 0.036 3.191 -0 -1.2 0
0.335 0.032 3.351 -0 -1.2 0
0.357 0.043 3.568 -0 -1.2 0
0.38 0.049 3.796 -0 -1.2 0
0.404 0.051 4.035 -0 -1.2 0
0.431 0.052 4.304 -0 -1.2 0
0.464 0.057 4.622 -0 -1.2 0
0.499 0.058 4.97 -0 -1.2 0
0.543 0.061 5.388 -0 -1.2 0
0.592 0.065 5.875 -0 -1.2 0
0.654 0.073 6.481 -0 -1.2 0
0.728 0.083 7.217 -0 -1.2 0
0.833 0.109 8.24 -0 -1.2 0
0.959 0.129 9.483 -0 -1.2 0
1.145 0.171 11.302 -0 -1.2 0
1.384 0.2 13.65 -0 -1.2 0
2.289 -0.131 22.444 -0 -1.2 0
2.35 -4.827 22.267 -0 -1.2 0
2.319 -5.159 21.906 -0 -1.2 0
1.914 -4.757 18.011 -0 -1.2 0
1.971 -5.194 18.498 -0 -1.2 0
1.944 -5.78 18.132 -0 -1.2 0
1.891 -5.964 17.577 -0 -1.2 0
2.19 -7.113 20.322 -0 -1.2 0
2.003 -6.927 18.516 -0 -1.2 0
2.133 -7.674 19.674 -0 -1.2 0
2.044 -7.741 18.789 -0 -1.2 0
0.166 0.034 1.283 -0 -1.2 0
0.172 0.035 1.324 -0 -1.2 0
0.177 0.029 1.358 -0 -1.2 0
0.182 0.028 1.399 -0 -1.2 0
0.188 0.026 1.441 -0 -1.2 0
0.194 0.024 1.482 -0 -1.2 0
0.202 0.032 1.54 -0 -1.2 0
0.208 0.027 1.582 -0 -1.2 0
0.215 0.026 1.633 -0 -1.2 0
0.223 0.03 1.692 -0 -1.2 0
0.231 0.026 1.744 -0 -1.2 0
0.239 0.027 1.804 -0 -1.2 0
0.249 0.032 1.873 -0 -1.2 0
0.257 0.028 1.934 -0 -1.2 0
0.268 0.034 2.012 -0 -1.2 0
0.278 0.032 2.083 -0 -1.2 0
0.289 0.034 2.162 -0 -1.2 0
0.3 0.031 2.242 -0 -1.2 0
0.311 0.027 2.323 -0 -1.2 0
0.327 0.038 2.44 -0 -1.2 0
0.341 0.037 2.54 -0 -1.2 0
0.356 0.033 2.64 -0 -1.2 0
0.374 0.037 2.768 -0 -1.2 0
0.392 0.038 2.897 -0 -1.2 0
0.412 0.041 3.046 -0 -1.2 0
0.432 0.036 3.185 -0 -1.2 0
0.455 0.033 3.345 -0 -1.2 0
0.482 0.038 3.542 -0 -1.2 0
0.515 0.047 3.779 -0 -1.2 0
0.546 0.046 4.007 -0 -1.2 0
0.584 0.051 4.284 -0 -1.2 0
0.629 0.057 4.599 -0 -1.2 0
0.675 0.054 4.927 -0 -1.2 0
0.737 0.066 5.372 -0 -1.2 0
0.8 0.064 5.828 -0 -1.2 0
0.883 0.073 6.422 -0 -1.2 0
0.984 0.082 7.144 -0 -1.2 0
1.122 0.107 8.134 -0 -1.2 0
1.289 0.123 9.331 -0 -1.2 0
1.53 0.161 11.063 -0 -1.2 0
1.849 0.191 13.35 -0 -1.2 0
2.258 0.193 16.273 -0 -1.2 0
3.183 0.323 22.916 -0 -1.2 0
3.105 -4.343 21.801 -0 -1.2 0
2.571 -5.368 17.853 -0 -1.2 0
2.608 -5.757 18.073 -0 -1.2 0
2.744 -7.041 18.891 -0 -1.2 0
0.207 0.028 1.286 -0 -1.2 0
0.213 0.022 1.319 -0 -1.2 0
0.22 0.022 1.36 -0 -1.2 0
0.228 0.029 1.408 -0 -1.2 0
0.235 0.027 1.449 -0 -1.2 0
0.242 0.025 1.491 -0 -1.2 0
0.251 0.026 1.54 -0 -1.2 0
0.26 0.028 1.59 -0 -1.2 0
0.268 0.027 1.641 -0 -1.2 0
0.28 0.037 1.708 -0 -1.2 0
0.289 0.028 1.751 -0 -1.2 0
0.3 0.034 1.819 -0 -1.2 0
0.309 0.028 1.871 -0 -1.2 0
0.32 0.024 1.931 -0 -1.2 0
0.333 0.03 2.009 -0 -1.2 0
0.347 0.033 2.088 -0 -1.2 0
0.359 0.03 2.158 -0 -1.2 0
0.373 0.028 2.238 -0 -1.2 0
0.39 0.029 2.327 -0 -1.2 0
0.407 0.032 2.425 -0 -1.2 0
0.426 0.035 2.534 -0 -1.2 0
0.446 0.039 2.651 -0 -1.2 0
0.465 0.035 2.761 -0 -1.2 0
0.487 0.036 2.889 -0 -1.2 0
0.512 0.036 3.027 -0 -1.2 0
0.537 0.031 3.166 -0 -1.2 0
0.566 0.032 3.334 -0 -1.2 0
0.597 0.031 3.511 -0 -1.2 0
0.635 0.035 3.727 -0 -1.2 0
0.681 0.047 3.991 -0 -1.2 0
0.726 0.047 4.248 -0 -1.2 0
0.781 0.053 4.562 -0 -1.2 0
0.835 0.045 4.869 -0 -1.2 0
0.909 0.054 5.292 -0 -1.2 0
0.992 0.058 5.764 -0 -1.2 0
1.095 0.068 6.355 -0 -1.2 0
1.221 0.079 7.073 -0 -1.2 0
1.387 0.098 8.018 -0 -1.2 0
1.585 0.11 9.15 -0 -1.2 0
1.876 0.145 10.813 -0 -1.2 0
2.248 0.165 12.931 -0 -1.2 0
2.748 0.17 15.779 -0 -1.2 0
3.884 0.305 22.266 -0 -1.2 0
3.887 -0.086 22.247 -0 -1.2 0
3.954 -0.467 22.595 -0 -1.2 0
0.251 0.029 1.295 -0 -1.2 0
0.258 0.023 1.328 -0 -1.2 0
0.268 0.03 1.376 -0 -1.2 0
0.277 0.03 1.416 -0 -1.2 0
0.286 0.028 1.457 -0 -1.2 0
0.294 0.026 1.499 -0 -1.2 0
0.305 0.027 1.548 -0 -1.2 0
0.315 0.023 1.59 -0 -1.2 0
0.325 0.022 1.64 -0 -1.2 0
0.339 0.032 1.706 -0 -1.2 0
0.35 0.029 1.757 -0 -1.2 0
0.363 0.029 1.816 -0 -1.2 0
0.374 0.023 1.868 -0 -1.2 0
0.39 0.031 1.944 -0 -1.2 0
0.401 0.022 1.997 -0 -1.2 0
0.418 0.024 2.075 -0 -1.2 0
0.435 0.026 2.153 -0 -1.2 0
0.454 0.029 2.241 -0 -1.2 0
0.473 0.03 2.328 -0 -1.2 0
0.492 0.028 2.417 -0 -1.2 0
0.514 0.033 2.524 -0 -1.2 0
0.537 0.033 2.632 -0 -1.2 0
0.561 0.029 2.741 -0 -1.2 0
0.59 0.035 2.877 -0 -1.2 0
0.62 0.034 3.014 -0 -1.2 0
0.651 0.034 3.161 -0 -1.2 0
0.687 0.035 3.328 -0 -1.2 0
0.727 0.037 3.513 -0 -1.2 0
0.768 0.035 3.709 -0 -1.2 0
0.823 0.044 3.963 -0 -1.2 0
0.879 0.047 4.226 -0 -1.2 0
0.938 0.043 4.501 -0 -1.2 0
1.01 0.045 4.832 -0 -1.2 0
1.097 0.051 5.243 -0 -1.2 0
1.202 0.061 5.731 -0 -1.2 0
1.315 0.06 6.26 -0 -1.2 0
1.466 0.071 6.963 -0 -1.2 0
1.659 0.086 7.861 -0 -1.2 0
1.894 0.098 8.957 -0 -1.2 0
2.216 0.118 10.462 -0 -1.2 0
2.685 0.154 12.651 -0 -1.2 0
3.356 0.19 15.779 -0 -1.2 0
4.779 0.343 22.425 -0 -1.2 0
4.707 -0.071 22.054 -0 -1.2 0
0.292 0.029 1.302 -0 -1.2 0
0.298 0.017 1.328 -0 -1.2 0
0.312 0.031 1.382 -0 -1.2 0
0.32 0.024 1.415 -0 -1.2 0
0.33 0.022 1.455 -0 -1.2 0
0.342 0.027 1.504 -0 -1.2 0
0.352 0.022 1.545 -0 -1.2 0
0.366 0.024 1.594 -0 -1.2 0
0.378 0.024 1.644 -0 -1.2 0
0.392 0.027 1.701 -0 -1.2 0
0.405 0.025 1.751 -0 -1.2 0
0.42 0.026 1.81 -0 -1.2 0
0.434 0.024 1.869 -0 -1.2 0
0.451 0.027 1.937 -0 -1.2 0
0.468 0.028 2.005 -0 -1.2 0
0.486 0.026 2.074 -0 -1.2 0
0.506 0.028 2.152 -0 -1.2 0
0.525 0.027 2.23 -0 -1.2 0
0.547 0.028 2.318 -0 -1.2 0
0.571 0.03 2.415 -0 -1.2 0
0.596 0.03 2.512 -0 -1.2 0
0.625 0.034 2.628 -0 -1.2 0
0.652 0.031 2.736 -0 -1.2 0
0.684 0.032 2.862 -0 -1.2 0
0.721 0.036 3.007 -0 -1.2 0
0.755 0.032 3.144 -0 -1.2 0
0.798 0.037 3.318 -0 -1.2 0
0.843 0.036 3.493 -0 -1.2 0
0.891 0.034 3.686 -0 -1.2 0
0.955 0.043 3.938 -0 -1.2 0
1.015 0.041 4.181 -0 -1.2 0
1.091 0.046 4.481 -0 -1.2 0
1.172 0.046 4.801 -0 -1.2 0
1.271 0.051 5.199 -0 -1.2 0
1.383 0.052 5.644 -0 -1.2 0
1.524 0.06 6.207 -0 -1.2 0
1.692 0.067 6.876 -0 -1.2 0
1.912 0.082 7.747 -0 -1.2 0
2.17 0.086 8.776 -0 -1.2 0
2.54 0.108 10.249 -0 -1.2 0
3.082 0.146 12.41 -0 -1.2 0
3.765 0.155 15.127 -0 -1.2 0
6.128 -5.159 24.194 -0 -1.2 0
5.804 -6.62 22.817 -0 -1.2 0
5.856 -7.098 22.992 -0 -1.2 0
0.331 0.023 1.3 -0 -1.2 0
0.343 0.025 1.339 -0 -1.2 0
0.354 0.025 1.378 -0 -1.2 0
0.367 0.032 1.425 -0 -1.2 0
0.377 0.023 1.458 -0 -1.2 0
0.391 0.028 1.506 -0 -1.2 0
0.404 0.029 1.554 -0 -1.2 0
0.417 0.025 1.596 -0 -1.2 0
0.429 0.018 1.637 -0 -1.2 0
0.448 0.028 1.702 -0 -1.2 0
0.464 0.031 1.76 -0 -1.2 0
0.479 0.027 1.81 -0 -1.2 0
0.495 0.025 1.869 -0 -1.2 0
0.512 0.023 1.928 -0 -1.2 0
0.535 0.029 2.004 -0 -1.2 0
0.554 0.027 2.072 -0 -1.2 0
0.574 0.024 2.141 -0 -1.2 0
0.596 0.023 2.218 -0 -1.2 0
0.621 0.024 2.305 -0 -1.2 0
0.65 0.027 2.401 -0 -1.2 0
0.677 0.027 2.497 -0 -1.2 0
0.707 0.028 2.603 -0 -1.2 0
0.74 0.028 2.719 -0 -1.2 0
0.78 0.034 2.852 -0 -1.2 0
0.818 0.035 2.986 -0 -1.2 0
0.86 0.034 3.131 -0 -1.2 0
0.907 0.036 3.294 -0 -1.2 0
0.96 0.038 3.477 -0 -1.2 0
1.013 0.034 3.66 -0 -1.2 0
1.082 0.041 3.9 -0 -1.2 0
1.157 0.044 4.158 -0 -1.2 0
1.243 0.049 4.456 -0 -1.2 0
1.334 0.049 4.773 -0 -1.2 0
1.445 0.052 5.158 -0 -1.2 0
1.568 0.05 5.581 -0 -1.2 0
1.725 0.057 6.128 -0 -1.2 0
1.913 0.063 6.781 -0 -1.2 0
2.157 0.076 7.626 -0 -1.2 0
2.449 0.081 8.634 -0 -1.2 0
2.862 0.102 10.065 -0 -1.2 0
3.433 0.127 12.044 -0 -1.2 0
4.527 0.237 15.835 -0 -1.2 0
6.647 0.03 23.163 -0 -1.2 0
6.956 -0.354 24.214 -0 -1.2 0
6.696 -4.986 23.067 -0 -1.2 0
6.382 -5.205 21.967 -0 -1.2 0
6.655 -5.805 22.881 -0 -1.2 0
6.715 -6.708 23.042 -0 -1.2 0
6.677 -7.541 22.865 -0 -1.2 0
0.374 0.024 1.304 -0 -1.2 0
0.387 0.025 1.343 -0 -1.2 0
0.4 0.026 1.382 -0 -1.2 0
0.415 0.033 1.429 -0 -1.2 0
0.428 0.031 1.468 -0 -1.2 0
0.439 0.022 1.501 -0 -1.2 0
0.454 0.024 1.549 -0 -1.2 0
0.471 0.026 1.597 -0 -1.2 0
0.487 0.026 1.646 -0 -1.2 0
0.503 0.024 1.695 -0 -1.2 0
0.522 0.027 1.752 -0 -1.2 0
0.538 0.022 1.801 -0 -1.2 0
0.557 0.022 1.859 -0 -1.2 0
0.579 0.024 1.926 -0 -1.2 0
0.604 0.03 2.001 -0 -1.2 0
0.626 0.028 2.068 -0 -1.2 0
0.651 0.03 2.144 -0 -1.2 0
0.676 0.03 2.22 -0 -1.2 0
0.702 0.026 2.297 -0 -1.2 0
0.733 0.029 2.392 -0 -1.2 0
0.762 0.024 2.479 -0 -1.2 0
0.799 0.03 2.592 -0 -1.2 0
0.837 0.03 2.707 -0 -1.2 0
0.877 0.032 2.83 -0 -1.2 0
0.924 0.037 2.972 -0 -1.2 0
0.969 0.033 3.106 -0 -1.2 0
1.024 0.038 3.276 -0 -1.2 0
1.081 0.037 3.447 -0 -1.2 0
1.144 0.036 3.637 -0 -1.2 0
1.219 0.04 3.865 -0 -1.2 0
1.304 0.045 4.121 -0 -1.2 0
1.4 0.05 4.415 -0 -1.2 0
1.504 0.049 4.728 -0 -1.2 0
1.629 0.054 5.108 -0 -1.2 0
1.764 0.05 5.517 -0 -1.2 0
1.942 0.058 6.058 -0 -1.2 0
2.149 0.061 6.684 -0 -1.2 0
2.418 0.073 7.501 -0 -1.2 0
2.748 0.08 8.498 -0 -1.2 0
3.223 0.106 9.94 -0 -1.2 0
3.837 0.123 11.801 -0 -1.2 0
5.11 0.247 15.662 -0 -1.2 0
7.298 0.015 22.279 -0 -1.2 0
7.614 -0.359 23.222 -0 -1.2 0
7.949 -3.405 24.098 -0 -1.2 0
8.435 -4.483 25.518 -0 -1.2 0
7.699 -4.615 23.287 -0 -1.2 0
7.862 -9.675 23.549 -0 -1.2 0
7.817 -10.099 23.393 -0 -1.2 0
0.416 0.032 1.313 -0 -1.2 0
0.425 0.019 1.338 -0 -1.2 0
0.442 0.027 1.383 -0 -1.2 0
0.456 0.026 1.422 -0 -1.2 0
0.47 0.025 1.462 -0 -1.2 0
0.485 0.022 1.501 -0 -1.2 0
0.505 0.031 1.556 -0 -1.2 0
0.521 0.027 1.596 -0 -1.2 0
0.538 0.026 1.644 -0 -1.2 0
0.556 0.025 1.692 -0 -1.2 0
0.574 0.022 1.741 -0 -1.2 0
0.594 0.023 1.798 -0 -1.2 0
0.616 0.023 1.854 -0 -1.2 0
0.64 0.026 1.92 -0 -1.2 0
0.667 0.032 1.994 -0 -1.2 0
0.692 0.03 2.06 -0 -1.2 0
0.716 0.027 2.128 -0 -1.2 0
0.745 0.026 2.203 -0 -1.2 0
0.776 0.027 2.288 -0 -1.2 0
0.81 0.03 2.382 -0 -1.2 0
0.845 0.03 2.476 -0 -1.2 0
0.883 0.031 2.579 -0 -1.2 0
0.928 0.036 2.7 -0 -1.2 0
0.972 0.038 2.822 -0 -1.2 0
1.018 0.035 2.945 -0 -1.2 0
1.07 0.035 3.086 -0 -1.2 0
1.126 0.033 3.237 -0 -1.2 0
1.198 0.043 3.433 -0 -1.2 0
1.268 0.042 3.62 -0 -1.2 0
1.351 0.046 3.845 -0 -1.2 0
1.44 0.047 4.089 -0 -1.2 0
1.544 0.051 4.371 -0 -1.2 0
1.658 0.05 4.68 -0 -1.2 0
1.797 0.055 5.055 -0 -1.2 0
1.943 0.049 5.449 -0 -1.2 0
2.143 0.059 5.993 -0 -1.2 0
2.362 0.058 6.584 -0 -1.2 0
2.67 0.075 7.418 -0 -1.2 0
3.037 0.085 8.413 -0 -1.2 0
3.559 0.111 9.828 -0 -1.2 0
4.533 0.217 12.469 -0 -1.2 0
5.644 0.257 15.481 -0 -1.2 0
8.255 0.056 22.543 -0 -1.2 0
8.162 -0.367 22.274 -0 -1.2 0
8.624 -3.781 23.389 -0 -1.2 0
9.9 -4.679 26.809 -0 -1.2 0
9.501 -5.979 25.677 -0 -1.2 0
8.724 -6.926 23.535 -0 -1.2 0
8.234 -7.458 22.187 -0 -1.2 0
9.474 -9.429 25.468 -0 -1.2 0
8.685 -9.201 23.342 -0 -1.2 0
8.774 -9.761 23.557 -0 -1.2 0
8.554 -10.49 22.933 -0 -1.2 0
0.454 0.032 1.315 -0 -1.2 0
0.468 0.027 1.346 -0 -1.2 0
0.483 0.027 1.384 -0 -1.2 0
0.499 0.027 1.423 -0 -1.2 0
0.515 0.026 1.462 -0 -1.2 0
0.53 0.023 1.501 -0 -1.2 0
0.546 0.02 1.54 -0 -1.2 0
0.566 0.022 1.586 -0 -1.2 0
0.585 0.021 1.633 -0 -1.2 0
0.608 0.026 1.688 -0 -1.2 0
0.627 0.023 1.736 -0 -1.2 0
0.647 0.019 1.785 -0 -1.2 0
0.674 0.024 1.849 -0 -1.2 0
0.703 0.032 1.921 -0 -1.2 0
0.727 0.028 1.979 -0 -1.2 0
0.753 0.026 2.044 -0 -1.2 0
0.783 0.028 2.119 -0 -1.2 0
0.815 0.027 2.193 -0 -1.2 0
0.848 0.028 2.276 -0 -1.2 0
0.886 0.032 2.368 -0 -1.2 0
0.925 0.031 2.462 -0 -1.2 0
0.969 0.037 2.572 -0 -1.2 0
1.011 0.034 2.675 -0 -1.2 0
1.061 0.035 2.795 -0 -1.2 0
1.114 0.036 2.925 -0 -1.2 0
1.171 0.037 3.063 -0 -1.2 0
1.228 0.032 3.203 -0 -1.2 0
1.307 0.041 3.397 -0 -1.2 0
1.386 0.044 3.591 -0 -1.2 0
1.477 0.048 3.812 -0 -1.2 0
1.568 0.045 4.035 -0 -1.2 0
1.689 0.053 4.331 -0 -1.2 0
1.803 0.046 4.609 -0 -1.2 0
1.951 0.048 4.97 -0 -1.2 0
2.111 0.044 5.359 -0 -1.2 0
2.322 0.052 5.877 -0 -1.2 0
2.569 0.056 6.479 -0 -1.2 0
2.905 0.075 7.301 -0 -1.2 0
3.318 0.089 8.309 -0 -1.2 0
3.863 0.108 9.641 -0 -1.2 0
5.008 0.238 12.44 -0 -1.2 0
6.05 0.239 14.987 -0 -1.2 0
6.405 0.023 15.845 -0 -1.2 0
6.441 -0.266 15.925 -0 -1.2 0
9.548 -3.801 23.388 -0 -1.2 0
10.317 -6.417 25.176 -0 -1.2 0
10.575 -7.55 25.767 -0 -1.2 0
10.447 -8.475 25.423 -0 -1.2 0
8.632 -7.605 21.02 -0 -1.2 0
8.717 -8.096 21.21 -0 -1.2 0
8.707 -8.519 21.171 -0 -1.2 0
9.949 -10.583 24.131 -0 -1.2 0
9.378 -11.491 22.706 -0 -1.2 0
0.493 0.026 1.308 -0 -1.2 0
0.51 0.028 1.345 -0 -1.2 0
0.525 0.021 1.376 -0 -1.2 0
0.542 0.022 1.413 -0 -1.2 0
0.562 0.027 1.458 -0 -1.2 0
0.579 0.024 1.496 -0 -1.2 0
0.597 0.021 1.535 -0 -1.2 0
0.618 0.023 1.581 -0 -1.2 0
0.639 0.022 1.628 -0 -1.2 0
0.664 0.027 1.682 -0 -1.2 0
0.688 0.03 1.736 -0 -1.2 0
0.713 0.031 1.792 -0 -1.2 0
0.738 0.03 1.847 -0 -1.2 0
0.763 0.028 1.903 -0 -1.2 0
0.793 0.029 1.968 -0 -1.2 0
0.826 0.032 2.039 -0 -1.2 0
0.855 0.029 2.104 -0 -1.2 0
0.892 0.034 2.186 -0 -1.2 0
0.926 0.03 2.26 -0 -1.2 0
0.967 0.034 2.351 -0 -1.2 0
1.012 0.038 2.451 -0 -1.2 0
1.058 0.039 2.552 -0 -1.2 0
1.107 0.04 2.66 -0 -1.2 0
1.157 0.038 2.77 -0 -1.2 0
1.219 0.043 2.907 -0 -1.2 0
1.277 0.039 3.035 -0 -1.2 0
1.351 0.045 3.199 -0 -1.2 0
1.43 0.048 3.371 -0 -1.2 0
1.512 0.047 3.554 -0 -1.2 0
1.611 0.051 3.772 -0 -1.2 0
1.707 0.045 3.982 -0 -1.2 0
1.835 0.052 4.264 -0 -1.2 0
1.975 0.055 4.573 -0 -1.2 0
2.128 0.052 4.911 -0 -1.2 0
2.306 0.051 5.303 -0 -1.2 0
2.536 0.058 5.812 -0 -1.2 0
2.81 0.064 6.413 -0 -1.2 0
3.172 0.082 7.214 -0 -1.2 0
3.622 0.097 8.206 -0 -1.2 0
4.691 0.256 10.566 -0 -1.2 0
5.447 0.245 12.235 -0 -1.2 0
6.575 0.247 14.723 -0 -1.2 0
10.655 -3.396 23.606 -0 -1.2 0
10.001 -4.099 22.142 -0 -1.2 0
10.092 -4.985 22.316 -0 -1.2 0
11.183 -6.853 24.664 -0 -1.2 0
10.637 -7.973 23.427 -0 -1.2 0
9.355 -7.557 20.613 -0 -1.2 0
9.558 -8.129 21.044 -0 -1.2 0
9.102 -8.204 20.037 -0 -1.2 0
9.157 -8.668 20.142 -0 -1.2 0
9.219 -9.148 20.265 -0 -1.2 0
9.265 -9.623 20.352 -0 -1.2 0
0.531 0.027 1.306 -0 -1.2 0
0.549 0.029 1.343 -0 -1.2 0
0.564 0.022 1.373 -0 -1.2 0
0.582 0.023 1.411 -0 -1.2 0
0.604 0.028 1.455 -0 -1.2 0
0.623 0.025 1.493 -0 -1.2 0
0.642 0.022 1.531 -0 -1.2 0
0.664 0.024 1.576 -0 -1.2 0
0.687 0.024 1.622 -0 -1.2 0
0.713 0.028 1.675 -0 -1.2 0
0.737 0.025 1.722 -0 -1.2 0
0.764 0.026 1.776 -0 -1.2 0
0.794 0.031 1.837 -0 -1.2 0
0.821 0.029 1.892 -0 -1.2 0
0.852 0.03 1.955 -0 -1.2 0
0.884 0.029 2.019 -0 -1.2 0
0.92 0.031 2.091 -0 -1.2 0
0.955 0.03 2.163 -0 -1.2 0
0.999 0.037 2.252 -0 -1.2 0
1.044 0.039 2.342 -0 -1.2 0
1.092 0.044 2.439 -0 -1.2 0
1.137 0.041 2.53 -0 -1.2 0
1.191 0.042 2.638 -0 -1.2 0
1.24 0.035 2.738 -0 -1.2 0
1.315 0.048 2.889 -0 -1.2 0
1.373 0.041 3.006 -0 -1.2 0
1.453 0.047 3.167 -0 -1.2 0
1.533 0.046 3.329 -0 -1.2 0
1.626 0.049 3.516 -0 -1.2 0
1.733 0.054 3.731 -0 -1.2 0
1.843 0.053 3.956 -0 -1.2 0
1.968 0.052 4.207 -0 -1.2 0
2.115 0.053 4.503 -0 -1.2 0
2.284 0.054 4.843 -0 -1.2 0
2.475 0.053 5.229 -0 -1.2 0
2.719 0.06 5.721 -0 -1.2 0
3.025 0.072 6.338 -0 -1.2 0
3.415 0.089 7.126 -0 -1.2 0
3.899 0.105 8.102 -0 -1.2 0
4.973 0.245 10.273 -0 -1.2 0
5.879 0.261 12.102 -0 -1.2 0
6.625 0.173 13.602 -0 -1.2 0
6.614 -0.088 13.575 -0 -1.2 0
6.668 -0.341 13.677 -0 -1.2 0
11.698 -1.595 23.789 -0 -1.2 0
11.721 -2.053 23.82 -0 -1.2 0
11.734 -2.513 23.835 -0 -1.2 0
11.713 -2.969 23.779 -0 -1.2 0
11.75 -3.436 23.842 -0 -1.2 0
11.775 -3.903 23.881 -0 -1.2 0
11.513 -4.294 23.342 -0 -1.2 0
11.73 -4.818 23.764 -0 -1.2 0
11.731 -5.284 23.753 -0 -1.2 0
11.811 -5.784 23.903 -0 -1.2 0
11.843 -6.272 23.955 -0 -1.2 0
9.257 -5.509 18.758 -0 -1.2 0
9.447 -5.984 19.129 -0 -1.2 0
11.872 -8.715 23.947 -0 -1.2 0
9.797 -7.788 19.787 -0 -1.2 0
9.748 -8.167 19.677 -0 -1.2 0
9.899 -8.7 19.968 -0 -1.2 0
10.766 -10.307 21.674 -0 -1.2 0
11.313 -12.304 22.724 -0 -1.2 0
11.327 -12.841 22.737 -0 -1.2 0
0.568 0.028 1.305 -0 -1.2 0
0.584 0.022 1.334 -0 -1.2 0
0.606 0.03 1.377 -0 -1.2 0
0.622 0.024 1.407 -0 -1.2 0
0.646 0.028 1.45 -0 -1.2 0
0.666 0.026 1.487 -0 -1.2 0
0.687 0.023 1.525 -0 -1.2 0
0.71 0.025 1.569 -0 -1.2 0
0.738 0.031 1.621 -0 -1.2 0
0.762 0.03 1.667 -0 -1.2 0
0.787 0.026 1.712 -0 -1.2 0
0.819 0.034 1.772 -0 -1.2 0
0.845 0.027 1.819 -0 -1.2 0
0.878 0.031 1.88 -0 -1.2 0
0.911 0.032 1.942 -0 -1.2 0
0.949 0.035 2.012 -0 -1.2 0
0.982 0.032 2.075 -0 -1.2 0
1.026 0.037 2.154 -0 -1.2 0
1.068 0.038 2.233 -0 -1.2 0
1.119 0.046 2.329 -0 -1.2 0
1.164 0.042 2.41 -0 -1.2 0
1.22 0.047 2.515 -0 -1.2 0
1.272 0.044 2.613 -0 -1.2 0
1.33 0.042 2.718 -0 -1.2 0
1.401 0.047 2.85 -0 -1.2 0
1.473 0.047 2.983 -0 -1.2 0
1.553 0.049 3.133 -0 -1.2 0
1.643 0.053 3.299 -0 -1.2 0
1.738 0.052 3.476 -0 -1.2 0
1.852 0.057 3.687 -0 -1.2 0
1.966 0.054 3.898 -0 -1.2 0
2.099 0.053 4.145 -0 -1.2 0
2.256 0.054 4.435 -0 -1.2 0
2.422 0.049 4.745 -0 -1.2 0
2.636 0.053 5.14 -0 -1.2 0
2.902 0.062 5.633 -0 -1.2 0
3.229 0.075 6.239 -0 -1.2 0
3.655 0.097 7.03 -0 -1.2 0
4.224 0.129 8.085 -0 -1.2 0
5.241 0.234 9.972 -0 -1.2 0
6.252 0.263 11.847 -0 -1.2 0
7.46 0.254 14.085 -0 -1.2 0
6.781 -0.119 12.82 -0 -1.2 0
6.9 -0.355 13.034 -0 -1.2 0
10.457 -4.572 19.528 -0 -1.2 0
9.811 -4.722 18.327 -0 -1.2 0
10.153 -5.23 18.949 -0 -1.2 0
10.139 -5.607 18.914 -0 -1.2 0
10.654 -6.65 19.843 -0 -1.2 0
11.509 -7.543 21.408 -0 -1.2 0
12.596 -8.645 23.398 -0 -1.2 0
10.752 -9.251 19.965 -0 -1.2 0
10.401 -9.411 19.309 -0 -1.2 0
11.701 -10.941 21.683 -0 -1.2 0
0.607 0.029 1.3 -0 -1.2 0
0.628 0.03 1.335 -0 -1.2 0
0.646 0.024 1.364 -0 -1.2 0
0.667 0.025 1.4 -0 -1.2 0
0.691 0.029 1.442 -0 -1.2 0
0.713 0.027 1.479 -0 -1.2 0
0.734 0.024 1.515 -0 -1.2 0
0.759 0.026 1.559 -0 -1.2 0
0.789 0.032 1.609 -0 -1.2 0
0.816 0.031 1.653 -0 -1.2 0
0.842 0.028 1.698 -0 -1.2 0
0.877 0.035 1.757 -0 -1.2 0
0.912 0.04 1.817 -0 -1.2 0
0.943 0.037 1.871 -0 -1.2 0
0.975 0.033 1.924 -0 -1.2 0
1.015 0.037 1.993 -0 -1.2 0
1.056 0.039 2.061 -0 -1.2 0
1.101 0.043 2.138 -0 -1.2 0
1.147 0.044 2.216 -0 -1.2 0
1.198 0.048 2.303 -0 -1.2 0
1.248 0.048 2.39 -0 -1.2 0
1.3 0.044 2.476 -0 -1.2 0
1.366 0.05 2.588 -0 -1.2 0
1.422 0.044 2.684 -0 -1.2 0
1.498 0.049 2.813 -0 -1.2 0
1.574 0.049 2.942 -0 -1.2 0
1.661 0.052 3.089 -0 -1.2 0
1.756 0.055 3.253 -0 -1.2 0
1.858 0.055 3.425 -0 -1.2 0
1.975 0.057 3.623 -0 -1.2 0
2.103 0.057 3.839 -0 -1.2 0
2.24 0.053 4.072 -0 -1.2 0
2.412 0.058 4.365 -0 -1.2 0
2.6 0.057 4.684 -0 -1.2 0
2.818 0.057 5.055 -0 -1.2 0
3.107 0.069 5.545 -0 -1.2 0
3.466 0.085 6.156 -0 -1.2 0
3.912 0.104 6.914 -0 -1.2 0
4.796 0.213 8.416 -0 -1.2 0
5.571 0.235 9.735 -0 -1.2 0
6.677 0.272 11.613 -0 -1.2 0
8.028 0.275 13.907 -0 -1.2 0
7.293 -0.102 12.652 -0 -1.2 0
7.425 -0.338 12.87 -0 -1.2 0
14.502 -3.583 24.824 -0 -1.2 0
14.483 -4.078 24.78 -0 -1.2 0
11.664 -4.708 19.979 -0 -1.2 0
12.631 -5.451 21.606 -0 -1.2 0
10.91 -5.238 18.688 -0 -1.2 0
10.538 -5.844 18.045 -0 -1.2 0
12.6 -8.145 21.497 -0 -1.2 0
13.004 -9.335 22.16 -0 -1.2 0
11.788 -9.452 20.092 -0 -1.2 0
13.113 -12.457 22.281 -0 -1.2 0
13.07 -12.952 22.198 -0 -1.2 0
0.643 0.029 1.295 -0 -1.2 0
0.665 0.031 1.329 -0 -1.2 0
0.687 0.032 1.364 -0 -1.2 0
0.705 0.025 1.393 -0 -1.2 0
0.728 0.024 1.428 -0 -1.2 0
0.755 0.028 1.47 -0 -1.2 0
0.778 0.025 1.505 -0 -1.2 0
0.805 0.027 1.547 -0 -1.2 0
0.836 0.033 1.597 -0 -1.2 0
0.864 0.032 1.641 -0 -1.2 0
0.896 0.035 1.692 -0 -1.2 0
0.929 0.036 1.743 -0 -1.2 0
0.962 0.035 1.794 -0 -1.2 0
0.999 0.038 1.853 -0 -1.2 0
1.037 0.04 1.912 -0 -1.2 0
1.075 0.038 1.972 -0 -1.2 0
1.119 0.04 2.04 -0 -1.2 0
1.166 0.044 2.116 -0 -1.2 0
1.21 0.041 2.184 -0 -1.2 0
1.263 0.044 2.269 -0 -1.2 0
1.318 0.045 2.353 -0 -1.2 0
1.377 0.046 2.446 -0 -1.2 0
1.446 0.051 2.555 -0 -1.2 0
1.512 0.05 2.657 -0 -1.2 0
1.586 0.051 2.775 -0 -1.2 0
1.673 0.055 2.91 -0 -1.2 0
1.753 0.05 3.038 -0 -1.2 0
1.861 0.057 3.205 -0 -1.2 0
1.974 0.06 3.383 -0 -1.2 0
2.092 0.059 3.568 -0 -1.2 0
2.227 0.06 3.78 -0 -1.2 0
2.372 0.056 4.007 -0 -1.2 0
2.549 0.059 4.286 -0 -1.2 0
2.759 0.063 4.615 -0 -1.2 0
3.006 0.069 5.002 -0 -1.2 0
3.302 0.076 5.466 -0 -1.2 0
3.683 0.093 6.063 -0 -1.2 0
4.202 0.126 6.88 -0 -1.2 0
5.085 0.221 8.267 -0 -1.2 0
5.897 0.241 9.541 -0 -1.2 0
7.073 0.281 11.387 -0 -1.2 0
8.552 0.294 13.708 -0 -1.2 0
8.18 -0.297 13.114 -0 -1.2 0
9.816 -0.453 15.677 -0 -1.2 0
12.096 -4.221 19.186 -0 -1.2 0
13.351 -4.985 21.141 -0 -1.2 0
11.187 -4.722 17.751 -0 -1.2 0
11.625 -5.25 18.43 -0 -1.2 0
13.603 -6.415 21.51 -0 -1.2 0
13.219 -7.158 20.895 -0 -1.2 0
14.275 -8.132 22.534 -0 -1.2 0
13.198 -8.055 20.846 -0 -1.2 0
13.408 -8.632 21.165 -0 -1.2 0
12.389 -8.492 19.568 -0 -1.2 0
12.872 -9.24 20.313 -0 -1.2 0
0.678 0.03 1.287 -0 -1.2 0
0.698 0.025 1.315 -0 -1.2 0
0.721 0.025 1.349 -0 -1.2 0
0.744 0.026 1.383 -0 -1.2 0
0.768 0.025 1.417 -0 -1.2 0
0.791 0.023 1.451 -0 -1.2 0
0.82 0.026 1.493 -0 -1.2 0
0.849 0.028 1.534 -0 -1.2 0
0.878 0.028 1.576 -0 -1.2 0
0.911 0.033 1.626 -0 -1.2 0
0.945 0.036 1.675 -0 -1.2 0
0.979 0.037 1.725 -0 -1.2 0
1.014 0.036 1.775 -0 -1.2 0
1.049 0.034 1.825 -0 -1.2 0
1.094 0.041 1.891 -0 -1.2 0
1.134 0.039 1.949 -0 -1.2 0
1.179 0.042 2.015 -0 -1.2 0
1.23 0.045 2.089 -0 -1.2 0
1.281 0.047 2.163 -0 -1.2 0
1.338 0.051 2.246 -0 -1.2 0
1.389 0.047 2.321 -0 -1.2 0
1.453 0.048 2.412 -0 -1.2 0
1.525 0.053 2.518 -0 -1.2 0
1.589 0.047 2.61 -0 -1.2 0
1.674 0.053 2.734 -0 -1.2 0
1.758 0.053 2.858 -0 -1.2 0
1.85 0.052 2.989 -0 -1.2 0
1.958 0.055 3.146 -0 -1.2 0
2.071 0.056 3.311 -0 -1.2 0
2.191 0.053 3.485 -0 -1.2 0
2.338 0.056 3.698 -0 -1.2 0
2.491 0.054 3.922 -0 -1.2 0
2.678 0.056 4.193 -0 -1.2 0
2.905 0.064 4.522 -0 -1.2 0
3.154 0.066 4.885 -0 -1.2 0
3.465 0.075 5.337 -0 -1.2 0
3.873 0.094 5.929 -0 -1.2 0
4.645 0.191 7.053 -0 -1.2 0
5.319 0.215 8.033 -0 -1.2 0
6.119 0.226 9.195 -0 -1.2 0
7.326 0.264 10.95 -0 -1.2 0
8.964 0.296 13.331 -0 -1.2 0
10.261 0.183 15.213 -0 -1.2 0
9.862 -0.17 14.628 -0 -1.2 0
9.871 -0.471 14.638 -0 -1.2 0
13.632 -4.421 20.039 -0 -1.2 0
14.935 -5.206 21.922 -0 -1.2 0
14.013 -6.277 20.565 -0 -1.2 0
14.602 -8.866 21.38 -0 -1.2 0
14.263 -9.643 20.875 -0 -1.2 0
0.715 0.031 1.279 -0 -1.2 0
0.739 0.032 1.311 -0 -1.2 0
0.759 0.026 1.338 -0 -1.2 0
0.785 0.027 1.371 -0 -1.2 0
0.814 0.032 1.411 -0 -1.2 0
0.839 0.03 1.445 -0 -1.2 0
0.865 0.026 1.479 -0 -1.2 0
0.895 0.028 1.519 -0 -1.2 0
0.925 0.028 1.56 -0 -1.2 0
0.96 0.034 1.608 -0 -1.2 0
0.997 0.037 1.655 -0 -1.2 0
1.033 0.038 1.704 -0 -1.2 0
1.074 0.043 1.76 -0 -1.2 0
1.106 0.035 1.802 -0 -1.2 0
1.153 0.042 1.866 -0 -1.2 0
1.196 0.04 1.923 -0 -1.2 0
1.244 0.043 1.987 -0 -1.2 0
1.292 0.042 2.051 -0 -1.2 0
1.345 0.044 2.124 -0 -1.2 0
1.406 0.047 2.204 -0 -1.2 0
1.465 0.048 2.285 -0 -1.2 0
1.531 0.049 2.373 -0 -1.2 0
1.603 0.051 2.469 -0 -1.2 0
1.675 0.049 2.566 -0 -1.2 0
1.764 0.055 2.686 -0 -1.2 0
1.843 0.048 2.791 -0 -1.2 0
1.944 0.051 2.928 -0 -1.2 0
2.053 0.051 3.072 -0 -1.2 0
2.167 0.049 3.225 -0 -1.2 0
2.309 0.056 3.416 -0 -1.2 0
2.448 0.051 3.602 -0 -1.2 0
2.621 0.054 3.834 -0 -1.2 0
2.812 0.055 4.091 -0 -1.2 0
3.045 0.061 4.404 -0 -1.2 0
3.314 0.066 4.764 -0 -1.2 0
3.642 0.075 5.204 -0 -1.2 0
4.077 0.096 5.788 -0 -1.2 0
4.921 0.203 6.921 -0 -1.2 0
5.555 0.209 7.772 -0 -1.2 0
6.405 0.224 8.911 -0 -1.2 0
7.589 0.248 10.498 -0 -1.2 0
9.346 0.29 12.855 -0 -1.2 0
9.975 0.092 13.695 -0 -1.2 0
10.088 -0.187 13.845 -0 -1.2 0
9.967 -0.487 13.677 -0 -1.2 0
0.749 0.032 1.269 -0 -1.2 0
0.77 0.027 1.296 -0 -1.2 0
0.795 0.027 1.328 -0 -1.2 0
0.817 0.021 1.354 -0 -1.2 0
0.852 0.033 1.399 -0 -1.2 0
0.883 0.038 1.438 -0 -1.2 0
0.905 0.028 1.465 -0 -1.2 0
0.942 0.036 1.511 -0 -1.2 0
0.969 0.03 1.545 -0 -1.2 0
1.006 0.035 1.59 -0 -1.2 0
1.048 0.044 1.643 -0 -1.2 0
1.081 0.04 1.684 -0 -1.2 0
1.124 0.045 1.739 -0 -1.2 0
1.163 0.042 1.787 -0 -1.2 0
1.207 0.044 1.842 -0 -1.2 0
1.256 0.047 1.903 -0 -1.2 0
1.306 0.05 1.966 -0 -1.2 0
1.352 0.044 2.023 -0 -1.2 0
1.408 0.046 2.093 -0 -1.2 0
1.465 0.045 2.165 -0 -1.2 0
1.533 0.05 2.249 -0 -1.2 0
1.603 0.051 2.336 -0 -1.2 0
1.677 0.053 2.43 -0 -1.2 0
1.754 0.051 2.523 -0 -1.2 0
1.847 0.057 2.64 -0 -1.2 0
1.934 0.054 2.75 -0 -1.2 0
2.035 0.053 2.875 -0 -1.2 0
2.148 0.054 3.016 -0 -1.2 0
2.267 0.051 3.165 -0 -1.2 0
2.411 0.055 3.344 -0 -1.2 0
2.567 0.056 3.539 -0 -1.2 0
2.737 0.054 3.751 -0 -1.2 0
2.937 0.056 4.001 -0 -1.2 0
3.192 0.066 4.32 -0 -1.2 0
3.473 0.071 4.671 -0 -1.2 0
3.823 0.082 5.107 -0 -1.2 0
4.377 0.133 5.799 -0 -1.2 0
5.197 0.22 6.825 -0 -1.2 0
5.818 0.216 7.599 -0 -1.2 0
6.731 0.235 8.739 -0 -1.2 0
7.932 0.253 10.237 -0 -1.2 0
9.788 0.298 12.556 -0 -1.2 0
11.53 0.227 14.728 -0 -1.2 0
