# .PCD v.7 - Point Cloud Data file format
FIELDS x y z vp_x vp_y vp_z
SIZE 4 4 4 4 4 4
TYPE F F F F F F
COUNT 1 1 1 1 1 1
WIDTH 1629
HEIGHT 1
VIEWPOINT 0 -1.20005 0 1 0 0 0
POINTS 1629
DATA ascii
-1.138 -0.002 0.541 -0 -1.2 0
-1.177 -0.003 0.574 -0 -1.2 0
-1.216 -0.005 0.607 -0 -1.2 0
-1.262 -0.004 0.646 -0 -1.2 0
-1.308 -0.004 0.684 -0 -1.2 0
-1.355 -0.005 0.724 -0 -1.2 0
-1.416 0.002 0.773 -0 -1.2 0
-1.47 0.001 0.818 -0 -1.2 0
-1.531 0.004 0.869 -0 -1.2 0
-1.586 -0.001 0.915 -0 -1.2 0
-1.641 -0.007 0.962 -0 -1.2 0
-1.71 -0.007 1.02 -0 -1.2 0
-1.779 -0.011 1.077 -0 -1.2 0
-1.857 -0.011 1.142 -0 -1.2 0
-1.941 -0.013 1.213 -0 -1.2 0
-2.019 -0.021 1.278 -0 -1.2 0
-2.119 -0.02 1.36 -0 -1.2 0
-2.211 -0.028 1.439 -0 -1.2 0
-2.326 -0.03 1.535 -0 -1.2 0
-2.457 -0.03 1.644 -0 -1.2 0
-2.588 -0.036 1.753 -0 -1.2 0
-2.741 -0.038 1.881 -0 -1.2 0
-2.925 -0.036 2.034 -0 -1.2 0
-3.131 -0.035 2.207 -0 -1.2 0
-3.436 -0.011 2.461 -0 -1.2 0
-3.547 -0.06 2.554 -0 -1.2 0
-3.567 -0.137 2.574 -0 -1.2 0
-3.586 -0.215 2.591 -0 -1.2 0
-3.619 -0.291 2.621 -0 -1.2 0
-3.567 -0.385 2.58 -0 -1.2 0
-3.69 -0.444 2.683 -0 -1.2 0
-3.728 -0.522 2.716 -0 -1.2 0
-3.727 -0.607 2.718 -0 -1.2 0
-3.402 -0.727 2.45 -0 -1.2 0
-3.552 -0.79 2.575 -0 -1.2 0
-3.279 -0.888 2.349 -0 -1.2 0
-3.234 -0.964 2.314 -0 -1.2 0
-3.235 -1.036 2.316 -0 -1.2 0
-3.234 -1.109 2.317 -0 -1.2 0
-3.225 -1.181 2.311 -0 -1.2 0
-3.246 -1.254 2.33 -0 -1.2 0
-3.227 -1.326 2.317 -0 -1.2 0
-3.222 -1.398 2.315 -0 -1.2 0
-3.225 -1.471 2.318 -0 -1.2 0
-3.226 -1.545 2.321 -0 -1.2 0
-3.227 -1.618 2.323 -0 -1.2 0
-3.219 -1.691 2.317 -0 -1.2 0
-3.217 -1.765 2.318 -0 -1.2 0
-3.214 -1.839 2.317 -0 -1.2 0
-3.211 -1.913 2.316 -0 -1.2 0
-3.221 -1.991 2.326 -0 -1.2 0
-3.17 -2.053 2.285 -0 -1.2 0
-3.149 -2.122 2.269 -0 -1.2 0
-3.148 -2.198 2.271 -0 -1.2 0
-3.515 -2.413 2.581 -0 -1.2 0
-3.524 -2.503 2.592 -0 -1.2 0
-3.534 -2.595 2.601 -0 -1.2 0
-3.549 -2.691 2.616 -0 -1.2 0
-3.504 -2.761 2.58 -0 -1.2 0
-3.58 -2.89 2.647 -0 -1.2 0
-3.59 -2.99 2.657 -0 -1.2 0
-3.591 -3.086 2.66 -0 -1.2 0
-3.57 -3.171 2.644 -0 -1.2 0
-3.617 -3.298 2.686 -0 -1.2 0
-3.62 -3.402 2.692 -0 -1.2 0
-3.622 -3.506 2.696 -0 -1.2 0
-3.541 -3.555 2.629 -0 -1.2 0
-3.454 -3.596 2.557 -0 -1.2 0
-3.472 -3.713 2.575 -0 -1.2 0
-3.618 -3.937 2.702 -0 -1.2 0
-3.611 -4.045 2.698 -0 -1.2 0
-3.55 -4.109 2.649 -0 -1.2 0
-3.615 -4.285 2.708 -0 -1.2 0
-3.521 -4.321 2.631 -0 -1.2 0
-3.421 -4.347 2.548 -0 -1.2 0
-3.304 -4.352 2.449 -0 -1.2 0
-3.23 -4.395 2.389 -0 -1.2 0
-3.226 -4.512 2.388 -0 -1.2 0
-3.218 -4.63 2.385 -0 -1.2 0
-3.222 -4.762 2.39 -0 -1.2 0
-3.217 -4.888 2.388 -0 -1.2 0
-3.214 -5.022 2.389 -0 -1.2 0
-3.209 -5.158 2.388 -0 -1.2 0
-3.207 -5.301 2.39 -0 -1.2 0
-3.201 -5.445 2.389 -0 -1.2 0
-0.913 0.008 0.419 -0 -1.2 0
-0.944 0.008 0.446 -0 -1.2 0
-0.97 0.001 0.469 -0 -1.2 0
-0.995 -0.007 0.492 -0 -1.2 0
-1.038 0.002 0.53 -0 -1.2 0
-1.069 -0.002 0.558 -0 -1.2 0
-1.101 -0.006 0.587 -0 -1.2 0
-1.14 -0.007 0.62 -0 -1.2 0
-1.184 -0.003 0.659 -0 -1.2 0
-1.229 -0.001 0.699 -0 -1.2 0
-1.268 -0.006 0.734 -0 -1.2 0
-1.319 -0.002 0.78 -0 -1.2 0
-1.372 -0.001 0.827 -0 -1.2 0
-1.425 0 0.872 -0 -1.2 0
-1.477 -0.002 0.92 -0 -1.2 0
-1.531 -0.007 0.967 -0 -1.2 0
-1.591 -0.009 1.021 -0 -1.2 0
-1.651 -0.013 1.074 -0 -1.2 0
-1.72 -0.016 1.135 -0 -1.2 0
-1.794 -0.017 1.202 -0 -1.2 0
-1.869 -0.021 1.269 -0 -1.2 0
-1.96 -0.021 1.348 -0 -1.2 0
-2.043 -0.028 1.422 -0 -1.2 0
-2.147 -0.028 1.515 -0 -1.2 0
-2.251 -0.033 1.608 -0 -1.2 0
-2.379 -0.032 1.72 -0 -1.2 0
-2.505 -0.037 1.834 -0 -1.2 0
-2.648 -0.042 1.96 -0 -1.2 0
-2.827 -0.039 2.12 -0 -1.2 0
-3.006 -0.045 2.279 -0 -1.2 0
-3.317 -0.015 2.554 -0 -1.2 0
-3.513 -0.035 2.729 -0 -1.2 0
-3.591 -0.098 2.799 -0 -1.2 0
-3.567 -0.19 2.78 -0 -1.2 0
-3.539 -0.28 2.758 -0 -1.2 0
-3.438 -0.385 2.671 -0 -1.2 0
-3.527 -0.449 2.751 -0 -1.2 0
-3.527 -0.532 2.752 -0 -1.2 0
-3.57 -0.608 2.793 -0 -1.2 0
-3.531 -0.695 2.76 -0 -1.2 0
-3.534 -0.777 2.765 -0 -1.2 0
-3.53 -0.859 2.763 -0 -1.2 0
-3.217 -0.955 2.487 -0 -1.2 0
-3.217 -1.029 2.491 -0 -1.2 0
-3.217 -1.103 2.492 -0 -1.2 0
-3.215 -1.177 2.492 -0 -1.2 0
-3.214 -1.251 2.492 -0 -1.2 0
-3.21 -1.325 2.491 -0 -1.2 0
-3.206 -1.399 2.488 -0 -1.2 0
-3.208 -1.474 2.492 -0 -1.2 0
-3.209 -1.549 2.495 -0 -1.2 0
-3.217 -1.625 2.504 -0 -1.2 0
-3.208 -1.699 2.499 -0 -1.2 0
-3.206 -1.775 2.499 -0 -1.2 0
-3.196 -1.849 2.491 -0 -1.2 0
-3.2 -1.927 2.496 -0 -1.2 0
-3.209 -2.007 2.507 -0 -1.2 0
-3.153 -2.067 2.458 -0 -1.2 0
-3.139 -2.14 2.448 -0 -1.2 0
-3.182 -2.233 2.488 -0 -1.2 0
-3.309 -2.361 2.603 -0 -1.2 0
-3.312 -2.447 2.608 -0 -1.2 0
-3.315 -2.533 2.613 -0 -1.2 0
-3.315 -2.62 2.616 -0 -1.2 0
-3.308 -2.703 2.611 -0 -1.2 0
-3.306 -2.79 2.612 -0 -1.2 0
-3.311 -2.882 2.617 -0 -1.2 0
-3.307 -2.97 2.616 -0 -1.2 0
-3.308 -3.063 2.619 -0 -1.2 0
-3.308 -3.156 2.622 -0 -1.2 0
-3.306 -3.25 2.623 -0 -1.2 0
-3.31 -3.349 2.628 -0 -1.2 0
-3.305 -3.445 2.626 -0 -1.2 0
-3.305 -3.546 2.629 -0 -1.2 0
-3.323 -3.662 2.647 -0 -1.2 0
-3.32 -3.765 2.648 -0 -1.2 0
-3.322 -3.873 2.652 -0 -1.2 0
-3.321 -3.983 2.654 -0 -1.2 0
-3.319 -4.093 2.654 -0 -1.2 0
-3.321 -4.21 2.659 -0 -1.2 0
-3.32 -4.328 2.662 -0 -1.2 0
-3.236 -4.363 2.587 -0 -1.2 0
-3.21 -4.457 2.566 -0 -1.2 0
-3.21 -4.582 2.569 -0 -1.2 0
-3.202 -4.702 2.566 -0 -1.2 0
-3.204 -4.835 2.571 -0 -1.2 0
-3.198 -4.963 2.568 -0 -1.2 0
-3.194 -5.098 2.568 -0 -1.2 0
-3.189 -5.234 2.567 -0 -1.2 0
-3.185 -5.379 2.567 -0 -1.2 0
-3.184 -5.532 2.57 -0 -1.2 0
-0.883 0.003 0.458 -0 -1.2 0
-0.919 0.01 0.491 -0 -1.2 0
-0.944 0.003 0.515 -0 -1.2 0
-0.974 0.001 0.544 -0 -1.2 0
-1.01 0.004 0.578 -0 -1.2 0
-1.035 -0.005 0.602 -0 -1.2 0
-1.077 0.001 0.641 -0 -1.2 0
-1.115 0 0.676 -0 -1.2 0
-1.158 0.004 0.717 -0 -1.2 0
-1.19 -0.005 0.748 -0 -1.2 0
-1.227 -0.01 0.784 -0 -1.2 0
-1.284 0 0.836 -0 -1.2 0
-1.323 -0.009 0.873 -0 -1.2 0
-1.386 0.002 0.933 -0 -1.2 0
-1.437 0 0.981 -0 -1.2 0
-1.49 -0.005 1.03 -0 -1.2 0
-1.542 -0.011 1.08 -0 -1.2 0
-1.607 -0.01 1.141 -0 -1.2 0
-1.672 -0.013 1.203 -0 -1.2 0
-1.752 -0.01 1.279 -0 -1.2 0
-1.825 -0.013 1.347 -0 -1.2 0
-1.906 -0.017 1.424 -0 -1.2 0
-1.987 -0.024 1.5 -0 -1.2 0
-2.096 -0.02 1.603 -0 -1.2 0
-2.204 -0.022 1.705 -0 -1.2 0
-2.314 -0.027 1.809 -0 -1.2 0
-2.438 -0.032 1.926 -0 -1.2 0
-2.569 -0.04 2.05 -0 -1.2 0
-2.75 -0.034 2.22 -0 -1.2 0
-2.918 -0.042 2.379 -0 -1.2 0
-3.149 -0.035 2.597 -0 -1.2 0
-3.425 -0.026 2.857 -0 -1.2 0
-3.508 -0.086 2.937 -0 -1.2 0
-3.52 -0.169 2.95 -0 -1.2 0
-3.523 -0.254 2.955 -0 -1.2 0
-3.38 -0.371 2.824 -0 -1.2 0
-3.533 -0.423 2.969 -0 -1.2 0
-3.533 -0.508 2.971 -0 -1.2 0
-3.532 -0.593 2.972 -0 -1.2 0
-3.536 -0.677 2.978 -0 -1.2 0
-3.453 -0.769 2.902 -0 -1.2 0
-3.52 -0.845 2.969 -0 -1.2 0
-3.217 -0.945 2.685 -0 -1.2 0
-3.203 -1.021 2.673 -0 -1.2 0
-3.202 -1.097 2.675 -0 -1.2 0
-3.201 -1.172 2.675 -0 -1.2 0
-3.214 -1.249 2.688 -0 -1.2 0
-3.21 -1.324 2.687 -0 -1.2 0
-3.206 -1.4 2.686 -0 -1.2 0
-3.208 -1.477 2.689 -0 -1.2 0
-3.201 -1.553 2.685 -0 -1.2 0
-3.208 -1.632 2.694 -0 -1.2 0
-3.2 -1.708 2.688 -0 -1.2 0
-3.198 -1.785 2.689 -0 -1.2 0
-3.195 -1.863 2.688 -0 -1.2 0
-3.199 -1.942 2.693 -0 -1.2 0
-3.187 -2.019 2.683 -0 -1.2 0
-3.131 -2.081 2.633 -0 -1.2 0
-3.131 -2.16 2.635 -0 -1.2 0
-3.207 -2.268 2.709 -0 -1.2 0
-3.246 -2.367 2.749 -0 -1.2 0
-3.249 -2.452 2.754 -0 -1.2 0
-3.244 -2.536 2.752 -0 -1.2 0
-3.245 -2.623 2.754 -0 -1.2 0
-3.238 -2.706 2.75 -0 -1.2 0
-3.237 -2.794 2.751 -0 -1.2 0
-3.234 -2.882 2.75 -0 -1.2 0
-3.229 -2.971 2.748 -0 -1.2 0
-3.231 -3.064 2.752 -0 -1.2 0
-3.224 -3.153 2.748 -0 -1.2 0
-3.223 -3.248 2.749 -0 -1.2 0
-3.219 -3.342 2.748 -0 -1.2 0
-3.222 -3.442 2.753 -0 -1.2 0
-3.215 -3.539 2.75 -0 -1.2 0
-3.221 -3.645 2.757 -0 -1.2 0
-3.223 -3.753 2.763 -0 -1.2 0
-3.219 -3.856 2.761 -0 -1.2 0
-3.219 -3.965 2.764 -0 -1.2 0
-3.216 -4.075 2.765 -0 -1.2 0
-3.212 -4.187 2.764 -0 -1.2 0
-3.213 -4.304 2.767 -0 -1.2 0
-3.205 -4.417 2.763 -0 -1.2 0
-3.201 -4.537 2.762 -0 -1.2 0
-3.195 -4.657 2.759 -0 -1.2 0
-3.193 -4.785 2.761 -0 -1.2 0
-3.192 -4.92 2.764 -0 -1.2 0
-3.196 -5.063 2.771 -0 -1.2 0
-3.186 -5.194 2.765 -0 -1.2 0
-3.179 -5.333 2.762 -0 -1.2 0
-3.174 -5.479 2.761 -0 -1.2 0
-3.177 -5.641 2.768 -0 -1.2 0
-0.855 0.005 0.503 -0 -1.2 0
-0.884 0.005 0.533 -0 -1.2 0
-0.914 0.005 0.562 -0 -1.2 0
-0.948 0.009 0.597 -0 -1.2 0
-0.978 0.006 0.627 -0 -1.2 0
-1.007 0.002 0.657 -0 -1.2 0
-1.049 0.009 0.699 -0 -1.2 0
-1.079 0.002 0.73 -0 -1.2 0
-1.11 -0.005 0.761 -0 -1.2 0
-1.151 -0.002 0.802 -0 -1.2 0
-1.188 -0.007 0.839 -0 -1.2 0
-1.237 -0.003 0.889 -0 -1.2 0
-1.286 0 0.938 -0 -1.2 0
-1.336 0 0.988 -0 -1.2 0
-1.386 -0.002 1.038 -0 -1.2 0
-1.442 -0.001 1.095 -0 -1.2 0
-1.493 -0.008 1.146 -0 -1.2 0
-1.556 -0.007 1.209 -0 -1.2 0
-1.633 0 1.287 -0 -1.2 0
-1.697 -0.006 1.351 -0 -1.2 0
-1.768 -0.009 1.423 -0 -1.2 0
-1.846 -0.013 1.501 -0 -1.2 0
-1.931 -0.016 1.588 -0 -1.2 0
-2.022 -0.02 1.68 -0 -1.2 0
-2.128 -0.02 1.786 -0 -1.2 0
-2.241 -0.022 1.9 -0 -1.2 0
-2.354 -0.03 2.014 -0 -1.2 0
-2.494 -0.031 2.156 -0 -1.2 0
-2.664 -0.028 2.326 -0 -1.2 0
-2.839 -0.03 2.503 -0 -1.2 0
-3.036 -0.033 2.702 -0 -1.2 0
-3.359 -0.004 3.025 -0 -1.2 0
-3.509 -0.044 3.178 -0 -1.2 0
-3.513 -0.133 3.184 -0 -1.2 0
-3.509 -0.222 3.183 -0 -1.2 0
-3.497 -0.312 3.174 -0 -1.2 0
-3.485 -0.402 3.163 -0 -1.2 0
-3.498 -0.486 3.179 -0 -1.2 0
-3.497 -0.573 3.18 -0 -1.2 0
-3.502 -0.658 3.188 -0 -1.2 0
-3.435 -0.752 3.123 -0 -1.2 0
-3.509 -0.831 3.199 -0 -1.2 0
-3.2 -0.933 2.891 -0 -1.2 0
-3.2 -1.011 2.894 -0 -1.2 0
-3.193 -1.089 2.888 -0 -1.2 0
-3.192 -1.167 2.889 -0 -1.2 0
-3.197 -1.245 2.896 -0 -1.2 0
-3.193 -1.323 2.895 -0 -1.2 0
-3.189 -1.401 2.892 -0 -1.2 0
-3.184 -1.48 2.889 -0 -1.2 0
-3.184 -1.559 2.893 -0 -1.2 0
-3.198 -1.64 2.909 -0 -1.2 0
-3.183 -1.717 2.895 -0 -1.2 0
-3.18 -1.797 2.895 -0 -1.2 0
-3.177 -1.877 2.895 -0 -1.2 0
-3.181 -1.958 2.899 -0 -1.2 0
-3.169 -2.037 2.889 -0 -1.2 0
-3.114 -2.101 2.837 -0 -1.2 0
-3.121 -2.185 2.845 -0 -1.2 0
-3.451 -2.392 3.184 -0 -1.2 0
-7.58 -4.155 7.389 -0 -1.2 0
-7.579 -4.359 7.394 -0 -1.2 0
-7.575 -4.565 7.395 -0 -1.2 0
-3.474 -2.776 3.217 -0 -1.2 0
-7.007 -4.694 6.827 -0 -1.2 0
-6.638 -4.694 6.457 -0 -1.2 0
-6.299 -4.69 6.114 -0 -1.2 0
-3.463 -3.165 3.216 -0 -1.2 0
-5.723 -4.698 5.535 -0 -1.2 0
-3.623 -3.479 3.386 -0 -1.2 0
-3.598 -3.572 3.364 -0 -1.2 0
-3.435 -3.566 3.2 -0 -1.2 0
-3.41 -3.655 3.176 -0 -1.2 0
-3.444 -3.792 3.214 -0 -1.2 0
-3.439 -3.902 3.213 -0 -1.2 0
-3.432 -4.013 3.209 -0 -1.2 0
-3.431 -4.129 3.211 -0 -1.2 0
-3.433 -4.251 3.216 -0 -1.2 0
-3.398 -4.341 3.183 -0 -1.2 0
-3.282 -4.351 3.067 -0 -1.2 0
-3.196 -4.385 2.981 -0 -1.2 0
-3.193 -4.506 2.981 -0 -1.2 0
-3.188 -4.628 2.98 -0 -1.2 0
-3.192 -4.763 2.987 -0 -1.2 0
-3.188 -4.893 2.987 -0 -1.2 0
-3.181 -5.024 2.984 -0 -1.2 0
-3.178 -5.163 2.985 -0 -1.2 0
-3.177 -5.309 2.987 -0 -1.2 0
-3.168 -5.45 2.983 -0 -1.2 0
-3.163 -5.598 2.981 -0 -1.2 0
-3.159 -5.756 2.982 -0 -1.2 0
-0.838 0.02 0.555 -0 -1.2 0
-0.861 0.014 0.58 -0 -1.2 0
-0.89 0.013 0.611 -0 -1.2 0
-0.918 0.011 0.642 -0 -1.2 0
-0.947 0.008 0.672 -0 -1.2 0
-0.975 0.004 0.703 -0 -1.2 0
-1.016 0.011 0.746 -0 -1.2 0
-1.05 0.01 0.783 -0 -1.2 0
-1.08 0.003 0.815 -0 -1.2 0
-1.121 0.005 0.859 -0 -1.2 0
-1.157 0 0.897 -0 -1.2 0
-1.203 0.004 0.947 -0 -1.2 0
-1.246 0.001 0.993 -0 -1.2 0
-1.299 0.007 1.05 -0 -1.2 0
-1.348 0.005 1.102 -0 -1.2 0
-1.402 0.005 1.16 -0 -1.2 0
-1.452 0 1.213 -0 -1.2 0
-1.513 0 1.279 -0 -1.2 0
-1.581 0.002 1.351 -0 -1.2 0
-1.649 0.002 1.424 -0 -1.2 0
-1.719 -0.002 1.499 -0 -1.2 0
-1.794 -0.005 1.579 -0 -1.2 0
-1.883 -0.004 1.674 -0 -1.2 0
-1.972 -0.008 1.77 -0 -1.2 0
-2.08 -0.005 1.886 -0 -1.2 0
-2.184 -0.011 1.997 -0 -1.2 0
-2.294 -0.019 2.114 -0 -1.2 0
-2.43 -0.02 2.26 -0 -1.2 0
-2.6 -0.014 2.442 -0 -1.2 0
-2.778 -0.013 2.632 -0 -1.2 0
-2.935 -0.029 2.802 -0 -1.2 0
-3.22 -0.01 3.106 -0 -1.2 0
-3.359 -0.05 3.255 -0 -1.2 0
-3.437 -0.115 3.341 -0 -1.2 0
-3.427 -0.208 3.332 -0 -1.2 0
-3.429 -0.296 3.337 -0 -1.2 0
-3.349 -0.401 3.254 -0 -1.2 0
-3.423 -0.473 3.336 -0 -1.2 0
-3.416 -0.561 3.33 -0 -1.2 0
-3.407 -0.649 3.323 -0 -1.2 0
-3.335 -0.744 3.25 -0 -1.2 0
-3.386 -0.824 3.306 -0 -1.2 0
-3.196 -0.92 3.106 -0 -1.2 0
-3.19 -1.001 3.101 -0 -1.2 0
-3.189 -1.082 3.103 -0 -1.2 0
-3.188 -1.162 3.104 -0 -1.2 0
-3.192 -1.242 3.111 -0 -1.2 0
-3.189 -1.323 3.11 -0 -1.2 0
-3.184 -1.404 3.108 -0 -1.2 0
-3.186 -1.485 3.112 -0 -1.2 0
-3.179 -1.566 3.107 -0 -1.2 0
-3.187 -1.649 3.116 -0 -1.2 0
-3.185 -1.731 3.118 -0 -1.2 0
-3.183 -1.813 3.117 -0 -1.2 0
-3.179 -1.895 3.115 -0 -1.2 0
-3.181 -1.979 3.121 -0 -1.2 0
-3.129 -2.048 3.067 -0 -1.2 0
-3.11 -2.125 3.048 -0 -1.2 0
-3.162 -2.228 3.107 -0 -1.2 0
-3.672 -2.512 3.662 -0 -1.2 0
-7.58 -4.236 7.892 -0 -1.2 0
-7.584 -4.449 7.903 -0 -1.2 0
-3.483 -2.729 3.466 -0 -1.2 0
-7.166 -4.672 7.463 -0 -1.2 0
-3.65 -3.016 3.653 -0 -1.2 0
-3.645 -3.12 3.65 -0 -1.2 0
-3.487 -3.135 3.481 -0 -1.2 0
-5.807 -4.678 6.008 -0 -1.2 0
-5.545 -4.685 5.728 -0 -1.2 0
-3.59 -3.525 3.602 -0 -1.2 0
-3.449 -3.538 3.452 -0 -1.2 0
-3.406 -3.617 3.409 -0 -1.2 0
-3.446 -3.76 3.456 -0 -1.2 0
-3.448 -3.876 3.462 -0 -1.2 0
-3.431 -3.978 3.446 -0 -1.2 0
-3.441 -4.108 3.46 -0 -1.2 0
-3.432 -4.221 3.454 -0 -1.2 0
-3.405 -4.32 3.428 -0 -1.2 0
-3.297 -4.34 3.314 -0 -1.2 0
-3.196 -4.361 3.206 -0 -1.2 0
-3.194 -4.484 3.207 -0 -1.2 0
-3.19 -4.607 3.205 -0 -1.2 0
-3.183 -4.731 3.203 -0 -1.2 0
-3.186 -4.869 3.209 -0 -1.2 0
-3.18 -5.001 3.207 -0 -1.2 0
-3.177 -5.141 3.209 -0 -1.2 0
-3.173 -5.283 3.207 -0 -1.2 0
-3.171 -5.432 3.21 -0 -1.2 0
-3.17 -5.589 3.214 -0 -1.2 0
-3.162 -5.739 3.21 -0 -1.2 0
-3.157 -5.899 3.209 -0 -1.2 0
-0.804 0.015 0.593 -0 -1.2 0
-0.831 0.016 0.624 -0 -1.2 0
-0.859 0.015 0.656 -0 -1.2 0
-0.886 0.013 0.687 -0 -1.2 0
-0.913 0.01 0.718 -0 -1.2 0
-0.941 0.006 0.751 -0 -1.2 0
-0.98 0.013 0.795 -0 -1.2 0
-1.013 0.012 0.832 -0 -1.2 0
-1.048 0.011 0.872 -0 -1.2 0
-1.087 0.013 0.917 -0 -1.2 0
-1.121 0.007 0.956 -0 -1.2 0
-1.162 0.007 1.002 -0 -1.2 0
-1.207 0.009 1.054 -0 -1.2 0
-1.249 0.004 1.101 -0 -1.2 0
-1.301 0.008 1.161 -0 -1.2 0
-1.354 0.008 1.221 -0 -1.2 0
-1.413 0.012 1.288 -0 -1.2 0
-1.466 0.008 1.349 -0 -1.2 0
-1.526 0.005 1.417 -0 -1.2 0
-1.599 0.009 1.5 -0 -1.2 0
-1.666 0.005 1.576 -0 -1.2 0
-1.738 0.002 1.659 -0 -1.2 0
-1.823 0.003 1.756 -0 -1.2 0
-1.904 -0.003 1.848 -0 -1.2 0
-2.016 0.002 1.975 -0 -1.2 0
-2.115 -0.003 2.089 -0 -1.2 0
-2.227 -0.008 2.216 -0 -1.2 0
-2.359 -0.008 2.367 -0 -1.2 0
-2.523 -0.002 2.554 -0 -1.2 0
-2.694 -0.002 2.749 -0 -1.2 0
-2.86 -0.013 2.938 -0 -1.2 0
-3.09 -0.009 3.201 -0 -1.2 0
-3.386 0.004 3.537 -0 -1.2 0
-3.404 -0.082 3.56 -0 -1.2 0
-3.401 -0.174 3.559 -0 -1.2 0
-3.396 -0.266 3.557 -0 -1.2 0
-3.377 -0.361 3.539 -0 -1.2 0
-3.397 -0.447 3.564 -0 -1.2 0
-3.39 -0.538 3.558 -0 -1.2 0
-3.394 -0.626 3.567 -0 -1.2 0
-3.372 -0.719 3.543 -0 -1.2 0
-3.4 -0.805 3.578 -0 -1.2 0
-3.185 -0.907 3.336 -0 -1.2 0
-3.185 -0.991 3.338 -0 -1.2 0
-3.178 -1.074 3.333 -0 -1.2 0
-3.183 -1.157 3.342 -0 -1.2 0
-3.181 -1.24 3.341 -0 -1.2 0
-3.177 -1.323 3.34 -0 -1.2 0
-3.173 -1.407 3.338 -0 -1.2 0
-3.174 -1.491 3.342 -0 -1.2 0
-3.168 -1.574 3.337 -0 -1.2 0
-3.167 -1.658 3.339 -0 -1.2 0
-3.173 -1.744 3.348 -0 -1.2 0
-3.17 -1.829 3.347 -0 -1.2 0
-3.167 -1.914 3.346 -0 -1.2 0
-3.162 -1.999 3.343 -0 -1.2 0
-3.105 -2.068 3.28 -0 -1.2 0
-3.105 -2.153 3.282 -0 -1.2 0
-3.429 -2.359 3.658 -0 -1.2 0
-3.432 -2.457 3.664 -0 -1.2 0
-3.432 -2.556 3.669 -0 -1.2 0
-3.433 -2.654 3.672 -0 -1.2 0
-3.426 -2.751 3.667 -0 -1.2 0
-3.43 -2.854 3.674 -0 -1.2 0
-3.426 -2.954 3.674 -0 -1.2 0
-3.421 -3.055 3.671 -0 -1.2 0
-3.421 -3.16 3.674 -0 -1.2 0
-3.419 -3.266 3.675 -0 -1.2 0
-3.411 -3.368 3.669 -0 -1.2 0
-3.412 -3.479 3.674 -0 -1.2 0
-3.407 -3.586 3.671 -0 -1.2 0
-3.411 -3.703 3.679 -0 -1.2 0
-3.414 -3.821 3.685 -0 -1.2 0
-3.409 -3.935 3.684 -0 -1.2 0
-3.408 -4.055 3.687 -0 -1.2 0
-3.407 -4.176 3.688 -0 -1.2 0
-3.397 -4.292 3.681 -0 -1.2 0
-3.303 -4.327 3.576 -0 -1.2 0
-3.199 -4.348 3.458 -0 -1.2 0
-3.187 -4.461 3.447 -0 -1.2 0
-3.189 -4.592 3.453 -0 -1.2 0
-3.183 -4.718 3.451 -0 -1.2 0
-3.186 -4.858 3.457 -0 -1.2 0
-3.177 -4.986 3.451 -0 -1.2 0
-3.174 -5.128 3.453 -0 -1.2 0
-3.175 -5.277 3.458 -0 -1.2 0
-3.169 -5.421 3.456 -0 -1.2 0
-3.17 -5.579 3.462 -0 -1.2 0
-3.159 -5.726 3.453 -0 -1.2 0
-3.163 -5.901 3.464 -0 -1.2 0
-3.124 -6.013 3.423 -0 -1.2 0
-0.776 0.022 0.644 -0 -1.2 0
-0.797 0.016 0.671 -0 -1.2 0
-0.823 0.015 0.703 -0 -1.2 0
-0.849 0.013 0.736 -0 -1.2 0
-0.876 0.01 0.768 -0 -1.2 0
-0.903 0.006 0.801 -0 -1.2 0
-0.939 0.013 0.846 -0 -1.2 0
-0.972 0.012 0.886 -0 -1.2 0
-1.01 0.017 0.932 -0 -1.2 0
-1.042 0.013 0.972 -0 -1.2 0
-1.081 0.013 1.02 -0 -1.2 0
-1.119 0.013 1.066 -0 -1.2 0
-1.158 0.009 1.114 -0 -1.2 0
-1.202 0.01 1.168 -0 -1.2 0
-1.248 0.008 1.224 -0 -1.2 0
-1.303 0.013 1.293 -0 -1.2 0
-1.349 0.008 1.348 -0 -1.2 0
-1.406 0.009 1.419 -0 -1.2 0
-1.481 0.019 1.509 -0 -1.2 0
-1.532 0.009 1.573 -0 -1.2 0
-1.608 0.014 1.666 -0 -1.2 0
-1.672 0.006 1.745 -0 -1.2 0
-1.748 0.003 1.838 -0 -1.2 0
-1.836 0.003 1.947 -0 -1.2 0
-1.938 0.006 2.071 -0 -1.2 0
-2.039 0.003 2.195 -0 -1.2 0
-2.147 -0.001 2.327 -0 -1.2 0
-2.279 0 2.49 -0 -1.2 0
-2.424 0 2.667 -0 -1.2 0
-2.595 0.003 2.877 -0 -1.2 0
-2.778 0.001 3.101 -0 -1.2 0
-2.98 -0.002 3.349 -0 -1.2 0
-3.196 -0.012 3.614 -0 -1.2 0
-3.187 -0.105 3.607 -0 -1.2 0
-3.183 -0.196 3.605 -0 -1.2 0
-3.185 -0.284 3.611 -0 -1.2 0
-3.186 -0.373 3.615 -0 -1.2 0
-3.186 -0.461 3.617 -0 -1.2 0
-3.185 -0.549 3.619 -0 -1.2 0
-3.183 -0.637 3.619 -0 -1.2 0
-3.18 -0.725 3.618 -0 -1.2 0
-3.176 -0.812 3.616 -0 -1.2 0
-3.159 -0.9 3.597 -0 -1.2 0
-3.159 -0.987 3.6 -0 -1.2 0
-3.158 -1.073 3.603 -0 -1.2 0
-3.157 -1.159 3.603 -0 -1.2 0
-3.161 -1.245 3.611 -0 -1.2 0
-3.151 -1.331 3.602 -0 -1.2 0
-3.147 -1.417 3.599 -0 -1.2 0
-3.147 -1.504 3.604 -0 -1.2 0
-3.154 -1.593 3.614 -0 -1.2 0
-3.146 -1.679 3.608 -0 -1.2 0
-3.151 -1.768 3.616 -0 -1.2 0
-3.147 -1.856 3.615 -0 -1.2 0
-3.143 -1.944 3.613 -0 -1.2 0
-3.101 -2.021 3.564 -0 -1.2 0
-3.077 -2.101 3.537 -0 -1.2 0
-3.125 -2.207 3.6 -0 -1.2 0
-3.209 -2.331 3.706 -0 -1.2 0
-3.206 -2.425 3.706 -0 -1.2 0
-3.201 -2.518 3.703 -0 -1.2 0
-3.196 -2.612 3.699 -0 -1.2 0
-3.195 -2.709 3.702 -0 -1.2 0
-3.187 -2.802 3.695 -0 -1.2 0
-3.185 -2.9 3.695 -0 -1.2 0
-3.187 -3.002 3.7 -0 -1.2 0
-3.186 -3.104 3.704 -0 -1.2 0
-3.186 -3.208 3.706 -0 -1.2 0
-3.183 -3.311 3.707 -0 -1.2 0
-3.186 -3.421 3.713 -0 -1.2 0
-3.18 -3.525 3.71 -0 -1.2 0
-3.174 -3.631 3.707 -0 -1.2 0
-3.172 -3.742 3.707 -0 -1.2 0
-3.174 -3.858 3.713 -0 -1.2 0
-3.169 -3.97 3.71 -0 -1.2 0
-3.167 -4.089 3.712 -0 -1.2 0
-3.169 -4.213 3.719 -0 -1.2 0
-3.17 -4.338 3.723 -0 -1.2 0
-3.163 -4.459 3.72 -0 -1.2 0
-3.171 -4.598 3.732 -0 -1.2 0
-3.165 -4.726 3.731 -0 -1.2 0
-3.163 -4.862 3.732 -0 -1.2 0
-3.154 -4.992 3.726 -0 -1.2 0
-3.153 -5.136 3.729 -0 -1.2 0
-3.149 -5.281 3.729 -0 -1.2 0
-3.148 -5.433 3.733 -0 -1.2 0
-3.149 -5.593 3.739 -0 -1.2 0
-3.143 -5.749 3.737 -0 -1.2 0
-3.134 -5.905 3.732 -0 -1.2 0
-3.088 -6.006 3.679 -0 -1.2 0
-3.071 -6.157 3.662 -0 -1.2 0
-0.743 0.022 0.686 -0 -1.2 0
-0.767 0.023 0.719 -0 -1.2 0
-0.793 0.021 0.752 -0 -1.2 0
-0.814 0.013 0.78 -0 -1.2 0
-0.844 0.016 0.819 -0 -1.2 0
-0.88 0.025 0.865 -0 -1.2 0
-0.905 0.02 0.9 -0 -1.2 0
-0.936 0.018 0.941 -0 -1.2 0
-0.973 0.023 0.987 -0 -1.2 0
-1.004 0.019 1.029 -0 -1.2 0
-1.04 0.019 1.078 -0 -1.2 0
-1.072 0.013 1.12 -0 -1.2 0
-1.115 0.015 1.175 -0 -1.2 0
-1.163 0.02 1.238 -0 -1.2 0
-1.2 0.013 1.288 -0 -1.2 0
-1.248 0.013 1.352 -0 -1.2 0
-1.298 0.012 1.416 -0 -1.2 0
-1.358 0.017 1.495 -0 -1.2 0
-1.418 0.019 1.575 -0 -1.2 0
-1.479 0.018 1.654 -0 -1.2 0
-1.546 0.018 1.743 -0 -1.2 0
-1.619 0.018 1.838 -0 -1.2 0
-1.691 0.014 1.934 -0 -1.2 0
-1.782 0.017 2.053 -0 -1.2 0
-1.862 0.009 2.158 -0 -1.2 0
-1.964 0.01 2.293 -0 -1.2 0
-2.073 0.007 2.436 -0 -1.2 0
-2.195 0.005 2.596 -0 -1.2 0
-2.346 0.01 2.794 -0 -1.2 0
-2.509 0.013 3.009 -0 -1.2 0
-2.684 0.011 3.24 -0 -1.2 0
-2.884 0.009 3.503 -0 -1.2 0
-3.151 0.018 3.851 -0 -1.2 0
-3.166 -0.069 3.876 -0 -1.2 0
-3.164 -0.163 3.875 -0 -1.2 0
-3.159 -0.256 3.873 -0 -1.2 0
-3.16 -0.347 3.878 -0 -1.2 0
-3.166 -0.437 3.888 -0 -1.2 0
-3.159 -0.53 3.882 -0 -1.2 0
-3.157 -0.621 3.882 -0 -1.2 0
-3.154 -0.712 3.882 -0 -1.2 0
-3.156 -0.802 3.888 -0 -1.2 0
-3.151 -0.892 3.884 -0 -1.2 0
-3.152 -0.982 3.889 -0 -1.2 0
-3.151 -1.072 3.89 -0 -1.2 0
-3.149 -1.162 3.891 -0 -1.2 0
-3.147 -1.252 3.891 -0 -1.2 0
-3.144 -1.341 3.89 -0 -1.2 0
-3.144 -1.431 3.894 -0 -1.2 0
-3.139 -1.521 3.89 -0 -1.2 0
-3.145 -1.614 3.901 -0 -1.2 0
-3.137 -1.703 3.894 -0 -1.2 0
-3.141 -1.795 3.902 -0 -1.2 0
-3.132 -1.886 3.893 -0 -1.2 0
-3.133 -1.979 3.899 -0 -1.2 0
-3.08 -2.056 3.832 -0 -1.2 0
-3.075 -2.146 3.827 -0 -1.2 0
-3.191 -2.283 3.985 -0 -1.2 0
-3.188 -2.378 3.984 -0 -1.2 0
-3.189 -2.479 3.99 -0 -1.2 0
-3.185 -2.575 3.987 -0 -1.2 0
-3.185 -2.675 3.99 -0 -1.2 0
-3.183 -2.775 3.991 -0 -1.2 0
-3.175 -2.873 3.984 -0 -1.2 0
-3.176 -2.978 3.99 -0 -1.2 0
-3.171 -3.08 3.986 -0 -1.2 0
-3.17 -3.186 3.99 -0 -1.2 0
-3.169 -3.293 3.991 -0 -1.2 0
-3.17 -3.404 3.997 -0 -1.2 0
-3.172 -3.517 4.003 -0 -1.2 0
-3.166 -3.625 3.998 -0 -1.2 0
-3.163 -3.739 3.999 -0 -1.2 0
-3.16 -3.854 3.999 -0 -1.2 0
-3.161 -3.974 4.003 -0 -1.2 0
-3.159 -4.095 4.006 -0 -1.2 0
-3.151 -4.212 3.999 -0 -1.2 0
-3.151 -4.339 4.004 -0 -1.2 0
-3.15 -4.468 4.008 -0 -1.2 0
-3.147 -4.598 4.008 -0 -1.2 0
-3.148 -4.735 4.013 -0 -1.2 0
-3.145 -4.873 4.015 -0 -1.2 0
-3.142 -5.011 4.015 -0 -1.2 0
-3.141 -5.158 4.019 -0 -1.2 0
-3.137 -5.305 4.02 -0 -1.2 0
-3.137 -5.46 4.024 -0 -1.2 0
-3.133 -5.616 4.025 -0 -1.2 0
-3.128 -5.774 4.023 -0 -1.2 0
-3.128 -5.946 4.03 -0 -1.2 0
-3.122 -6.113 4.027 -0 -1.2 0
-3.117 -6.288 4.027 -0 -1.2 0
-3.113 -6.472 4.029 -0 -1.2 0
-0.71 0.023 0.727 -0 -1.2 0
-0.73 0.016 0.755 -0 -1.2 0
-0.753 0.016 0.788 -0 -1.2 0
-0.782 0.02 0.829 -0 -1.2 0
-0.807 0.017 0.864 -0 -1.2 0
-0.836 0.019 0.905 -0 -1.2 0
-0.865 0.021 0.946 -0 -1.2 0
-0.895 0.019 0.987 -0 -1.2 0
-0.924 0.017 1.03 -0 -1.2 0
-0.959 0.02 1.079 -0 -1.2 0
-0.994 0.02 1.129 -0 -1.2 0
-1.029 0.018 1.178 -0 -1.2 0
-1.066 0.016 1.228 -0 -1.2 0
-1.106 0.016 1.286 -0 -1.2 0
-1.153 0.019 1.35 -0 -1.2 0
-1.198 0.019 1.416 -0 -1.2 0
-1.251 0.022 1.489 -0 -1.2 0
-1.303 0.023 1.563 -0 -1.2 0
-1.361 0.025 1.645 -0 -1.2 0
-1.424 0.028 1.734 -0 -1.2 0
-1.483 0.022 1.817 -0 -1.2 0
-1.552 0.023 1.915 -0 -1.2 0
-1.628 0.023 2.02 -0 -1.2 0
-1.704 0.018 2.128 -0 -1.2 0
-1.785 0.013 2.243 -0 -1.2 0
-1.889 0.017 2.389 -0 -1.2 0
-1.993 0.014 2.537 -0 -1.2 0
-2.115 0.015 2.708 -0 -1.2 0
-2.265 0.023 2.918 -0 -1.2 0
-2.421 0.025 3.138 -0 -1.2 0
-2.583 0.02 3.367 -0 -1.2 0
-2.774 0.017 3.636 -0 -1.2 0
-3.023 0.024 3.986 -0 -1.2 0
-3.153 -0.023 4.171 -0 -1.2 0
-3.149 -0.121 4.17 -0 -1.2 0
-3.146 -0.218 4.169 -0 -1.2 0
-3.147 -0.313 4.173 -0 -1.2 0
-3.153 -0.408 4.186 -0 -1.2 0
-3.14 -0.504 4.171 -0 -1.2 0
-3.139 -0.599 4.172 -0 -1.2 0
-3.142 -0.693 4.179 -0 -1.2 0
-3.137 -0.787 4.178 -0 -1.2 0
-3.139 -0.881 4.183 -0 -1.2 0
-3.139 -0.975 4.186 -0 -1.2 0
-3.139 -1.069 4.189 -0 -1.2 0
-3.13 -1.162 4.182 -0 -1.2 0
-3.134 -1.255 4.189 -0 -1.2 0
-3.13 -1.349 4.187 -0 -1.2 0
-3.126 -1.443 4.185 -0 -1.2 0
-3.125 -1.537 4.189 -0 -1.2 0
-3.119 -1.631 4.182 -0 -1.2 0
-3.123 -1.727 4.192 -0 -1.2 0
-3.126 -1.823 4.2 -0 -1.2 0
-3.122 -1.919 4.198 -0 -1.2 0
-3.078 -2.002 4.139 -0 -1.2 0
-3.062 -2.093 4.118 -0 -1.2 0
-3.134 -2.215 4.225 -0 -1.2 0
-3.176 -2.331 4.289 -0 -1.2 0
-3.173 -2.431 4.288 -0 -1.2 0
-3.174 -2.534 4.293 -0 -1.2 0
-3.168 -2.635 4.289 -0 -1.2 0
-3.168 -2.739 4.291 -0 -1.2 0
-3.165 -2.844 4.291 -0 -1.2 0
-3.167 -2.952 4.299 -0 -1.2 0
-3.162 -3.057 4.296 -0 -1.2 0
-3.161 -3.167 4.299 -0 -1.2 0
-3.155 -3.273 4.294 -0 -1.2 0
-3.152 -3.384 4.293 -0 -1.2 0
-3.152 -3.499 4.298 -0 -1.2 0
-3.147 -3.611 4.295 -0 -1.2 0
-3.145 -3.728 4.297 -0 -1.2 0
-3.142 -3.845 4.296 -0 -1.2 0
-3.137 -3.964 4.294 -0 -1.2 0
-3.141 -4.092 4.304 -0 -1.2 0
-3.133 -4.212 4.298 -0 -1.2 0
-3.134 -4.343 4.304 -0 -1.2 0
-3.133 -4.474 4.307 -0 -1.2 0
-3.126 -4.602 4.302 -0 -1.2 0
-3.131 -4.746 4.314 -0 -1.2 0
-3.129 -4.887 4.316 -0 -1.2 0
-3.121 -5.023 4.31 -0 -1.2 0
-3.121 -5.171 4.314 -0 -1.2 0
-3.113 -5.315 4.309 -0 -1.2 0
-3.112 -5.472 4.314 -0 -1.2 0
-3.113 -5.637 4.322 -0 -1.2 0
-3.109 -5.797 4.321 -0 -1.2 0
-3.109 -5.971 4.329 -0 -1.2 0
-3.103 -6.141 4.326 -0 -1.2 0
-3.099 -6.318 4.327 -0 -1.2 0
-3.097 -6.504 4.33 -0 -1.2 0
-3.091 -6.691 4.329 -0 -1.2 0
-0.671 0.016 0.762 -0 -1.2 0
-0.698 0.024 0.803 -0 -1.2 0
-0.72 0.022 0.838 -0 -1.2 0
-0.743 0.021 0.873 -0 -1.2 0
-0.771 0.024 0.915 -0 -1.2 0
-0.79 0.014 0.944 -0 -1.2 0
-0.822 0.021 0.993 -0 -1.2 0
-0.85 0.02 1.036 -0 -1.2 0
-0.879 0.018 1.079 -0 -1.2 0
-0.912 0.02 1.128 -0 -1.2 0
-0.946 0.021 1.179 -0 -1.2 0
-0.979 0.019 1.231 -0 -1.2 0
-1.017 0.021 1.289 -0 -1.2 0
-1.051 0.017 1.34 -0 -1.2 0
-1.095 0.02 1.407 -0 -1.2 0
-1.139 0.02 1.475 -0 -1.2 0
-1.183 0.019 1.542 -0 -1.2 0
-1.238 0.024 1.625 -0 -1.2 0
-1.293 0.026 1.709 -0 -1.2 0
-1.348 0.024 1.792 -0 -1.2 0
-1.409 0.023 1.885 -0 -1.2 0
-1.48 0.028 1.993 -0 -1.2 0
-1.547 0.024 2.094 -0 -1.2 0
-1.624 0.023 2.211 -0 -1.2 0
-1.707 0.021 2.336 -0 -1.2 0
-1.789 0.015 2.463 -0 -1.2 0
-1.9 0.019 2.63 -0 -1.2 0
-2.015 0.019 2.805 -0 -1.2 0
-2.152 0.024 3.013 -0 -1.2 0
-2.306 0.028 3.247 -0 -1.2 0
-2.465 0.026 3.49 -0 -1.2 0
-2.647 0.023 3.765 -0 -1.2 0
-2.866 0.024 4.1 -0 -1.2 0
-3.098 0.014 4.451 -0 -1.2 0
-3.117 -0.078 4.484 -0 -1.2 0
-3.12 -0.177 4.491 -0 -1.2 0
-3.115 -0.278 4.488 -0 -1.2 0
-3.115 -0.377 4.493 -0 -1.2 0
-3.114 -0.476 4.496 -0 -1.2 0
-3.113 -0.575 4.497 -0 -1.2 0
-3.11 -0.674 4.496 -0 -1.2 0
-3.112 -0.771 4.504 -0 -1.2 0
-3.107 -0.87 4.5 -0 -1.2 0
-3.108 -0.968 4.504 -0 -1.2 0
-3.106 -1.066 4.506 -0 -1.2 0
-3.105 -1.163 4.508 -0 -1.2 0
-3.102 -1.26 4.507 -0 -1.2 0
-3.103 -1.359 4.513 -0 -1.2 0
-3.099 -1.457 4.51 -0 -1.2 0
-3.099 -1.555 4.514 -0 -1.2 0
-3.097 -1.654 4.516 -0 -1.2 0
-3.09 -1.752 4.508 -0 -1.2 0
-3.092 -1.852 4.515 -0 -1.2 0
-3.094 -1.953 4.522 -0 -1.2 0
-3.034 -2.036 4.435 -0 -1.2 0
-3.034 -2.136 4.438 -0 -1.2 0
-3.15 -2.28 4.621 -0 -1.2 0
-3.142 -2.382 4.612 -0 -1.2 0
-3.144 -2.488 4.618 -0 -1.2 0
-3.143 -2.596 4.623 -0 -1.2 0
-3.138 -2.701 4.618 -0 -1.2 0
-3.141 -2.812 4.627 -0 -1.2 0
-3.133 -2.918 4.619 -0 -1.2 0
-3.128 -3.027 4.617 -0 -1.2 0
-3.128 -3.14 4.62 -0 -1.2 0
-3.127 -3.253 4.622 -0 -1.2 0
-3.124 -3.367 4.623 -0 -1.2 0
-3.12 -3.482 4.621 -0 -1.2 0
-3.119 -3.602 4.625 -0 -1.2 0
-3.113 -3.718 4.62 -0 -1.2 0
-3.114 -3.843 4.628 -0 -1.2 0
-3.11 -3.965 4.626 -0 -1.2 0
-3.109 -4.092 4.63 -0 -1.2 0
-3.106 -4.22 4.631 -0 -1.2 0
-3.103 -4.349 4.629 -0 -1.2 0
-3.102 -4.484 4.634 -0 -1.2 0
-3.099 -4.619 4.635 -0 -1.2 0
-3.095 -4.756 4.633 -0 -1.2 0
-3.093 -4.9 4.637 -0 -1.2 0
-3.09 -5.044 4.637 -0 -1.2 0
-3.094 -5.201 4.648 -0 -1.2 0
-3.086 -5.349 4.644 -0 -1.2 0
-3.082 -5.502 4.642 -0 -1.2 0
-3.083 -5.669 4.651 -0 -1.2 0
-3.074 -5.826 4.643 -0 -1.2 0
-3.076 -6.003 4.652 -0 -1.2 0
-3.07 -6.175 4.651 -0 -1.2 0
-3.07 -6.362 4.658 -0 -1.2 0
-3.064 -6.543 4.655 -0 -1.2 0
-3.058 -6.734 4.654 -0 -1.2 0
-3.053 -6.932 4.656 -0 -1.2 0
-0.637 0.017 0.801 -0 -1.2 0
-0.662 0.024 0.843 -0 -1.2 0
-0.688 0.03 0.884 -0 -1.2 0
-0.71 0.028 0.92 -0 -1.2 0
-0.728 0.018 0.95 -0 -1.2 0
-0.754 0.02 0.993 -0 -1.2 0
-0.781 0.022 1.036 -0 -1.2 0
-0.807 0.02 1.08 -0 -1.2 0
-0.838 0.025 1.13 -0 -1.2 0
-0.866 0.021 1.175 -0 -1.2 0
-0.897 0.021 1.227 -0 -1.2 0
-0.934 0.026 1.286 -0 -1.2 0
-0.966 0.022 1.338 -0 -1.2 0
-1.008 0.027 1.406 -0 -1.2 0
-1.04 0.02 1.459 -0 -1.2 0
-1.087 0.025 1.535 -0 -1.2 0
-1.129 0.024 1.604 -0 -1.2 0
-1.176 0.025 1.681 -0 -1.2 0
-1.232 0.03 1.774 -0 -1.2 0
-1.29 0.033 1.868 -0 -1.2 0
-1.348 0.033 1.962 -0 -1.2 0
-1.411 0.033 2.065 -0 -1.2 0
-1.478 0.032 2.176 -0 -1.2 0
-1.542 0.024 2.28 -0 -1.2 0
-1.626 0.026 2.417 -0 -1.2 0
-1.719 0.029 2.569 -0 -1.2 0
-1.819 0.029 2.731 -0 -1.2 0
-1.933 0.033 2.918 -0 -1.2 0
-2.069 0.04 3.139 -0 -1.2 0
-2.199 0.035 3.353 -0 -1.2 0
-2.346 0.03 3.593 -0 -1.2 0
-2.519 0.027 3.875 -0 -1.2 0
-2.728 0.027 4.216 -0 -1.2 0
-2.973 0.028 4.617 -0 -1.2 0
-3.105 -0.025 4.835 -0 -1.2 0
-3.097 -0.133 4.826 -0 -1.2 0
-3.098 -0.237 4.832 -0 -1.2 0
-3.098 -0.341 4.838 -0 -1.2 0
-3.098 -0.444 4.841 -0 -1.2 0
-3.091 -0.549 4.834 -0 -1.2 0
-3.089 -0.652 4.834 -0 -1.2 0
-3.09 -0.754 4.841 -0 -1.2 0
-3.091 -0.857 4.847 -0 -1.2 0
-3.085 -0.96 4.842 -0 -1.2 0
-3.084 -1.062 4.844 -0 -1.2 0
-3.088 -1.164 4.854 -0 -1.2 0
-3.085 -1.266 4.853 -0 -1.2 0
-3.081 -1.369 4.852 -0 -1.2 0
-3.076 -1.471 4.848 -0 -1.2 0
-3.081 -1.575 4.86 -0 -1.2 0
-3.074 -1.678 4.853 -0 -1.2 0
-3.077 -1.782 4.862 -0 -1.2 0
-3.073 -1.886 4.861 -0 -1.2 0
-3.032 -1.979 4.798 -0 -1.2 0
-3.012 -2.078 4.769 -0 -1.2 0
-3.108 -2.217 4.931 -0 -1.2 0
-3.126 -2.332 4.965 -0 -1.2 0
-3.128 -2.443 4.972 -0 -1.2 0
-3.118 -2.55 4.961 -0 -1.2 0
-3.117 -2.662 4.965 -0 -1.2 0
-3.116 -2.774 4.966 -0 -1.2 0
-3.113 -2.887 4.966 -0 -1.2 0
-3.109 -3.001 4.965 -0 -1.2 0
-3.108 -3.117 4.97 -0 -1.2 0
-3.107 -3.235 4.972 -0 -1.2 0
-3.1 -3.35 4.965 -0 -1.2 0
-3.096 -3.469 4.964 -0 -1.2 0
-3.101 -3.596 4.977 -0 -1.2 0
-3.095 -3.716 4.971 -0 -1.2 0
-3.092 -3.841 4.971 -0 -1.2 0
-3.092 -3.971 4.978 -0 -1.2 0
-3.087 -4.097 4.974 -0 -1.2 0
-3.088 -4.233 4.982 -0 -1.2 0
-3.08 -4.362 4.975 -0 -1.2 0
-3.079 -4.5 4.978 -0 -1.2 0
-3.072 -4.635 4.972 -0 -1.2 0
-3.076 -4.785 4.986 -0 -1.2 0
-3.071 -4.927 4.983 -0 -1.2 0
-3.071 -5.08 4.99 -0 -1.2 0
-3.07 -5.235 4.995 -0 -1.2 0
-3.068 -5.392 4.997 -0 -1.2 0
-3.067 -5.555 5.003 -0 -1.2 0
-3.056 -5.707 4.991 -0 -1.2 0
-3.056 -5.879 4.998 -0 -1.2 0
-3.053 -6.053 5 -0 -1.2 0
-3.047 -6.229 4.998 -0 -1.2 0
-3.043 -6.412 5 -0 -1.2 0
-3.041 -6.604 5.003 -0 -1.2 0
-3.032 -6.79 4.997 -0 -1.2 0
-3.032 -6.999 5.005 -0 -1.2 0
-3.025 -7.202 5.002 -0 -1.2 0
-0.602 0.017 0.837 -0 -1.2 0
-0.623 0.018 0.873 -0 -1.2 0
-0.647 0.023 0.916 -0 -1.2 0
-0.667 0.022 0.953 -0 -1.2 0
-0.692 0.025 0.996 -0 -1.2 0
-0.717 0.028 1.039 -0 -1.2 0
-0.734 0.015 1.07 -0 -1.2 0
-0.764 0.021 1.121 -0 -1.2 0
-0.789 0.019 1.166 -0 -1.2 0
-0.822 0.028 1.226 -0 -1.2 0
-0.853 0.028 1.278 -0 -1.2 0
-0.879 0.02 1.324 -0 -1.2 0
-0.914 0.023 1.385 -0 -1.2 0
-0.952 0.028 1.454 -0 -1.2 0
-0.988 0.026 1.516 -0 -1.2 0
-1.019 0.016 1.57 -0 -1.2 0
-1.067 0.024 1.656 -0 -1.2 0
-1.116 0.029 1.743 -0 -1.2 0
-1.166 0.031 1.829 -0 -1.2 0
-1.221 0.034 1.925 -0 -1.2 0
-1.279 0.038 2.028 -0 -1.2 0
-1.339 0.038 2.134 -0 -1.2 0
-1.399 0.033 2.239 -0 -1.2 0
-1.464 0.029 2.353 -0 -1.2 0
-1.537 0.027 2.484 -0 -1.2 0
-1.627 0.03 2.64 -0 -1.2 0
-1.72 0.03 2.805 -0 -1.2 0
-1.819 0.028 2.98 -0 -1.2 0
-1.952 0.039 3.213 -0 -1.2 0
-2.086 0.04 3.448 -0 -1.2 0
-2.219 0.032 3.684 -0 -1.2 0
-2.382 0.028 3.971 -0 -1.2 0
-2.58 0.029 4.318 -0 -1.2 0
-2.797 0.025 4.702 -0 -1.2 0
-3.054 0.018 5.154 -0 -1.2 0
-3.076 -0.082 5.197 -0 -1.2 0
-3.102 -0.184 5.248 -0 -1.2 0
-3.123 -0.288 5.288 -0 -1.2 0
-3.171 -0.388 5.378 -0 -1.2 0
-3.14 -0.506 5.328 -0 -1.2 0
-3.123 -0.619 5.304 -0 -1.2 0
-3.115 -0.729 5.294 -0 -1.2 0
-3.076 -0.843 5.23 -0 -1.2 0
-3.065 -0.95 5.218 -0 -1.2 0
-3.06 -1.058 5.211 -0 -1.2 0
-3.067 -1.165 5.23 -0 -1.2 0
-3.06 -1.272 5.22 -0 -1.2 0
-3.06 -1.38 5.226 -0 -1.2 0
-3.055 -1.488 5.222 -0 -1.2 0
-3.055 -1.596 5.226 -0 -1.2 0
-3.052 -1.705 5.228 -0 -1.2 0
-3.054 -1.815 5.236 -0 -1.2 0
-3.056 -1.925 5.243 -0 -1.2 0
-2.997 -2.018 5.145 -0 -1.2 0
-2.996 -2.127 5.148 -0 -1.2 0
-3.486 -2.425 6.024 -0 -1.2 0
-3.496 -2.558 6.047 -0 -1.2 0
-3.438 -2.662 5.949 -0 -1.2 0
-3.35 -2.748 5.797 -0 -1.2 0
-3.414 -2.909 5.917 -0 -1.2 0
-3.381 -3.023 5.865 -0 -1.2 0
-3.306 -3.108 5.735 -0 -1.2 0
-3.341 -3.262 5.805 -0 -1.2 0
-3.361 -3.409 5.847 -0 -1.2 0
-3.279 -3.484 5.705 -0 -1.2 0
-3.265 -3.608 5.686 -0 -1.2 0
-3.358 -3.82 5.86 -0 -1.2 0
-3.305 -3.916 5.77 -0 -1.2 0
-3.35 -4.098 5.856 -0 -1.2 0
-3.32 -4.217 5.811 -0 -1.2 0
-3.225 -4.271 5.646 -0 -1.2 0
-3.087 -4.275 5.402 -0 -1.2 0
-3.053 -4.38 5.347 -0 -1.2 0
-3.056 -4.527 5.359 -0 -1.2 0
-3.053 -4.671 5.36 -0 -1.2 0
-3.049 -4.816 5.36 -0 -1.2 0
-3.047 -4.966 5.363 -0 -1.2 0
-3.048 -5.124 5.371 -0 -1.2 0
-3.039 -5.272 5.361 -0 -1.2 0
-3.04 -5.438 5.371 -0 -1.2 0
-3.035 -5.599 5.369 -0 -1.2 0
-3.033 -5.768 5.372 -0 -1.2 0
-3.024 -5.932 5.364 -0 -1.2 0
-2.968 -6.021 5.27 -0 -1.2 0
-3.023 -6.301 5.379 -0 -1.2 0
-3.095 -6.624 5.52 -0 -1.2 0
-3.087 -6.815 5.515 -0 -1.2 0
-3.081 -7.015 5.514 -0 -1.2 0
-3.062 -7.195 5.488 -0 -1.2 0
-3.04 -7.376 5.459 -0 -1.2 0
-3.037 -7.6 5.462 -0 -1.2 0
-0.568 0.018 0.874 -0 -1.2 0
-0.591 0.025 0.917 -0 -1.2 0
-0.61 0.024 0.953 -0 -1.2 0
-0.63 0.022 0.99 -0 -1.2 0
-0.649 0.019 1.028 -0 -1.2 0
-0.673 0.021 1.072 -0 -1.2 0
-0.697 0.023 1.117 -0 -1.2 0
-0.717 0.015 1.156 -0 -1.2 0
-0.744 0.02 1.208 -0 -1.2 0
-0.776 0.028 1.268 -0 -1.2 0
-0.804 0.028 1.322 -0 -1.2 0
-0.829 0.021 1.369 -0 -1.2 0
-0.862 0.023 1.431 -0 -1.2 0
-0.894 0.024 1.493 -0 -1.2 0
-0.928 0.022 1.556 -0 -1.2 0
-0.969 0.027 1.635 -0 -1.2 0
-1.011 0.03 1.715 -0 -1.2 0
-1.053 0.03 1.794 -0 -1.2 0
-1.103 0.037 1.891 -0 -1.2 0
-1.147 0.031 1.973 -0 -1.2 0
-1.207 0.039 2.086 -0 -1.2 0
-1.258 0.035 2.185 -0 -1.2 0
-1.319 0.034 2.3 -0 -1.2 0
-1.38 0.03 2.416 -0 -1.2 0
-1.454 0.031 2.558 -0 -1.2 0
-1.529 0.028 2.7 -0 -1.2 0
-1.622 0.032 2.877 -0 -1.2 0
-1.72 0.032 3.062 -0 -1.2 0
-1.845 0.043 3.3 -0 -1.2 0
-1.967 0.041 3.53 -0 -1.2 0
-2.097 0.035 3.779 -0 -1.2 0
-2.255 0.035 4.08 -0 -1.2 0
-2.442 0.035 4.434 -0 -1.2 0
-2.637 0.026 4.807 -0 -1.2 0
-2.888 0.024 5.285 -0 -1.2 0
-3.052 -0.027 5.599 -0 -1.2 0
-3.055 -0.141 5.607 -0 -1.2 0
-3.199 -0.216 5.885 -0 -1.2 0
-3.194 -0.337 5.882 -0 -1.2 0
-3.193 -0.457 5.885 -0 -1.2 0
-3.19 -0.576 5.886 -0 -1.2 0
-3.192 -0.695 5.895 -0 -1.2 0
-3.057 -0.826 5.645 -0 -1.2 0
-3.047 -0.94 5.632 -0 -1.2 0
-3.036 -1.054 5.616 -0 -1.2 0
-3.044 -1.167 5.635 -0 -1.2 0
-3.036 -1.28 5.626 -0 -1.2 0
-3.036 -1.394 5.633 -0 -1.2 0
-3.035 -1.508 5.637 -0 -1.2 0
-3.035 -1.622 5.64 -0 -1.2 0
-3.032 -1.736 5.641 -0 -1.2 0
-3.033 -1.852 5.649 -0 -1.2 0
-3.006 -1.96 5.603 -0 -1.2 0
-2.969 -2.064 5.537 -0 -1.2 0
-3.173 -2.254 5.933 -0 -1.2 0
-3.229 -2.4 6.047 -0 -1.2 0
-3.219 -2.523 6.035 -0 -1.2 0
-3.219 -2.651 6.04 -0 -1.2 0
-3.221 -2.781 6.05 -0 -1.2 0
-3.218 -2.91 6.05 -0 -1.2 0
-3.214 -3.039 6.048 -0 -1.2 0
-3.213 -3.172 6.053 -0 -1.2 0
-3.216 -3.308 6.064 -0 -1.2 0
-3.211 -3.442 6.064 -0 -1.2 0
-3.211 -3.58 6.069 -0 -1.2 0
-3.21 -3.719 6.073 -0 -1.2 0
-3.202 -3.855 6.066 -0 -1.2 0
-3.203 -3.999 6.073 -0 -1.2 0
-3.201 -4.144 6.078 -0 -1.2 0
-3.178 -4.27 6.039 -0 -1.2 0
-3.051 -4.286 5.798 -0 -1.2 0
-3.039 -4.42 5.78 -0 -1.2 0
-3.033 -4.562 5.776 -0 -1.2 0
-3.03 -4.711 5.779 -0 -1.2 0
-3.026 -4.861 5.777 -0 -1.2 0
-3.024 -5.017 5.781 -0 -1.2 0
-3.02 -5.173 5.781 -0 -1.2 0
-3.018 -5.337 5.786 -0 -1.2 0
-3.015 -5.502 5.788 -0 -1.2 0
-3.014 -5.674 5.794 -0 -1.2 0
-3.015 -5.853 5.803 -0 -1.2 0
-2.973 -5.968 5.73 -0 -1.2 0
-2.955 -6.124 5.705 -0 -1.2 0
-3.169 -6.693 6.137 -0 -1.2 0
-3.166 -6.897 6.14 -0 -1.2 0
-3.163 -7.11 6.146 -0 -1.2 0
-3.155 -7.318 6.141 -0 -1.2 0
-3.151 -7.541 6.144 -0 -1.2 0
-3.147 -7.772 6.148 -0 -1.2 0
-3.147 -8.02 6.16 -0 -1.2 0
-3.108 -8.184 6.091 -0 -1.2 0
-0.531 0.018 0.91 -0 -1.2 0
-0.548 0.019 0.947 -0 -1.2 0
-0.566 0.018 0.984 -0 -1.2 0
-0.588 0.023 1.029 -0 -1.2 0
-0.606 0.019 1.067 -0 -1.2 0
-0.625 0.016 1.105 -0 -1.2 0
-0.646 0.017 1.15 -0 -1.2 0
-0.673 0.022 1.203 -0 -1.2 0
-0.695 0.02 1.25 -0 -1.2 0
-0.721 0.023 1.304 -0 -1.2 0
-0.748 0.023 1.359 -0 -1.2 0
-0.777 0.028 1.422 -0 -1.2 0
-0.804 0.024 1.477 -0 -1.2 0
-0.835 0.024 1.54 -0 -1.2 0
-0.874 0.032 1.62 -0 -1.2 0
-0.905 0.028 1.685 -0 -1.2 0
-0.939 0.026 1.758 -0 -1.2 0
-0.979 0.027 1.839 -0 -1.2 0
-1.018 0.024 1.921 -0 -1.2 0
-1.07 0.032 2.028 -0 -1.2 0
-1.118 0.031 2.127 -0 -1.2 0
-1.171 0.032 2.235 -0 -1.2 0
-1.223 0.027 2.345 -0 -1.2 0
-1.284 0.027 2.471 -0 -1.2 0
-1.35 0.026 2.607 -0 -1.2 0
-1.424 0.026 2.759 -0 -1.2 0
-1.514 0.033 2.948 -0 -1.2 0
-1.606 0.034 3.137 -0 -1.2 0
-1.71 0.035 3.353 -0 -1.2 0
-1.823 0.034 3.587 -0 -1.2 0
-1.953 0.035 3.857 -0 -1.2 0
-2.097 0.032 4.155 -0 -1.2 0
-2.271 0.033 4.515 -0 -1.2 0
-2.463 0.028 4.912 -0 -1.2 0
-2.689 0.022 5.38 -0 -1.2 0
-2.984 0.025 5.993 -0 -1.2 0
-3.012 -0.084 6.055 -0 -1.2 0
-3.012 -0.205 6.063 -0 -1.2 0
-3.008 -0.328 6.059 -0 -1.2 0
-3.006 -0.448 6.063 -0 -1.2 0
-3.004 -0.569 6.064 -0 -1.2 0
-3.005 -0.689 6.072 -0 -1.2 0
-3.009 -0.808 6.088 -0 -1.2 0
-3 -0.929 6.075 -0 -1.2 0
-2.998 -1.049 6.078 -0 -1.2 0
-3 -1.168 6.088 -0 -1.2 0
-3.001 -1.288 6.096 -0 -1.2 0
-2.992 -1.408 6.084 -0 -1.2 0
-2.997 -1.529 6.098 -0 -1.2 0
-2.991 -1.649 6.091 -0 -1.2 0
-2.988 -1.77 6.092 -0 -1.2 0
-2.993 -1.893 6.108 -0 -1.2 0
-2.932 -1.998 5.988 -0 -1.2 0
-2.939 -2.121 6.01 -0 -1.2 0
-3.04 -2.283 6.226 -0 -1.2 0
-3.04 -2.411 6.234 -0 -1.2 0
-3.036 -2.537 6.232 -0 -1.2 0
-3.035 -2.665 6.236 -0 -1.2 0
-3.032 -2.795 6.237 -0 -1.2 0
-3.029 -2.925 6.237 -0 -1.2 0
-3.029 -3.058 6.243 -0 -1.2 0
-3.023 -3.189 6.239 -0 -1.2 0
-3.021 -3.323 6.241 -0 -1.2 0
-3.021 -3.461 6.249 -0 -1.2 0
-3.017 -3.597 6.246 -0 -1.2 0
-3.018 -3.74 6.258 -0 -1.2 0
-3.015 -3.881 6.259 -0 -1.2 0
-3.012 -4.023 6.257 -0 -1.2 0
-3.002 -4.162 6.244 -0 -1.2 0
-2.995 -4.304 6.237 -0 -1.2 0
-2.995 -4.456 6.245 -0 -1.2 0
-2.996 -4.614 6.257 -0 -1.2 0
-2.993 -4.769 6.258 -0 -1.2 0
-2.992 -4.929 6.264 -0 -1.2 0
-2.989 -5.091 6.267 -0 -1.2 0
-2.985 -5.254 6.267 -0 -1.2 0
-2.983 -5.423 6.271 -0 -1.2 0
-2.979 -5.593 6.272 -0 -1.2 0
-2.978 -5.771 6.277 -0 -1.2 0
-2.971 -5.944 6.272 -0 -1.2 0
-2.917 -6.043 6.166 -0 -1.2 0
-2.961 -6.312 6.271 -0 -1.2 0
-2.962 -6.513 6.283 -0 -1.2 0
-2.961 -6.716 6.29 -0 -1.2 0
-2.954 -6.914 6.286 -0 -1.2 0
-2.951 -7.127 6.292 -0 -1.2 0
-2.946 -7.342 6.293 -0 -1.2 0
-2.938 -7.559 6.289 -0 -1.2 0
-2.935 -7.791 6.293 -0 -1.2 0
-2.935 -8.039 6.304 -0 -1.2 0
-2.925 -8.274 6.298 -0 -1.2 0
-0.495 0.019 0.944 -0 -1.2 0
-0.515 0.026 0.988 -0 -1.2 0
-0.528 0.019 1.018 -0 -1.2 0
-0.549 0.024 1.064 -0 -1.2 0
-0.566 0.02 1.102 -0 -1.2 0
-0.586 0.023 1.148 -0 -1.2 0
-0.603 0.017 1.188 -0 -1.2 0
-0.628 0.023 1.242 -0 -1.2 0
-0.648 0.021 1.289 -0 -1.2 0
-0.672 0.024 1.344 -0 -1.2 0
-0.698 0.024 1.399 -0 -1.2 0
-0.722 0.023 1.455 -0 -1.2 0
-0.747 0.02 1.511 -0 -1.2 0
-0.776 0.02 1.576 -0 -1.2 0
-0.804 0.019 1.641 -0 -1.2 0
-0.838 0.019 1.714 -0 -1.2 0
-0.873 0.023 1.796 -0 -1.2 0
-0.91 0.023 1.878 -0 -1.2 0
-0.95 0.025 1.97 -0 -1.2 0
-0.992 0.024 2.062 -0 -1.2 0
-1.032 0.02 2.155 -0 -1.2 0
-1.085 0.025 2.272 -0 -1.2 0
-1.134 0.021 2.383 -0 -1.2 0
-1.194 0.025 2.52 -0 -1.2 0
-1.248 0.016 2.64 -0 -1.2 0
-1.32 0.021 2.804 -0 -1.2 0
-1.401 0.026 2.986 -0 -1.2 0
-1.486 0.026 3.178 -0 -1.2 0
-1.58 0.026 3.388 -0 -1.2 0
-1.689 0.028 3.635 -0 -1.2 0
-1.811 0.029 3.909 -0 -1.2 0
-1.94 0.024 4.202 -0 -1.2 0
-2.094 0.022 4.549 -0 -1.2 0
-2.273 0.019 4.952 -0 -1.2 0
-2.488 0.017 5.437 -0 -1.2 0
-2.747 0.015 6.022 -0 -1.2 0
-2.986 -0.017 6.563 -0 -1.2 0
-2.987 -0.145 6.572 -0 -1.2 0
-3.137 -0.233 6.914 -0 -1.2 0
-3.14 -0.367 6.928 -0 -1.2 0
-3.138 -0.502 6.931 -0 -1.2 0
-3.134 -0.636 6.932 -0 -1.2 0
-3.082 -0.775 6.82 -0 -1.2 0
-2.975 -0.914 6.588 -0 -1.2 0
-2.969 -1.042 6.582 -0 -1.2 0
-2.975 -1.169 6.602 -0 -1.2 0
-2.971 -1.296 6.601 -0 -1.2 0
-2.971 -1.424 6.607 -0 -1.2 0
-2.97 -1.553 6.611 -0 -1.2 0
-2.964 -1.681 6.604 -0 -1.2 0
-2.96 -1.809 6.603 -0 -1.2 0
-2.956 -1.938 6.601 -0 -1.2 0
-2.899 -2.049 6.48 -0 -1.2 0
-3 -2.216 6.718 -0 -1.2 0
-3.167 -2.42 7.106 -0 -1.2 0
-3.171 -2.564 7.122 -0 -1.2 0
-3.165 -2.706 7.117 -0 -1.2 0
-3.162 -2.849 7.118 -0 -1.2 0
-3.162 -2.996 7.126 -0 -1.2 0
-3.157 -3.14 7.123 -0 -1.2 0
-3.154 -3.288 7.126 -0 -1.2 0
-3.154 -3.439 7.135 -0 -1.2 0
-3.15 -3.588 7.132 -0 -1.2 0
-3.148 -3.741 7.136 -0 -1.2 0
-3.145 -3.895 7.137 -0 -1.2 0
-3.144 -4.053 7.144 -0 -1.2 0
-3.141 -4.212 7.15 -0 -1.2 0
-3.044 -4.272 6.93 -0 -1.2 0
-2.971 -4.354 6.771 -0 -1.2 0
-2.966 -4.509 6.769 -0 -1.2 0
-2.971 -4.677 6.789 -0 -1.2 0
-2.967 -4.839 6.79 -0 -1.2 0
-2.965 -5.006 6.795 -0 -1.2 0
-2.966 -5.179 6.806 -0 -1.2 0
-2.957 -5.344 6.797 -0 -1.2 0
-2.951 -5.515 6.792 -0 -1.2 0
-2.95 -5.697 6.8 -0 -1.2 0
-2.947 -5.88 6.804 -0 -1.2 0
-2.894 -5.982 6.691 -0 -1.2 0
-2.902 -6.19 6.719 -0 -1.2 0
-3.094 -6.742 7.185 -0 -1.2 0
-3.092 -6.956 7.191 -0 -1.2 0
-3.084 -7.167 7.185 -0 -1.2 0
-3.083 -7.397 7.196 -0 -1.2 0
-3.078 -7.623 7.196 -0 -1.2 0
-3.072 -7.857 7.197 -0 -1.2 0
-3.071 -8.107 7.207 -0 -1.2 0
-2.989 -8.176 7.027 -0 -1.2 0
-2.904 -8.234 6.841 -0 -1.2 0
-2.89 -8.462 6.819 -0 -1.2 0
-2.881 -8.713 6.812 -0 -1.2 0
-0.456 0.02 0.977 -0 -1.2 0
-0.471 0.021 1.015 -0 -1.2 0
-0.486 0.02 1.054 -0 -1.2 0
-0.501 0.018 1.093 -0 -1.2 0
-0.517 0.016 1.132 -0 -1.2 0
-0.539 0.024 1.185 -0 -1.2 0
-0.555 0.019 1.225 -0 -1.2 0
-0.574 0.018 1.273 -0 -1.2 0
-0.593 0.017 1.321 -0 -1.2 0
-0.616 0.019 1.377 -0 -1.2 0
-0.638 0.02 1.433 -0 -1.2 0
-0.661 0.019 1.49 -0 -1.2 0
-0.687 0.022 1.553 -0 -1.2 0
-0.71 0.017 1.611 -0 -1.2 0
-0.743 0.026 1.693 -0 -1.2 0
-0.769 0.021 1.76 -0 -1.2 0
-0.797 0.015 1.827 -0 -1.2 0
-0.83 0.017 1.91 -0 -1.2 0
-0.867 0.019 2.003 -0 -1.2 0
-0.905 0.018 2.095 -0 -1.2 0
-0.949 0.023 2.206 -0 -1.2 0
-0.987 0.015 2.301 -0 -1.2 0
-1.038 0.02 2.43 -0 -1.2 0
-1.088 0.017 2.552 -0 -1.2 0
-1.147 0.019 2.699 -0 -1.2 0
-1.207 0.017 2.848 -0 -1.2 0
-1.277 0.019 3.025 -0 -1.2 0
-1.356 0.021 3.219 -0 -1.2 0
-1.445 0.024 3.442 -0 -1.2 0
-1.545 0.027 3.692 -0 -1.2 0
-1.646 0.021 3.943 -0 -1.2 0
-1.777 0.025 4.268 -0 -1.2 0
-1.923 0.025 4.629 -0 -1.2 0
-2.079 0.018 5.019 -0 -1.2 0
-2.265 0.011 5.484 -0 -1.2 0
-2.496 0.008 6.059 -0 -1.2 0
-2.783 0.005 6.774 -0 -1.2 0
-2.925 -0.075 7.132 -0 -1.2 0
-2.92 -0.212 7.131 -0 -1.2 0
-2.919 -0.35 7.136 -0 -1.2 0
-2.925 -0.485 7.157 -0 -1.2 0
-2.918 -0.622 7.149 -0 -1.2 0
-2.921 -0.758 7.166 -0 -1.2 0
-2.916 -0.894 7.162 -0 -1.2 0
-2.91 -1.03 7.156 -0 -1.2 0
-2.915 -1.166 7.176 -0 -1.2 0
-2.914 -1.302 7.185 -0 -1.2 0
-2.91 -1.438 7.181 -0 -1.2 0
-2.909 -1.575 7.185 -0 -1.2 0
-2.902 -1.711 7.177 -0 -1.2 0
-2.902 -1.849 7.186 -0 -1.2 0
-2.86 -1.976 7.091 -0 -1.2 0
-2.844 -2.107 7.059 -0 -1.2 0
-2.947 -2.287 7.327 -0 -1.2 0
-2.947 -2.43 7.335 -0 -1.2 0
-2.942 -2.573 7.333 -0 -1.2 0
-2.944 -2.72 7.345 -0 -1.2 0
-2.94 -2.865 7.346 -0 -1.2 0
-2.939 -3.013 7.354 -0 -1.2 0
-2.934 -3.16 7.35 -0 -1.2 0
-2.931 -3.31 7.352 -0 -1.2 0
-2.927 -3.459 7.352 -0 -1.2 0
-2.926 -3.613 7.359 -0 -1.2 0
-2.924 -3.767 7.363 -0 -1.2 0
-2.92 -3.923 7.363 -0 -1.2 0
-2.919 -4.083 7.37 -0 -1.2 0
-2.916 -4.244 7.373 -0 -1.2 0
-2.913 -4.406 7.374 -0 -1.2 0
-2.911 -4.573 7.381 -0 -1.2 0
-2.907 -4.741 7.384 -0 -1.2 0
-2.907 -4.914 7.392 -0 -1.2 0
-2.901 -5.085 7.389 -0 -1.2 0
-2.9 -5.265 7.399 -0 -1.2 0
-2.899 -5.447 7.405 -0 -1.2 0
-2.895 -5.631 7.409 -0 -1.2 0
-2.887 -5.811 7.399 -0 -1.2 0
-2.886 -6.007 7.411 -0 -1.2 0
-2.841 -6.13 7.307 -0 -1.2 0
-2.877 -6.399 7.413 -0 -1.2 0
-2.872 -6.601 7.411 -0 -1.2 0
-2.871 -6.815 7.422 -0 -1.2 0
-2.862 -7.02 7.412 -0 -1.2 0
-2.862 -7.25 7.427 -0 -1.2 0
-2.854 -7.47 7.423 -0 -1.2 0
-2.848 -7.698 7.421 -0 -1.2 0
-2.845 -7.94 7.428 -0 -1.2 0
-2.836 -8.179 7.422 -0 -1.2 0
-2.833 -8.439 7.432 -0 -1.2 0
-2.826 -8.694 7.429 -0 -1.2 0
-2.797 -8.903 7.373 -0 -1.2 0
-2.775 -9.133 7.331 -0 -1.2 0
-0.413 0.014 1.001 -0 -1.2 0
-0.43 0.022 1.047 -0 -1.2 0
-0.444 0.022 1.086 -0 -1.2 0
-0.459 0.019 1.125 -0 -1.2 0
-0.475 0.023 1.172 -0 -1.2 0
-0.492 0.025 1.219 -0 -1.2 0
-0.507 0.02 1.26 -0 -1.2 0
-0.521 0.014 1.301 -0 -1.2 0
-0.542 0.018 1.356 -0 -1.2 0
-0.56 0.015 1.405 -0 -1.2 0
-0.58 0.016 1.462 -0 -1.2 0
-0.601 0.015 1.519 -0 -1.2 0
-0.622 0.013 1.576 -0 -1.2 0
-0.646 0.013 1.643 -0 -1.2 0
-0.673 0.018 1.717 -0 -1.2 0
-0.7 0.018 1.793 -0 -1.2 0
-0.727 0.017 1.869 -0 -1.2 0
-0.756 0.014 1.945 -0 -1.2 0
-0.789 0.016 2.039 -0 -1.2 0
-0.823 0.016 2.133 -0 -1.2 0
-0.857 0.013 2.229 -0 -1.2 0
-0.899 0.014 2.341 -0 -1.2 0
-0.939 0.012 2.454 -0 -1.2 0
-0.988 0.013 2.586 -0 -1.2 0
-1.041 0.016 2.736 -0 -1.2 0
-1.097 0.013 2.887 -0 -1.2 0
-1.16 0.016 3.065 -0 -1.2 0
-1.235 0.021 3.271 -0 -1.2 0
-1.308 0.017 3.469 -0 -1.2 0
-1.403 0.023 3.732 -0 -1.2 0
-1.498 0.021 3.996 -0 -1.2 0
-1.611 0.02 4.305 -0 -1.2 0
-1.736 0.018 4.654 -0 -1.2 0
-1.892 0.02 5.085 -0 -1.2 0
-2.053 0.009 5.529 -0 -1.2 0
-2.265 0.006 6.111 -0 -1.2 0
-2.513 0 6.798 -0 -1.2 0
-2.802 -0.016 7.598 -0 -1.2 0
-2.832 -0.15 7.69 -0 -1.2 0
-2.83 -0.295 7.697 -0 -1.2 0
-2.832 -0.439 7.71 -0 -1.2 0
-2.822 -0.585 7.693 -0 -1.2 0
-2.81 -0.731 7.673 -0 -1.2 0
-2.813 -0.874 7.688 -0 -1.2 0
-2.81 -1.018 7.693 -0 -1.2 0
-2.807 -1.161 7.694 -0 -1.2 0
-2.803 -1.304 7.693 -0 -1.2 0
-2.795 -1.448 7.68 -0 -1.2 0
-2.799 -1.593 7.702 -0 -1.2 0
-2.796 -1.737 7.703 -0 -1.2 0
-2.792 -1.882 7.703 -0 -1.2 0
-2.786 -2.027 7.699 -0 -1.2 0
-2.794 -2.177 7.731 -0 -1.2 0
-2.781 -2.319 7.703 -0 -1.2 0
-2.786 -2.471 7.73 -0 -1.2 0
-2.782 -2.619 7.726 -0 -1.2 0
-2.779 -2.769 7.729 -0 -1.2 0
-2.775 -2.918 7.729 -0 -1.2 0
-2.773 -3.072 7.736 -0 -1.2 0
-2.767 -3.223 7.73 -0 -1.2 0
-2.763 -3.378 7.733 -0 -1.2 0
-2.762 -3.535 7.74 -0 -1.2 0
-2.754 -3.689 7.727 -0 -1.2 0
-2.753 -3.851 7.738 -0 -1.2 0
-2.746 -4.008 7.728 -0 -1.2 0
-2.747 -4.176 7.743 -0 -1.2 0
-2.756 -4.356 7.78 -0 -1.2 0
-2.757 -4.531 7.797 -0 -1.2 0
-2.767 -4.72 7.835 -0 -1.2 0
-2.768 -4.902 7.854 -0 -1.2 0
-2.766 -5.082 7.86 -0 -1.2 0
-2.771 -5.277 7.887 -0 -1.2 0
-2.771 -5.469 7.902 -0 -1.2 0
-2.77 -5.663 7.913 -0 -1.2 0
-2.771 -5.863 7.93 -0 -1.2 0
-2.761 -6.051 7.916 -0 -1.2 0
-2.759 -6.254 7.923 -0 -1.2 0
-2.758 -6.465 7.934 -0 -1.2 0
-2.762 -6.694 7.965 -0 -1.2 0
-2.752 -6.898 7.951 -0 -1.2 0
-2.772 -7.172 8.026 -0 -1.2 0
-2.771 -7.409 8.041 -0 -1.2 0
-2.764 -7.636 8.035 -0 -1.2 0
-2.766 -7.896 8.061 -0 -1.2 0
-2.759 -8.14 8.059 -0 -1.2 0
-2.756 -8.398 8.066 -0 -1.2 0
-2.749 -8.659 8.067 -0 -1.2 0
-2.703 -8.814 7.95 -0 -1.2 0
-2.665 -8.995 7.858 -0 -1.2 0
-2.628 -9.182 7.768 -0 -1.2 0
-2.529 -9.175 7.497 -0 -1.2 0
-0.373 0.015 1.033 -0 -1.2 0
-0.388 0.023 1.079 -0 -1.2 0
-0.399 0.016 1.111 -0 -1.2 0
-0.411 0.015 1.151 -0 -1.2 0
-0.427 0.018 1.198 -0 -1.2 0
-0.44 0.014 1.239 -0 -1.2 0
-0.458 0.022 1.293 -0 -1.2 0
-0.471 0.015 1.334 -0 -1.2 0
-0.487 0.014 1.383 -0 -1.2 0
-0.505 0.017 1.44 -0 -1.2 0
-0.521 0.012 1.49 -0 -1.2 0
-0.54 0.011 1.548 -0 -1.2 0
-0.559 0.009 1.606 -0 -1.2 0
-0.58 0.01 1.673 -0 -1.2 0
-0.605 0.014 1.749 -0 -1.2 0
-0.627 0.01 1.816 -0 -1.2 0
-0.652 0.01 1.893 -0 -1.2 0
-0.679 0.011 1.979 -0 -1.2 0
-0.701 0.001 2.048 -0 -1.2 0
-0.738 0.01 2.161 -0 -1.2 0
-0.772 0.011 2.265 -0 -1.2 0
-0.809 0.012 2.379 -0 -1.2 0
-0.843 0.007 2.485 -0 -1.2 0
-0.885 0.008 2.618 -0 -1.2 0
-0.932 0.008 2.761 -0 -1.2 0
-0.981 0.007 2.913 -0 -1.2 0
-1.036 0.007 3.084 -0 -1.2 0
-1.098 0.008 3.275 -0 -1.2 0
-1.163 0.003 3.475 -0 -1.2 0
-1.249 0.011 3.74 -0 -1.2 0
-1.331 0.008 3.998 -0 -1.2 0
-1.433 0.009 4.311 -0 -1.2 0
-1.544 0.005 4.654 -0 -1.2 0
-1.682 0.008 5.082 -0 -1.2 0
-1.826 0 5.53 -0 -1.2 0
-2.001 -0.009 6.072 -0 -1.2 0
-2.223 -0.014 6.758 -0 -1.2 0
-2.5 -0.021 7.614 -0 -1.2 0
-2.798 -0.051 8.539 -0 -1.2 0
-2.796 -0.209 8.546 -0 -1.2 0
-2.797 -0.367 8.561 -0 -1.2 0
-2.794 -0.526 8.563 -0 -1.2 0
-2.793 -0.683 8.573 -0 -1.2 0
-2.797 -0.841 8.599 -0 -1.2 0
-2.785 -1 8.574 -0 -1.2 0
-2.785 -1.157 8.585 -0 -1.2 0
-2.783 -1.315 8.594 -0 -1.2 0
-2.78 -1.473 8.6 -0 -1.2 0
-2.777 -1.632 8.603 -0 -1.2 0
-2.779 -1.793 8.623 -0 -1.2 0
-2.771 -1.951 8.611 -0 -1.2 0
-2.714 -2.092 8.445 -0 -1.2 0
-2.793 -2.285 8.702 -0 -1.2 0
-2.791 -2.449 8.711 -0 -1.2 0
-2.789 -2.614 8.717 -0 -1.2 0
-2.788 -2.781 8.729 -0 -1.2 0
-2.787 -2.949 8.738 -0 -1.2 0
-2.779 -3.113 8.726 -0 -1.2 0
-2.784 -3.29 8.758 -0 -1.2 0
-2.774 -3.455 8.739 -0 -1.2 0
-2.78 -3.637 8.773 -0 -1.2 0
-2.774 -3.808 8.768 -0 -1.2 0
-2.775 -3.991 8.787 -0 -1.2 0
-2.764 -4.16 8.765 -0 -1.2 0
-2.768 -4.35 8.796 -0 -1.2 0
-2.764 -4.532 8.795 -0 -1.2 0
-2.761 -4.719 8.8 -0 -1.2 0
-2.759 -4.91 8.811 -0 -1.2 0
-2.759 -5.107 8.827 -0 -1.2 0
-2.757 -5.305 8.838 -0 -1.2 0
-2.749 -5.497 8.829 -0 -1.2 0
-2.751 -5.707 8.85 -0 -1.2 0
-2.743 -5.905 8.84 -0 -1.2 0
-2.741 -6.119 8.854 -0 -1.2 0
-2.743 -6.344 8.878 -0 -1.2 0
-2.733 -6.552 8.865 -0 -1.2 0
-2.738 -6.791 8.897 -0 -1.2 0
-2.727 -7.007 8.883 -0 -1.2 0
-2.723 -7.24 8.888 -0 -1.2 0
-2.729 -7.503 8.929 -0 -1.2 0
-2.724 -7.747 8.931 -0 -1.2 0
-2.721 -8.004 8.945 -0 -1.2 0
-2.719 -8.27 8.959 -0 -1.2 0
-2.708 -8.52 8.945 -0 -1.2 0
-2.657 -8.663 8.799 -0 -1.2 0
-2.634 -8.888 8.746 -0 -1.2 0
-2.62 -9.145 8.725 -0 -1.2 0
-2.539 -9.196 8.478 -0 -1.2 0
