# .PCD v.7 - Point Cloud Data file format
FIELDS x y z vp_x vp_y vp_z
SIZE 4 4 4 4 4 4
TYPE F F F F F F
COUNT 1 1 1 1 1 1
WIDTH 1504
HEIGHT 1
VIEWPOINT 0 -1.20013 0 1 0 0 0
POINTS 1504
DATA ascii
22.354 -21.057 3.327 -0 -1.2 0
22.007 -21.445 3.267 -0 -1.2 0
29.943 -0.404 3.966 -0 -1.2 0
29.952 -0.927 3.957 -0 -1.2 0
29.951 -1.451 3.945 -0 -1.2 0
29.941 -1.974 3.934 -0 -1.2 0
29.923 -2.497 3.921 -0 -1.2 0
29.895 -3.019 3.906 -0 -1.2 0
29.858 -3.542 3.892 -0 -1.2 0
29.812 -4.063 3.875 -0 -1.2 0
29.758 -4.584 3.859 -0 -1.2 0
29.693 -5.103 3.839 -0 -1.2 0
29.621 -5.621 3.821 -0 -1.2 0
29.539 -6.138 3.801 -0 -1.2 0
29.447 -6.653 3.779 -0 -1.2 0
29.348 -7.166 3.757 -0 -1.2 0
29.239 -7.678 3.734 -0 -1.2 0
29.122 -8.188 3.71 -0 -1.2 0
28.995 -8.696 3.684 -0 -1.2 0
28.86 -9.2 3.657 -0 -1.2 0
28.717 -9.704 3.63 -0 -1.2 0
28.564 -10.203 3.602 -0 -1.2 0
28.403 -10.701 3.573 -0 -1.2 0
28.233 -11.195 3.543 -0 -1.2 0
28.055 -11.686 3.511 -0 -1.2 0
27.868 -12.175 3.48 -0 -1.2 0
27.672 -12.659 3.447 -0 -1.2 0
27.469 -13.14 3.413 -0 -1.2 0
27.257 -13.617 3.378 -0 -1.2 0
27.036 -14.092 3.343 -0 -1.2 0
26.808 -14.561 3.307 -0 -1.2 0
26.571 -15.027 3.269 -0 -1.2 0
26.327 -15.488 3.231 -0 -1.2 0
26.074 -15.945 3.192 -0 -1.2 0
25.813 -16.398 3.152 -0 -1.2 0
25.546 -16.845 3.111 -0 -1.2 0
25.269 -17.288 3.07 -0 -1.2 0
24.985 -17.726 3.027 -0 -1.2 0
24.695 -18.159 2.984 -0 -1.2 0
24.395 -18.587 2.941 -0 -1.2 0
24.089 -19.009 2.896 -0 -1.2 0
23.776 -19.426 2.85 -0 -1.2 0
23.455 -19.837 2.804 -0 -1.2 0
23.127 -20.243 2.758 -0 -1.2 0
22.793 -20.643 2.71 -0 -1.2 0
22.452 -21.037 2.662 -0 -1.2 0
22.103 -21.425 2.613 -0 -1.2 0
29.79 1.327 -3.879 -0 -1.2 0
29.861 0.282 -3.85 -0 -1.2 0
29.883 -0.24 -3.834 -0 -1.2 0
29.895 -0.762 -3.817 -0 -1.2 0
29.899 -1.285 -3.799 -0 -1.2 0
29.894 -1.809 -3.781 -0 -1.2 0
29.88 -2.332 -3.761 -0 -1.2 0
29.856 -2.854 -3.739 -0 -1.2 0
29.824 -3.376 -3.717 -0 -1.2 0
29.218 -3.845 -3.631 -0 -1.2 0
29.731 -4.419 -3.67 -0 -1.2 0
29.671 -4.939 -3.645 -0 -1.2 0
29.603 -5.457 -3.619 -0 -1.2 0
29.342 -7.003 -3.535 -0 -1.2 0
29.124 -8.025 -3.473 -0 -1.2 0
29.003 -8.534 -3.442 -0 -1.2 0
28.871 -9.04 -3.409 -0 -1.2 0
28.731 -9.543 -3.375 -0 -1.2 0
28.317 -9.96 -3.312 -0 -1.2 0
28.426 -10.542 -3.304 -0 -1.2 0
28.26 -11.038 -3.268 -0 -1.2 0
28.085 -11.53 -3.23 -0 -1.2 0
27.902 -12.018 -3.192 -0 -1.2 0
27.711 -12.505 -3.152 -0 -1.2 0
27.511 -12.987 -3.113 -0 -1.2 0
27.303 -13.466 -3.072 -0 -1.2 0
27.087 -13.94 -3.03 -0 -1.2 0
26.862 -14.412 -2.988 -0 -1.2 0
26.629 -14.879 -2.945 -0 -1.2 0
26.388 -15.342 -2.9 -0 -1.2 0
26.14 -15.8 -2.856 -0 -1.2 0
25.882 -16.254 -2.811 -0 -1.2 0
25.618 -16.703 -2.764 -0 -1.2 0
25.345 -17.147 -2.717 -0 -1.2 0
25.065 -17.588 -2.67 -0 -1.2 0
24.777 -18.022 -2.621 -0 -1.2 0
24.482 -18.452 -2.572 -0 -1.2 0
24.179 -18.876 -2.522 -0 -1.2 0
23.869 -19.295 -2.472 -0 -1.2 0
23.552 -19.708 -2.421 -0 -1.2 0
23.228 -20.116 -2.369 -0 -1.2 0
22.896 -20.517 -2.317 -0 -1.2 0
22.557 -20.913 -2.264 -0 -1.2 0
22.212 -21.303 -2.21 -0 -1.2 0
21.86 -21.688 -2.156 -0 -1.2 0
29.703 0.784 -4.825 -0 -1.2 0
29.733 0.262 -4.81 -0 -1.2 0
29.756 -0.259 -4.794 -0 -1.2 0
29.768 -0.782 -4.777 -0 -1.2 0
29.773 -1.304 -4.759 -0 -1.2 0
29.768 -1.829 -4.739 -0 -1.2 0
29.753 -2.351 -4.718 -0 -1.2 0
29.73 -2.874 -4.695 -0 -1.2 0
29.698 -3.395 -4.672 -0 -1.2 0
29.657 -3.918 -4.646 -0 -1.2 0
29.607 -4.438 -4.62 -0 -1.2 0
29.548 -4.958 -4.592 -0 -1.2 0
29.48 -5.476 -4.563 -0 -1.2 0
28.754 -9.058 -4.325 -0 -1.2 0
28.615 -9.561 -4.287 -0 -1.2 0
27.541 -9.769 -4.12 -0 -1.2 0
28.312 -10.56 -4.205 -0 -1.2 0
28.146 -11.056 -4.163 -0 -1.2 0
27.973 -11.548 -4.119 -0 -1.2 0
27.792 -12.036 -4.075 -0 -1.2 0
27.601 -12.522 -4.029 -0 -1.2 0
27.403 -13.004 -3.982 -0 -1.2 0
27.195 -13.483 -3.933 -0 -1.2 0
26.98 -13.957 -3.884 -0 -1.2 0
26.757 -14.429 -3.834 -0 -1.2 0
26.525 -14.895 -3.783 -0 -1.2 0
26.286 -15.358 -3.73 -0 -1.2 0
26.038 -15.816 -3.677 -0 -1.2 0
25.783 -16.27 -3.622 -0 -1.2 0
25.52 -16.719 -3.568 -0 -1.2 0
25.248 -17.163 -3.512 -0 -1.2 0
24.97 -17.603 -3.454 -0 -1.2 0
24.683 -18.037 -3.396 -0 -1.2 0
24.389 -18.467 -3.336 -0 -1.2 0
24.089 -18.89 -3.276 -0 -1.2 0
23.78 -19.309 -3.215 -0 -1.2 0
23.464 -19.722 -3.154 -0 -1.2 0
23.141 -20.13 -3.091 -0 -1.2 0
22.812 -20.531 -3.028 -0 -1.2 0
22.475 -20.927 -2.964 -0 -1.2 0
22.131 -21.317 -2.899 -0 -1.2 0
21.78 -21.701 -2.833 -0 -1.2 0
29.547 0.768 -5.766 -0 -1.2 0
29.601 -0.275 -5.735 -0 -1.2 0
29.615 -0.798 -5.719 -0 -1.2 0
29.619 -1.32 -5.699 -0 -1.2 0
29.614 -1.845 -5.679 -0 -1.2 0
29.601 -2.367 -5.656 -0 -1.2 0
29.578 -2.889 -5.633 -0 -1.2 0
29.547 -3.411 -5.607 -0 -1.2 0
29.506 -3.933 -5.58 -0 -1.2 0
29.457 -4.454 -5.551 -0 -1.2 0
29.399 -4.973 -5.521 -0 -1.2 0
29.254 -6.008 -5.456 -0 -1.2 0
29.17 -6.524 -5.421 -0 -1.2 0
28.861 -8.059 -5.307 -0 -1.2 0
28.741 -8.568 -5.266 -0 -1.2 0
28.475 -9.576 -5.179 -0 -1.2 0
28.328 -10.077 -5.134 -0 -1.2 0
28.01 -11.07 -5.039 -0 -1.2 0
27.838 -11.562 -4.988 -0 -1.2 0
27.657 -12.05 -4.938 -0 -1.2 0
27.469 -12.537 -4.885 -0 -1.2 0
27.271 -13.018 -4.83 -0 -1.2 0
27.066 -13.497 -4.776 -0 -1.2 0
26.852 -13.971 -4.719 -0 -1.2 0
26.63 -14.442 -4.661 -0 -1.2 0
26.401 -14.909 -4.602 -0 -1.2 0
26.162 -15.372 -4.541 -0 -1.2 0
25.916 -15.829 -4.479 -0 -1.2 0
25.663 -16.283 -4.416 -0 -1.2 0
25.401 -16.732 -4.351 -0 -1.2 0
25.132 -17.176 -4.286 -0 -1.2 0
24.855 -17.616 -4.22 -0 -1.2 0
24.571 -18.05 -4.152 -0 -1.2 0
24.279 -18.479 -4.082 -0 -1.2 0
23.98 -18.902 -4.012 -0 -1.2 0
23.673 -19.321 -3.941 -0 -1.2 0
23.359 -19.734 -3.868 -0 -1.2 0
23.039 -20.141 -3.795 -0 -1.2 0
22.711 -20.542 -3.72 -0 -1.2 0
22.376 -20.938 -3.645 -0 -1.2 0
22.034 -21.328 -3.568 -0 -1.2 0
21.686 -21.712 -3.49 -0 -1.2 0
29.415 -0.818 -6.717 -0 -1.2 0
29.42 -1.341 -6.696 -0 -1.2 0
29.416 -1.865 -6.675 -0 -1.2 0
29.403 -2.387 -6.652 -0 -1.2 0
29.381 -2.909 -6.627 -0 -1.2 0
29.351 -3.431 -6.599 -0 -1.2 0
28.892 -3.912 -6.481 -0 -1.2 0
29.262 -4.474 -6.539 -0 -1.2 0
29.204 -4.993 -6.505 -0 -1.2 0
29.138 -5.511 -6.471 -0 -1.2 0
28.979 -6.543 -6.396 -0 -1.2 0
28.785 -7.568 -6.313 -0 -1.2 0
28.674 -8.079 -6.269 -0 -1.2 0
28.555 -8.587 -6.223 -0 -1.2 0
28.427 -9.092 -6.175 -0 -1.2 0
28.146 -10.096 -6.075 -0 -1.2 0
27.993 -10.593 -6.022 -0 -1.2 0
27.831 -11.089 -5.967 -0 -1.2 0
26.944 -11.309 -5.767 -0 -1.2 0
27.482 -12.068 -5.853 -0 -1.2 0
27.295 -12.555 -5.793 -0 -1.2 0
27.099 -13.036 -5.732 -0 -1.2 0
26.895 -13.515 -5.669 -0 -1.2 0
26.684 -13.989 -5.604 -0 -1.2 0
26.464 -14.46 -5.538 -0 -1.2 0
26.236 -14.926 -5.47 -0 -1.2 0
26 -15.389 -5.401 -0 -1.2 0
25.756 -15.846 -5.33 -0 -1.2 0
25.504 -16.299 -5.257 -0 -1.2 0
25.245 -16.749 -5.183 -0 -1.2 0
24.978 -17.192 -5.108 -0 -1.2 0
24.704 -17.632 -5.032 -0 -1.2 0
24.422 -18.065 -4.953 -0 -1.2 0
24.132 -18.495 -4.874 -0 -1.2 0
23.835 -18.918 -4.793 -0 -1.2 0
23.531 -19.336 -4.711 -0 -1.2 0
23.22 -19.749 -4.626 -0 -1.2 0
22.901 -20.156 -4.541 -0 -1.2 0
22.577 -20.557 -4.456 -0 -1.2 0
22.245 -20.952 -4.368 -0 -1.2 0
21.905 -21.342 -4.279 -0 -1.2 0
21.56 -21.725 -4.189 -0 -1.2 0
29.201 -0.837 -7.634 -0 -1.2 0
29.207 -1.359 -7.613 -0 -1.2 0
28.463 -2.374 -7.386 -0 -1.2 0
28.589 -2.892 -7.395 -0 -1.2 0
28.636 -3.41 -7.386 -0 -1.2 0
28.859 -3.948 -7.419 -0 -1.2 0
29.043 -4.49 -7.444 -0 -1.2 0
28.931 -5.529 -7.372 -0 -1.2 0
28.856 -6.046 -7.333 -0 -1.2 0
28.774 -6.562 -7.29 -0 -1.2 0
28.582 -7.587 -7.2 -0 -1.2 0
28.472 -8.097 -7.153 -0 -1.2 0
27.554 -8.918 -6.889 -0 -1.2 0
28.094 -9.613 -6.996 -0 -1.2 0
27.951 -10.114 -6.939 -0 -1.2 0
27.639 -11.106 -6.82 -0 -1.2 0
27.224 -11.503 -6.7 -0 -1.2 0
27.293 -12.085 -6.694 -0 -1.2 0
27.107 -12.572 -6.627 -0 -1.2 0
26.914 -13.053 -6.558 -0 -1.2 0
26.712 -13.531 -6.488 -0 -1.2 0
26.502 -14.005 -6.417 -0 -1.2 0
26.285 -14.476 -6.343 -0 -1.2 0
26.059 -14.942 -6.268 -0 -1.2 0
25.825 -15.404 -6.19 -0 -1.2 0
25.583 -15.862 -6.111 -0 -1.2 0
25.334 -16.315 -6.03 -0 -1.2 0
25.077 -16.764 -5.947 -0 -1.2 0
24.813 -17.207 -5.863 -0 -1.2 0
24.54 -17.647 -5.777 -0 -1.2 0
24.261 -18.08 -5.689 -0 -1.2 0
23.973 -18.509 -5.6 -0 -1.2 0
23.68 -18.932 -5.509 -0 -1.2 0
23.378 -19.35 -5.417 -0 -1.2 0
23.069 -19.763 -5.323 -0 -1.2 0
22.754 -20.169 -5.227 -0 -1.2 0
22.432 -20.57 -5.129 -0 -1.2 0
22.103 -20.965 -5.031 -0 -1.2 0
21.766 -21.355 -4.931 -0 -1.2 0
21.424 -21.738 -4.83 -0 -1.2 0
28.944 -0.332 -8.557 -0 -1.2 0
28.958 -0.855 -8.538 -0 -1.2 0
28.964 -1.378 -8.518 -0 -1.2 0
28.962 -1.902 -8.495 -0 -1.2 0
28.95 -2.424 -8.468 -0 -1.2 0
28.372 -2.911 -8.284 -0 -1.2 0
28.9 -3.468 -8.41 -0 -1.2 0
28.862 -3.99 -8.376 -0 -1.2 0
28.039 -4.418 -8.125 -0 -1.2 0
28.759 -5.029 -8.303 -0 -1.2 0
28.622 -6.064 -8.22 -0 -1.2 0
28.54 -6.579 -8.175 -0 -1.2 0
28.45 -7.092 -8.127 -0 -1.2 0
28.243 -8.114 -8.024 -0 -1.2 0
27.268 -8.391 -7.736 -0 -1.2 0
28.002 -9.127 -7.913 -0 -1.2 0
27.728 -10.13 -7.792 -0 -1.2 0
27.578 -10.627 -7.728 -0 -1.2 0
27.078 -12.102 -7.522 -0 -1.2 0
26.894 -12.588 -7.45 -0 -1.2 0
26.703 -13.069 -7.375 -0 -1.2 0
26.503 -13.547 -7.298 -0 -1.2 0
26.296 -14.021 -7.219 -0 -1.2 0
26.08 -14.491 -7.138 -0 -1.2 0
25.857 -14.957 -7.054 -0 -1.2 0
25.626 -15.419 -6.968 -0 -1.2 0
25.386 -15.877 -6.881 -0 -1.2 0
25.14 -16.33 -6.792 -0 -1.2 0
24.885 -16.778 -6.701 -0 -1.2 0
24.624 -17.221 -6.607 -0 -1.2 0
24.354 -17.661 -6.512 -0 -1.2 0
24.077 -18.094 -6.415 -0 -1.2 0
23.793 -18.523 -6.316 -0 -1.2 0
23.502 -18.946 -6.216 -0 -1.2 0
23.204 -19.364 -6.113 -0 -1.2 0
22.897 -19.776 -6.009 -0 -1.2 0
22.585 -20.182 -5.902 -0 -1.2 0
22.266 -20.583 -5.794 -0 -1.2 0
21.94 -20.978 -5.685 -0 -1.2 0
21.607 -21.367 -5.574 -0 -1.2 0
21.268 -21.75 -5.461 -0 -1.2 0
28.656 -0.881 -9.532 -0 -1.2 0
28.663 -1.404 -9.511 -0 -1.2 0
28.66 -1.928 -9.487 -0 -1.2 0
28.649 -2.45 -9.46 -0 -1.2 0
28.629 -2.972 -9.43 -0 -1.2 0
28.06 -3.449 -9.225 -0 -1.2 0
28.564 -4.016 -9.363 -0 -1.2 0
28.518 -4.536 -9.325 -0 -1.2 0
28.464 -5.055 -9.283 -0 -1.2 0
27.609 -5.448 -8.991 -0 -1.2 0
28.329 -6.09 -9.194 -0 -1.2 0
28.249 -6.605 -9.145 -0 -1.2 0
28.16 -7.118 -9.093 -0 -1.2 0
27.842 -8.647 -8.923 -0 -1.2 0
26.98 -11.638 -8.511 -0 -1.2 0
26.807 -12.126 -8.434 -0 -1.2 0
26.626 -12.611 -8.354 -0 -1.2 0
26.437 -13.092 -8.272 -0 -1.2 0
26.241 -13.57 -8.188 -0 -1.2 0
26.036 -14.044 -8.1 -0 -1.2 0
25.823 -14.514 -8.011 -0 -1.2 0
25.602 -14.98 -7.919 -0 -1.2 0
25.373 -15.442 -7.824 -0 -1.2 0
25.138 -15.899 -7.729 -0 -1.2 0
24.894 -16.351 -7.63 -0 -1.2 0
24.643 -16.8 -7.529 -0 -1.2 0
24.384 -17.243 -7.426 -0 -1.2 0
24.118 -17.682 -7.321 -0 -1.2 0
23.844 -18.115 -7.213 -0 -1.2 0
23.564 -18.543 -7.103 -0 -1.2 0
23.276 -18.966 -6.993 -0 -1.2 0
22.981 -19.383 -6.879 -0 -1.2 0
22.679 -19.795 -6.763 -0 -1.2 0
22.37 -20.202 -6.646 -0 -1.2 0
22.055 -20.602 -6.526 -0 -1.2 0
21.733 -20.996 -6.405 -0 -1.2 0
21.404 -21.385 -6.281 -0 -1.2 0
21.068 -21.768 -6.157 -0 -1.2 0
28.269 0.659 -10.502 -0 -1.2 0
28.326 -0.384 -10.475 -0 -1.2 0
28.336 -2.476 -10.38 -0 -1.2 0
28.318 -2.998 -10.349 -0 -1.2 0
27.529 -3.455 -10.045 -0 -1.2 0
28.254 -4.041 -10.278 -0 -1.2 0
28.209 -4.561 -10.238 -0 -1.2 0
28.156 -5.081 -10.195 -0 -1.2 0
28.094 -5.598 -10.148 -0 -1.2 0
28.023 -6.115 -10.099 -0 -1.2 0
27.857 -7.143 -9.992 -0 -1.2 0
26.996 -7.473 -9.668 -0 -1.2 0
27.657 -8.164 -9.872 -0 -1.2 0
27.545 -8.671 -9.808 -0 -1.2 0
27.424 -9.176 -9.741 -0 -1.2 0
27.295 -9.679 -9.671 -0 -1.2 0
26.696 -11.662 -9.364 -0 -1.2 0
26.525 -12.149 -9.28 -0 -1.2 0
26.347 -12.634 -9.194 -0 -1.2 0
26.16 -13.115 -9.105 -0 -1.2 0
25.966 -13.593 -9.013 -0 -1.2 0
25.764 -14.066 -8.919 -0 -1.2 0
25.554 -14.536 -8.821 -0 -1.2 0
25.337 -15.002 -8.721 -0 -1.2 0
25.111 -15.464 -8.619 -0 -1.2 0
24.878 -15.921 -8.515 -0 -1.2 0
24.638 -16.373 -8.408 -0 -1.2 0
24.39 -16.821 -8.298 -0 -1.2 0
24.135 -17.263 -8.185 -0 -1.2 0
23.872 -17.702 -8.071 -0 -1.2 0
23.602 -18.135 -7.954 -0 -1.2 0
23.325 -18.563 -7.835 -0 -1.2 0
23.041 -18.985 -7.714 -0 -1.2 0
22.75 -19.403 -7.589 -0 -1.2 0
22.451 -19.814 -7.464 -0 -1.2 0
22.147 -20.22 -7.335 -0 -1.2 0
21.835 -20.62 -7.206 -0 -1.2 0
21.517 -21.014 -7.073 -0 -1.2 0
21.192 -21.403 -6.939 -0 -1.2 0
20.861 -21.785 -6.802 -0 -1.2 0
27.922 0.632 -11.414 -0 -1.2 0
27.955 0.11 -11.401 -0 -1.2 0
27.979 -0.411 -11.386 -0 -1.2 0
27.995 -0.933 -11.366 -0 -1.2 0
28.003 -1.456 -11.344 -0 -1.2 0
28.002 -1.98 -11.318 -0 -1.2 0
27.869 -4.587 -11.139 -0 -1.2 0
27.816 -5.107 -11.094 -0 -1.2 0
27.756 -5.624 -11.044 -0 -1.2 0
27.688 -6.14 -10.992 -0 -1.2 0
27.61 -6.655 -10.937 -0 -1.2 0
27.328 -8.189 -10.751 -0 -1.2 0
27.218 -8.697 -10.683 -0 -1.2 0
27.098 -9.201 -10.611 -0 -1.2 0
26.836 -10.204 -10.458 -0 -1.2 0
26.692 -10.7 -10.378 -0 -1.2 0
26.541 -11.195 -10.294 -0 -1.2 0
26.382 -11.686 -10.207 -0 -1.2 0
26.213 -12.173 -10.117 -0 -1.2 0
26.038 -12.658 -10.023 -0 -1.2 0
25.855 -13.139 -9.928 -0 -1.2 0
25.663 -13.616 -9.829 -0 -1.2 0
25.464 -14.089 -9.728 -0 -1.2 0
25.258 -14.559 -9.622 -0 -1.2 0
25.043 -15.025 -9.515 -0 -1.2 0
24.821 -15.486 -9.405 -0 -1.2 0
24.591 -15.943 -9.292 -0 -1.2 0
24.355 -16.395 -9.177 -0 -1.2 0
24.11 -16.843 -9.058 -0 -1.2 0
23.858 -17.285 -8.937 -0 -1.2 0
23.599 -17.723 -8.814 -0 -1.2 0
23.333 -18.156 -8.687 -0 -1.2 0
23.06 -18.584 -8.558 -0 -1.2 0
22.779 -19.006 -8.427 -0 -1.2 0
22.492 -19.423 -8.294 -0 -1.2 0
22.199 -19.834 -8.157 -0 -1.2 0
21.898 -20.239 -8.019 -0 -1.2 0
21.591 -20.639 -7.877 -0 -1.2 0
21.277 -21.033 -7.734 -0 -1.2 0
20.956 -21.421 -7.589 -0 -1.2 0
20.63 -21.803 -7.44 -0 -1.2 0
27.585 -0.969 -12.347 -0 -1.2 0
27.593 -1.492 -12.324 -0 -1.2 0
27.593 -2.016 -12.297 -0 -1.2 0
27.583 -2.538 -12.267 -0 -1.2 0
27.566 -3.06 -12.233 -0 -1.2 0
27.54 -3.582 -12.196 -0 -1.2 0
27.413 -5.142 -12.061 -0 -1.2 0
27.355 -5.659 -12.01 -0 -1.2 0
27.211 -6.69 -11.896 -0 -1.2 0
26.38 -7.035 -11.514 -0 -1.2 0
27.036 -7.714 -11.767 -0 -1.2 0
26.935 -8.224 -11.698 -0 -1.2 0
26.826 -8.731 -11.625 -0 -1.2 0
26.71 -9.236 -11.548 -0 -1.2 0
26.585 -9.738 -11.469 -0 -1.2 0
25.881 -10.04 -11.146 -0 -1.2 0
26.311 -10.734 -11.3 -0 -1.2 0
26.162 -11.228 -11.209 -0 -1.2 0
26.005 -11.719 -11.116 -0 -1.2 0
25.842 -12.206 -11.02 -0 -1.2 0
25.669 -12.691 -10.919 -0 -1.2 0
25.489 -13.171 -10.817 -0 -1.2 0
25.301 -13.648 -10.711 -0 -1.2 0
25.105 -14.121 -10.601 -0 -1.2 0
24.902 -14.591 -10.489 -0 -1.2 0
24.691 -15.056 -10.373 -0 -1.2 0
24.472 -15.517 -10.255 -0 -1.2 0
24.247 -15.973 -10.133 -0 -1.2 0
24.014 -16.425 -10.008 -0 -1.2 0
23.773 -16.873 -9.88 -0 -1.2 0
23.525 -17.314 -9.75 -0 -1.2 0
23.271 -17.752 -9.617 -0 -1.2 0
23.009 -18.185 -9.481 -0 -1.2 0
22.74 -18.612 -9.342 -0 -1.2 0
22.464 -19.034 -9.199 -0 -1.2 0
22.181 -19.45 -9.055 -0 -1.2 0
21.893 -19.861 -8.908 -0 -1.2 0
21.597 -20.266 -8.758 -0 -1.2 0
21.295 -20.666 -8.605 -0 -1.2 0
20.985 -21.059 -8.451 -0 -1.2 0
20.67 -21.447 -8.294 -0 -1.2 0
20.349 -21.828 -8.134 -0 -1.2 0
27.179 -2.05 -13.197 -0 -1.2 0
27.17 -2.572 -13.166 -0 -1.2 0
27.154 -3.094 -13.131 -0 -1.2 0
27.129 -3.615 -13.092 -0 -1.2 0
27.096 -4.137 -13.049 -0 -1.2 0
27.054 -4.656 -13.003 -0 -1.2 0
26.725 -7.236 -12.712 -0 -1.2 0
26.636 -7.747 -12.641 -0 -1.2 0
26.537 -8.256 -12.569 -0 -1.2 0
26.431 -8.763 -12.492 -0 -1.2 0
26.316 -9.268 -12.411 -0 -1.2 0
26.194 -9.77 -12.326 -0 -1.2 0
26.064 -10.269 -12.237 -0 -1.2 0
25.925 -10.766 -12.146 -0 -1.2 0
25.779 -11.26 -12.05 -0 -1.2 0
25.625 -11.75 -11.951 -0 -1.2 0
25.464 -12.237 -11.849 -0 -1.2 0
25.294 -12.722 -11.743 -0 -1.2 0
25.118 -13.202 -11.633 -0 -1.2 0
24.932 -13.679 -11.521 -0 -1.2 0
24.741 -14.151 -11.404 -0 -1.2 0
24.541 -14.62 -11.284 -0 -1.2 0
24.333 -15.085 -11.162 -0 -1.2 0
24.119 -15.546 -11.035 -0 -1.2 0
23.897 -16.002 -10.905 -0 -1.2 0
23.667 -16.453 -10.772 -0 -1.2 0
23.432 -16.901 -10.636 -0 -1.2 0
23.188 -17.342 -10.497 -0 -1.2 0
22.938 -17.78 -10.355 -0 -1.2 0
22.68 -18.212 -10.21 -0 -1.2 0
22.416 -18.639 -10.061 -0 -1.2 0
22.144 -19.06 -9.909 -0 -1.2 0
21.867 -19.476 -9.756 -0 -1.2 0
21.583 -19.887 -9.598 -0 -1.2 0
21.291 -20.292 -9.438 -0 -1.2 0
20.994 -20.69 -9.275 -0 -1.2 0
20.69 -21.083 -9.11 -0 -1.2 0
20.38 -21.471 -8.942 -0 -1.2 0
20.064 -21.852 -8.771 -0 -1.2 0
26.652 0.529 -14.177 -0 -1.2 0
26.689 -3.649 -13.972 -0 -1.2 0
26.657 -4.17 -13.927 -0 -1.2 0
26.617 -4.69 -13.878 -0 -1.2 0
26.208 -7.78 -13.5 -0 -1.2 0
26.111 -8.289 -13.423 -0 -1.2 0
26.008 -8.796 -13.342 -0 -1.2 0
25.896 -9.3 -13.256 -0 -1.2 0
25.776 -9.802 -13.167 -0 -1.2 0
25.648 -10.301 -13.075 -0 -1.2 0
25.513 -10.797 -12.977 -0 -1.2 0
25.369 -11.291 -12.877 -0 -1.2 0
25.219 -11.781 -12.773 -0 -1.2 0
25.06 -12.268 -12.664 -0 -1.2 0
24.895 -12.752 -12.551 -0 -1.2 0
24.721 -13.232 -12.436 -0 -1.2 0
24.54 -13.709 -12.316 -0 -1.2 0
24.351 -14.181 -12.192 -0 -1.2 0
24.155 -14.65 -12.066 -0 -1.2 0
23.952 -15.114 -11.935 -0 -1.2 0
23.742 -15.575 -11.801 -0 -1.2 0
23.523 -16.031 -11.663 -0 -1.2 0
23.299 -16.482 -11.523 -0 -1.2 0
23.067 -16.929 -11.378 -0 -1.2 0
22.828 -17.37 -11.231 -0 -1.2 0
22.582 -17.807 -11.08 -0 -1.2 0
22.329 -18.239 -10.925 -0 -1.2 0
22.069 -18.665 -10.768 -0 -1.2 0
21.804 -19.086 -10.607 -0 -1.2 0
21.531 -19.502 -10.442 -0 -1.2 0
21.252 -19.912 -10.276 -0 -1.2 0
20.966 -20.317 -10.106 -0 -1.2 0
20.674 -20.715 -9.932 -0 -1.2 0
20.375 -21.108 -9.756 -0 -1.2 0
20.071 -21.494 -9.578 -0 -1.2 0
19.76 -21.875 -9.396 -0 -1.2 0
26.137 0.49 -15.118 -0 -1.2 0
26.17 -0.031 -15.107 -0 -1.2 0
26.195 -0.553 -15.092 -0 -1.2 0
26.212 -1.075 -15.072 -0 -1.2 0
26.221 -1.598 -15.049 -0 -1.2 0
26.062 -5.247 -14.755 -0 -1.2 0
26.007 -5.764 -14.696 -0 -1.2 0
25.618 -8.326 -14.332 -0 -1.2 0
25.516 -8.833 -14.247 -0 -1.2 0
25.407 -9.337 -14.156 -0 -1.2 0
25.29 -9.838 -14.063 -0 -1.2 0
25.165 -10.338 -13.965 -0 -1.2 0
25.034 -10.833 -13.862 -0 -1.2 0
24.894 -11.327 -13.755 -0 -1.2 0
24.747 -11.817 -13.644 -0 -1.2 0
24.592 -12.303 -13.53 -0 -1.2 0
24.429 -12.787 -13.411 -0 -1.2 0
24.259 -13.267 -13.289 -0 -1.2 0
24.083 -13.743 -13.161 -0 -1.2 0
23.898 -14.215 -13.031 -0 -1.2 0
23.707 -14.684 -12.897 -0 -1.2 0
23.508 -15.148 -12.758 -0 -1.2 0
23.301 -15.608 -12.616 -0 -1.2 0
23.088 -16.063 -12.47 -0 -1.2 0
22.868 -16.514 -12.321 -0 -1.2 0
22.641 -16.961 -12.167 -0 -1.2 0
22.408 -17.401 -12.011 -0 -1.2 0
22.167 -17.838 -11.85 -0 -1.2 0
21.92 -18.27 -11.686 -0 -1.2 0
21.666 -18.696 -11.519 -0 -1.2 0
21.405 -19.116 -11.348 -0 -1.2 0
21.139 -19.532 -11.173 -0 -1.2 0
20.865 -19.941 -10.996 -0 -1.2 0
20.586 -20.345 -10.815 -0 -1.2 0
20.299 -20.743 -10.631 -0 -1.2 0
20.007 -21.135 -10.444 -0 -1.2 0
19.709 -21.522 -10.254 -0 -1.2 0
19.405 -21.902 -10.061 -0 -1.2 0
25.633 0.455 -15.966 -0 -1.2 0
25.666 -0.066 -15.956 -0 -1.2 0
25.196 -0.599 -15.639 -0 -1.2 0
25.453 -6.314 -15.466 -0 -1.2 0
25.385 -6.829 -15.394 -0 -1.2 0
25.309 -7.341 -15.319 -0 -1.2 0
25.035 -8.867 -15.064 -0 -1.2 0
24.928 -9.371 -14.97 -0 -1.2 0
24.815 -9.872 -14.871 -0 -1.2 0
24.693 -10.371 -14.768 -0 -1.2 0
24.564 -10.866 -14.661 -0 -1.2 0
24.428 -11.36 -14.549 -0 -1.2 0
24.283 -11.85 -14.433 -0 -1.2 0
24.133 -12.335 -14.312 -0 -1.2 0
23.974 -12.819 -14.188 -0 -1.2 0
23.808 -13.299 -14.059 -0 -1.2 0
23.635 -13.775 -13.926 -0 -1.2 0
23.455 -14.246 -13.788 -0 -1.2 0
23.267 -14.715 -13.647 -0 -1.2 0
23.073 -15.179 -13.502 -0 -1.2 0
22.871 -15.639 -13.353 -0 -1.2 0
22.663 -16.094 -13.199 -0 -1.2 0
22.448 -16.544 -13.042 -0 -1.2 0
22.226 -16.99 -12.88 -0 -1.2 0
21.997 -17.431 -12.715 -0 -1.2 0
21.762 -17.867 -12.547 -0 -1.2 0
21.52 -18.298 -12.374 -0 -1.2 0
21.271 -18.724 -12.197 -0 -1.2 0
21.016 -19.144 -12.018 -0 -1.2 0
20.755 -19.559 -11.834 -0 -1.2 0
20.487 -19.968 -11.647 -0 -1.2 0
20.213 -20.372 -11.457 -0 -1.2 0
19.933 -20.769 -11.263 -0 -1.2 0
19.647 -21.161 -11.065 -0 -1.2 0
19.355 -21.547 -10.865 -0 -1.2 0
19.057 -21.927 -10.661 -0 -1.2 0
23.524 -9.616 -15.141 -0 -1.2 0
23.594 -10.169 -15.154 -0 -1.2 0
23.639 -10.721 -15.151 -0 -1.2 0
23.668 -11.273 -15.136 -0 -1.2 0
23.734 -11.851 -15.146 -0 -1.2 0
23.642 -12.362 -15.055 -0 -1.2 0
23.129 -12.664 -14.7 -0 -1.2 0
23.341 -13.331 -14.799 -0 -1.2 0
23.172 -13.807 -14.66 -0 -1.2 0
22.996 -14.279 -14.516 -0 -1.2 0
22.814 -14.747 -14.368 -0 -1.2 0
22.624 -15.21 -14.216 -0 -1.2 0
22.426 -15.67 -14.06 -0 -1.2 0
22.223 -16.125 -13.899 -0 -1.2 0
22.013 -16.575 -13.734 -0 -1.2 0
21.796 -17.021 -13.566 -0 -1.2 0
21.573 -17.461 -13.392 -0 -1.2 0
21.343 -17.897 -13.215 -0 -1.2 0
21.106 -18.327 -13.035 -0 -1.2 0
20.863 -18.753 -12.849 -0 -1.2 0
20.614 -19.172 -12.661 -0 -1.2 0
20.358 -19.587 -12.468 -0 -1.2 0
20.096 -19.996 -12.272 -0 -1.2 0
19.829 -20.399 -12.072 -0 -1.2 0
19.555 -20.796 -11.869 -0 -1.2 0
19.275 -21.187 -11.662 -0 -1.2 0
18.989 -21.573 -11.452 -0 -1.2 0
18.698 -21.952 -11.238 -0 -1.2 0
24.52 0.377 -17.643 -0 -1.2 0
21.855 -13.95 -14.869 -0 -1.2 0
21.904 -14.542 -14.866 -0 -1.2 0
22.089 -15.232 -14.955 -0 -1.2 0
21.869 -15.672 -14.772 -0 -1.2 0
21.383 -15.924 -14.412 -0 -1.2 0
21.517 -16.609 -14.464 -0 -1.2 0
21.306 -17.055 -14.288 -0 -1.2 0
21.087 -17.495 -14.106 -0 -1.2 0
20.863 -17.931 -13.921 -0 -1.2 0
20.633 -18.36 -13.732 -0 -1.2 0
20.397 -18.785 -13.538 -0 -1.2 0
20.153 -19.205 -13.34 -0 -1.2 0
19.905 -19.619 -13.138 -0 -1.2 0
19.649 -20.027 -12.932 -0 -1.2 0
19.388 -20.43 -12.722 -0 -1.2 0
19.121 -20.827 -12.509 -0 -1.2 0
18.849 -21.217 -12.293 -0 -1.2 0
18.57 -21.602 -12.072 -0 -1.2 0
18.287 -21.981 -11.847 -0 -1.2 0
20.618 -17.533 -14.744 -0 -1.2 0
20.399 -17.968 -14.551 -0 -1.2 0
20.175 -18.397 -14.354 -0 -1.2 0
19.943 -18.822 -14.152 -0 -1.2 0
19.707 -19.241 -13.946 -0 -1.2 0
19.464 -19.655 -13.736 -0 -1.2 0
19.215 -20.062 -13.522 -0 -1.2 0
18.961 -20.464 -13.303 -0 -1.2 0
18.7 -20.861 -13.081 -0 -1.2 0
18.434 -21.251 -12.855 -0 -1.2 0
18.163 -21.635 -12.625 -0 -1.2 0
17.885 -22.013 -12.391 -0 -1.2 0
23.34 0.281 -19.183 -0 -1.2 0
20.109 -17.574 -15.387 -0 -1.2 0
19.897 -18.009 -15.186 -0 -1.2 0
19.678 -18.438 -14.981 -0 -1.2 0
19.453 -18.862 -14.771 -0 -1.2 0
19.223 -19.28 -14.556 -0 -1.2 0
18.988 -19.694 -14.338 -0 -1.2 0
18.745 -20.101 -14.116 -0 -1.2 0
18.498 -20.502 -13.888 -0 -1.2 0
18.244 -20.898 -13.657 -0 -1.2 0
17.985 -21.288 -13.421 -0 -1.2 0
17.721 -21.671 -13.183 -0 -1.2 0
17.452 -22.049 -12.939 -0 -1.2 0
19.542 -17.619 -16.054 -0 -1.2 0
19.336 -18.053 -15.845 -0 -1.2 0
19.125 -18.482 -15.631 -0 -1.2 0
18.907 -18.905 -15.414 -0 -1.2 0
18.684 -19.323 -15.19 -0 -1.2 0
18.456 -19.736 -14.963 -0 -1.2 0
18.222 -20.142 -14.731 -0 -1.2 0
17.981 -20.543 -14.495 -0 -1.2 0
17.736 -20.938 -14.254 -0 -1.2 0
17.485 -21.327 -14.009 -0 -1.2 0
17.23 -21.71 -13.76 -0 -1.2 0
16.968 -22.087 -13.507 -0 -1.2 0
21.997 0.177 -20.713 -0 -1.2 0
19.189 -17.223 -16.864 -0 -1.2 0
18.995 -17.661 -16.653 -0 -1.2 0
18.796 -18.095 -16.437 -0 -1.2 0
18.592 -18.523 -16.216 -0 -1.2 0
18.381 -18.946 -15.991 -0 -1.2 0
18.165 -19.363 -15.759 -0 -1.2 0
17.943 -19.775 -15.524 -0 -1.2 0
17.716 -20.181 -15.284 -0 -1.2 0
17.484 -20.581 -15.04 -0 -1.2 0
17.246 -20.976 -14.791 -0 -1.2 0
17.003 -21.364 -14.537 -0 -1.2 0
16.755 -21.746 -14.279 -0 -1.2 0
16.501 -22.123 -14.017 -0 -1.2 0
21.314 0.127 -21.416 -0 -1.2 0
18.355 -15.31 -17.338 -0 -1.2 0
18.274 -15.809 -17.221 -0 -1.2 0
18.005 -16.156 -16.928 -0 -1.2 0
18.616 -17.265 -17.452 -0 -1.2 0
18.43 -17.702 -17.235 -0 -1.2 0
18.237 -18.135 -17.012 -0 -1.2 0
18.039 -18.563 -16.784 -0 -1.2 0
17.835 -18.985 -16.55 -0 -1.2 0
17.626 -19.402 -16.312 -0 -1.2 0
17.413 -19.813 -16.069 -0 -1.2 0
17.193 -20.219 -15.821 -0 -1.2 0
16.969 -20.619 -15.569 -0 -1.2 0
16.739 -21.012 -15.311 -0 -1.2 0
16.504 -21.4 -15.049 -0 -1.2 0
16.264 -21.782 -14.783 -0 -1.2 0
16.019 -22.158 -14.512 -0 -1.2 0
20.553 0.072 -22.145 -0 -1.2 0
18.119 -14.551 -18.427 -0 -1.2 0
18.115 -15.105 -18.38 -0 -1.2 0
18.078 -15.643 -18.299 -0 -1.2 0
17.828 -16.007 -18.004 -0 -1.2 0
18.151 -16.868 -18.283 -0 -1.2 0
17.977 -17.311 -18.064 -0 -1.2 0
17.798 -17.748 -17.838 -0 -1.2 0
17.614 -18.18 -17.609 -0 -1.2 0
17.423 -18.607 -17.372 -0 -1.2 0
17.228 -19.029 -17.132 -0 -1.2 0
17.026 -19.445 -16.886 -0 -1.2 0
16.821 -19.856 -16.635 -0 -1.2 0
16.61 -20.261 -16.378 -0 -1.2 0
16.394 -20.66 -16.118 -0 -1.2 0
16.173 -21.053 -15.851 -0 -1.2 0
15.947 -21.44 -15.581 -0 -1.2 0
15.717 -21.822 -15.306 -0 -1.2 0
15.481 -22.197 -15.025 -0 -1.2 0
17.924 -13.807 -19.526 -0 -1.2 0
17.921 -14.358 -19.477 -0 -1.2 0
17.928 -14.925 -19.44 -0 -1.2 0
17.916 -15.485 -19.38 -0 -1.2 0
17.723 -15.905 -19.129 -0 -1.2 0
17.698 -16.465 -19.054 -0 -1.2 0
17.535 -16.911 -18.834 -0 -1.2 0
17.368 -17.354 -18.608 -0 -1.2 0
17.195 -17.79 -18.377 -0 -1.2 0
17.018 -18.222 -18.14 -0 -1.2 0
16.835 -18.649 -17.898 -0 -1.2 0
16.647 -19.07 -17.65 -0 -1.2 0
16.454 -19.485 -17.397 -0 -1.2 0
16.256 -19.896 -17.139 -0 -1.2 0
16.054 -20.3 -16.875 -0 -1.2 0
15.846 -20.699 -16.606 -0 -1.2 0
15.633 -21.091 -16.333 -0 -1.2 0
15.416 -21.478 -16.055 -0 -1.2 0
15.194 -21.858 -15.771 -0 -1.2 0
14.967 -22.233 -15.484 -0 -1.2 0
19.078 -0.03 -23.424 -0 -1.2 0
17.864 -10.492 -21.074 -0 -1.2 0
17.887 -11.03 -21.057 -0 -1.2 0
17.866 -11.548 -20.99 -0 -1.2 0
17.949 -12.135 -21.041 -0 -1.2 0
17.609 -12.459 -20.6 -0 -1.2 0
17.321 -12.805 -20.22 -0 -1.2 0
17.877 -13.738 -20.82 -0 -1.2 0
17.754 -14.211 -20.63 -0 -1.2 0
17.625 -14.678 -20.434 -0 -1.2 0
17.491 -15.143 -20.232 -0 -1.2 0
17.351 -15.603 -20.024 -0 -1.2 0
17.207 -16.059 -19.81 -0 -1.2 0
17.057 -16.509 -19.59 -0 -1.2 0
16.902 -16.955 -19.364 -0 -1.2 0
16.741 -17.397 -19.133 -0 -1.2 0
16.576 -17.833 -18.895 -0 -1.2 0
16.406 -18.264 -18.653 -0 -1.2 0
16.231 -18.69 -18.404 -0 -1.2 0
16.05 -19.111 -18.15 -0 -1.2 0
15.866 -19.526 -17.89 -0 -1.2 0
15.675 -19.936 -17.625 -0 -1.2 0
15.481 -20.34 -17.354 -0 -1.2 0
15.282 -20.737 -17.078 -0 -1.2 0
15.077 -21.129 -16.798 -0 -1.2 0
14.869 -21.515 -16.512 -0 -1.2 0
14.656 -21.895 -16.221 -0 -1.2 0
14.438 -22.269 -15.925 -0 -1.2 0
18.266 -0.094 -24.057 -0 -1.2 0
17.394 -11.232 -21.938 -0 -1.2 0
17.391 -11.768 -21.888 -0 -1.2 0
17.383 -12.305 -21.83 -0 -1.2 0
17.224 -12.747 -21.584 -0 -1.2 0
17.256 -13.321 -21.574 -0 -1.2 0
17.144 -13.796 -21.386 -0 -1.2 0
17.027 -14.268 -21.191 -0 -1.2 0
16.904 -14.735 -20.991 -0 -1.2 0
16.776 -15.199 -20.783 -0 -1.2 0
16.645 -15.658 -20.569 -0 -1.2 0
16.507 -16.113 -20.349 -0 -1.2 0
16.364 -16.564 -20.123 -0 -1.2 0
16.217 -17.009 -19.891 -0 -1.2 0
16.064 -17.45 -19.653 -0 -1.2 0
15.907 -17.885 -19.41 -0 -1.2 0
15.744 -18.316 -19.16 -0 -1.2 0
15.577 -18.741 -18.904 -0 -1.2 0
15.406 -19.161 -18.642 -0 -1.2 0
15.23 -19.576 -18.376 -0 -1.2 0
15.049 -19.985 -18.103 -0 -1.2 0
14.864 -20.388 -17.826 -0 -1.2 0
14.673 -20.785 -17.542 -0 -1.2 0
14.479 -21.176 -17.254 -0 -1.2 0
14.28 -21.561 -16.96 -0 -1.2 0
14.077 -21.941 -16.661 -0 -1.2 0
13.869 -22.314 -16.358 -0 -1.2 0
17.47 0.363 -24.611 -0 -1.2 0
17.504 -0.16 -24.611 -0 -1.2 0
17.147 -2.728 -23.872 -0 -1.2 0
17.15 -3.237 -23.83 -0 -1.2 0
17.16 -3.746 -23.796 -0 -1.2 0
17.164 -4.255 -23.755 -0 -1.2 0
17.17 -4.765 -23.715 -0 -1.2 0
17.176 -5.276 -23.675 -0 -1.2 0
17.176 -5.788 -23.628 -0 -1.2 0
17.178 -6.302 -23.582 -0 -1.2 0
17.097 -10.456 -23.082 -0 -1.2 0
16.854 -11.933 -22.606 -0 -1.2 0
16.763 -12.419 -22.433 -0 -1.2 0
16.667 -12.901 -22.253 -0 -1.2 0
16.565 -13.38 -22.068 -0 -1.2 0
16.459 -13.855 -21.876 -0 -1.2 0
16.347 -14.327 -21.676 -0 -1.2 0
16.231 -14.793 -21.47 -0 -1.2 0
16.11 -15.257 -21.258 -0 -1.2 0
15.984 -15.715 -21.039 -0 -1.2 0
15.853 -16.17 -20.814 -0 -1.2 0
15.717 -16.62 -20.582 -0 -1.2 0
15.577 -17.064 -20.345 -0 -1.2 0
15.431 -17.505 -20.102 -0 -1.2 0
15.281 -17.939 -19.852 -0 -1.2 0
15.127 -18.37 -19.595 -0 -1.2 0
14.968 -18.794 -19.334 -0 -1.2 0
14.804 -19.213 -19.067 -0 -1.2 0
14.636 -19.627 -18.794 -0 -1.2 0
14.464 -20.035 -18.514 -0 -1.2 0
14.287 -20.438 -18.23 -0 -1.2 0
14.105 -20.834 -17.941 -0 -1.2 0
13.92 -21.225 -17.645 -0 -1.2 0
13.73 -21.609 -17.344 -0 -1.2 0
13.537 -21.987 -17.038 -0 -1.2 0
13.339 -22.36 -16.727 -0 -1.2 0
16.691 0.296 -25.142 -0 -1.2 0
16.726 -0.226 -25.143 -0 -1.2 0
16.756 -0.748 -25.136 -0 -1.2 0
16.781 -1.271 -25.122 -0 -1.2 0
16.801 -1.793 -25.099 -0 -1.2 0
16.816 -2.315 -25.07 -0 -1.2 0
16.824 -2.838 -25.032 -0 -1.2 0
16.829 -3.359 -24.988 -0 -1.2 0
16.829 -3.88 -24.936 -0 -1.2 0
16.823 -4.4 -24.876 -0 -1.2 0
16.812 -4.92 -24.809 -0 -1.2 0
16.796 -5.438 -24.734 -0 -1.2 0
16.775 -5.955 -24.652 -0 -1.2 0
16.749 -6.469 -24.561 -0 -1.2 0
16.718 -6.983 -24.465 -0 -1.2 0
15.953 -12.961 -22.732 -0 -1.2 0
15.858 -13.441 -22.542 -0 -1.2 0
15.757 -13.915 -22.345 -0 -1.2 0
15.651 -14.386 -22.141 -0 -1.2 0
15.541 -14.852 -21.931 -0 -1.2 0
15.427 -15.315 -21.714 -0 -1.2 0
15.307 -15.773 -21.49 -0 -1.2 0
15.183 -16.227 -21.26 -0 -1.2 0
15.054 -16.676 -21.024 -0 -1.2 0
14.922 -17.12 -20.781 -0 -1.2 0
14.784 -17.56 -20.532 -0 -1.2 0
14.642 -17.994 -20.276 -0 -1.2 0
14.495 -18.423 -20.015 -0 -1.2 0
14.344 -18.847 -19.747 -0 -1.2 0
14.189 -19.266 -19.474 -0 -1.2 0
14.029 -19.679 -19.195 -0 -1.2 0
13.864 -20.086 -18.91 -0 -1.2 0
13.697 -20.488 -18.619 -0 -1.2 0
13.525 -20.884 -18.323 -0 -1.2 0
13.348 -21.273 -18.021 -0 -1.2 0
13.168 -21.657 -17.714 -0 -1.2 0
12.983 -22.034 -17.401 -0 -1.2 0
12.795 -22.406 -17.083 -0 -1.2 0
15.831 0.225 -25.688 -0 -1.2 0
15.866 -0.297 -25.69 -0 -1.2 0
15.837 -0.821 -25.589 -0 -1.2 0
15.92 -1.342 -25.668 -0 -1.2 0
15.94 -1.864 -25.645 -0 -1.2 0
15.955 -2.386 -25.615 -0 -1.2 0
15.965 -2.909 -25.576 -0 -1.2 0
15.971 -3.43 -25.531 -0 -1.2 0
15.972 -3.951 -25.477 -0 -1.2 0
15.967 -4.47 -25.416 -0 -1.2 0
15.959 -4.99 -25.347 -0 -1.2 0
15.945 -5.508 -25.271 -0 -1.2 0
15.804 -8.073 -24.773 -0 -1.2 0
15.075 -13.505 -23.03 -0 -1.2 0
14.882 -14.449 -22.621 -0 -1.2 0
14.671 -15.377 -22.183 -0 -1.2 0
14.322 -16.736 -21.477 -0 -1.2 0
14.196 -17.179 -21.23 -0 -1.2 0
14.067 -17.618 -20.975 -0 -1.2 0
13.933 -18.052 -20.714 -0 -1.2 0
13.795 -18.481 -20.447 -0 -1.2 0
13.653 -18.904 -20.173 -0 -1.2 0
13.506 -19.322 -19.894 -0 -1.2 0
13.356 -19.734 -19.608 -0 -1.2 0
13.202 -20.14 -19.317 -0 -1.2 0
13.043 -20.541 -19.02 -0 -1.2 0
12.881 -20.936 -18.717 -0 -1.2 0
12.714 -21.325 -18.408 -0 -1.2 0
12.545 -21.708 -18.094 -0 -1.2 0
12.371 -22.084 -17.775 -0 -1.2 0
12.193 -22.455 -17.449 -0 -1.2 0
15.02 0.155 -26.164 -0 -1.2 0
15.054 -0.367 -26.165 -0 -1.2 0
15.084 -0.89 -26.158 -0 -1.2 0
15.108 -1.412 -26.143 -0 -1.2 0
15.129 -1.934 -26.12 -0 -1.2 0
15.145 -2.456 -26.089 -0 -1.2 0
15.156 -2.979 -26.05 -0 -1.2 0
15.163 -3.5 -26.003 -0 -1.2 0
15.165 -4.02 -25.948 -0 -1.2 0
15.162 -4.54 -25.886 -0 -1.2 0
15.154 -5.06 -25.816 -0 -1.2 0
15.143 -5.577 -25.737 -0 -1.2 0
15.126 -6.094 -25.651 -0 -1.2 0
15.106 -6.608 -25.558 -0 -1.2 0
15.08 -7.121 -25.456 -0 -1.2 0
14.832 -10.156 -24.688 -0 -1.2 0
13.631 -16.795 -21.87 -0 -1.2 0
13.514 -17.238 -21.617 -0 -1.2 0
13.393 -17.676 -21.357 -0 -1.2 0
13.267 -18.109 -21.092 -0 -1.2 0
13.137 -18.537 -20.819 -0 -1.2 0
13.003 -18.96 -20.541 -0 -1.2 0
12.865 -19.377 -20.255 -0 -1.2 0
12.723 -19.788 -19.964 -0 -1.2 0
12.578 -20.194 -19.667 -0 -1.2 0
12.428 -20.594 -19.364 -0 -1.2 0
12.276 -20.988 -19.055 -0 -1.2 0
12.119 -21.376 -18.741 -0 -1.2 0
11.958 -21.758 -18.42 -0 -1.2 0
11.794 -22.134 -18.095 -0 -1.2 0
11.626 -22.504 -17.764 -0 -1.2 0
14.168 0.084 -26.63 -0 -1.2 0
14.201 -0.439 -26.63 -0 -1.2 0
14.231 -0.961 -26.623 -0 -1.2 0
14.256 -1.483 -26.608 -0 -1.2 0
14.277 -2.005 -26.584 -0 -1.2 0
14.293 -2.527 -26.552 -0 -1.2 0
14.305 -3.05 -26.513 -0 -1.2 0
14.312 -3.571 -26.465 -0 -1.2 0
14.316 -4.092 -26.41 -0 -1.2 0
14.315 -4.611 -26.346 -0 -1.2 0
14.31 -5.131 -26.274 -0 -1.2 0
14.3 -5.648 -26.194 -0 -1.2 0
14.286 -6.164 -26.107 -0 -1.2 0
14.268 -6.678 -26.011 -0 -1.2 0
14.246 -7.191 -25.908 -0 -1.2 0
14.111 -9.222 -25.417 -0 -1.2 0
14.019 -10.224 -25.125 -0 -1.2 0
13.966 -10.72 -24.967 -0 -1.2 0
13.849 -11.704 -24.63 -0 -1.2 0
13.012 -16.409 -22.506 -0 -1.2 0
12.906 -16.856 -22.255 -0 -1.2 0
12.682 -17.736 -21.733 -0 -1.2 0
12.565 -18.168 -21.462 -0 -1.2 0
12.444 -18.595 -21.185 -0 -1.2 0
12.319 -19.017 -20.9 -0 -1.2 0
12.189 -19.433 -20.61 -0 -1.2 0
12.057 -19.844 -20.314 -0 -1.2 0
11.921 -20.249 -20.011 -0 -1.2 0
11.781 -20.648 -19.702 -0 -1.2 0
11.638 -21.041 -19.388 -0 -1.2 0
11.492 -21.429 -19.068 -0 -1.2 0
11.341 -21.81 -18.742 -0 -1.2 0
11.188 -22.184 -18.409 -0 -1.2 0
11.03 -22.553 -18.072 -0 -1.2 0
13.23 0.006 -27.102 -0 -1.2 0
13.263 -0.516 -27.104 -0 -1.2 0
13.292 -1.038 -27.096 -0 -1.2 0
13.317 -1.561 -27.08 -0 -1.2 0
13.338 -2.083 -27.056 -0 -1.2 0
13.355 -2.605 -27.024 -0 -1.2 0
13.368 -3.127 -26.983 -0 -1.2 0
13.377 -3.648 -26.934 -0 -1.2 0
13.381 -4.168 -26.877 -0 -1.2 0
13.382 -4.688 -26.813 -0 -1.2 0
13.379 -5.207 -26.739 -0 -1.2 0
13.371 -5.724 -26.659 -0 -1.2 0
13.361 -6.24 -26.569 -0 -1.2 0
13.345 -6.754 -26.472 -0 -1.2 0
13.326 -7.267 -26.367 -0 -1.2 0
13.208 -9.296 -25.867 -0 -1.2 0
11.9 -17.8 -22.114 -0 -1.2 0
11.792 -18.231 -21.838 -0 -1.2 0
11.68 -18.658 -21.555 -0 -1.2 0
11.565 -19.079 -21.266 -0 -1.2 0
11.323 -19.904 -20.669 -0 -1.2 0
11.197 -20.308 -20.361 -0 -1.2 0
11.069 -20.707 -20.046 -0 -1.2 0
10.936 -21.099 -19.726 -0 -1.2 0
10.8 -21.485 -19.4 -0 -1.2 0
10.661 -21.865 -19.068 -0 -1.2 0
10.519 -22.239 -18.73 -0 -1.2 0
10.373 -22.607 -18.386 -0 -1.2 0
12.477 -3.188 -27.391 -0 -1.2 0
12.486 -3.709 -27.343 -0 -1.2 0
12.493 -4.229 -27.285 -0 -1.2 0
12.495 -4.749 -27.219 -0 -1.2 0
12.495 -5.268 -27.145 -0 -1.2 0
12.489 -5.785 -27.063 -0 -1.2 0
12.48 -6.3 -26.972 -0 -1.2 0
12.468 -6.814 -26.873 -0 -1.2 0
11.346 -16.974 -22.989 -0 -1.2 0
10.954 -18.707 -21.882 -0 -1.2 0
10.625 -19.951 -20.983 -0 -1.2 0
10.51 -20.355 -20.67 -0 -1.2 0
10.39 -20.753 -20.35 -0 -1.2 0
10.268 -21.144 -20.025 -0 -1.2 0
10.142 -21.53 -19.694 -0 -1.2 0
10.014 -21.909 -19.357 -0 -1.2 0
9.883 -22.282 -19.014 -0 -1.2 0
9.749 -22.65 -18.665 -0 -1.2 0
11.561 -2.717 -27.813 -0 -1.2 0
11.575 -3.24 -27.771 -0 -1.2 0
11.586 -3.76 -27.722 -0 -1.2 0
11.594 -4.281 -27.664 -0 -1.2 0
11.598 -4.8 -27.597 -0 -1.2 0
11.598 -5.319 -27.523 -0 -1.2 0
11.596 -5.835 -27.439 -0 -1.2 0
11.566 -7.377 -27.14 -0 -1.2 0
11.549 -7.887 -27.024 -0 -1.2 0
11.504 -8.901 -26.767 -0 -1.2 0
11.447 -9.906 -26.478 -0 -1.2 0
11.375 -10.9 -26.156 -0 -1.2 0
11.333 -11.393 -25.983 -0 -1.2 0
10.736 -16.122 -23.834 -0 -1.2 0
10.404 -17.894 -22.767 -0 -1.2 0
10.023 -19.583 -21.591 -0 -1.2 0
9.919 -19.992 -21.28 -0 -1.2 0
9.814 -20.395 -20.963 -0 -1.2 0
9.705 -20.792 -20.64 -0 -1.2 0
9.593 -21.183 -20.31 -0 -1.2 0
9.478 -21.568 -19.974 -0 -1.2 0
9.361 -21.946 -19.633 -0 -1.2 0
9.239 -22.319 -19.285 -0 -1.2 0
9.117 -22.686 -18.932 -0 -1.2 0
10.637 -6.403 -27.713 -0 -1.2 0
10.59 -8.447 -27.26 -0 -1.2 0
10.571 -8.952 -27.126 -0 -1.2 0
9.963 -15.714 -24.408 -0 -1.2 0
9.26 -19.625 -21.884 -0 -1.2 0
9.167 -20.033 -21.57 -0 -1.2 0
9.071 -20.436 -21.25 -0 -1.2 0
8.973 -20.832 -20.922 -0 -1.2 0
8.873 -21.222 -20.587 -0 -1.2 0
8.77 -21.607 -20.247 -0 -1.2 0
8.663 -21.985 -19.901 -0 -1.2 0
8.554 -22.357 -19.549 -0 -1.2 0
8.443 -22.723 -19.191 -0 -1.2 0
9.652 -1.774 -28.549 -0 -1.2 0
9.674 -2.296 -28.525 -0 -1.2 0
9.694 -2.818 -28.492 -0 -1.2 0
9.711 -3.341 -28.45 -0 -1.2 0
9.724 -3.861 -28.399 -0 -1.2 0
9.734 -4.381 -28.341 -0 -1.2 0
9.743 -4.9 -28.273 -0 -1.2 0
9.748 -5.419 -28.197 -0 -1.2 0
9.75 -5.936 -28.112 -0 -1.2 0
9.749 -6.451 -28.018 -0 -1.2 0
9.68 -9.502 -27.281 -0 -1.2 0
9.284 -14.835 -25.166 -0 -1.2 0
8.466 -20.071 -21.812 -0 -1.2 0
8.38 -20.473 -21.487 -0 -1.2 0
8.293 -20.869 -21.156 -0 -1.2 0
8.202 -21.258 -20.819 -0 -1.2 0
8.11 -21.642 -20.475 -0 -1.2 0
8.014 -22.02 -20.124 -0 -1.2 0
7.917 -22.391 -19.769 -0 -1.2 0
7.817 -22.756 -19.406 -0 -1.2 0
8.684 -0.779 -28.856 -0 -1.2 0
8.711 -1.302 -28.849 -0 -1.2 0
8.738 -1.824 -28.834 -0 -1.2 0
8.76 -2.346 -28.808 -0 -1.2 0
8.78 -2.867 -28.775 -0 -1.2 0
8.798 -3.39 -28.733 -0 -1.2 0
8.813 -3.91 -28.683 -0 -1.2 0
8.825 -4.43 -28.623 -0 -1.2 0
8.835 -4.949 -28.555 -0 -1.2 0
8.842 -5.468 -28.478 -0 -1.2 0
8.846 -5.984 -28.392 -0 -1.2 0
8.848 -6.5 -28.299 -0 -1.2 0
8.828 -8.541 -27.837 -0 -1.2 0
8.801 -9.55 -27.555 -0 -1.2 0
7.897 -19.289 -22.668 -0 -1.2 0
7.827 -19.702 -22.355 -0 -1.2 0
7.755 -20.109 -22.034 -0 -1.2 0
7.679 -20.51 -21.705 -0 -1.2 0
7.602 -20.906 -21.371 -0 -1.2 0
7.522 -21.295 -21.031 -0 -1.2 0
7.44 -21.678 -20.683 -0 -1.2 0
7.355 -22.055 -20.33 -0 -1.2 0
7.269 -22.426 -19.971 -0 -1.2 0
7.18 -22.791 -19.605 -0 -1.2 0
7.655 -0.308 -29.126 -0 -1.2 0
7.739 -1.877 -29.106 -0 -1.2 0
7.762 -2.398 -29.082 -0 -1.2 0
7.783 -2.92 -29.047 -0 -1.2 0
7.801 -3.443 -29.005 -0 -1.2 0
7.817 -3.963 -28.955 -0 -1.2 0
7.831 -4.483 -28.894 -0 -1.2 0
7.843 -5.002 -28.826 -0 -1.2 0
7.852 -5.52 -28.749 -0 -1.2 0
7.858 -6.036 -28.663 -0 -1.2 0
7.864 -6.552 -28.567 -0 -1.2 0
7.858 -8.593 -28.102 -0 -1.2 0
7.85 -9.098 -27.965 -0 -1.2 0
7.539 -15.387 -25.42 -0 -1.2 0
7.317 -17.628 -24.087 -0 -1.2 0
7.156 -18.914 -23.198 -0 -1.2 0
7.099 -19.331 -22.888 -0 -1.2 0
7.038 -19.744 -22.571 -0 -1.2 0
6.976 -20.15 -22.247 -0 -1.2 0
6.912 -20.551 -21.916 -0 -1.2 0
6.846 -20.946 -21.578 -0 -1.2 0
6.777 -21.334 -21.234 -0 -1.2 0
6.707 -21.717 -20.884 -0 -1.2 0
6.634 -22.093 -20.527 -0 -1.2 0
6.561 -22.463 -20.164 -0 -1.2 0
6.484 -22.827 -19.794 -0 -1.2 0
6.835 -2.448 -29.3 -0 -1.2 0
6.856 -2.969 -29.266 -0 -1.2 0
6.876 -3.492 -29.224 -0 -1.2 0
6.893 -4.012 -29.172 -0 -1.2 0
6.909 -4.532 -29.112 -0 -1.2 0
6.922 -5.05 -29.043 -0 -1.2 0
6.933 -5.569 -28.965 -0 -1.2 0
6.95 -6.6 -28.783 -0 -1.2 0
6.957 -8.64 -28.315 -0 -1.2 0
6.931 -10.645 -27.708 -0 -1.2 0
6.578 -17.232 -24.554 -0 -1.2 0
6.495 -18.103 -23.979 -0 -1.2 0
6.451 -18.531 -23.681 -0 -1.2 0
6.405 -18.954 -23.375 -0 -1.2 0
6.357 -19.371 -23.062 -0 -1.2 0
6.306 -19.783 -22.742 -0 -1.2 0
6.255 -20.188 -22.416 -0 -1.2 0
6.201 -20.589 -22.083 -0 -1.2 0
6.145 -20.983 -21.743 -0 -1.2 0
6.088 -21.371 -21.396 -0 -1.2 0
6.028 -21.753 -21.043 -0 -1.2 0
5.966 -22.129 -20.684 -0 -1.2 0
5.903 -22.498 -20.318 -0 -1.2 0
5.839 -22.861 -19.946 -0 -1.2 0
5.789 -0.407 -29.535 -0 -1.2 0
5.919 -3.019 -29.456 -0 -1.2 0
5.939 -3.542 -29.414 -0 -1.2 0
5.958 -4.062 -29.363 -0 -1.2 0
5.975 -4.581 -29.302 -0 -1.2 0
5.99 -5.1 -29.232 -0 -1.2 0
6.004 -5.618 -29.154 -0 -1.2 0
6.015 -6.134 -29.067 -0 -1.2 0
6.024 -6.649 -28.971 -0 -1.2 0
6.045 -8.689 -28.5 -0 -1.2 0
6.031 -11.186 -27.716 -0 -1.2 0
6 -12.649 -27.145 -0 -1.2 0
5.97 -13.606 -26.723 -0 -1.2 0
5.953 -14.08 -26.499 -0 -1.2 0
5.913 -15.015 -26.029 -0 -1.2 0
5.866 -15.932 -25.527 -0 -1.2 0
5.839 -16.384 -25.264 -0 -1.2 0
5.812 -16.832 -24.994 -0 -1.2 0
5.782 -17.274 -24.715 -0 -1.2 0
5.716 -18.145 -24.137 -0 -1.2 0
5.681 -18.572 -23.837 -0 -1.2 0
5.644 -18.994 -23.53 -0 -1.2 0
5.606 -19.411 -23.215 -0 -1.2 0
5.566 -19.822 -22.893 -0 -1.2 0
5.525 -20.227 -22.564 -0 -1.2 0
5.48 -20.627 -22.229 -0 -1.2 0
5.436 -21.021 -21.887 -0 -1.2 0
5.389 -21.408 -21.538 -0 -1.2 0
5.34 -21.789 -21.182 -0 -1.2 0
5.291 -22.165 -20.82 -0 -1.2 0
5.238 -22.534 -20.453 -0 -1.2 0
5.186 -22.896 -20.078 -0 -1.2 0
4.737 0.064 -29.697 -0 -1.2 0
4.768 -0.457 -29.708 -0 -1.2 0
4.897 -3.069 -29.63 -0 -1.2 0
4.919 -3.591 -29.587 -0 -1.2 0
4.939 -4.111 -29.535 -0 -1.2 0
4.957 -4.631 -29.474 -0 -1.2 0
4.975 -5.149 -29.405 -0 -1.2 0
5.005 -6.184 -29.239 -0 -1.2 0
5.028 -7.211 -29.038 -0 -1.2 0
5.063 -10.243 -28.223 -0 -1.2 0
5.056 -12.211 -27.507 -0 -1.2 0
5.05 -12.695 -27.307 -0 -1.2 0
5.043 -13.176 -27.099 -0 -1.2 0
5.034 -13.652 -26.883 -0 -1.2 0
5.023 -14.125 -26.659 -0 -1.2 0
4.999 -15.059 -26.186 -0 -1.2 0
4.984 -15.519 -25.937 -0 -1.2 0
4.968 -15.976 -25.68 -0 -1.2 0
4.95 -16.427 -25.417 -0 -1.2 0
4.931 -16.875 -25.144 -0 -1.2 0
4.91 -17.317 -24.864 -0 -1.2 0
4.888 -17.754 -24.578 -0 -1.2 0
4.864 -18.186 -24.282 -0 -1.2 0
4.84 -18.612 -23.98 -0 -1.2 0
4.813 -19.035 -23.672 -0 -1.2 0
4.785 -19.451 -23.355 -0 -1.2 0
4.755 -19.861 -23.031 -0 -1.2 0
4.725 -20.266 -22.701 -0 -1.2 0
4.692 -20.665 -22.364 -0 -1.2 0
4.659 -21.058 -22.019 -0 -1.2 0
4.624 -21.445 -21.669 -0 -1.2 0
4.588 -21.826 -21.311 -0 -1.2 0
4.55 -22.2 -20.947 -0 -1.2 0
4.51 -22.569 -20.577 -0 -1.2 0
4.47 -22.931 -20.2 -0 -1.2 0
3.748 0.038 -29.828 -0 -1.2 0
3.777 -0.483 -29.84 -0 -1.2 0
3.857 -2.051 -29.822 -0 -1.2 0
3.881 -2.573 -29.798 -0 -1.2 0
3.904 -3.095 -29.765 -0 -1.2 0
3.926 -3.617 -29.722 -0 -1.2 0
3.947 -4.137 -29.671 -0 -1.2 0
3.966 -4.657 -29.611 -0 -1.2 0
3.985 -5.175 -29.541 -0 -1.2 0
4.003 -5.693 -29.463 -0 -1.2 0
4.019 -6.209 -29.376 -0 -1.2 0
4.033 -6.724 -29.279 -0 -1.2 0
4.047 -7.236 -29.174 -0 -1.2 0
4.059 -7.747 -29.061 -0 -1.2 0
4.07 -8.256 -28.937 -0 -1.2 0
4.109 -10.765 -28.193 -0 -1.2 0
4.113 -11.258 -28.018 -0 -1.2 0
4.116 -12.236 -27.643 -0 -1.2 0
4.116 -13.2 -27.234 -0 -1.2 0
4.113 -13.676 -27.017 -0 -1.2 0
4.11 -14.15 -26.792 -0 -1.2 0
4.105 -14.618 -26.559 -0 -1.2 0
4.098 -15.083 -26.318 -0 -1.2 0
4.091 -15.543 -26.068 -0 -1.2 0
4.083 -15.999 -25.812 -0 -1.2 0
4.073 -16.451 -25.546 -0 -1.2 0
4.063 -16.898 -25.273 -0 -1.2 0
4.051 -17.34 -24.993 -0 -1.2 0
4.037 -17.776 -24.705 -0 -1.2 0
4.023 -18.209 -24.41 -0 -1.2 0
4.007 -18.635 -24.107 -0 -1.2 0
3.99 -19.057 -23.797 -0 -1.2 0
3.972 -19.473 -23.479 -0 -1.2 0
3.953 -19.883 -23.155 -0 -1.2 0
3.932 -20.287 -22.823 -0 -1.2 0
3.91 -20.686 -22.485 -0 -1.2 0
3.887 -21.079 -22.139 -0 -1.2 0
3.864 -21.466 -21.787 -0 -1.2 0
3.838 -21.846 -21.428 -0 -1.2 0
3.812 -22.22 -21.063 -0 -1.2 0
3.784 -22.589 -20.691 -0 -1.2 0
3.755 -22.95 -20.313 -0 -1.2 0
2.723 0.011 -29.931 -0 -1.2 0
2.752 -0.51 -29.943 -0 -1.2 0
2.778 -1.033 -29.946 -0 -1.2 0
2.804 -1.556 -29.941 -0 -1.2 0
2.83 -2.078 -29.926 -0 -1.2 0
2.853 -2.6 -29.903 -0 -1.2 0
2.877 -3.122 -29.87 -0 -1.2 0
2.9 -3.644 -29.827 -0 -1.2 0
2.921 -4.164 -29.777 -0 -1.2 0
2.941 -4.684 -29.717 -0 -1.2 0
2.962 -5.202 -29.648 -0 -1.2 0
2.981 -5.72 -29.57 -0 -1.2 0
2.999 -6.236 -29.483 -0 -1.2 0
3.017 -6.751 -29.387 -0 -1.2 0
3.131 -11.284 -28.125 -0 -1.2 0
3.162 -13.702 -27.124 -0 -1.2 0
3.165 -14.175 -26.898 -0 -1.2 0
3.168 -14.643 -26.665 -0 -1.2 0
3.169 -15.108 -26.422 -0 -1.2 0
3.169 -15.568 -26.173 -0 -1.2 0
3.169 -16.024 -25.915 -0 -1.2 0
3.167 -16.475 -25.65 -0 -1.2 0
3.165 -16.922 -25.377 -0 -1.2 0
3.162 -17.364 -25.096 -0 -1.2 0
3.158 -17.8 -24.807 -0 -1.2 0
3.153 -18.232 -24.511 -0 -1.2 0
3.147 -18.658 -24.208 -0 -1.2 0
3.14 -19.08 -23.896 -0 -1.2 0
3.131 -19.495 -23.578 -0 -1.2 0
3.123 -19.906 -23.253 -0 -1.2 0
3.113 -20.31 -22.921 -0 -1.2 0
3.102 -20.708 -22.581 -0 -1.2 0
3.09 -21.101 -22.235 -0 -1.2 0
3.078 -21.487 -21.881 -0 -1.2 0
3.064 -21.867 -21.522 -0 -1.2 0
3.05 -22.241 -21.156 -0 -1.2 0
3.034 -22.609 -20.783 -0 -1.2 0
3.018 -22.971 -20.404 -0 -1.2 0
1.64 -0.538 -30.014 -0 -1.2 0
1.666 -1.062 -30.018 -0 -1.2 0
1.691 -1.585 -30.013 -0 -1.2 0
1.716 -2.107 -29.999 -0 -1.2 0
1.74 -2.629 -29.975 -0 -1.2 0
1.764 -3.15 -29.944 -0 -1.2 0
1.786 -3.673 -29.902 -0 -1.2 0
1.81 -4.193 -29.851 -0 -1.2 0
1.831 -4.713 -29.792 -0 -1.2 0
1.853 -5.231 -29.723 -0 -1.2 0
1.874 -5.749 -29.645 -0 -1.2 0
1.895 -6.265 -29.558 -0 -1.2 0
1.914 -6.779 -29.462 -0 -1.2 0
1.934 -7.292 -29.358 -0 -1.2 0
1.953 -7.803 -29.245 -0 -1.2 0
2.006 -9.322 -28.85 -0 -1.2 0
2.022 -9.824 -28.701 -0 -1.2 0
2.067 -11.312 -28.202 -0 -1.2 0
2.095 -12.289 -27.827 -0 -1.2 0
2.107 -12.773 -27.627 -0 -1.2 0
2.12 -13.253 -27.417 -0 -1.2 0
2.131 -13.729 -27.2 -0 -1.2 0
2.142 -14.202 -26.975 -0 -1.2 0
2.152 -14.67 -26.741 -0 -1.2 0
2.162 -15.134 -26.499 -0 -1.2 0
2.17 -15.594 -26.25 -0 -1.2 0
2.179 -16.05 -25.991 -0 -1.2 0
2.187 -16.501 -25.726 -0 -1.2 0
2.194 -16.948 -25.452 -0 -1.2 0
2.2 -17.389 -25.17 -0 -1.2 0
2.206 -17.825 -24.882 -0 -1.2 0
2.21 -18.257 -24.585 -0 -1.2 0
2.215 -18.683 -24.281 -0 -1.2 0
2.219 -19.104 -23.97 -0 -1.2 0
2.221 -19.519 -23.651 -0 -1.2 0
2.224 -19.929 -23.325 -0 -1.2 0
2.225 -20.333 -22.992 -0 -1.2 0
2.227 -20.732 -22.653 -0 -1.2 0
2.228 -21.124 -22.305 -0 -1.2 0
2.227 -21.51 -21.952 -0 -1.2 0
2.227 -21.89 -21.592 -0 -1.2 0
2.225 -22.263 -21.225 -0 -1.2 0
2.223 -22.631 -20.851 -0 -1.2 0
2.219 -22.992 -20.472 -0 -1.2 0
0.613 -0.557 -30.043 -0 -1.2 0
0.638 -1.081 -30.046 -0 -1.2 0
0.663 -1.603 -30.042 -0 -1.2 0
0.687 -2.126 -30.029 -0 -1.2 0
0.711 -2.648 -30.006 -0 -1.2 0
0.895 -6.798 -29.496 -0 -1.2 0
0.961 -8.33 -29.157 -0 -1.2 0
1.023 -9.842 -28.738 -0 -1.2 0
1.064 -10.838 -28.414 -0 -1.2 0
1.083 -11.331 -28.24 -0 -1.2 0
1.103 -11.821 -28.056 -0 -1.2 0
1.122 -12.307 -27.864 -0 -1.2 0
1.14 -12.791 -27.664 -0 -1.2 0
1.159 -13.271 -27.456 -0 -1.2 0
1.178 -13.747 -27.239 -0 -1.2 0
1.195 -14.22 -27.013 -0 -1.2 0
1.213 -14.688 -26.78 -0 -1.2 0
1.23 -15.152 -26.538 -0 -1.2 0
1.246 -15.611 -26.288 -0 -1.2 0
1.263 -16.067 -26.03 -0 -1.2 0
1.278 -16.518 -25.765 -0 -1.2 0
1.294 -16.965 -25.492 -0 -1.2 0
1.309 -17.406 -25.21 -0 -1.2 0
1.324 -17.842 -24.921 -0 -1.2 0
1.339 -18.274 -24.625 -0 -1.2 0
1.352 -18.699 -24.321 -0 -1.2 0
1.366 -19.121 -24.01 -0 -1.2 0
1.38 -19.536 -23.691 -0 -1.2 0
1.393 -19.945 -23.365 -0 -1.2 0
1.404 -20.349 -23.033 -0 -1.2 0
1.417 -20.747 -22.692 -0 -1.2 0
1.428 -21.139 -22.346 -0 -1.2 0
1.44 -21.525 -21.992 -0 -1.2 0
1.451 -21.905 -21.632 -0 -1.2 0
1.461 -22.278 -21.264 -0 -1.2 0
1.471 -22.645 -20.891 -0 -1.2 0
1.48 -23.006 -20.511 -0 -1.2 0
-0.066 -7.841 -29.28 -0 -1.2 0
0.032 -9.861 -28.74 -0 -1.2 0
0.056 -10.361 -28.583 -0 -1.2 0
0.081 -10.857 -28.417 -0 -1.2 0
0.106 -11.35 -28.243 -0 -1.2 0
0.131 -11.84 -28.061 -0 -1.2 0
0.156 -12.326 -27.869 -0 -1.2 0
0.181 -12.81 -27.67 -0 -1.2 0
0.206 -13.29 -27.461 -0 -1.2 0
0.23 -13.765 -27.244 -0 -1.2 0
0.255 -14.238 -27.02 -0 -1.2 0
0.28 -14.706 -26.786 -0 -1.2 0
0.304 -15.17 -26.545 -0 -1.2 0
0.329 -15.629 -26.295 -0 -1.2 0
0.353 -16.085 -26.039 -0 -1.2 0
0.377 -16.536 -25.773 -0 -1.2 0
0.401 -16.982 -25.5 -0 -1.2 0
0.425 -17.423 -25.219 -0 -1.2 0
0.449 -17.859 -24.931 -0 -1.2 0
0.473 -18.291 -24.635 -0 -1.2 0
0.496 -18.716 -24.332 -0 -1.2 0
0.52 -19.137 -24.02 -0 -1.2 0
0.543 -19.552 -23.702 -0 -1.2 0
0.566 -19.962 -23.377 -0 -1.2 0
0.589 -20.365 -23.044 -0 -1.2 0
0.612 -20.763 -22.704 -0 -1.2 0
0.636 -21.155 -22.358 -0 -1.2 0
0.658 -21.541 -22.005 -0 -1.2 0
0.681 -21.92 -21.645 -0 -1.2 0
0.702 -22.293 -21.278 -0 -1.2 0
0.725 -22.66 -20.905 -0 -1.2 0
0.746 -23.021 -20.526 -0 -1.2 0
-1.123 -8.37 -29.122 -0 -1.2 0
-1.094 -8.876 -28.991 -0 -1.2 0
-1.065 -9.38 -28.852 -0 -1.2 0
-1.036 -9.882 -28.705 -0 -1.2 0
-1.006 -10.381 -28.549 -0 -1.2 0
-0.977 -10.877 -28.384 -0 -1.2 0
-0.945 -11.37 -28.211 -0 -1.2 0
-0.915 -11.86 -28.028 -0 -1.2 0
-0.884 -12.346 -27.837 -0 -1.2 0
-0.853 -12.83 -27.638 -0 -1.2 0
-0.821 -13.309 -27.431 -0 -1.2 0
-0.79 -13.785 -27.214 -0 -1.2 0
-0.757 -14.258 -26.991 -0 -1.2 0
-0.725 -14.725 -26.758 -0 -1.2 0
-0.692 -15.19 -26.518 -0 -1.2 0
-0.659 -15.649 -26.269 -0 -1.2 0
-0.627 -16.104 -26.012 -0 -1.2 0
-0.593 -16.555 -25.748 -0 -1.2 0
-0.56 -17.001 -25.475 -0 -1.2 0
-0.527 -17.442 -25.196 -0 -1.2 0
-0.493 -17.878 -24.908 -0 -1.2 0
-0.459 -18.309 -24.613 -0 -1.2 0
-0.425 -18.734 -24.309 -0 -1.2 0
-0.39 -19.155 -23.999 -0 -1.2 0
-0.356 -19.57 -23.682 -0 -1.2 0
-0.322 -19.979 -23.357 -0 -1.2 0
-0.288 -20.382 -23.025 -0 -1.2 0
-0.253 -20.78 -22.686 -0 -1.2 0
-0.218 -21.172 -22.341 -0 -1.2 0
-0.183 -21.557 -21.988 -0 -1.2 0
-0.148 -21.937 -21.629 -0 -1.2 0
-0.113 -22.309 -21.263 -0 -1.2 0
-0.078 -22.676 -20.89 -0 -1.2 0
-0.043 -23.037 -20.512 -0 -1.2 0
-1.953 -10.889 -28.318 -0 -1.2 0
-1.917 -11.381 -28.145 -0 -1.2 0
-1.882 -11.872 -27.963 -0 -1.2 0
-1.845 -12.358 -27.773 -0 -1.2 0
-1.808 -12.841 -27.576 -0 -1.2 0
-1.77 -13.321 -27.368 -0 -1.2 0
-1.732 -13.796 -27.154 -0 -1.2 0
-1.693 -14.269 -26.93 -0 -1.2 0
-1.653 -14.736 -26.698 -0 -1.2 0
-1.614 -15.201 -26.459 -0 -1.2 0
-1.574 -15.66 -26.211 -0 -1.2 0
-1.533 -16.115 -25.956 -0 -1.2 0
-1.491 -16.566 -25.692 -0 -1.2 0
-1.449 -17.012 -25.422 -0 -1.2 0
-1.407 -17.453 -25.142 -0 -1.2 0
-1.364 -17.888 -24.855 -0 -1.2 0
-1.321 -18.32 -24.561 -0 -1.2 0
-1.277 -18.745 -24.259 -0 -1.2 0
-1.233 -19.165 -23.951 -0 -1.2 0
-1.189 -19.58 -23.634 -0 -1.2 0
-1.144 -19.989 -23.31 -0 -1.2 0
-1.098 -20.392 -22.98 -0 -1.2 0
-1.053 -20.79 -22.642 -0 -1.2 0
-1.007 -21.182 -22.297 -0 -1.2 0
-0.961 -21.567 -21.946 -0 -1.2 0
-0.915 -21.946 -21.588 -0 -1.2 0
-0.868 -22.319 -21.224 -0 -1.2 0
-0.821 -22.685 -20.852 -0 -1.2 0
-0.773 -23.046 -20.475 -0 -1.2 0
-3.386 -3.748 -29.706 -0 -1.2 0
-2.921 -10.893 -28.224 -0 -1.2 0
-2.88 -11.386 -28.052 -0 -1.2 0
-2.839 -11.876 -27.872 -0 -1.2 0
-2.797 -12.362 -27.684 -0 -1.2 0
-2.754 -12.846 -27.487 -0 -1.2 0
-2.71 -13.325 -27.281 -0 -1.2 0
-2.665 -13.801 -27.067 -0 -1.2 0
-2.62 -14.273 -26.845 -0 -1.2 0
-2.574 -14.741 -26.615 -0 -1.2 0
-2.526 -15.205 -26.377 -0 -1.2 0
-2.479 -15.664 -26.131 -0 -1.2 0
-2.43 -16.12 -25.876 -0 -1.2 0
-2.381 -16.57 -25.614 -0 -1.2 0
-2.33 -17.016 -25.344 -0 -1.2 0
