# .PCD v.7 - Point Cloud Data file format
FIELDS x y z vp_x vp_y vp_z
SIZE 4 4 4 4 4 4
TYPE F F F F F F
COUNT 1 1 1 1 1 1
WIDTH 1619
HEIGHT 1
VIEWPOINT 0 -1.20014 0 1 0 0 0
POINTS 1619
DATA ascii
10.408 -9.673 1.822 -0 -1.2 0
6.917 -6.961 1.469 -0 -1.2 0
5.811 -6.182 1.358 -0 -1.2 0
5.795 -6.348 1.36 -0 -1.2 0
1.162 0.038 0.803 -0 -1.2 0
1.188 0.027 0.805 -0 -1.2 0
1.229 0.029 0.807 -0 -1.2 0
1.27 0.031 0.808 -0 -1.2 0
1.303 0.024 0.81 -0 -1.2 0
1.352 0.031 0.812 -0 -1.2 0
1.386 0.022 0.814 -0 -1.2 0
1.443 0.033 0.816 -0 -1.2 0
1.486 0.028 0.819 -0 -1.2 0
1.536 0.029 0.82 -0 -1.2 0
1.587 0.028 0.823 -0 -1.2 0
1.647 0.032 0.826 -0 -1.2 0
1.707 0.034 0.828 -0 -1.2 0
1.776 0.04 0.831 -0 -1.2 0
1.845 0.044 0.834 -0 -1.2 0
1.907 0.04 0.837 -0 -1.2 0
1.995 0.05 0.84 -0 -1.2 0
2.075 0.054 0.845 -0 -1.2 0
2.164 0.058 0.848 -0 -1.2 0
2.254 0.06 0.852 -0 -1.2 0
2.38 0.078 0.857 -0 -1.2 0
2.481 0.078 0.862 -0 -1.2 0
2.591 0.079 0.867 -0 -1.2 0
2.702 0.077 0.872 -0 -1.2 0
2.74 0.04 0.874 -0 -1.2 0
2.815 0.017 0.878 -0 -1.2 0
2.852 -0.023 0.881 -0 -1.2 0
2.927 -0.05 0.884 -0 -1.2 0
3.133 -0.033 0.894 -0 -1.2 0
3.322 -0.029 0.902 -0 -1.2 0
3.473 -0.043 0.909 -0 -1.2 0
3.653 -0.054 0.917 -0 -1.2 0
4.009 -0.024 0.932 -0 -1.2 0
4.268 -0.031 0.945 -0 -1.2 0
4.685 -0.009 0.962 -0 -1.2 0
4.956 -0.033 0.975 -0 -1.2 0
5.562 0 1.002 -0 -1.2 0
6.19 0.013 1.03 -0 -1.2 0
6.918 0.023 1.062 -0 -1.2 0
7.826 0.034 1.103 -0 -1.2 0
8.944 0.039 1.153 -0 -1.2 0
9.986 -0.001 1.2 -0 -1.2 0
12.679 0.072 1.319 -0 -1.2 0
14.729 0.004 1.412 -0 -1.2 0
14.716 -0.252 1.417 -0 -1.2 0
14.718 -0.507 1.423 -0 -1.2 0
14.746 -0.761 1.43 -0 -1.2 0
14.748 -1.016 1.435 -0 -1.2 0
14.747 -1.272 1.441 -0 -1.2 0
14.762 -1.527 1.447 -0 -1.2 0
14.752 -1.783 1.452 -0 -1.2 0
14.757 -2.04 1.459 -0 -1.2 0
14.778 -2.298 1.464 -0 -1.2 0
14.774 -2.556 1.47 -0 -1.2 0
14.785 -2.817 1.476 -0 -1.2 0
14.782 -3.076 1.482 -0 -1.2 0
14.794 -3.34 1.488 -0 -1.2 0
14.802 -3.604 1.494 -0 -1.2 0
14.804 -3.87 1.5 -0 -1.2 0
14.812 -4.138 1.506 -0 -1.2 0
14.815 -4.407 1.512 -0 -1.2 0
14.821 -4.68 1.519 -0 -1.2 0
14.834 -4.956 1.525 -0 -1.2 0
10.487 -4.007 1.309 -0 -1.2 0
10.376 -4.17 1.308 -0 -1.2 0
8.999 -3.926 1.241 -0 -1.2 0
13.732 -5.704 1.492 -0 -1.2 0
14.863 -6.377 1.557 -0 -1.2 0
13.666 -6.216 1.5 -0 -1.2 0
14.873 -6.971 1.57 -0 -1.2 0
14.868 -7.27 1.577 -0 -1.2 0
13.598 -7.015 1.514 -0 -1.2 0
13.954 -7.463 1.54 -0 -1.2 0
8.922 -5.915 1.28 -0 -1.2 0
11.273 -7.46 1.419 -0 -1.2 0
8.654 -6.162 1.274 -0 -1.2 0
8.445 -6.238 1.266 -0 -1.2 0
8.152 -6.452 1.258 -0 -1.2 0
7.942 -6.513 1.25 -0 -1.2 0
7.773 -6.595 1.243 -0 -1.2 0
7.604 -6.675 1.238 -0 -1.2 0
7.441 -6.756 1.233 -0 -1.2 0
7.233 -6.795 1.224 -0 -1.2 0
7.032 -6.836 1.216 -0 -1.2 0
9.608 -9.265 1.384 -0 -1.2 0
9.359 -9.336 1.375 -0 -1.2 0
8.1 -8.465 1.299 -0 -1.2 0
1.156 0.03 0.779 -0 -1.2 0
1.196 0.034 0.778 -0 -1.2 0
1.23 0.029 0.779 -0 -1.2 0
1.264 0.023 0.78 -0 -1.2 0
1.312 0.031 0.78 -0 -1.2 0
1.354 0.031 0.781 -0 -1.2 0
1.396 0.028 0.781 -0 -1.2 0
1.438 0.025 0.781 -0 -1.2 0
1.496 0.034 0.782 -0 -1.2 0
1.546 0.034 0.783 -0 -1.2 0
1.558 0.004 0.783 -0 -1.2 0
1.649 0.031 0.784 -0 -1.2 0
1.701 0.028 0.784 -0 -1.2 0
1.761 0.028 0.784 -0 -1.2 0
1.839 0.037 0.785 -0 -1.2 0
1.918 0.044 0.785 -0 -1.2 0
1.98 0.04 0.787 -0 -1.2 0
2.077 0.053 0.787 -0 -1.2 0
2.149 0.047 0.788 -0 -1.2 0
2.248 0.054 0.788 -0 -1.2 0
2.374 0.072 0.79 -0 -1.2 0
2.493 0.081 0.79 -0 -1.2 0
2.594 0.078 0.791 -0 -1.2 0
2.705 0.076 0.793 -0 -1.2 0
2.734 0.034 0.794 -0 -1.2 0
2.818 0.015 0.795 -0 -1.2 0
2.893 -0.01 0.796 -0 -1.2 0
2.995 -0.027 0.798 -0 -1.2 0
3.098 -0.048 0.8 -0 -1.2 0
3.277 -0.046 0.801 -0 -1.2 0
3.467 -0.049 0.803 -0 -1.2 0
3.648 -0.06 0.805 -0 -1.2 0
3.926 -0.05 0.808 -0 -1.2 0
4.283 -0.031 0.81 -0 -1.2 0
4.573 -0.04 0.813 -0 -1.2 0
5.05 -0.018 0.817 -0 -1.2 0
5.607 0.002 0.823 -0 -1.2 0
6.246 0.017 0.828 -0 -1.2 0
6.974 0.025 0.835 -0 -1.2 0
7.863 0.032 0.843 -0 -1.2 0
8.973 0.035 0.854 -0 -1.2 0
10.035 -0.006 0.865 -0 -1.2 0
12.602 0.052 0.889 -0 -1.2 0
16.838 0.145 0.928 -0 -1.2 0
23.257 0.213 0.989 -0 -1.2 0
26.919 -7.165 1.196 -0 -1.2 0
25.119 -7.216 1.18 -0 -1.2 0
10.342 -3.78 0.956 -0 -1.2 0
10.304 -3.961 0.961 -0 -1.2 0
9.467 -3.901 0.951 -0 -1.2 0
19.717 -7.369 1.131 -0 -1.2 0
18.695 -7.401 1.122 -0 -1.2 0
17.745 -7.423 1.114 -0 -1.2 0
16.884 -7.445 1.105 -0 -1.2 0
13.363 -6.375 1.046 -0 -1.2 0
11.95 -6.051 1.025 -0 -1.2 0
14.689 -7.503 1.085 -0 -1.2 0
14.339 -7.647 1.085 -0 -1.2 0
8.816 -5.859 0.99 -0 -1.2 0
8.783 -6.04 0.994 -0 -1.2 0
8.575 -6.119 0.994 -0 -1.2 0
8.226 -6.302 0.995 -0 -1.2 0
8.325 -6.571 1.002 -0 -1.2 0
8.227 -6.712 1.004 -0 -1.2 0
12.629 -10.098 1.126 -0 -1.2 0
10.517 -8.854 1.076 -0 -1.2 0
10.356 -9.016 1.079 -0 -1.2 0
9.943 -8.974 1.074 -0 -1.2 0
9.657 -9.022 1.072 -0 -1.2 0
9.267 -8.972 1.067 -0 -1.2 0
12.289 -11.955 1.166 -0 -1.2 0
12.625 -12.655 1.186 -0 -1.2 0
1.163 0.036 0.756 -0 -1.2 0
1.196 0.032 0.754 -0 -1.2 0
1.23 0.027 0.754 -0 -1.2 0
1.27 0.029 0.753 -0 -1.2 0
1.312 0.029 0.751 -0 -1.2 0
1.346 0.022 0.751 -0 -1.2 0
1.396 0.027 0.75 -0 -1.2 0
1.438 0.023 0.749 -0 -1.2 0
1.488 0.026 0.748 -0 -1.2 0
1.539 0.027 0.746 -0 -1.2 0
1.59 0.026 0.745 -0 -1.2 0
1.649 0.029 0.743 -0 -1.2 0
1.701 0.026 0.742 -0 -1.2 0
1.761 0.026 0.741 -0 -1.2 0
1.847 0.04 0.738 -0 -1.2 0
1.917 0.042 0.736 -0 -1.2 0
1.997 0.047 0.734 -0 -1.2 0
2.068 0.045 0.732 -0 -1.2 0
2.157 0.049 0.73 -0 -1.2 0
2.229 0.042 0.729 -0 -1.2 0
2.312 0.037 0.726 -0 -1.2 0
2.438 0.052 0.722 -0 -1.2 0
2.567 0.061 0.72 -0 -1.2 0
2.623 0.035 0.719 -0 -1.2 0
2.706 0.02 0.716 -0 -1.2 0
2.818 0.012 0.714 -0 -1.2 0
2.864 -0.024 0.714 -0 -1.2 0
2.995 -0.031 0.711 -0 -1.2 0
3.117 -0.045 0.708 -0 -1.2 0
3.296 -0.044 0.704 -0 -1.2 0
3.448 -0.059 0.7 -0 -1.2 0
3.666 -0.059 0.694 -0 -1.2 0
3.935 -0.053 0.688 -0 -1.2 0
4.311 -0.028 0.677 -0 -1.2 0
4.611 -0.036 0.67 -0 -1.2 0
5.147 -0.003 0.656 -0 -1.2 0
5.636 0.001 0.643 -0 -1.2 0
6.313 0.022 0.625 -0 -1.2 0
7.051 0.03 0.607 -0 -1.2 0
7.96 0.036 0.583 -0 -1.2 0
9.15 0.047 0.553 -0 -1.2 0
10.102 -0.01 0.531 -0 -1.2 0
12.758 0.053 0.462 -0 -1.2 0
17.372 0.164 0.342 -0 -1.2 0
20.891 -2.483 0.32 -0 -1.2 0
25.693 -3.706 0.229 -0 -1.2 0
24.306 -4.852 0.293 -0 -1.2 0
10.272 -3.774 0.62 -0 -1.2 0
10.309 -3.976 0.624 -0 -1.2 0
9.52 -3.93 0.643 -0 -1.2 0
12.916 -5.956 0.608 -0 -1.2 0
12.987 -6.241 0.614 -0 -1.2 0
11.706 -5.964 0.639 -0 -1.2 0
9.726 -5.328 0.672 -0 -1.2 0
12.654 -6.886 0.638 -0 -1.2 0
9.598 -5.879 0.69 -0 -1.2 0
8.926 -5.932 0.708 -0 -1.2 0
8.779 -6.05 0.715 -0 -1.2 0
8.571 -6.129 0.722 -0 -1.2 0
13.969 -9.683 0.675 -0 -1.2 0
8.264 -6.338 0.735 -0 -1.2 0
10.007 -7.711 0.726 -0 -1.2 0
10.07 -8.007 0.731 -0 -1.2 0
10.069 -8.268 0.738 -0 -1.2 0
10.134 -8.584 0.744 -0 -1.2 0
10.327 -9.009 0.749 -0 -1.2 0
10.576 -9.5 0.756 -0 -1.2 0
10.642 -9.861 0.763 -0 -1.2 0
12.742 -11.991 0.764 -0 -1.2 0
8.46 -8.548 0.785 -0 -1.2 0
11.555 -11.683 0.785 -0 -1.2 0
1.081 -0.041 -0.845 -0 -1.2 0
1.113 -0.044 -0.847 -0 -1.2 0
1.16 -0.033 -0.851 -0 -1.2 0
1.186 -0.045 -0.853 -0 -1.2 0
1.233 -0.038 -0.857 -0 -1.2 0
1.252 -0.058 -0.858 -0 -1.2 0
1.287 -0.066 -0.859 -0 -1.2 0
1.335 -0.062 -0.864 -0 -1.2 0
1.384 -0.058 -0.867 -0 -1.2 0
1.418 -0.068 -0.87 -0 -1.2 0
1.476 -0.062 -0.874 -0 -1.2 0
1.518 -0.069 -0.877 -0 -1.2 0
1.602 -0.048 -0.884 -0 -1.2 0
1.695 -0.025 -0.891 -0 -1.2 0
1.705 -0.058 -0.891 -0 -1.2 0
1.791 -0.045 -0.898 -0 -1.2 0
1.853 -0.048 -0.902 -0 -1.2 0
1.905 -0.059 -0.906 -0 -1.2 0
1.941 -0.082 -0.907 -0 -1.2 0
2.056 -0.062 -0.917 -0 -1.2 0
2.127 -0.07 -0.921 -0 -1.2 0
2.252 -0.053 -0.932 -0 -1.2 0
2.343 -0.057 -0.938 -0 -1.2 0
2.479 -0.044 -0.948 -0 -1.2 0
2.525 -0.074 -0.951 -0 -1.2 0
2.691 -0.057 -0.964 -0 -1.2 0
2.755 -0.084 -0.968 -0 -1.2 0
2.783 -0.127 -0.969 -0 -1.2 0
2.8 -0.175 -0.969 -0 -1.2 0
2.816 -0.223 -0.969 -0 -1.2 0
2.822 -0.274 -0.968 -0 -1.2 0
2.827 -0.324 -0.967 -0 -1.2 0
2.821 -0.378 -0.965 -0 -1.2 0
2.824 -0.429 -0.963 -0 -1.2 0
2.836 -0.477 -0.963 -0 -1.2 0
2.838 -0.527 -0.962 -0 -1.2 0
2.839 -0.577 -0.96 -0 -1.2 0
2.848 -0.626 -0.959 -0 -1.2 0
2.846 -0.676 -0.958 -0 -1.2 0
2.844 -0.726 -0.956 -0 -1.2 0
2.851 -0.774 -0.956 -0 -1.2 0
2.847 -0.824 -0.954 -0 -1.2 0
2.852 -0.872 -0.953 -0 -1.2 0
2.856 -0.921 -0.952 -0 -1.2 0
2.869 -0.969 -0.951 -0 -1.2 0
2.881 -1.017 -0.951 -0 -1.2 0
2.883 -1.066 -0.95 -0 -1.2 0
2.884 -1.115 -0.948 -0 -1.2 0
2.883 -1.164 -0.947 -0 -1.2 0
2.882 -1.213 -0.945 -0 -1.2 0
2.891 -1.261 -0.945 -0 -1.2 0
2.898 -1.311 -0.944 -0 -1.2 0
2.904 -1.362 -0.943 -0 -1.2 0
2.91 -1.412 -0.942 -0 -1.2 0
2.924 -1.463 -0.942 -0 -1.2 0
2.937 -1.516 -0.942 -0 -1.2 0
2.93 -1.566 -0.94 -0 -1.2 0
2.952 -1.621 -0.94 -0 -1.2 0
2.962 -1.675 -0.939 -0 -1.2 0
2.972 -1.729 -0.938 -0 -1.2 0
2.981 -1.784 -0.937 -0 -1.2 0
2.978 -1.837 -0.935 -0 -1.2 0
2.985 -1.893 -0.934 -0 -1.2 0
2.991 -1.949 -0.933 -0 -1.2 0
2.986 -2.002 -0.931 -0 -1.2 0
2.998 -2.062 -0.93 -0 -1.2 0
3.02 -2.126 -0.93 -0 -1.2 0
3.049 -2.194 -0.931 -0 -1.2 0
3.086 -2.267 -0.931 -0 -1.2 0
3.122 -2.342 -0.931 -0 -1.2 0
3.145 -2.414 -0.932 -0 -1.2 0
3.196 -2.499 -0.933 -0 -1.2 0
3.372 -2.645 -0.942 -0 -1.2 0
3.398 -2.729 -0.941 -0 -1.2 0
3.406 -2.805 -0.939 -0 -1.2 0
3.438 -2.896 -0.94 -0 -1.2 0
3.442 -2.973 -0.938 -0 -1.2 0
3.444 -3.051 -0.936 -0 -1.2 0
3.462 -3.14 -0.935 -0 -1.2 0
3.494 -3.241 -0.934 -0 -1.2 0
3.566 -3.371 -0.936 -0 -1.2 0
3.601 -3.481 -0.935 -0 -1.2 0
3.633 -3.593 -0.934 -0 -1.2 0
3.654 -3.703 -0.933 -0 -1.2 0
3.666 -3.806 -0.931 -0 -1.2 0
3.681 -3.918 -0.929 -0 -1.2 0
3.703 -4.036 -0.927 -0 -1.2 0
3.706 -4.144 -0.924 -0 -1.2 0
3.72 -4.265 -0.922 -0 -1.2 0
3.718 -4.374 -0.919 -0 -1.2 0
3.426 -4.221 -0.902 -0 -1.2 0
1.078 -0.041 -0.87 -0 -1.2 0
1.117 -0.038 -0.875 -0 -1.2 0
1.156 -0.034 -0.878 -0 -1.2 0
1.204 -0.025 -0.885 -0 -1.2 0
1.23 -0.038 -0.887 -0 -1.2 0
1.257 -0.052 -0.889 -0 -1.2 0
1.282 -0.066 -0.892 -0 -1.2 0
1.338 -0.056 -0.898 -0 -1.2 0
1.38 -0.059 -0.903 -0 -1.2 0
1.446 -0.045 -0.911 -0 -1.2 0
1.472 -0.063 -0.913 -0 -1.2 0
1.546 -0.046 -0.922 -0 -1.2 0
1.614 -0.038 -0.93 -0 -1.2 0
1.657 -0.048 -0.934 -0 -1.2 0
1.7 -0.059 -0.939 -0 -1.2 0
1.786 -0.046 -0.948 -0 -1.2 0
1.821 -0.066 -0.952 -0 -1.2 0
1.865 -0.081 -0.957 -0 -1.2 0
1.935 -0.083 -0.964 -0 -1.2 0
2.057 -0.06 -0.979 -0 -1.2 0
2.121 -0.071 -0.985 -0 -1.2 0
2.219 -0.067 -0.996 -0 -1.2 0
2.29 -0.08 -1.004 -0 -1.2 0
2.363 -0.094 -1.011 -0 -1.2 0
2.508 -0.079 -1.028 -0 -1.2 0
2.646 -0.073 -1.043 -0 -1.2 0
2.756 -0.083 -1.055 -0 -1.2 0
2.783 -0.126 -1.057 -0 -1.2 0
2.801 -0.174 -1.057 -0 -1.2 0
2.817 -0.222 -1.058 -0 -1.2 0
2.833 -0.27 -1.058 -0 -1.2 0
2.847 -0.318 -1.058 -0 -1.2 0
2.861 -0.367 -1.058 -0 -1.2 0
2.864 -0.419 -1.057 -0 -1.2 0
2.876 -0.467 -1.056 -0 -1.2 0
2.907 -0.512 -1.059 -0 -1.2 0
2.908 -0.564 -1.058 -0 -1.2 0
2.927 -0.613 -1.057 -0 -1.2 0
2.936 -0.662 -1.058 -0 -1.2 0
2.943 -0.712 -1.057 -0 -1.2 0
2.96 -0.761 -1.057 -0 -1.2 0
2.966 -0.812 -1.056 -0 -1.2 0
2.961 -0.863 -1.054 -0 -1.2 0
2.965 -0.914 -1.053 -0 -1.2 0
2.989 -0.963 -1.054 -0 -1.2 0
2.991 -1.014 -1.053 -0 -1.2 0
3.003 -1.065 -1.052 -0 -1.2 0
3.003 -1.116 -1.051 -0 -1.2 0
3.003 -1.167 -1.049 -0 -1.2 0
3.002 -1.219 -1.048 -0 -1.2 0
3.011 -1.271 -1.047 -0 -1.2 0
3.028 -1.323 -1.047 -0 -1.2 0
3.024 -1.374 -1.046 -0 -1.2 0
3.039 -1.429 -1.045 -0 -1.2 0
3.043 -1.481 -1.044 -0 -1.2 0
3.056 -1.536 -1.044 -0 -1.2 0
3.069 -1.591 -1.043 -0 -1.2 0
3.09 -1.649 -1.044 -0 -1.2 0
3.09 -1.703 -1.042 -0 -1.2 0
3.089 -1.758 -1.041 -0 -1.2 0
3.088 -1.813 -1.039 -0 -1.2 0
3.066 -1.863 -1.035 -0 -1.2 0
3.082 -1.923 -1.034 -0 -1.2 0
3.067 -1.976 -1.031 -0 -1.2 0
3.072 -2.034 -1.031 -0 -1.2 0
3.075 -2.091 -1.029 -0 -1.2 0
3.086 -2.154 -1.028 -0 -1.2 0
3.096 -2.217 -1.027 -0 -1.2 0
3.096 -2.276 -1.025 -0 -1.2 0
3.14 -2.355 -1.028 -0 -1.2 0
3.21 -2.447 -1.033 -0 -1.2 0
3.315 -2.558 -1.041 -0 -1.2 0
3.335 -2.636 -1.041 -0 -1.2 0
3.361 -2.719 -1.041 -0 -1.2 0
3.386 -2.803 -1.042 -0 -1.2 0
3.392 -2.88 -1.04 -0 -1.2 0
3.414 -2.966 -1.04 -0 -1.2 0
3.416 -3.044 -1.037 -0 -1.2 0
3.392 -3.107 -1.032 -0 -1.2 0
3.374 -3.175 -1.028 -0 -1.2 0
3.347 -3.237 -1.023 -0 -1.2 0
3.334 -3.311 -1.019 -0 -1.2 0
3.329 -3.391 -1.017 -0 -1.2 0
3.313 -3.465 -1.013 -0 -1.2 0
3.312 -3.551 -1.01 -0 -1.2 0
3.309 -3.638 -1.007 -0 -1.2 0
3.288 -3.713 -1.002 -0 -1.2 0
3.289 -3.807 -0.999 -0 -1.2 0
3.287 -3.902 -0.996 -0 -1.2 0
3.291 -4.004 -0.994 -0 -1.2 0
3.306 -4.121 -0.992 -0 -1.2 0
1.099 -0.014 -0.904 -0 -1.2 0
1.126 -0.025 -0.908 -0 -1.2 0
1.159 -0.029 -0.913 -0 -1.2 0
1.177 -0.048 -0.915 -0 -1.2 0
1.21 -0.054 -0.92 -0 -1.2 0
1.258 -0.048 -0.927 -0 -1.2 0
1.284 -0.062 -0.93 -0 -1.2 0
1.332 -0.058 -0.937 -0 -1.2 0
1.35 -0.08 -0.94 -0 -1.2 0
1.407 -0.071 -0.949 -0 -1.2 0
1.48 -0.054 -0.96 -0 -1.2 0
1.539 -0.049 -0.969 -0 -1.2 0
1.621 -0.028 -0.983 -0 -1.2 0
1.64 -0.056 -0.985 -0 -1.2 0
1.675 -0.072 -0.989 -0 -1.2 0
1.768 -0.054 -1.004 -0 -1.2 0
1.82 -0.063 -1.012 -0 -1.2 0
1.881 -0.069 -1.021 -0 -1.2 0
1.968 -0.062 -1.035 -0 -1.2 0
2.03 -0.072 -1.044 -0 -1.2 0
2.066 -0.097 -1.048 -0 -1.2 0
2.137 -0.106 -1.059 -0 -1.2 0
2.324 -0.062 -1.088 -0 -1.2 0
2.414 -0.069 -1.102 -0 -1.2 0
2.459 -0.099 -1.108 -0 -1.2 0
2.55 -0.111 -1.122 -0 -1.2 0
2.724 -0.093 -1.148 -0 -1.2 0
2.798 -0.12 -1.159 -0 -1.2 0
2.852 -0.155 -1.166 -0 -1.2 0
2.925 -0.185 -1.176 -0 -1.2 0
3.063 -0.198 -1.197 -0 -1.2 0
3.762 -0.051 -1.308 -0 -1.2 0
4.123 -0.022 -1.363 -0 -1.2 0
4.574 0.015 -1.433 -0 -1.2 0
5.016 0.035 -1.501 -0 -1.2 0
5.558 0.061 -1.585 -0 -1.2 0
6.168 0.082 -1.678 -0 -1.2 0
6.908 0.103 -1.791 -0 -1.2 0
7.807 0.126 -1.929 -0 -1.2 0
8.904 0.144 -2.096 -0 -1.2 0
10.445 0.18 -2.331 -0 -1.2 0
11.892 0.151 -2.55 -0 -1.2 0
15.036 -0.04 -3.022 -0 -1.2 0
15.063 -0.304 -3.017 -0 -1.2 0
21.26 -0.338 -3.958 -0 -1.2 0
21.372 -0.709 -3.963 -0 -1.2 0
20.932 -2.189 -3.845 -0 -1.2 0
20.537 -2.531 -3.774 -0 -1.2 0
12.478 -3.761 -2.507 -0 -1.2 0
11.959 -3.871 -2.425 -0 -1.2 0
3.302 -1.929 -1.174 -0 -1.2 0
3.22 -1.968 -1.16 -0 -1.2 0
3.196 -2.02 -1.155 -0 -1.2 0
3.19 -2.078 -1.152 -0 -1.2 0
3.182 -2.136 -1.149 -0 -1.2 0
3.184 -2.197 -1.147 -0 -1.2 0
3.174 -2.254 -1.144 -0 -1.2 0
3.155 -2.309 -1.139 -0 -1.2 0
3.152 -2.37 -1.137 -0 -1.2 0
3.149 -2.431 -1.134 -0 -1.2 0
3.181 -2.51 -1.136 -0 -1.2 0
3.346 -2.652 -1.156 -0 -1.2 0
3.399 -2.749 -1.161 -0 -1.2 0
3.468 -2.857 -1.168 -0 -1.2 0
3.491 -2.945 -1.168 -0 -1.2 0
3.485 -3.018 -1.165 -0 -1.2 0
3.486 -3.098 -1.163 -0 -1.2 0
3.435 -3.147 -1.153 -0 -1.2 0
5.21 -4.341 -1.383 -0 -1.2 0
10.876 -8.159 -2.114 -0 -1.2 0
10.853 -8.415 -2.103 -0 -1.2 0
10.873 -8.707 -2.096 -0 -1.2 0
4.745 -4.524 -1.306 -0 -1.2 0
3.685 -3.85 -1.168 -0 -1.2 0
4.656 -4.71 -1.286 -0 -1.2 0
6.363 -6.227 -1.494 -0 -1.2 0
13.169 -12.137 -2.329 -0 -1.2 0
4.519 -4.992 -1.256 -0 -1.2 0
3.705 -4.395 -1.152 -0 -1.2 0
4.354 -5.118 -1.226 -0 -1.2 0
1.093 -0.015 -0.929 -0 -1.2 0
1.125 -0.019 -0.935 -0 -1.2 0
1.158 -0.023 -0.941 -0 -1.2 0
1.191 -0.028 -0.947 -0 -1.2 0
1.231 -0.028 -0.955 -0 -1.2 0
1.264 -0.036 -0.961 -0 -1.2 0
1.291 -0.05 -0.965 -0 -1.2 0
1.331 -0.052 -0.973 -0 -1.2 0
1.35 -0.075 -0.976 -0 -1.2 0
1.414 -0.061 -0.988 -0 -1.2 0
1.463 -0.06 -0.998 -0 -1.2 0
1.537 -0.045 -1.012 -0 -1.2 0
1.619 -0.025 -1.029 -0 -1.2 0
1.638 -0.052 -1.032 -0 -1.2 0
1.665 -0.074 -1.036 -0 -1.2 0
1.725 -0.077 -1.047 -0 -1.2 0
1.818 -0.06 -1.065 -0 -1.2 0
1.861 -0.076 -1.073 -0 -1.2 0
1.999 -0.04 -1.101 -0 -1.2 0
2.026 -0.069 -1.105 -0 -1.2 0
2.053 -0.099 -1.109 -0 -1.2 0
2.168 -0.087 -1.131 -0 -1.2 0
2.274 -0.081 -1.151 -0 -1.2 0
2.328 -0.104 -1.161 -0 -1.2 0
2.481 -0.086 -1.191 -0 -1.2 0
2.652 -0.065 -1.224 -0 -1.2 0
2.707 -0.096 -1.234 -0 -1.2 0
2.826 -0.106 -1.256 -0 -1.2 0
2.954 -0.116 -1.279 -0 -1.2 0
3.167 -0.102 -1.321 -0 -1.2 0
3.223 -0.145 -1.329 -0 -1.2 0
3.814 -0.032 -1.446 -0 -1.2 0
4.174 -0.006 -1.516 -0 -1.2 0
4.592 0.022 -1.597 -0 -1.2 0
5.051 0.045 -1.686 -0 -1.2 0
5.598 0.071 -1.791 -0 -1.2 0
6.177 0.084 -1.901 -0 -1.2 0
6.951 0.111 -2.049 -0 -1.2 0
7.845 0.13 -2.221 -0 -1.2 0
8.984 0.152 -2.438 -0 -1.2 0
10.623 0.198 -2.752 -0 -1.2 0
13.251 0.291 -3.257 -0 -1.2 0
12.327 -3.536 -2.94 -0 -1.2 0
12.199 -3.733 -2.908 -0 -1.2 0
12.01 -3.914 -2.865 -0 -1.2 0
13.661 -4.555 -3.157 -0 -1.2 0
10.285 -3.894 -2.537 -0 -1.2 0
3.331 -2.131 -1.278 -0 -1.2 0
3.248 -2.167 -1.26 -0 -1.2 0
3.211 -2.217 -1.251 -0 -1.2 0
3.202 -2.275 -1.248 -0 -1.2 0
3.191 -2.333 -1.243 -0 -1.2 0
3.18 -2.392 -1.239 -0 -1.2 0
3.157 -2.447 -1.233 -0 -1.2 0
3.045 -2.461 -1.211 -0 -1.2 0
3.165 -2.58 -1.229 -0 -1.2 0
3.184 -2.657 -1.23 -0 -1.2 0
3.202 -2.734 -1.231 -0 -1.2 0
3.217 -2.813 -1.231 -0 -1.2 0
3.249 -2.902 -1.233 -0 -1.2 0
3.278 -2.991 -1.236 -0 -1.2 0
3.305 -3.085 -1.238 -0 -1.2 0
3.33 -3.178 -1.239 -0 -1.2 0
3.336 -3.262 -1.236 -0 -1.2 0
3.349 -3.353 -1.235 -0 -1.2 0
3.367 -3.45 -1.235 -0 -1.2 0
3.374 -3.543 -1.234 -0 -1.2 0
3.388 -3.643 -1.233 -0 -1.2 0
3.369 -3.719 -1.226 -0 -1.2 0
3.401 -3.84 -1.227 -0 -1.2 0
3.407 -3.943 -1.226 -0 -1.2 0
3.426 -4.06 -1.224 -0 -1.2 0
3.412 -4.152 -1.218 -0 -1.2 0
1.07 -0.031 -0.954 -0 -1.2 0
1.123 -0.014 -0.967 -0 -1.2 0
1.156 -0.018 -0.974 -0 -1.2 0
1.181 -0.031 -0.98 -0 -1.2 0
1.2 -0.051 -0.983 -0 -1.2 0
1.275 -0.017 -1.002 -0 -1.2 0
1.302 -0.033 -1.007 -0 -1.2 0
1.32 -0.055 -1.011 -0 -1.2 0
1.354 -0.065 -1.019 -0 -1.2 0
1.425 -0.045 -1.036 -0 -1.2 0
1.467 -0.052 -1.045 -0 -1.2 0
1.524 -0.048 -1.059 -0 -1.2 0
1.559 -0.061 -1.066 -0 -1.2 0
1.617 -0.06 -1.08 -0 -1.2 0
1.684 -0.056 -1.095 -0 -1.2 0
1.743 -0.059 -1.109 -0 -1.2 0
1.82 -0.052 -1.127 -0 -1.2 0
1.863 -0.069 -1.136 -0 -1.2 0
1.94 -0.067 -1.154 -0 -1.2 0
2.035 -0.059 -1.177 -0 -1.2 0
2.157 -0.04 -1.206 -0 -1.2 0
2.22 -0.055 -1.22 -0 -1.2 0
2.237 -0.094 -1.223 -0 -1.2 0
2.326 -0.101 -1.243 -0 -1.2 0
2.549 -0.051 -1.296 -0 -1.2 0
2.649 -0.062 -1.32 -0 -1.2 0
2.739 -0.08 -1.339 -0 -1.2 0
2.821 -0.103 -1.358 -0 -1.2 0
2.948 -0.114 -1.387 -0 -1.2 0
3.178 -0.095 -1.441 -0 -1.2 0
3.344 -0.104 -1.48 -0 -1.2 0
3.829 -0.025 -1.595 -0 -1.2 0
4.205 0.004 -1.684 -0 -1.2 0
4.601 0.026 -1.776 -0 -1.2 0
5.056 0.048 -1.883 -0 -1.2 0
5.619 0.076 -2.015 -0 -1.2 0
6.211 0.091 -2.154 -0 -1.2 0
7.008 0.121 -2.34 -0 -1.2 0
7.923 0.141 -2.553 -0 -1.2 0
9.12 0.168 -2.832 -0 -1.2 0
11.065 0.246 -3.288 -0 -1.2 0
13.527 0.31 -3.862 -0 -1.2 0
14.041 -3.66 -3.824 -0 -1.2 0
12.226 -4.008 -3.388 -0 -1.2 0
10.206 -3.719 -2.93 -0 -1.2 0
10.181 -3.905 -2.917 -0 -1.2 0
11.635 -4.527 -3.231 -0 -1.2 0
13.894 -5.73 -3.707 -0 -1.2 0
3.306 -2.264 -1.385 -0 -1.2 0
3.259 -2.311 -1.371 -0 -1.2 0
3.239 -2.367 -1.365 -0 -1.2 0
3.218 -2.424 -1.358 -0 -1.2 0
3.205 -2.483 -1.352 -0 -1.2 0
3.2 -2.547 -1.348 -0 -1.2 0
3.14 -2.586 -1.333 -0 -1.2 0
2.957 -2.561 -1.291 -0 -1.2 0
3.176 -2.739 -1.335 -0 -1.2 0
3.183 -2.813 -1.335 -0 -1.2 0
3.19 -2.887 -1.333 -0 -1.2 0
3.185 -2.957 -1.329 -0 -1.2 0
3.196 -3.038 -1.328 -0 -1.2 0
3.212 -3.125 -1.328 -0 -1.2 0
3.236 -3.218 -1.33 -0 -1.2 0
3.242 -3.302 -1.328 -0 -1.2 0
3.244 -3.387 -1.326 -0 -1.2 0
3.246 -3.472 -1.322 -0 -1.2 0
3.252 -3.564 -1.32 -0 -1.2 0
3.257 -3.657 -1.318 -0 -1.2 0
3.252 -3.745 -1.314 -0 -1.2 0
3.253 -3.839 -1.309 -0 -1.2 0
3.266 -3.947 -1.308 -0 -1.2 0
3.269 -4.05 -1.305 -0 -1.2 0
3.269 -4.154 -1.301 -0 -1.2 0
1.048 -0.048 -0.975 -0 -1.2 0
1.119 -0.009 -0.995 -0 -1.2 0
1.145 -0.021 -1.002 -0 -1.2 0
1.178 -0.027 -1.01 -0 -1.2 0
1.21 -0.033 -1.019 -0 -1.2 0
1.265 -0.02 -1.035 -0 -1.2 0
1.313 -0.016 -1.047 -0 -1.2 0
1.353 -0.019 -1.058 -0 -1.2 0
1.394 -0.023 -1.069 -0 -1.2 0
1.42 -0.042 -1.076 -0 -1.2 0
1.462 -0.048 -1.086 -0 -1.2 0
1.479 -0.074 -1.091 -0 -1.2 0
1.545 -0.064 -1.108 -0 -1.2 0
1.602 -0.063 -1.123 -0 -1.2 0
1.636 -0.08 -1.132 -0 -1.2 0
1.687 -0.089 -1.145 -0 -1.2 0
1.762 -0.081 -1.167 -0 -1.2 0
1.872 -0.057 -1.197 -0 -1.2 0
1.957 -0.052 -1.22 -0 -1.2 0
2 -0.072 -1.232 -0 -1.2 0
2.112 -0.057 -1.262 -0 -1.2 0
2.165 -0.077 -1.276 -0 -1.2 0
2.235 -0.089 -1.294 -0 -1.2 0
2.332 -0.093 -1.32 -0 -1.2 0
2.473 -0.079 -1.359 -0 -1.2 0
2.571 -0.089 -1.386 -0 -1.2 0
2.715 -0.085 -1.425 -0 -1.2 0
2.787 -0.113 -1.443 -0 -1.2 0
2.922 -0.119 -1.479 -0 -1.2 0
3.113 -0.113 -1.531 -0 -1.2 0
3.397 -0.084 -1.61 -0 -1.2 0
3.86 -0.013 -1.738 -0 -1.2 0
4.203 0.007 -1.832 -0 -1.2 0
4.616 0.033 -1.945 -0 -1.2 0
5.095 0.059 -2.076 -0 -1.2 0
5.634 0.081 -2.223 -0 -1.2 0
6.26 0.101 -2.393 -0 -1.2 0
7.04 0.126 -2.606 -0 -1.2 0
7.975 0.148 -2.861 -0 -1.2 0
9.352 0.198 -3.237 -0 -1.2 0
11.318 0.273 -3.772 -0 -1.2 0
15.376 -3.669 -4.704 -0 -1.2 0
12.682 -3.925 -3.963 -0 -1.2 0
10.091 -3.538 -3.277 -0 -1.2 0
11.599 -4.122 -3.66 -0 -1.2 0
13.021 -4.99 -4.009 -0 -1.2 0
12.401 -5.046 -3.838 -0 -1.2 0
14.711 -6.069 -4.421 -0 -1.2 0
3.552 -2.368 -1.554 -0 -1.2 0
3.349 -2.361 -1.5 -0 -1.2 0
3.284 -2.402 -1.48 -0 -1.2 0
3.272 -2.462 -1.474 -0 -1.2 0
3.257 -2.524 -1.468 -0 -1.2 0
3.26 -2.593 -1.466 -0 -1.2 0
3.262 -2.663 -1.463 -0 -1.2 0
3.097 -2.649 -1.418 -0 -1.2 0
3.132 -2.735 -1.425 -0 -1.2 0
3.242 -2.865 -1.449 -0 -1.2 0
3.23 -2.931 -1.443 -0 -1.2 0
3.191 -2.982 -1.429 -0 -1.2 0
3.168 -3.043 -1.421 -0 -1.2 0
3.219 -3.151 -1.431 -0 -1.2 0
3.225 -3.235 -1.428 -0 -1.2 0
3.238 -3.325 -1.428 -0 -1.2 0
3.234 -3.404 -1.423 -0 -1.2 0
3.226 -3.483 -1.418 -0 -1.2 0
3.233 -3.576 -1.416 -0 -1.2 0
3.231 -3.662 -1.412 -0 -1.2 0
3.218 -3.743 -1.404 -0 -1.2 0
3.218 -3.838 -1.401 -0 -1.2 0
3.239 -3.953 -1.402 -0 -1.2 0
3.249 -4.062 -1.399 -0 -1.2 0
3.243 -4.16 -1.394 -0 -1.2 0
1.045 -0.042 -0.997 -0 -1.2 0
1.096 -0.024 -1.013 -0 -1.2 0
1.148 -0.008 -1.03 -0 -1.2 0
1.187 -0.007 -1.042 -0 -1.2 0
1.22 -0.014 -1.052 -0 -1.2 0
1.252 -0.021 -1.062 -0 -1.2 0
1.293 -0.024 -1.073 -0 -1.2 0
1.326 -0.034 -1.083 -0 -1.2 0
1.366 -0.038 -1.096 -0 -1.2 0
1.399 -0.049 -1.106 -0 -1.2 0
1.447 -0.05 -1.12 -0 -1.2 0
1.489 -0.058 -1.133 -0 -1.2 0
1.546 -0.056 -1.151 -0 -1.2 0
1.603 -0.055 -1.168 -0 -1.2 0
1.629 -0.077 -1.175 -0 -1.2 0
1.671 -0.091 -1.187 -0 -1.2 0
1.72 -0.099 -1.202 -0 -1.2 0
1.821 -0.08 -1.234 -0 -1.2 0
1.905 -0.073 -1.26 -0 -1.2 0
1.998 -0.065 -1.29 -0 -1.2 0
2.066 -0.074 -1.31 -0 -1.2 0
2.178 -0.062 -1.345 -0 -1.2 0
2.265 -0.067 -1.372 -0 -1.2 0
2.335 -0.083 -1.393 -0 -1.2 0
2.449 -0.083 -1.428 -0 -1.2 0
2.484 -0.118 -1.437 -0 -1.2 0
2.688 -0.089 -1.502 -0 -1.2 0
2.849 -0.083 -1.552 -0 -1.2 0
2.984 -0.091 -1.593 -0 -1.2 0
3.073 -0.12 -1.619 -0 -1.2 0
3.492 -0.049 -1.752 -0 -1.2 0
3.857 -0.008 -1.866 -0 -1.2 0
4.208 0.013 -1.975 -0 -1.2 0
4.588 0.031 -2.093 -0 -1.2 0
5.082 0.06 -2.248 -0 -1.2 0
5.624 0.083 -2.416 -0 -1.2 0
6.235 0.099 -2.605 -0 -1.2 0
7.045 0.129 -2.857 -0 -1.2 0
8.16 0.178 -3.203 -0 -1.2 0
9.449 0.21 -3.602 -0 -1.2 0
11.357 0.274 -4.195 -0 -1.2 0
14.119 -3.506 -4.877 -0 -1.2 0
14.354 -3.812 -4.935 -0 -1.2 0
11.82 -3.556 -4.165 -0 -1.2 0
14.262 -4.33 -4.884 -0 -1.2 0
10.029 -3.564 -3.612 -0 -1.2 0
12.926 -4.52 -4.463 -0 -1.2 0
12.574 -4.669 -4.347 -0 -1.2 0
11.89 -4.705 -4.135 -0 -1.2 0
12.061 -4.994 -4.174 -0 -1.2 0
11.879 -5.17 -4.11 -0 -1.2 0
11.748 -5.361 -4.061 -0 -1.2 0
3.3 -2.359 -1.589 -0 -1.2 0
3.512 -2.511 -1.647 -0 -1.2 0
12.666 -6.474 -4.295 -0 -1.2 0
10.282 -5.677 -3.594 -0 -1.2 0
7.368 -4.533 -2.747 -0 -1.2 0
11.607 -6.769 -3.954 -0 -1.2 0
7.468 -4.905 -2.76 -0 -1.2 0
11.862 -7.42 -4.004 -0 -1.2 0
6.934 -4.945 -2.594 -0 -1.2 0
3.334 -3.014 -1.569 -0 -1.2 0
3.245 -3.037 -1.54 -0 -1.2 0
3.238 -3.109 -1.535 -0 -1.2 0
3.262 -3.203 -1.539 -0 -1.2 0
12.353 -9.458 -4.064 -0 -1.2 0
11.785 -9.376 -3.891 -0 -1.2 0
3.298 -3.477 -1.538 -0 -1.2 0
3.313 -3.575 -1.537 -0 -1.2 0
3.303 -3.658 -1.531 -0 -1.2 0
3.299 -3.747 -1.525 -0 -1.2 0
3.3 -3.843 -1.522 -0 -1.2 0
3.307 -3.946 -1.519 -0 -1.2 0
3.348 -4.082 -1.525 -0 -1.2 0
3.219 -4.066 -1.487 -0 -1.2 0
3.298 -4.246 -1.503 -0 -1.2 0
1.026 -0.051 -1.017 -0 -1.2 0
1.07 -0.041 -1.033 -0 -1.2 0
1.134 -0.01 -1.056 -0 -1.2 0
1.16 -0.023 -1.065 -0 -1.2 0
1.198 -0.023 -1.078 -0 -1.2 0
1.225 -0.037 -1.086 -0 -1.2 0
1.264 -0.04 -1.1 -0 -1.2 0
1.303 -0.043 -1.114 -0 -1.2 0
1.328 -0.059 -1.122 -0 -1.2 0
1.375 -0.058 -1.139 -0 -1.2 0
1.431 -0.053 -1.158 -0 -1.2 0
1.487 -0.049 -1.178 -0 -1.2 0
1.536 -0.052 -1.194 -0 -1.2 0
1.591 -0.052 -1.214 -0 -1.2 0
1.61 -0.08 -1.219 -0 -1.2 0
1.675 -0.078 -1.242 -0 -1.2 0
1.757 -0.067 -1.272 -0 -1.2 0
1.816 -0.074 -1.292 -0 -1.2 0
1.906 -0.063 -1.324 -0 -1.2 0
1.999 -0.055 -1.357 -0 -1.2 0
2.042 -0.078 -1.37 -0 -1.2 0
2.094 -0.096 -1.388 -0 -1.2 0
2.255 -0.063 -1.446 -0 -1.2 0
2.333 -0.076 -1.472 -0 -1.2 0
2.447 -0.075 -1.512 -0 -1.2 0
2.595 -0.064 -1.565 -0 -1.2 0
2.718 -0.069 -1.607 -0 -1.2 0
2.771 -0.104 -1.625 -0 -1.2 0
2.886 -0.12 -1.664 -0 -1.2 0
3.153 -0.087 -1.759 -0 -1.2 0
3.495 -0.041 -1.881 -0 -1.2 0
3.83 -0.01 -1.999 -0 -1.2 0
4.176 0.011 -2.121 -0 -1.2 0
4.589 0.037 -2.267 -0 -1.2 0
5.058 0.06 -2.432 -0 -1.2 0
5.603 0.083 -2.623 -0 -1.2 0
6.244 0.104 -2.848 -0 -1.2 0
7.221 0.163 -3.192 -0 -1.2 0
8.118 0.172 -3.507 -0 -1.2 0
9.522 0.22 -4 -0 -1.2 0
11.464 0.283 -4.682 -0 -1.2 0
14.94 0.435 -5.905 -0 -1.2 0
9.945 -2.836 -4.004 -0 -1.2 0
9.955 -3.024 -3.998 -0 -1.2 0
9.944 -3.21 -3.986 -0 -1.2 0
9.994 -3.41 -3.994 -0 -1.2 0
12.189 -4.15 -4.726 -0 -1.2 0
11.993 -4.333 -4.649 -0 -1.2 0
9.911 -3.965 -3.939 -0 -1.2 0
9.857 -4.142 -3.911 -0 -1.2 0
9.781 -4.313 -3.877 -0 -1.2 0
9.775 -4.507 -3.866 -0 -1.2 0
13.429 -6.053 -5.07 -0 -1.2 0
11.114 -5.426 -4.29 -0 -1.2 0
7.205 -4.051 -2.989 -0 -1.2 0
3.168 -2.458 -1.652 -0 -1.2 0
7.125 -4.318 -2.948 -0 -1.2 0
7.386 -4.595 -3.026 -0 -1.2 0
7.277 -4.703 -2.984 -0 -1.2 0
7.202 -4.826 -2.951 -0 -1.2 0
7.354 -5.07 -2.993 -0 -1.2 0
3.444 -3.027 -1.722 -0 -1.2 0
3.313 -3.029 -1.676 -0 -1.2 0
3.207 -3.043 -1.639 -0 -1.2 0
11.797 -8.601 -4.379 -0 -1.2 0
11.553 -8.733 -4.288 -0 -1.2 0
11.286 -8.844 -4.19 -0 -1.2 0
11.113 -9.013 -4.121 -0 -1.2 0
11.91 -9.901 -4.358 -0 -1.2 0
5.175 -5.044 -2.232 -0 -1.2 0
6.706 -6.408 -2.703 -0 -1.2 0
5.016 -5.202 -2.169 -0 -1.2 0
4.994 -5.33 -2.155 -0 -1.2 0
3.547 -4.197 -1.703 -0 -1.2 0
5.781 -6.358 -2.382 -0 -1.2 0
7.182 -7.873 -2.8 -0 -1.2 0
3.1 -4.094 -1.551 -0 -1.2 0
1.027 -0.038 -1.042 -0 -1.2 0
1.064 -0.035 -1.057 -0 -1.2 0
1.114 -0.018 -1.077 -0 -1.2 0
1.146 -0.024 -1.089 -0 -1.2 0
1.192 -0.018 -1.107 -0 -1.2 0
1.209 -0.038 -1.113 -0 -1.2 0
1.234 -0.054 -1.122 -0 -1.2 0
1.266 -0.063 -1.134 -0 -1.2 0
1.305 -0.067 -1.148 -0 -1.2 0
1.352 -0.066 -1.166 -0 -1.2 0
1.414 -0.054 -1.191 -0 -1.2 0
1.461 -0.057 -1.21 -0 -1.2 0
1.517 -0.054 -1.231 -0 -1.2 0
1.565 -0.06 -1.25 -0 -1.2 0
1.629 -0.056 -1.275 -0 -1.2 0
1.686 -0.059 -1.298 -0 -1.2 0
1.744 -0.064 -1.319 -0 -1.2 0
1.802 -0.071 -1.341 -0 -1.2 0
1.859 -0.079 -1.364 -0 -1.2 0
1.975 -0.058 -1.409 -0 -1.2 0
2.009 -0.085 -1.422 -0 -1.2 0
2.06 -0.104 -1.44 -0 -1.2 0
2.144 -0.108 -1.472 -0 -1.2 0
2.271 -0.095 -1.522 -0 -1.2 0
2.425 -0.076 -1.584 -0 -1.2 0
2.486 -0.101 -1.606 -0 -1.2 0
2.649 -0.087 -1.671 -0 -1.2 0
2.728 -0.112 -1.699 -0 -1.2 0
2.912 -0.101 -1.771 -0 -1.2 0
3.22 -0.055 -1.894 -0 -1.2 0
3.487 -0.034 -1.998 -0 -1.2 0
3.801 -0.01 -2.121 -0 -1.2 0
4.143 0.009 -2.255 -0 -1.2 0
4.568 0.038 -2.421 -0 -1.2 0
5.032 0.06 -2.603 -0 -1.2 0
5.588 0.086 -2.821 -0 -1.2 0
6.357 0.132 -3.121 -0 -1.2 0
7.13 0.151 -3.423 -0 -1.2 0
8.044 0.163 -3.779 -0 -1.2 0
9.468 0.214 -4.334 -0 -1.2 0
11.571 0.295 -5.155 -0 -1.2 0
11.646 -3.62 -4.992 -0 -1.2 0
13.65 -4.848 -5.71 -0 -1.2 0
11.328 -4.658 -4.817 -0 -1.2 0
9.724 -4.35 -4.209 -0 -1.2 0
11.035 -5.012 -4.686 -0 -1.2 0
11.114 -5.268 -4.704 -0 -1.2 0
11.066 -5.479 -4.676 -0 -1.2 0
7.118 -4.063 -3.211 -0 -1.2 0
6.958 -4.143 -3.145 -0 -1.2 0
3.101 -2.515 -1.726 -0 -1.2 0
13.618 -7.66 -5.56 -0 -1.2 0
7.555 -4.9 -3.339 -0 -1.2 0
7.486 -5.033 -3.306 -0 -1.2 0
7.139 -5.013 -3.172 -0 -1.2 0
6.465 -4.792 -2.921 -0 -1.2 0
10.727 -7.496 -4.444 -0 -1.2 0
11.9 -8.486 -4.851 -0 -1.2 0
10.849 -8.099 -4.462 -0 -1.2 0
3.052 -3.123 -1.677 -0 -1.2 0
2.973 -3.145 -1.646 -0 -1.2 0
9.189 -7.733 -3.835 -0 -1.2 0
5.268 -5.028 -2.445 -0 -1.2 0
9.643 -8.587 -3.969 -0 -1.2 0
7.7 -7.287 -3.279 -0 -1.2 0
7.304 -7.179 -3.129 -0 -1.2 0
3.554 -4.139 -1.822 -0 -1.2 0
4.809 -5.374 -2.249 -0 -1.2 0
4.705 -5.427 -2.206 -0 -1.2 0
5.524 -6.368 -2.478 -0 -1.2 0
5.46 -6.488 -2.448 -0 -1.2 0
1.013 -0.039 -1.062 -0 -1.2 0
1.043 -0.043 -1.074 -0 -1.2 0
1.099 -0.02 -1.099 -0 -1.2 0
1.144 -0.012 -1.118 -0 -1.2 0
1.182 -0.012 -1.135 -0 -1.2 0
1.207 -0.027 -1.145 -0 -1.2 0
1.224 -0.049 -1.152 -0 -1.2 0
1.284 -0.033 -1.178 -0 -1.2 0
1.33 -0.031 -1.197 -0 -1.2 0
1.361 -0.043 -1.211 -0 -1.2 0
1.408 -0.045 -1.231 -0 -1.2 0
1.456 -0.047 -1.251 -0 -1.2 0
1.51 -0.045 -1.275 -0 -1.2 0
1.543 -0.062 -1.288 -0 -1.2 0
1.607 -0.058 -1.315 -0 -1.2 0
1.663 -0.062 -1.339 -0 -1.2 0
1.735 -0.057 -1.371 -0 -1.2 0
1.776 -0.074 -1.387 -0 -1.2 0
1.817 -0.091 -1.404 -0 -1.2 0
1.891 -0.093 -1.435 -0 -1.2 0
1.965 -0.096 -1.467 -0 -1.2 0
2.096 -0.073 -1.525 -0 -1.2 0
2.188 -0.074 -1.564 -0 -1.2 0
2.306 -0.067 -1.616 -0 -1.2 0
2.357 -0.094 -1.636 -0 -1.2 0
2.476 -0.094 -1.687 -0 -1.2 0
2.63 -0.084 -1.754 -0 -1.2 0
2.828 -0.063 -1.839 -0 -1.2 0
2.992 -0.062 -1.91 -0 -1.2 0
3.21 -0.049 -2.005 -0 -1.2 0
3.491 -0.024 -2.127 -0 -1.2 0
3.774 -0.009 -2.249 -0 -1.2 0
4.111 0.01 -2.394 -0 -1.2 0
4.521 0.035 -2.572 -0 -1.2 0
4.96 0.051 -2.761 -0 -1.2 0
5.652 0.108 -3.062 -0 -1.2 0
6.313 0.13 -3.346 -0 -1.2 0
7.074 0.146 -3.675 -0 -1.2 0
7.975 0.156 -4.062 -0 -1.2 0
9.451 0.213 -4.699 -0 -1.2 0
11.57 0.294 -5.613 -0 -1.2 0
15.447 0.477 -7.288 -0 -1.2 0
11.33 -3.608 -5.31 -0 -1.2 0
11.355 -3.835 -5.309 -0 -1.2 0
11.323 -4.05 -5.285 -0 -1.2 0
9.414 -3.927 -4.47 -0 -1.2 0
9.228 -4.057 -4.385 -0 -1.2 0
9.95 -4.491 -4.672 -0 -1.2 0
9.329 -4.469 -4.406 -0 -1.2 0
9.373 -4.68 -4.414 -0 -1.2 0
10.297 -5.25 -4.781 -0 -1.2 0
12.171 -6.266 -5.534 -0 -1.2 0
10.585 -5.82 -4.877 -0 -1.2 0
10.129 -5.838 -4.68 -0 -1.2 0
10.098 -6.046 -4.655 -0 -1.2 0
7.217 -4.956 -3.473 -0 -1.2 0
7.198 -5.113 -3.458 -0 -1.2 0
8.041 -5.776 -3.786 -0 -1.2 0
8.032 -5.963 -3.773 -0 -1.2 0
8.085 -6.193 -3.783 -0 -1.2 0
8.1 -6.405 -3.779 -0 -1.2 0
3.034 -3.144 -1.77 -0 -1.2 0
5.385 -4.892 -2.69 -0 -1.2 0
5.318 -4.985 -2.657 -0 -1.2 0
2.875 -3.26 -1.696 -0 -1.2 0
5.015 -5.037 -2.524 -0 -1.2 0
4.923 -5.103 -2.481 -0 -1.2 0
4.583 -4.957 -2.342 -0 -1.2 0
10.395 -10.222 -4.569 -0 -1.2 0
4.822 -5.454 -2.42 -0 -1.2 0
5.384 -6.137 -2.626 -0 -1.2 0
4.353 -5.303 -2.226 -0 -1.2 0
4.436 -5.534 -2.249 -0 -1.2 0
1.008 -0.027 -1.091 -0 -1.2 0
1.044 -0.024 -1.109 -0 -1.2 0
1.087 -0.015 -1.129 -0 -1.2 0
1.118 -0.021 -1.144 -0 -1.2 0
1.175 -0.002 -1.171 -0 -1.2 0
1.186 -0.029 -1.175 -0 -1.2 0
1.217 -0.039 -1.19 -0 -1.2 0
1.241 -0.055 -1.2 -0 -1.2 0
1.322 -0.022 -1.241 -0 -1.2 0
1.353 -0.034 -1.254 -0 -1.2 0
1.399 -0.036 -1.276 -0 -1.2 0
1.438 -0.045 -1.295 -0 -1.2 0
1.471 -0.06 -1.309 -0 -1.2 0
1.532 -0.054 -1.339 -0 -1.2 0
1.595 -0.051 -1.369 -0 -1.2 0
1.642 -0.06 -1.391 -0 -1.2 0
1.667 -0.086 -1.402 -0 -1.2 0
1.738 -0.083 -1.435 -0 -1.2 0
1.779 -0.101 -1.454 -0 -1.2 0
1.883 -0.083 -1.504 -0 -1.2 0
1.987 -0.07 -1.555 -0 -1.2 0
2.053 -0.082 -1.585 -0 -1.2 0
2.152 -0.079 -1.632 -0 -1.2 0
2.226 -0.092 -1.666 -0 -1.2 0
2.301 -0.107 -1.702 -0 -1.2 0
2.451 -0.092 -1.773 -0 -1.2 0
2.56 -0.1 -1.825 -0 -1.2 0
2.763 -0.076 -1.923 -0 -1.2 0
2.985 -0.053 -2.029 -0 -1.2 0
3.225 -0.032 -2.145 -0 -1.2 0
3.475 -0.017 -2.264 -0 -1.2 0
3.779 0.004 -2.41 -0 -1.2 0
4.085 0.013 -2.556 -0 -1.2 0
4.488 0.036 -2.749 -0 -1.2 0
5.007 0.073 -2.998 -0 -1.2 0
5.609 0.107 -3.286 -0 -1.2 0
6.258 0.127 -3.596 -0 -1.2 0
6.998 0.139 -3.949 -0 -1.2 0
7.937 0.154 -4.396 -0 -1.2 0
9.505 0.223 -5.145 -0 -1.2 0
11.345 0.265 -6.022 -0 -1.2 0
14.798 0.404 -7.672 -0 -1.2 0
25.922 0.553 -12.97 -0 -1.2 0
11.467 -3.706 -5.868 -0 -1.2 0
11.421 -3.922 -5.834 -0 -1.2 0
9.041 -3.697 -4.714 -0 -1.2 0
10.184 -4.232 -5.229 -0 -1.2 0
10.26 -4.466 -5.253 -0 -1.2 0
9.039 -4.252 -4.684 -0 -1.2 0
10.38 -4.936 -5.284 -0 -1.2 0
10.545 -5.221 -5.347 -0 -1.2 0
10.305 -5.346 -5.226 -0 -1.2 0
11.468 -6.075 -5.741 -0 -1.2 0
11.814 -6.484 -5.883 -0 -1.2 0
7.261 -4.565 -3.821 -0 -1.2 0
9.955 -6.08 -5.021 -0 -1.2 0
10.784 -6.743 -5.38 -0 -1.2 0
7.996 -5.465 -4.122 -0 -1.2 0
6.852 -4.999 -3.604 -0 -1.2 0
8.856 -6.358 -4.484 -0 -1.2 0
7.9 -5.98 -4.049 -0 -1.2 0
5.597 -4.688 -3.023 -0 -1.2 0
7.717 -6.255 -3.947 -0 -1.2 0
7.338 -6.189 -3.77 -0 -1.2 0
5.442 -5.009 -2.933 -0 -1.2 0
5.306 -5.054 -2.866 -0 -1.2 0
5 -4.96 -2.725 -0 -1.2 0
7.822 -7.384 -3.937 -0 -1.2 0
2.893 -3.479 -1.802 -0 -1.2 0
2.892 -3.563 -1.797 -0 -1.2 0
5.172 -5.7 -2.766 -0 -1.2 0
4.584 -5.314 -2.508 -0 -1.2 0
4.98 -5.844 -2.668 -0 -1.2 0
4.948 -5.976 -2.645 -0 -1.2 0
4.004 -5.171 -2.24 -0 -1.2 0
0.997 -0.021 -1.114 -0 -1.2 0
1.027 -0.026 -1.13 -0 -1.2 0
1.044 -0.044 -1.137 -0 -1.2 0
1.098 -0.023 -1.167 -0 -1.2 0
1.142 -0.017 -1.19 -0 -1.2 0
1.166 -0.031 -1.202 -0 -1.2 0
1.196 -0.04 -1.217 -0 -1.2 0
1.241 -0.038 -1.24 -0 -1.2 0
1.285 -0.036 -1.263 -0 -1.2 0
1.351 -0.019 -1.298 -0 -1.2 0
1.361 -0.05 -1.302 -0 -1.2 0
1.428 -0.036 -1.337 -0 -1.2 0
1.467 -0.046 -1.358 -0 -1.2 0
1.521 -0.046 -1.385 -0 -1.2 0
1.589 -0.038 -1.421 -0 -1.2 0
1.615 -0.063 -1.433 -0 -1.2 0
1.699 -0.048 -1.478 -0 -1.2 0
1.716 -0.081 -1.485 -0 -1.2 0
1.772 -0.089 -1.513 -0 -1.2 0
1.897 -0.059 -1.58 -0 -1.2 0
1.953 -0.074 -1.608 -0 -1.2 0
2.025 -0.081 -1.646 -0 -1.2 0
2.122 -0.079 -1.696 -0 -1.2 0
2.228 -0.076 -1.751 -0 -1.2 0
2.35 -0.07 -1.815 -0 -1.2 0
2.466 -0.071 -1.875 -0 -1.2 0
2.5 -0.112 -1.89 -0 -1.2 0
2.707 -0.084 -2 -0 -1.2 0
2.95 -0.052 -2.127 -0 -1.2 0
3.194 -0.029 -2.256 -0 -1.2 0
3.432 -0.018 -2.38 -0 -1.2 0
3.739 0.004 -2.54 -0 -1.2 0
4.048 0.015 -2.702 -0 -1.2 0
4.487 0.049 -2.932 -0 -1.2 0
5.024 0.089 -3.214 -0 -1.2 0
5.547 0.104 -3.486 -0 -1.2 0
6.193 0.123 -3.823 -0 -1.2 0
6.929 0.134 -4.207 -0 -1.2 0
7.957 0.164 -4.742 -0 -1.2 0
9.611 0.243 -5.606 -0 -1.2 0
12.019 0.349 -6.864 -0 -1.2 0
15.703 0.494 -8.788 -0 -1.2 0
9.945 -3.823 -5.552 -0 -1.2 0
11.275 -4.651 -6.197 -0 -1.2 0
10.41 -4.595 -5.751 -0 -1.2 0
11.006 -5.027 -6.037 -0 -1.2 0
10.983 -5.253 -6.013 -0 -1.2 0
9.609 -5.147 -5.304 -0 -1.2 0
7.177 -4.278 -4.088 -0 -1.2 0
9.759 -5.862 -5.342 -0 -1.2 0
9.908 -6.163 -5.403 -0 -1.2 0
8.782 -5.788 -4.838 -0 -1.2 0
8.728 -5.966 -4.801 -0 -1.2 0
6.737 -5.012 -3.819 -0 -1.2 0
9.345 -6.764 -5.077 -0 -1.2 0
4.469 -3.904 -2.702 -0 -1.2 0
8.329 -6.562 -4.56 -0 -1.2 0
8.171 -6.668 -4.471 -0 -1.2 0
5.439 -4.938 -3.148 -0 -1.2 0
4.451 -4.353 -2.667 -0 -1.2 0
4.469 -4.488 -2.669 -0 -1.2 0
4.249 -4.438 -2.558 -0 -1.2 0
4.627 -4.871 -2.73 -0 -1.2 0
4.32 -4.744 -2.577 -0 -1.2 0
4.321 -4.874 -2.571 -0 -1.2 0
4.279 -4.968 -2.543 -0 -1.2 0
2.805 -3.705 -1.848 -0 -1.2 0
4.038 -5.007 -2.416 -0 -1.2 0
4.006 -5.11 -2.393 -0 -1.2 0
4.418 -5.682 -2.576 -0 -1.2 0
0.997 -0.001 -1.144 -0 -1.2 0
1.026 -0.007 -1.16 -0 -1.2 0
1.043 -0.026 -1.169 -0 -1.2 0
1.079 -0.025 -1.189 -0 -1.2 0
1.115 -0.027 -1.209 -0 -1.2 0
1.145 -0.034 -1.226 -0 -1.2 0
1.155 -0.063 -1.23 -0 -1.2 0
1.218 -0.041 -1.266 -0 -1.2 0
1.255 -0.045 -1.288 -0 -1.2 0
1.292 -0.052 -1.308 -0 -1.2 0
1.324 -0.065 -1.324 -0 -1.2 0
1.361 -0.073 -1.346 -0 -1.2 0
1.419 -0.066 -1.379 -0 -1.2 0
1.436 -0.093 -1.387 -0 -1.2 0
1.532 -0.062 -1.443 -0 -1.2 0
1.585 -0.067 -1.473 -0 -1.2 0
1.631 -0.077 -1.499 -0 -1.2 0
1.722 -0.06 -1.55 -0 -1.2 0
1.754 -0.084 -1.568 -0 -1.2 0
1.848 -0.073 -1.62 -0 -1.2 0
1.91 -0.082 -1.656 -0 -1.2 0
1.988 -0.086 -1.7 -0 -1.2 0
2.099 -0.075 -1.763 -0 -1.2 0
2.203 -0.074 -1.822 -0 -1.2 0
2.283 -0.086 -1.867 -0 -1.2 0
2.364 -0.102 -1.912 -0 -1.2 0
2.55 -0.077 -2.018 -0 -1.2 0
2.616 -0.106 -2.053 -0 -1.2 0
2.96 -0.033 -2.252 -0 -1.2 0
3.168 -0.025 -2.37 -0 -1.2 0
3.435 -0.004 -2.522 -0 -1.2 0
3.71 0.009 -2.68 -0 -1.2 0
4.048 0.028 -2.871 -0 -1.2 0
4.504 0.066 -3.132 -0 -1.2 0
4.963 0.085 -3.393 -0 -1.2 0
5.468 0.097 -3.679 -0 -1.2 0
6.111 0.116 -4.043 -0 -1.2 0
6.902 0.138 -4.492 -0 -1.2 0
7.987 0.176 -5.108 -0 -1.2 0
9.628 0.25 -6.041 -0 -1.2 0
12.042 0.353 -7.412 -0 -1.2 0
15.554 0.473 -9.405 -0 -1.2 0
21.76 0.239 -12.903 -0 -1.2 0
23.743 -2.006 -13.893 -0 -1.2 0
10.888 -4.618 -6.47 -0 -1.2 0
10.847 -4.835 -6.434 -0 -1.2 0
10.744 -5.029 -6.364 -0 -1.2 0
9.133 -4.836 -5.464 -0 -1.2 0
9.055 -5.004 -5.41 -0 -1.2 0
10.396 -5.818 -6.121 -0 -1.2 0
9.086 -5.427 -5.403 -0 -1.2 0
9.306 -5.746 -5.509 -0 -1.2 0
9.311 -5.966 -5.499 -0 -1.2 0
10.162 -6.653 -5.94 -0 -1.2 0
9.261 -6.382 -5.446 -0 -1.2 0
10.942 -7.612 -6.326 -0 -1.2 0
4.374 -3.795 -2.833 -0 -1.2 0
8.631 -6.664 -5.074 -0 -1.2 0
8.254 -6.631 -4.862 -0 -1.2 0
10.018 -8.353 -5.76 -0 -1.2 0
4.217 -4.246 -2.718 -0 -1.2 0
7.689 -7.084 -4.516 -0 -1.2 0
4.26 -4.518 -2.726 -0 -1.2 0
4.06 -4.473 -2.617 -0 -1.2 0
4.11 -4.637 -2.634 -0 -1.2 0
4.057 -4.715 -2.6 -0 -1.2 0
4.038 -4.824 -2.583 -0 -1.2 0
4.017 -4.934 -2.565 -0 -1.2 0
4.306 -5.356 -2.703 -0 -1.2 0
4.702 -5.914 -2.895 -0 -1.2 0
5.011 -6.411 -3.041 -0 -1.2 0
0.976 -0.003 -1.165 -0 -1.2 0
1.011 -0.001 -1.186 -0 -1.2 0
1.022 -0.028 -1.191 -0 -1.2 0
1.039 -0.048 -1.2 -0 -1.2 0
1.061 -0.061 -1.213 -0 -1.2 0
1.115 -0.043 -1.248 -0 -1.2 0
1.144 -0.052 -1.265 -0 -1.2 0
1.186 -0.05 -1.291 -0 -1.2 0
1.222 -0.054 -1.313 -0 -1.2 0
1.265 -0.054 -1.339 -0 -1.2 0
1.288 -0.073 -1.353 -0 -1.2 0
1.338 -0.07 -1.383 -0 -1.2 0
1.361 -0.091 -1.396 -0 -1.2 0
1.447 -0.063 -1.451 -0 -1.2 0
1.499 -0.065 -1.483 -0 -1.2 0
1.551 -0.07 -1.515 -0 -1.2 0
1.597 -0.08 -1.542 -0 -1.2 0
1.671 -0.073 -1.588 -0 -1.2 0
1.709 -0.093 -1.611 -0 -1.2 0
1.793 -0.086 -1.662 -0 -1.2 0
1.884 -0.077 -1.719 -0 -1.2 0
1.969 -0.077 -1.771 -0 -1.2 0
2.07 -0.072 -1.834 -0 -1.2 0
2.141 -0.086 -1.876 -0 -1.2 0
2.274 -0.072 -1.96 -0 -1.2 0
2.362 -0.086 -2.012 -0 -1.2 0
2.52 -0.072 -2.111 -0 -1.2 0
2.576 -0.106 -2.143 -0 -1.2 0
2.93 -0.028 -2.365 -0 -1.2 0
3.172 -0.005 -2.516 -0 -1.2 0
3.377 -0.006 -2.642 -0 -1.2 0
3.673 0.013 -2.825 -0 -1.2 0
4.076 0.052 -3.076 -0 -1.2 0
4.474 0.074 -3.322 -0 -1.2 0
4.924 0.091 -3.6 -0 -1.2 0
5.392 0.094 -3.888 -0 -1.2 0
6.046 0.116 -4.292 -0 -1.2 0
6.88 0.146 -4.807 -0 -1.2 0
7.976 0.183 -5.483 -0 -1.2 0
10.103 0.326 -6.802 -0 -1.2 0
11.977 0.35 -7.956 -0 -1.2 0
23.326 -1.592 -14.822 -0 -1.2 0
24.178 -3.581 -15.225 -0 -1.2 0
9.387 -4.22 -6.084 -0 -1.2 0
10.241 -4.726 -6.579 -0 -1.2 0
9.749 -4.765 -6.273 -0 -1.2 0
9.316 -4.808 -6.004 -0 -1.2 0
10.245 -5.407 -6.539 -0 -1.2 0
9.807 -5.444 -6.268 -0 -1.2 0
9.858 -5.692 -6.285 -0 -1.2 0
9.921 -5.951 -6.307 -0 -1.2 0
9.016 -6.151 -5.739 -0 -1.2 0
8.558 -6.315 -5.446 -0 -1.2 0
8.113 -6.249 -5.176 -0 -1.2 0
7.874 -6.299 -5.026 -0 -1.2 0
8.247 -6.984 -5.214 -0 -1.2 0
9.721 -8.581 -6.024 -0 -1.2 0
7.331 -6.941 -4.653 -0 -1.2 0
4.096 -4.462 -2.813 -0 -1.2 0
4.012 -4.512 -2.759 -0 -1.2 0
4.074 -4.689 -2.786 -0 -1.2 0
4.022 -4.768 -2.749 -0 -1.2 0
4.371 -5.23 -2.936 -0 -1.2 0
4.318 -5.322 -2.898 -0 -1.2 0
7.859 -9.1 -4.847 -0 -1.2 0
4.767 -6.094 -3.126 -0 -1.2 0
5.914 -7.525 -3.746 -0 -1.2 0
0.955 -0.006 -1.182 -0 -1.2 0
0.988 -0.004 -1.204 -0 -1.2 0
1.016 -0.009 -1.223 -0 -1.2 0
1.027 -0.037 -1.228 -0 -1.2 0
1.05 -0.051 -1.242 -0 -1.2 0
1.071 -0.065 -1.256 -0 -1.2 0
1.113 -0.062 -1.283 -0 -1.2 0
1.16 -0.053 -1.316 -0 -1.2 0
1.214 -0.039 -1.353 -0 -1.2 0
1.237 -0.057 -1.367 -0 -1.2 0
1.267 -0.071 -1.385 -0 -1.2 0
1.316 -0.068 -1.418 -0 -1.2 0
1.339 -0.088 -1.432 -0 -1.2 0
1.423 -0.062 -1.49 -0 -1.2 0
1.501 -0.043 -1.542 -0 -1.2 0
1.524 -0.069 -1.556 -0 -1.2 0
1.59 -0.065 -1.601 -0 -1.2 0
1.649 -0.068 -1.639 -0 -1.2 0
1.709 -0.073 -1.678 -0 -1.2 0
1.805 -0.059 -1.743 -0 -1.2 0
1.873 -0.065 -1.788 -0 -1.2 0
1.963 -0.061 -1.848 -0 -1.2 0
2.018 -0.081 -1.882 -0 -1.2 0
2.109 -0.084 -1.943 -0 -1.2 0
2.239 -0.071 -2.03 -0 -1.2 0
2.325 -0.085 -2.086 -0 -1.2 0
2.434 -0.092 -2.158 -0 -1.2 0
2.591 -0.083 -2.263 -0 -1.2 0
2.905 -0.02 -2.475 -0 -1.2 0
3.104 -0.013 -2.607 -0 -1.2 0
3.327 -0.006 -2.756 -0 -1.2 0
3.657 0.024 -2.976 -0 -1.2 0
4.02 0.052 -3.219 -0 -1.2 0
4.418 0.073 -3.484 -0 -1.2 0
4.849 0.086 -3.772 -0 -1.2 0
5.308 0.088 -4.077 -0 -1.2 0
6.014 0.122 -4.547 -0 -1.2 0
6.853 0.151 -5.106 -0 -1.2 0
7.885 0.177 -5.792 -0 -1.2 0
9.893 0.302 -7.132 -0 -1.2 0
12.049 0.36 -8.566 -0 -1.2 0
18.951 0.417 -13.149 -0 -1.2 0
19.114 0.03 -13.234 -0 -1.2 0
23.142 -1.657 -15.798 -0 -1.2 0
21.569 -2.069 -14.728 -0 -1.2 0
23.449 -2.64 -15.939 -0 -1.2 0
23.169 -4.558 -15.633 -0 -1.2 0
9.6 -4.384 -6.641 -0 -1.2 0
10.116 -5.239 -6.928 -0 -1.2 0
9.68 -5.28 -6.636 -0 -1.2 0
4.3 -3.351 -3.19 -0 -1.2 0
4.379 -3.713 -3.219 -0 -1.2 0
4.358 -3.81 -3.199 -0 -1.2 0
4.514 -4.024 -3.288 -0 -1.2 0
4.488 -4.124 -3.265 -0 -1.2 0
4.476 -4.235 -3.249 -0 -1.2 0
4.418 -4.314 -3.206 -0 -1.2 0
4.345 -4.38 -3.153 -0 -1.2 0
4.249 -4.428 -3.088 -0 -1.2 0
4.182 -4.495 -3.039 -0 -1.2 0
4.245 -4.672 -3.069 -0 -1.2 0
4.455 -4.985 -3.188 -0 -1.2 0
4.462 -5.129 -3.183 -0 -1.2 0
0.932 -0.007 -1.198 -0 -1.2 0
0.971 0 -1.226 -0 -1.2 0
0.999 -0.005 -1.245 -0 -1.2 0
1.01 -0.032 -1.251 -0 -1.2 0
1.026 -0.053 -1.261 -0 -1.2 0
1.053 -0.061 -1.28 -0 -1.2 0
1.087 -0.064 -1.304 -0 -1.2 0
1.133 -0.055 -1.338 -0 -1.2 0
1.18 -0.047 -1.371 -0 -1.2 0
1.221 -0.048 -1.401 -0 -1.2 0
1.277 -0.039 -1.441 -0 -1.2 0
1.286 -0.071 -1.445 -0 -1.2 0
1.328 -0.075 -1.475 -0 -1.2 0
1.37 -0.081 -1.504 -0 -1.2 0
1.426 -0.078 -1.545 -0 -1.2 0
1.482 -0.077 -1.586 -0 -1.2 0
1.568 -0.058 -1.647 -0 -1.2 0
1.611 -0.071 -1.678 -0 -1.2 0
1.669 -0.077 -1.719 -0 -1.2 0
1.735 -0.08 -1.765 -0 -1.2 0
1.779 -0.099 -1.795 -0 -1.2 0
1.882 -0.087 -1.87 -0 -1.2 0
1.956 -0.093 -1.922 -0 -1.2 0
2.046 -0.096 -1.986 -0 -1.2 0
2.174 -0.083 -2.078 -0 -1.2 0
2.249 -0.101 -2.131 -0 -1.2 0
2.371 -0.101 -2.218 -0 -1.2 0
2.44 -0.128 -2.266 -0 -1.2 0
2.616 -0.116 -2.392 -0 -1.2 0
3.055 -0.012 -2.712 -0 -1.2 0
3.274 -0.006 -2.869 -0 -1.2 0
3.626 0.033 -3.123 -0 -1.2 0
3.95 0.049 -3.355 -0 -1.2 0
4.331 0.067 -3.628 -0 -1.2 0
4.761 0.081 -3.936 -0 -1.2 0
5.265 0.093 -4.297 -0 -1.2 0
5.93 0.119 -4.773 -0 -1.2 0
6.743 0.143 -5.355 -0 -1.2 0
7.847 0.182 -6.145 -0 -1.2 0
9.761 0.291 -7.519 -0 -1.2 0
11.9 0.345 -9.049 -0 -1.2 0
18.283 -0.042 -13.58 -0 -1.2 0
23.068 -2.219 -16.85 -0 -1.2 0
21.069 -2.573 -15.4 -0 -1.2 0
20.571 -2.977 -15.018 -0 -1.2 0
22.06 -3.582 -16.04 -0 -1.2 0
22.499 -4.113 -16.319 -0 -1.2 0
22.103 -4.534 -16.008 -0 -1.2 0
4.964 -4.273 -3.793 -0 -1.2 0
4.619 -4.68 -3.519 -0 -1.2 0
4.591 -4.791 -3.492 -0 -1.2 0
4.402 -4.9 -3.349 -0 -1.2 0
4.517 -5.141 -3.416 -0 -1.2 0
4.627 -5.387 -3.478 -0 -1.2 0
4.348 -5.266 -3.287 -0 -1.2 0
0.908 -0.01 -1.215 -0 -1.2 0
0.929 -0.023 -1.231 -0 -1.2 0
0.972 -0.009 -1.266 -0 -1.2 0
0.989 -0.029 -1.277 -0 -1.2 0
1.01 -0.043 -1.292 -0 -1.2 0
1.031 -0.058 -1.307 -0 -1.2 0
1.065 -0.061 -1.332 -0 -1.2 0
1.104 -0.059 -1.363 -0 -1.2 0
1.149 -0.051 -1.398 -0 -1.2 0
1.201 -0.04 -1.44 -0 -1.2 0
1.229 -0.054 -1.46 -0 -1.2 0
1.271 -0.057 -1.492 -0 -1.2 0
1.299 -0.074 -1.512 -0 -1.2 0
1.347 -0.074 -1.549 -0 -1.2 0
1.375 -0.093 -1.57 -0 -1.2 0
1.444 -0.082 -1.623 -0 -1.2 0
1.512 -0.073 -1.677 -0 -1.2 0
1.569 -0.076 -1.721 -0 -1.2 0
1.632 -0.077 -1.769 -0 -1.2 0
1.682 -0.09 -1.806 -0 -1.2 0
1.739 -0.101 -1.85 -0 -1.2 0
1.818 -0.101 -1.911 -0 -1.2 0
1.904 -0.099 -1.977 -0 -1.2 0
1.985 -0.106 -2.038 -0 -1.2 0
2.064 -0.116 -2.1 -0 -1.2 0
2.181 -0.11 -2.191 -0 -1.2 0
2.256 -0.131 -2.246 -0 -1.2 0
2.375 -0.136 -2.338 -0 -1.2 0
2.427 -0.172 -2.376 -0 -1.2 0
2.562 -0.178 -2.478 -0 -1.2 0
3.231 0 -3.008 -0 -1.2 0
3.545 0.027 -3.251 -0 -1.2 0
3.837 0.036 -3.476 -0 -1.2 0
4.208 0.052 -3.763 -0 -1.2 0
4.618 0.063 -4.08 -0 -1.2 0
5.155 0.085 -4.496 -0 -1.2 0
5.818 0.111 -5.009 -0 -1.2 0
6.586 0.128 -5.601 -0 -1.2 0
7.723 0.174 -6.481 -0 -1.2 0
9.499 0.263 -7.856 -0 -1.2 0
11.588 0.312 -9.469 -0 -1.2 0
18.465 -0.055 -14.744 -0 -1.2 0
21.436 -6.488 -16.589 -0 -1.2 0
4.535 -4.46 -3.702 -0 -1.2 0
4.519 -4.576 -3.683 -0 -1.2 0
4.48 -4.676 -3.645 -0 -1.2 0
4.474 -4.804 -3.632 -0 -1.2 0
4.487 -5.09 -3.622 -0 -1.2 0
4.522 -5.411 -3.627 -0 -1.2 0
4.358 -5.398 -3.501 -0 -1.2 0
4.258 -5.443 -3.421 -0 -1.2 0
4.28 -5.617 -3.426 -0 -1.2 0
4.22 -5.705 -3.374 -0 -1.2 0
4.147 -5.778 -3.312 -0 -1.2 0
4.096 -5.878 -3.267 -0 -1.2 0
0.889 -0.005 -1.235 -0 -1.2 0
0.905 -0.025 -1.246 -0 -1.2 0
0.942 -0.017 -1.278 -0 -1.2 0
0.973 -0.017 -1.304 -0 -1.2 0
0.989 -0.039 -1.315 -0 -1.2 0
1.021 -0.041 -1.341 -0 -1.2 0
1.048 -0.05 -1.362 -0 -1.2 0
1.075 -0.061 -1.383 -0 -1.2 0
1.113 -0.06 -1.416 -0 -1.2 0
1.176 -0.037 -1.469 -0 -1.2 0
1.203 -0.051 -1.491 -0 -1.2 0
1.25 -0.049 -1.529 -0 -1.2 0
1.271 -0.071 -1.546 -0 -1.2 0
1.324 -0.067 -1.589 -0 -1.2 0
1.352 -0.086 -1.611 -0 -1.2 0
1.464 -0.04 -1.706 -0 -1.2 0
1.499 -0.056 -1.735 -0 -1.2 0
1.527 -0.08 -1.757 -0 -1.2 0
1.589 -0.081 -1.808 -0 -1.2 0
1.645 -0.089 -1.853 -0 -1.2 0
1.741 -0.074 -1.934 -0 -1.2 0
1.784 -0.097 -1.967 -0 -1.2 0
1.854 -0.104 -2.025 -0 -1.2 0
1.905 -0.126 -2.064 -0 -1.2 0
1.954 -0.15 -2.104 -0 -1.2 0
2.025 -0.165 -2.161 -0 -1.2 0
2.104 -0.18 -2.225 -0 -1.2 0
2.183 -0.198 -2.289 -0 -1.2 0
2.283 -0.211 -2.371 -0 -1.2 0
2.451 -0.202 -2.51 -0 -1.2 0
3.19 0.007 -3.137 -0 -1.2 0
3.451 0.018 -3.353 -0 -1.2 0
3.758 0.032 -3.607 -0 -1.2 0
4.111 0.045 -3.899 -0 -1.2 0
4.481 0.046 -4.205 -0 -1.2 0
5.026 0.073 -4.657 -0 -1.2 0
5.679 0.099 -5.199 -0 -1.2 0
6.426 0.113 -5.817 -0 -1.2 0
7.799 0.201 -6.957 -0 -1.2 0
9.24 0.236 -8.149 -0 -1.2 0
11.304 0.283 -9.858 -0 -1.2 0
18.398 0.334 -15.721 -0 -1.2 0
22.019 -3.842 -18.411 -0 -1.2 0
4.646 -4.512 -4.011 -0 -1.2 0
4.683 -5.239 -3.991 -0 -1.2 0
4.227 -5.243 -3.614 -0 -1.2 0
4.335 -5.497 -3.684 -0 -1.2 0
4.029 -5.324 -3.444 -0 -1.2 0
3.987 -5.423 -3.401 -0 -1.2 0
3.67 -5.209 -3.157 -0 -1.2 0
3.828 -5.534 -3.263 -0 -1.2 0
3.84 -5.699 -3.261 -0 -1.2 0
0.859 -0.014 -1.243 -0 -1.2 0
0.895 -0.006 -1.274 -0 -1.2 0
0.91 -0.026 -1.287 -0 -1.2 0
0.951 -0.012 -1.324 -0 -1.2 0
0.972 -0.027 -1.341 -0 -1.2 0
0.987 -0.049 -1.352 -0 -1.2 0
1.024 -0.047 -1.386 -0 -1.2 0
1.055 -0.05 -1.414 -0 -1.2 0
1.081 -0.062 -1.436 -0 -1.2 0
1.114 -0.069 -1.464 -0 -1.2 0
1.164 -0.059 -1.508 -0 -1.2 0
1.202 -0.063 -1.543 -0 -1.2 0
1.241 -0.069 -1.576 -0 -1.2 0
1.269 -0.085 -1.599 -0 -1.2 0
1.302 -0.099 -1.627 -0 -1.2 0
1.372 -0.084 -1.691 -0 -1.2 0
1.431 -0.08 -1.744 -0 -1.2 0
1.491 -0.08 -1.796 -0 -1.2 0
1.531 -0.095 -1.83 -0 -1.2 0
1.605 -0.09 -1.896 -0 -1.2 0
1.673 -0.092 -1.956 -0 -1.2 0
1.734 -0.101 -2.009 -0 -1.2 0
1.762 -0.133 -2.032 -0 -1.2 0
1.81 -0.154 -2.073 -0 -1.2 0
1.851 -0.18 -2.107 -0 -1.2 0
1.906 -0.202 -2.154 -0 -1.2 0
1.961 -0.225 -2.201 -0 -1.2 0
2.03 -0.245 -2.26 -0 -1.2 0
2.1 -0.267 -2.32 -0 -1.2 0
2.205 -0.279 -2.412 -0 -1.2 0
2.31 -0.294 -2.504 -0 -1.2 0
3.339 0.004 -3.437 -0 -1.2 0
3.637 0.017 -3.702 -0 -1.2 0
3.987 0.031 -4.013 -0 -1.2 0
4.341 0.03 -4.324 -0 -1.2 0
4.877 0.057 -4.8 -0 -1.2 0
5.504 0.079 -5.357 -0 -1.2 0
6.252 0.096 -6.02 -0 -1.2 0
7.468 0.159 -7.1 -0 -1.2 0
8.838 0.188 -8.314 -0 -1.2 0
10.902 0.24 -10.143 -0 -1.2 0
20.148 -0.479 -18.266 -0 -1.2 0
4.444 -5.146 -4.025 -0 -1.2 0
4.388 -5.238 -3.969 -0 -1.2 0
4.35 -5.346 -3.927 -0 -1.2 0
4.09 -5.229 -3.706 -0 -1.2 0
3.841 -5.108 -3.495 -0 -1.2 0
3.798 -5.198 -3.45 -0 -1.2 0
3.717 -5.247 -3.376 -0 -1.2 0
3.458 -5.084 -3.159 -0 -1.2 0
3.71 -5.523 -3.348 -0 -1.2 0
3.732 -5.702 -3.355 -0 -1.2 0
0.831 -0.017 -1.257 -0 -1.2 0
0.86 -0.016 -1.285 -0 -1.2 0
0.891 -0.016 -1.314 -0 -1.2 0
0.925 -0.01 -1.348 -0 -1.2 0
0.95 -0.018 -1.371 -0 -1.2 0
0.976 -0.027 -1.394 -0 -1.2 0
1.001 -0.037 -1.417 -0 -1.2 0
1.026 -0.048 -1.44 -0 -1.2 0
1.052 -0.06 -1.465 -0 -1.2 0
1.077 -0.073 -1.488 -0 -1.2 0
1.109 -0.081 -1.516 -0 -1.2 0
1.152 -0.078 -1.557 -0 -1.2 0
1.207 -0.067 -1.611 -0 -1.2 0
1.233 -0.085 -1.634 -0 -1.2 0
1.265 -0.099 -1.663 -0 -1.2 0
1.322 -0.093 -1.717 -0 -1.2 0
1.366 -0.099 -1.76 -0 -1.2 0
1.418 -0.103 -1.808 -0 -1.2 0
1.451 -0.123 -1.838 -0 -1.2 0
1.572 -0.082 -1.957 -0 -1.2 0
1.631 -0.09 -2.012 -0 -1.2 0
1.658 -0.119 -2.036 -0 -1.2 0
1.678 -0.154 -2.052 -0 -1.2 0
1.745 -0.164 -2.114 -0 -1.2 0
1.804 -0.18 -2.17 -0 -1.2 0
1.831 -0.215 -2.193 -0 -1.2 0
1.884 -0.239 -2.242 -0 -1.2 0
1.937 -0.265 -2.29 -0 -1.2 0
1.991 -0.292 -2.339 -0 -1.2 0
2.071 -0.311 -2.414 -0 -1.2 0
2.256 -0.295 -2.59 -0 -1.2 0
3.209 -0.014 -3.52 -0 -1.2 0
3.49 -0.003 -3.789 -0 -1.2 0
3.822 0.008 -4.105 -0 -1.2 0
4.17 0.008 -4.436 -0 -1.2 0
4.675 0.031 -4.918 -0 -1.2 0
5.303 0.056 -5.517 -0 -1.2 0
6.005 0.067 -6.186 -0 -1.2 0
7.116 0.115 -7.248 -0 -1.2 0
8.37 0.131 -8.441 -0 -1.2 0
10.359 0.181 -10.338 -0 -1.2 0
18.64 0.327 -18.229 -0 -1.2 0
18.731 -0.117 -18.28 -0 -1.2 0
18.846 -0.565 -18.353 -0 -1.2 0
3.898 -4.519 -3.82 -0 -1.2 0
3.723 -4.482 -3.656 -0 -1.2 0
3.695 -4.577 -3.622 -0 -1.2 0
