# .PCD v.7 - Point Cloud Data file format
FIELDS x y z vp_x vp_y vp_z
SIZE 4 4 4 4 4 4
TYPE F F F F F F
COUNT 1 1 1 1 1 1
WIDTH 1513
HEIGHT 1
VIEWPOINT 0 -1.20014 0 1 0 0 0
POINTS 1513
DATA ascii
-17.045 -12.429 21.719 -0 -1.2 0
-16.917 -12.911 21.563 -0 -1.2 0
-16.784 -13.392 21.4 -0 -1.2 0
-16.646 -13.867 21.23 -0 -1.2 0
-16.503 -14.339 21.054 -0 -1.2 0
-16.355 -14.806 20.871 -0 -1.2 0
-16.202 -15.27 20.682 -0 -1.2 0
-16.044 -15.73 20.486 -0 -1.2 0
-15.882 -16.185 20.284 -0 -1.2 0
-15.714 -16.635 20.076 -0 -1.2 0
-15.542 -17.08 19.862 -0 -1.2 0
-15.364 -17.521 19.642 -0 -1.2 0
-15.183 -17.956 19.414 -0 -1.2 0
-14.996 -18.387 19.182 -0 -1.2 0
-14.805 -18.812 18.943 -0 -1.2 0
-14.611 -19.232 18.699 -0 -1.2 0
-14.411 -19.646 18.449 -0 -1.2 0
-14.206 -20.055 18.193 -0 -1.2 0
-13.998 -20.458 17.932 -0 -1.2 0
-13.785 -20.855 17.665 -0 -1.2 0
-13.569 -21.246 17.392 -0 -1.2 0
-13.348 -21.63 17.114 -0 -1.2 0
-13.123 -22.009 16.83 -0 -1.2 0
-12.894 -22.382 16.542 -0 -1.2 0
-17.678 -0.657 24.029 -0 -1.2 0
-17.637 -2.75 24.008 -0 -1.2 0
-17.612 -3.272 23.985 -0 -1.2 0
-17.583 -3.794 23.953 -0 -1.2 0
-17.549 -4.315 23.915 -0 -1.2 0
-17.509 -4.835 23.868 -0 -1.2 0
-17.464 -5.354 23.815 -0 -1.2 0
-17.413 -5.872 23.754 -0 -1.2 0
-17.358 -6.388 23.686 -0 -1.2 0
-17.297 -6.903 23.611 -0 -1.2 0
-17.23 -7.415 23.529 -0 -1.2 0
-17.159 -7.926 23.439 -0 -1.2 0
-17.082 -8.435 23.342 -0 -1.2 0
-17 -8.941 23.237 -0 -1.2 0
-16.913 -9.446 23.126 -0 -1.2 0
-16.821 -9.947 23.008 -0 -1.2 0
-16.724 -10.446 22.882 -0 -1.2 0
-16.621 -10.942 22.75 -0 -1.2 0
-16.514 -11.435 22.61 -0 -1.2 0
-16.402 -11.925 22.463 -0 -1.2 0
-16.285 -12.412 22.31 -0 -1.2 0
-16.162 -12.894 22.149 -0 -1.2 0
-16.035 -13.375 21.982 -0 -1.2 0
-15.903 -13.85 21.808 -0 -1.2 0
-15.766 -14.323 21.627 -0 -1.2 0
-15.625 -14.79 21.44 -0 -1.2 0
-15.479 -15.254 21.246 -0 -1.2 0
-15.327 -15.714 21.045 -0 -1.2 0
-15.171 -16.169 20.838 -0 -1.2 0
-15.011 -16.619 20.625 -0 -1.2 0
-14.846 -17.064 20.405 -0 -1.2 0
-14.677 -17.506 20.179 -0 -1.2 0
-14.504 -17.941 19.946 -0 -1.2 0
-14.326 -18.372 19.707 -0 -1.2 0
-14.143 -18.797 19.463 -0 -1.2 0
-13.956 -19.217 19.212 -0 -1.2 0
-13.765 -19.631 18.955 -0 -1.2 0
-13.57 -20.041 18.693 -0 -1.2 0
-13.37 -20.444 18.425 -0 -1.2 0
-13.167 -20.841 18.151 -0 -1.2 0
-12.96 -21.232 17.872 -0 -1.2 0
-12.749 -21.617 17.587 -0 -1.2 0
-12.534 -21.996 17.297 -0 -1.2 0
-12.314 -22.369 17 -0 -1.2 0
-16.839 -0.116 24.617 -0 -1.2 0
-16.818 -2.208 24.626 -0 -1.2 0
-16.799 -2.731 24.609 -0 -1.2 0
-16.777 -3.253 24.585 -0 -1.2 0
-16.749 -3.775 24.553 -0 -1.2 0
-16.716 -4.296 24.514 -0 -1.2 0
-16.677 -4.817 24.466 -0 -1.2 0
-16.634 -5.336 24.412 -0 -1.2 0
-16.586 -5.854 24.35 -0 -1.2 0
-16.533 -6.369 24.281 -0 -1.2 0
-16.474 -6.884 24.204 -0 -1.2 0
-16.411 -7.397 24.119 -0 -1.2 0
-16.342 -7.908 24.027 -0 -1.2 0
-16.269 -8.416 23.927 -0 -1.2 0
-16.192 -8.923 23.821 -0 -1.2 0
-16.109 -9.428 23.707 -0 -1.2 0
-16.02 -9.93 23.586 -0 -1.2 0
-15.928 -10.428 23.457 -0 -1.2 0
-15.83 -10.925 23.322 -0 -1.2 0
-15.727 -11.417 23.179 -0 -1.2 0
-15.621 -11.908 23.028 -0 -1.2 0
-15.509 -12.395 22.872 -0 -1.2 0
-15.392 -12.877 22.708 -0 -1.2 0
-15.27 -13.358 22.536 -0 -1.2 0
-15.144 -13.833 22.358 -0 -1.2 0
-15.013 -14.306 22.173 -0 -1.2 0
-14.879 -14.773 21.981 -0 -1.2 0
-14.739 -15.238 21.783 -0 -1.2 0
-14.595 -15.697 21.578 -0 -1.2 0
-14.446 -16.153 21.365 -0 -1.2 0
-14.294 -16.603 21.146 -0 -1.2 0
-14.136 -17.049 20.922 -0 -1.2 0
-13.975 -17.49 20.69 -0 -1.2 0
-13.81 -17.925 20.453 -0 -1.2 0
-13.64 -18.357 20.208 -0 -1.2 0
-13.466 -18.782 19.958 -0 -1.2 0
-13.287 -19.202 19.701 -0 -1.2 0
-13.106 -19.617 19.439 -0 -1.2 0
-12.919 -20.026 19.169 -0 -1.2 0
-12.73 -20.429 18.896 -0 -1.2 0
-12.536 -20.827 18.615 -0 -1.2 0
-12.338 -21.218 18.329 -0 -1.2 0
-12.136 -21.603 18.037 -0 -1.2 0
-11.931 -21.982 17.74 -0 -1.2 0
-11.722 -22.356 17.436 -0 -1.2 0
-15.929 -0.618 25.238 -0 -1.2 0
-15.906 -2.187 25.233 -0 -1.2 0
-15.89 -2.711 25.217 -0 -1.2 0
-15.867 -3.233 25.192 -0 -1.2 0
-15.841 -3.755 25.158 -0 -1.2 0
-15.81 -4.276 25.119 -0 -1.2 0
-15.773 -4.797 25.071 -0 -1.2 0
-15.732 -5.316 25.014 -0 -1.2 0
-15.686 -5.834 24.951 -0 -1.2 0
-15.635 -6.35 24.88 -0 -1.2 0
-15.579 -6.864 24.801 -0 -1.2 0
-15.519 -7.377 24.715 -0 -1.2 0
-15.455 -7.888 24.621 -0 -1.2 0
-15.385 -8.397 24.519 -0 -1.2 0
-15.312 -8.904 24.411 -0 -1.2 0
-15.233 -9.408 24.294 -0 -1.2 0
-15.149 -9.91 24.17 -0 -1.2 0
-15.061 -10.409 24.038 -0 -1.2 0
-14.968 -10.906 23.899 -0 -1.2 0
-14.871 -11.398 23.754 -0 -1.2 0
-14.77 -11.889 23.6 -0 -1.2 0
-14.664 -12.376 23.439 -0 -1.2 0
-14.553 -12.859 23.271 -0 -1.2 0
-14.438 -13.339 23.096 -0 -1.2 0
-14.318 -13.815 22.913 -0 -1.2 0
-14.195 -14.288 22.725 -0 -1.2 0
-14.067 -14.755 22.528 -0 -1.2 0
-13.935 -15.22 22.325 -0 -1.2 0
-13.798 -15.68 22.115 -0 -1.2 0
-13.658 -16.135 21.898 -0 -1.2 0
-13.513 -16.586 21.675 -0 -1.2 0
-13.363 -17.031 21.444 -0 -1.2 0
-13.211 -17.473 21.207 -0 -1.2 0
-13.054 -17.909 20.964 -0 -1.2 0
-12.893 -18.34 20.714 -0 -1.2 0
-12.728 -18.766 20.458 -0 -1.2 0
-12.56 -19.186 20.195 -0 -1.2 0
-12.388 -19.601 19.926 -0 -1.2 0
-12.211 -20.01 19.651 -0 -1.2 0
-12.031 -20.414 19.371 -0 -1.2 0
-11.848 -20.811 19.083 -0 -1.2 0
-11.661 -21.203 18.791 -0 -1.2 0
-11.47 -21.588 18.492 -0 -1.2 0
-11.276 -21.968 18.188 -0 -1.2 0
-11.079 -22.341 17.878 -0 -1.2 0
-15.062 -0.077 25.757 -0 -1.2 0
-15.065 -0.6 25.771 -0 -1.2 0
-15.055 -1.645 25.776 -0 -1.2 0
-15.042 -2.168 25.767 -0 -1.2 0
-15.026 -2.692 25.75 -0 -1.2 0
-15.006 -3.214 25.724 -0 -1.2 0
-14.98 -3.736 25.691 -0 -1.2 0
-14.95 -4.257 25.651 -0 -1.2 0
-14.915 -4.778 25.601 -0 -1.2 0
-14.876 -5.297 25.545 -0 -1.2 0
-14.833 -5.815 25.48 -0 -1.2 0
-14.784 -6.331 25.408 -0 -1.2 0
-14.731 -6.846 25.327 -0 -1.2 0
-14.674 -7.359 25.24 -0 -1.2 0
-14.613 -7.87 25.144 -0 -1.2 0
-14.547 -8.378 25.04 -0 -1.2 0
-14.477 -8.885 24.929 -0 -1.2 0
-14.402 -9.39 24.81 -0 -1.2 0
-14.323 -9.892 24.684 -0 -1.2 0
-14.239 -10.391 24.55 -0 -1.2 0
-14.152 -10.888 24.408 -0 -1.2 0
-14.059 -11.381 24.259 -0 -1.2 0
-13.963 -11.871 24.102 -0 -1.2 0
-13.863 -12.358 23.938 -0 -1.2 0
-13.758 -12.841 23.767 -0 -1.2 0
-13.649 -13.322 23.588 -0 -1.2 0
-13.536 -13.798 23.403 -0 -1.2 0
-13.419 -14.271 23.21 -0 -1.2 0
-13.297 -14.738 23.01 -0 -1.2 0
-13.173 -15.203 22.802 -0 -1.2 0
-13.044 -15.663 22.588 -0 -1.2 0
-12.91 -16.119 22.367 -0 -1.2 0
-12.773 -16.57 22.139 -0 -1.2 0
-12.631 -17.015 21.904 -0 -1.2 0
-12.487 -17.457 21.662 -0 -1.2 0
-12.339 -17.893 21.414 -0 -1.2 0
-12.186 -18.325 21.159 -0 -1.2 0
-12.03 -18.75 20.897 -0 -1.2 0
-11.87 -19.171 20.63 -0 -1.2 0
-11.707 -19.586 20.356 -0 -1.2 0
-11.54 -19.996 20.075 -0 -1.2 0
-11.371 -20.399 19.789 -0 -1.2 0
-11.196 -20.797 19.497 -0 -1.2 0
-11.02 -21.189 19.197 -0 -1.2 0
-10.839 -21.575 18.893 -0 -1.2 0
-10.655 -21.954 18.582 -0 -1.2 0
-10.468 -22.328 18.267 -0 -1.2 0
-14.262 -0.076 26.218 -0 -1.2 0
-14.243 -2.168 26.227 -0 -1.2 0
-14.228 -2.692 26.208 -0 -1.2 0
-14.208 -3.214 26.182 -0 -1.2 0
-14.184 -3.736 26.148 -0 -1.2 0
-14.156 -4.257 26.106 -0 -1.2 0
-14.123 -4.778 26.056 -0 -1.2 0
-14.086 -5.297 25.997 -0 -1.2 0
-14.044 -5.814 25.932 -0 -1.2 0
-13.999 -6.33 25.857 -0 -1.2 0
-13.949 -6.845 25.775 -0 -1.2 0
-13.895 -7.358 25.686 -0 -1.2 0
-13.837 -7.869 25.588 -0 -1.2 0
-13.775 -8.378 25.483 -0 -1.2 0
-13.708 -8.885 25.369 -0 -1.2 0
-13.637 -9.39 25.248 -0 -1.2 0
-13.563 -9.892 25.119 -0 -1.2 0
-13.483 -10.39 24.982 -0 -1.2 0
-13.401 -10.887 24.838 -0 -1.2 0
-13.313 -11.38 24.686 -0 -1.2 0
-13.222 -11.871 24.526 -0 -1.2 0
-13.127 -12.358 24.359 -0 -1.2 0
-13.028 -12.841 24.184 -0 -1.2 0
-12.925 -13.322 24.003 -0 -1.2 0
-12.818 -13.797 23.813 -0 -1.2 0
-12.707 -14.27 23.616 -0 -1.2 0
-12.592 -14.738 23.413 -0 -1.2 0
-12.473 -15.203 23.202 -0 -1.2 0
-12.351 -15.663 22.983 -0 -1.2 0
-12.225 -16.118 22.758 -0 -1.2 0
-12.095 -16.569 22.525 -0 -1.2 0
-11.962 -17.015 22.286 -0 -1.2 0
-11.825 -17.457 22.04 -0 -1.2 0
-11.684 -17.893 21.788 -0 -1.2 0
-11.54 -18.324 21.528 -0 -1.2 0
-11.393 -18.75 21.262 -0 -1.2 0
-11.241 -19.171 20.989 -0 -1.2 0
-11.087 -19.586 20.71 -0 -1.2 0
-10.929 -19.995 20.424 -0 -1.2 0
-10.767 -20.399 20.133 -0 -1.2 0
-10.603 -20.797 19.835 -0 -1.2 0
-10.435 -21.189 19.531 -0 -1.2 0
-10.265 -21.574 19.22 -0 -1.2 0
-10.09 -21.954 18.904 -0 -1.2 0
-9.913 -22.328 18.583 -0 -1.2 0
-13.41 -0.081 26.674 -0 -1.2 0
-13.404 -1.65 26.692 -0 -1.2 0
-13.393 -2.173 26.681 -0 -1.2 0
-13.379 -2.697 26.662 -0 -1.2 0
-13.361 -3.219 26.635 -0 -1.2 0
-13.338 -3.741 26.6 -0 -1.2 0
-13.312 -4.262 26.557 -0 -1.2 0
-13.281 -4.783 26.505 -0 -1.2 0
-13.246 -5.302 26.446 -0 -1.2 0
-13.208 -5.82 26.378 -0 -1.2 0
-13.165 -6.336 26.302 -0 -1.2 0
-13.118 -6.85 26.218 -0 -1.2 0
-13.067 -7.363 26.126 -0 -1.2 0
-13.013 -7.874 26.026 -0 -1.2 0
-12.954 -8.383 25.918 -0 -1.2 0
-12.892 -8.89 25.802 -0 -1.2 0
-12.825 -9.395 25.679 -0 -1.2 0
-12.755 -9.897 25.547 -0 -1.2 0
-12.681 -10.396 25.407 -0 -1.2 0
-12.603 -10.892 25.26 -0 -1.2 0
-12.521 -11.385 25.106 -0 -1.2 0
-12.435 -11.876 24.943 -0 -1.2 0
-12.347 -12.363 24.772 -0 -1.2 0
-12.253 -12.846 24.594 -0 -1.2 0
-12.156 -13.326 24.409 -0 -1.2 0
-12.056 -13.802 24.216 -0 -1.2 0
-11.952 -14.275 24.015 -0 -1.2 0
-11.844 -14.743 23.808 -0 -1.2 0
-11.732 -15.208 23.593 -0 -1.2 0
-11.617 -15.667 23.37 -0 -1.2 0
-11.499 -16.123 23.141 -0 -1.2 0
-11.377 -16.574 22.904 -0 -1.2 0
-11.251 -17.02 22.661 -0 -1.2 0
-11.122 -17.461 22.41 -0 -1.2 0
-10.991 -17.897 22.153 -0 -1.2 0
-10.855 -18.329 21.889 -0 -1.2 0
-10.717 -18.754 21.617 -0 -1.2 0
-10.574 -19.175 21.34 -0 -1.2 0
-10.429 -19.59 21.056 -0 -1.2 0
-10.281 -20 20.765 -0 -1.2 0
-10.129 -20.403 20.468 -0 -1.2 0
-9.974 -20.801 20.165 -0 -1.2 0
-9.816 -21.193 19.855 -0 -1.2 0
-9.656 -21.578 19.54 -0 -1.2 0
-9.493 -21.958 19.219 -0 -1.2 0
-9.327 -22.332 18.891 -0 -1.2 0
-12.617 -0.088 27.07 -0 -1.2 0
-12.611 -1.657 27.086 -0 -1.2 0
-12.601 -2.18 27.074 -0 -1.2 0
-12.588 -2.704 27.054 -0 -1.2 0
-12.571 -3.226 27.026 -0 -1.2 0
-12.55 -3.748 26.99 -0 -1.2 0
-12.496 -4.79 26.893 -0 -1.2 0
-12.463 -5.309 26.833 -0 -1.2 0
-12.388 -6.343 26.686 -0 -1.2 0
-12.343 -6.857 26.601 -0 -1.2 0
-12.296 -7.37 26.507 -0 -1.2 0
-12.245 -7.881 26.405 -0 -1.2 0
-12.19 -8.39 26.295 -0 -1.2 0
-12.131 -8.897 26.178 -0 -1.2 0
-12.069 -9.402 26.051 -0 -1.2 0
-12.002 -9.903 25.918 -0 -1.2 0
-11.932 -10.402 25.775 -0 -1.2 0
-11.859 -10.899 25.626 -0 -1.2 0
-11.783 -11.392 25.468 -0 -1.2 0
-11.702 -11.883 25.302 -0 -1.2 0
-11.618 -12.369 25.13 -0 -1.2 0
-11.531 -12.852 24.949 -0 -1.2 0
-11.439 -13.333 24.76 -0 -1.2 0
-11.346 -13.809 24.563 -0 -1.2 0
-11.247 -14.281 24.36 -0 -1.2 0
-11.146 -14.749 24.149 -0 -1.2 0
-11.041 -15.214 23.93 -0 -1.2 0
-10.933 -15.674 23.704 -0 -1.2 0
-10.822 -16.129 23.472 -0 -1.2 0
-10.707 -16.58 23.231 -0 -1.2 0
-10.589 -17.026 22.984 -0 -1.2 0
-10.468 -17.467 22.73 -0 -1.2 0
-10.344 -17.903 22.468 -0 -1.2 0
-10.217 -18.335 22.199 -0 -1.2 0
-10.085 -18.76 21.925 -0 -1.2 0
-9.953 -19.181 21.642 -0 -1.2 0
-9.815 -19.595 21.354 -0 -1.2 0
-9.677 -20.005 21.059 -0 -1.2 0
-9.534 -20.409 20.757 -0 -1.2 0
-9.388 -20.806 20.449 -0 -1.2 0
-9.24 -21.198 20.135 -0 -1.2 0
-9.089 -21.584 19.815 -0 -1.2 0
-8.935 -21.963 19.488 -0 -1.2 0
-8.78 -22.337 19.155 -0 -1.2 0
-11.798 -2.189 27.444 -0 -1.2 0
-11.75 -3.757 27.358 -0 -1.2 0
-11.67 -5.318 27.196 -0 -1.2 0
-11.636 -5.836 27.126 -0 -1.2 0
-11.513 -7.379 26.865 -0 -1.2 0
-11.414 -8.399 26.65 -0 -1.2 0
-11.358 -8.906 26.53 -0 -1.2 0
-11.3 -9.41 26.401 -0 -1.2 0
-11.239 -9.912 26.266 -0 -1.2 0
-11.174 -10.411 26.121 -0 -1.2 0
-11.105 -10.908 25.969 -0 -1.2 0
-11.033 -11.4 25.809 -0 -1.2 0
-10.958 -11.891 25.641 -0 -1.2 0
-10.88 -12.378 25.466 -0 -1.2 0
-10.798 -12.86 25.282 -0 -1.2 0
-10.712 -13.341 25.09 -0 -1.2 0
-10.624 -13.817 24.891 -0 -1.2 0
-10.532 -14.29 24.684 -0 -1.2 0
-10.437 -14.757 24.47 -0 -1.2 0
-10.339 -15.222 24.248 -0 -1.2 0
-10.239 -15.681 24.019 -0 -1.2 0
-10.135 -16.137 23.783 -0 -1.2 0
-10.027 -16.588 23.538 -0 -1.2 0
-9.917 -17.033 23.287 -0 -1.2 0
-9.804 -17.475 23.029 -0 -1.2 0
-9.687 -17.91 22.764 -0 -1.2 0
-9.568 -18.342 22.492 -0 -1.2 0
-9.447 -18.768 22.213 -0 -1.2 0
-9.321 -19.188 21.927 -0 -1.2 0
-9.193 -19.603 21.634 -0 -1.2 0
-9.063 -20.012 21.335 -0 -1.2 0
-8.929 -20.416 21.028 -0 -1.2 0
-8.794 -20.813 20.717 -0 -1.2 0
-8.655 -21.205 20.398 -0 -1.2 0
-8.514 -21.59 20.073 -0 -1.2 0
-8.369 -21.97 19.742 -0 -1.2 0
-8.223 -22.343 19.404 -0 -1.2 0
-10.699 -6.878 27.322 -0 -1.2 0
-10.614 -7.901 27.12 -0 -1.2 0
-10.515 -8.917 26.883 -0 -1.2 0
-10.461 -9.422 26.753 -0 -1.2 0
-10.344 -10.422 26.469 -0 -1.2 0
-10.282 -10.919 26.314 -0 -1.2 0
-10.215 -11.411 26.151 -0 -1.2 0
-10.145 -11.902 25.98 -0 -1.2 0
-10.072 -12.389 25.802 -0 -1.2 0
-9.997 -12.871 25.616 -0 -1.2 0
-9.918 -13.352 25.421 -0 -1.2 0
-9.837 -13.828 25.219 -0 -1.2 0
-9.752 -14.3 25.009 -0 -1.2 0
-9.665 -14.768 24.791 -0 -1.2 0
-9.573 -15.232 24.566 -0 -1.2 0
-9.48 -15.692 24.334 -0 -1.2 0
-9.384 -16.147 24.093 -0 -1.2 0
-9.284 -16.598 23.847 -0 -1.2 0
-9.183 -17.043 23.592 -0 -1.2 0
-9.078 -17.485 23.329 -0 -1.2 0
-8.971 -17.92 23.06 -0 -1.2 0
-8.86 -18.352 22.784 -0 -1.2 0
-8.748 -18.777 22.502 -0 -1.2 0
-8.632 -19.198 22.211 -0 -1.2 0
-8.514 -19.612 21.915 -0 -1.2 0
-8.392 -20.021 21.611 -0 -1.2 0
-8.269 -20.425 21.3 -0 -1.2 0
-8.144 -20.822 20.984 -0 -1.2 0
-8.015 -21.213 20.661 -0 -1.2 0
-7.884 -21.599 20.331 -0 -1.2 0
-7.751 -21.978 19.996 -0 -1.2 0
-7.616 -22.351 19.654 -0 -1.2 0
-9.876 -7.403 27.528 -0 -1.2 0
-9.744 -8.929 27.182 -0 -1.2 0
-9.695 -9.434 27.049 -0 -1.2 0
-9.642 -9.936 26.909 -0 -1.2 0
-9.586 -10.434 26.76 -0 -1.2 0
-9.528 -10.931 26.604 -0 -1.2 0
-9.466 -11.424 26.439 -0 -1.2 0
-9.402 -11.914 26.266 -0 -1.2 0
-9.335 -12.401 26.085 -0 -1.2 0
-9.265 -12.883 25.896 -0 -1.2 0
-9.192 -13.364 25.7 -0 -1.2 0
-9.116 -13.839 25.495 -0 -1.2 0
-9.038 -14.312 25.282 -0 -1.2 0
-8.957 -14.779 25.062 -0 -1.2 0
-8.873 -15.244 24.834 -0 -1.2 0
-8.786 -15.703 24.599 -0 -1.2 0
-8.697 -16.159 24.356 -0 -1.2 0
-8.605 -16.609 24.105 -0 -1.2 0
-8.511 -17.054 23.847 -0 -1.2 0
-8.414 -17.496 23.581 -0 -1.2 0
-8.315 -17.931 23.31 -0 -1.2 0
-8.212 -18.362 23.03 -0 -1.2 0
-8.108 -18.788 22.743 -0 -1.2 0
-8.001 -19.208 22.45 -0 -1.2 0
-7.892 -19.622 22.149 -0 -1.2 0
-7.78 -20.031 21.842 -0 -1.2 0
-7.666 -20.435 21.529 -0 -1.2 0
-7.549 -20.832 21.209 -0 -1.2 0
-7.43 -21.223 20.881 -0 -1.2 0
-7.309 -21.608 20.547 -0 -1.2 0
-7.186 -21.987 20.208 -0 -1.2 0
-7.061 -22.361 19.862 -0 -1.2 0
-9.015 -8.437 27.58 -0 -1.2 0
-8.971 -8.944 27.454 -0 -1.2 0
-8.878 -9.95 27.178 -0 -1.2 0
-8.826 -10.448 27.028 -0 -1.2 0
-8.773 -10.945 26.869 -0 -1.2 0
-8.716 -11.438 26.702 -0 -1.2 0
-8.657 -11.928 26.527 -0 -1.2 0
-8.595 -12.414 26.344 -0 -1.2 0
-8.531 -12.897 26.153 -0 -1.2 0
-8.464 -13.377 25.954 -0 -1.2 0
-8.395 -13.853 25.746 -0 -1.2 0
-8.323 -14.325 25.532 -0 -1.2 0
-8.248 -14.792 25.309 -0 -1.2 0
-8.171 -15.257 25.078 -0 -1.2 0
-8.091 -15.716 24.841 -0 -1.2 0
-8.01 -16.171 24.595 -0 -1.2 0
-7.925 -16.622 24.341 -0 -1.2 0
-7.838 -17.067 24.081 -0 -1.2 0
-7.749 -17.508 23.813 -0 -1.2 0
-7.658 -17.943 23.536 -0 -1.2 0
-7.563 -18.374 23.254 -0 -1.2 0
-7.467 -18.8 22.965 -0 -1.2 0
-7.369 -19.22 22.668 -0 -1.2 0
-7.268 -19.634 22.364 -0 -1.2 0
-7.165 -20.043 22.054 -0 -1.2 0
-7.06 -20.446 21.736 -0 -1.2 0
-6.954 -20.843 21.412 -0 -1.2 0
-6.845 -21.234 21.082 -0 -1.2 0
-6.733 -21.619 20.745 -0 -1.2 0
-6.62 -21.998 20.402 -0 -1.2 0
-6.505 -22.371 20.052 -0 -1.2 0
-8.221 -7.411 28.092 -0 -1.2 0
-8.187 -7.922 27.982 -0 -1.2 0
-8.026 -9.944 27.459 -0 -1.2 0
-7.93 -10.939 27.147 -0 -1.2 0
-7.879 -11.431 26.979 -0 -1.2 0
-7.826 -11.922 26.802 -0 -1.2 0
-7.77 -12.408 26.618 -0 -1.2 0
-7.711 -12.891 26.424 -0 -1.2 0
-7.65 -13.371 26.223 -0 -1.2 0
-7.587 -13.847 26.014 -0 -1.2 0
-7.522 -14.319 25.797 -0 -1.2 0
-7.454 -14.787 25.573 -0 -1.2 0
-7.384 -15.251 25.339 -0 -1.2 0
-7.312 -15.71 25.099 -0 -1.2 0
-7.237 -16.166 24.851 -0 -1.2 0
-7.161 -16.616 24.596 -0 -1.2 0
-7.083 -17.061 24.332 -0 -1.2 0
-7.002 -17.502 24.062 -0 -1.2 0
-6.918 -17.938 23.783 -0 -1.2 0
-6.833 -18.369 23.499 -0 -1.2 0
-6.746 -18.794 23.206 -0 -1.2 0
-6.657 -19.214 22.907 -0 -1.2 0
-6.566 -19.629 22.6 -0 -1.2 0
-6.473 -20.038 22.287 -0 -1.2 0
-6.378 -20.441 21.966 -0 -1.2 0
-6.28 -20.838 21.639 -0 -1.2 0
-6.182 -21.229 21.306 -0 -1.2 0
-6.081 -21.614 20.966 -0 -1.2 0
-5.978 -21.993 20.62 -0 -1.2 0
-5.873 -22.366 20.266 -0 -1.2 0
-7.296 -8.934 27.978 -0 -1.2 0
-7.219 -9.941 27.697 -0 -1.2 0
-7.176 -10.439 27.544 -0 -1.2 0
-7.131 -10.936 27.382 -0 -1.2 0
-7.036 -11.919 27.035 -0 -1.2 0
-6.932 -12.888 26.654 -0 -1.2 0
-6.877 -13.368 26.452 -0 -1.2 0
-6.819 -13.844 26.241 -0 -1.2 0
-6.76 -14.316 26.023 -0 -1.2 0
-6.699 -14.784 25.795 -0 -1.2 0
-6.636 -15.248 25.561 -0 -1.2 0
-6.57 -15.708 25.319 -0 -1.2 0
-6.503 -16.163 25.069 -0 -1.2 0
-6.434 -16.613 24.811 -0 -1.2 0
-6.362 -17.059 24.546 -0 -1.2 0
-6.289 -17.5 24.273 -0 -1.2 0
-6.214 -17.935 23.993 -0 -1.2 0
-6.137 -18.366 23.705 -0 -1.2 0
-6.058 -18.792 23.411 -0 -1.2 0
-5.977 -19.212 23.109 -0 -1.2 0
-5.894 -19.626 22.8 -0 -1.2 0
-5.81 -20.035 22.484 -0 -1.2 0
-5.723 -20.438 22.162 -0 -1.2 0
-5.637 -20.836 21.832 -0 -1.2 0
-5.547 -21.227 21.496 -0 -1.2 0
-5.455 -21.612 21.153 -0 -1.2 0
-5.362 -21.991 20.804 -0 -1.2 0
-5.268 -22.364 20.448 -0 -1.2 0
-6.432 -8.443 28.335 -0 -1.2 0
-6.399 -8.95 28.207 -0 -1.2 0
-6.329 -9.956 27.923 -0 -1.2 0
-6.21 -11.443 27.435 -0 -1.2 0
-6.121 -12.42 27.067 -0 -1.2 0
-6.074 -12.903 26.871 -0 -1.2 0
-5.974 -13.858 26.454 -0 -1.2 0
-5.867 -14.798 26.005 -0 -1.2 0
-5.811 -15.262 25.769 -0 -1.2 0
-5.753 -15.721 25.523 -0 -1.2 0
-5.693 -16.177 25.272 -0 -1.2 0
-5.631 -16.627 25.011 -0 -1.2 0
-5.568 -17.072 24.744 -0 -1.2 0
-5.503 -17.513 24.469 -0 -1.2 0
-5.437 -17.948 24.187 -0 -1.2 0
-5.368 -18.379 23.896 -0 -1.2 0
-5.298 -18.805 23.599 -0 -1.2 0
-5.226 -19.225 23.295 -0 -1.2 0
-5.153 -19.639 22.983 -0 -1.2 0
-5.079 -20.048 22.665 -0 -1.2 0
-5.003 -20.451 22.339 -0 -1.2 0
-4.925 -20.848 22.008 -0 -1.2 0
-4.846 -21.239 21.668 -0 -1.2 0
-4.765 -21.624 21.323 -0 -1.2 0
-4.683 -22.002 20.971 -0 -1.2 0
-4.599 -22.375 20.612 -0 -1.2 0
-5.559 -8.963 28.394 -0 -1.2 0
-5.529 -9.468 28.256 -0 -1.2 0
-5.27 -12.915 27.048 -0 -1.2 0
-5.182 -13.871 26.628 -0 -1.2 0
-5.136 -14.343 26.406 -0 -1.2 0
-5.087 -14.81 26.175 -0 -1.2 0
-5.038 -15.274 25.937 -0 -1.2 0
-4.987 -15.733 25.691 -0 -1.2 0
-4.934 -16.189 25.438 -0 -1.2 0
-4.88 -16.639 25.175 -0 -1.2 0
-4.824 -17.084 24.906 -0 -1.2 0
-4.767 -17.525 24.629 -0 -1.2 0
-4.709 -17.96 24.344 -0 -1.2 0
-4.649 -18.391 24.053 -0 -1.2 0
-4.587 -18.816 23.754 -0 -1.2 0
-4.524 -19.235 23.447 -0 -1.2 0
-4.46 -19.649 23.133 -0 -1.2 0
-4.394 -20.058 22.812 -0 -1.2 0
-4.327 -20.461 22.485 -0 -1.2 0
-4.259 -20.858 22.15 -0 -1.2 0
-4.19 -21.249 21.809 -0 -1.2 0
-4.12 -21.633 21.461 -0 -1.2 0
-4.047 -22.012 21.106 -0 -1.2 0
-3.973 -22.385 20.746 -0 -1.2 0
-4.74 -8.469 28.689 -0 -1.2 0
-4.6 -10.976 27.949 -0 -1.2 0
-4.568 -11.468 27.775 -0 -1.2 0
-4.305 -14.821 26.325 -0 -1.2 0
-4.262 -15.285 26.085 -0 -1.2 0
-4.217 -15.744 25.837 -0 -1.2 0
-4.172 -16.199 25.582 -0 -1.2 0
-4.125 -16.649 25.319 -0 -1.2 0
-4.077 -17.094 25.048 -0 -1.2 0
-4.028 -17.535 24.768 -0 -1.2 0
-3.977 -17.97 24.482 -0 -1.2 0
-3.925 -18.401 24.189 -0 -1.2 0
-3.872 -18.826 23.888 -0 -1.2 0
-3.818 -19.245 23.579 -0 -1.2 0
-3.763 -19.659 23.263 -0 -1.2 0
-3.707 -20.068 22.941 -0 -1.2 0
-3.649 -20.471 22.612 -0 -1.2 0
-3.591 -20.867 22.274 -0 -1.2 0
-3.531 -21.258 21.931 -0 -1.2 0
-3.47 -21.643 21.582 -0 -1.2 0
-3.408 -22.021 21.225 -0 -1.2 0
-3.345 -22.394 20.862 -0 -1.2 0
-3.736 -10.491 28.259 -0 -1.2 0
-3.625 -12.456 27.543 -0 -1.2 0
-3.563 -13.418 27.134 -0 -1.2 0
-3.496 -14.365 26.693 -0 -1.2 0
-3.462 -14.832 26.46 -0 -1.2 0
-3.426 -15.296 26.219 -0 -1.2 0
-3.389 -15.755 25.97 -0 -1.2 0
-3.352 -16.21 25.713 -0 -1.2 0
-3.312 -16.66 25.448 -0 -1.2 0
-3.272 -17.105 25.175 -0 -1.2 0
-3.231 -17.546 24.894 -0 -1.2 0
-3.19 -17.98 24.606 -0 -1.2 0
-3.147 -18.411 24.311 -0 -1.2 0
-3.104 -18.836 24.008 -0 -1.2 0
-3.058 -19.255 23.699 -0 -1.2 0
-3.013 -19.669 23.381 -0 -1.2 0
-2.966 -20.077 23.057 -0 -1.2 0
-2.918 -20.48 22.726 -0 -1.2 0
-2.871 -20.877 22.387 -0 -1.2 0
-2.821 -21.267 22.042 -0 -1.2 0
-2.771 -21.652 21.691 -0 -1.2 0
-2.72 -22.03 21.331 -0 -1.2 0
-2.668 -22.402 20.966 -0 -1.2 0
-2.982 -8.997 28.816 -0 -1.2 0
-2.963 -9.502 28.675 -0 -1.2 0
-2.753 -13.903 27.019 -0 -1.2 0
-2.725 -14.375 26.793 -0 -1.2 0
-2.696 -14.842 26.559 -0 -1.2 0
-2.667 -15.305 26.317 -0 -1.2 0
-2.637 -15.764 26.066 -0 -1.2 0
-2.606 -16.219 25.808 -0 -1.2 0
-2.575 -16.669 25.542 -0 -1.2 0
-2.542 -17.113 25.268 -0 -1.2 0
-2.509 -17.554 24.987 -0 -1.2 0
-2.475 -17.989 24.698 -0 -1.2 0
-2.44 -18.419 24.401 -0 -1.2 0
-2.404 -18.844 24.097 -0 -1.2 0
-2.369 -19.263 23.786 -0 -1.2 0
-2.331 -19.677 23.467 -0 -1.2 0
-2.294 -20.085 23.142 -0 -1.2 0
-2.256 -20.488 22.809 -0 -1.2 0
-2.216 -20.884 22.469 -0 -1.2 0
-2.176 -21.275 22.123 -0 -1.2 0
-2.136 -21.659 21.769 -0 -1.2 0
-2.095 -22.037 21.409 -0 -1.2 0
-2.053 -22.41 21.043 -0 -1.2 0
-2.155 -9.006 28.902 -0 -1.2 0
-2.14 -9.51 28.761 -0 -1.2 0
-2.071 -11.498 28.107 -0 -1.2 0
-1.972 -13.911 27.098 -0 -1.2 0
-1.951 -14.383 26.871 -0 -1.2 0
-1.929 -14.85 26.636 -0 -1.2 0
-1.906 -15.313 26.393 -0 -1.2 0
-1.883 -15.772 26.142 -0 -1.2 0
-1.859 -16.227 25.883 -0 -1.2 0
-1.835 -16.677 25.616 -0 -1.2 0
-1.809 -17.121 25.342 -0 -1.2 0
-1.784 -17.562 25.058 -0 -1.2 0
-1.757 -17.996 24.769 -0 -1.2 0
-1.731 -18.427 24.471 -0 -1.2 0
-1.704 -18.851 24.166 -0 -1.2 0
-1.676 -19.271 23.854 -0 -1.2 0
-1.648 -19.684 23.534 -0 -1.2 0
-1.619 -20.092 23.208 -0 -1.2 0
-1.589 -20.495 22.874 -0 -1.2 0
-1.56 -20.891 22.533 -0 -1.2 0
-1.529 -21.281 22.185 -0 -1.2 0
-1.499 -21.666 21.831 -0 -1.2 0
-1.468 -22.044 21.471 -0 -1.2 0
-1.437 -22.416 21.103 -0 -1.2 0
-1.243 -9.525 28.827 -0 -1.2 0
-1.231 -10.026 28.675 -0 -1.2 0
-1.22 -10.524 28.515 -0 -1.2 0
-1.208 -11.02 28.347 -0 -1.2 0
-1.195 -11.512 28.17 -0 -1.2 0
-1.125 -13.924 27.158 -0 -1.2 0
-1.11 -14.396 26.93 -0 -1.2 0
-1.095 -14.863 26.694 -0 -1.2 0
-1.08 -15.327 26.451 -0 -1.2 0
-1.064 -15.785 26.198 -0 -1.2 0
-1.048 -16.24 25.939 -0 -1.2 0
-1.031 -16.689 25.671 -0 -1.2 0
-1.014 -17.134 25.395 -0 -1.2 0
-0.997 -17.574 25.112 -0 -1.2 0
-0.98 -18.009 24.821 -0 -1.2 0
-0.961 -18.439 24.523 -0 -1.2 0
-0.944 -18.863 24.217 -0 -1.2 0
-0.926 -19.282 23.904 -0 -1.2 0
-0.906 -19.696 23.583 -0 -1.2 0
-0.887 -20.104 23.256 -0 -1.2 0
-0.868 -20.506 22.921 -0 -1.2 0
-0.849 -20.902 22.58 -0 -1.2 0
-0.829 -21.292 22.23 -0 -1.2 0
-0.81 -21.676 21.875 -0 -1.2 0
-0.789 -22.054 21.513 -0 -1.2 0
-0.768 -22.426 21.144 -0 -1.2 0
-0.383 -9.047 29.001 -0 -1.2 0
-0.369 -10.053 28.705 -0 -1.2 0
-0.362 -10.55 28.545 -0 -1.2 0
-0.354 -11.046 28.376 -0 -1.2 0
-0.339 -12.028 28.012 -0 -1.2 0
-0.307 -13.95 27.182 -0 -1.2 0
-0.299 -14.421 26.953 -0 -1.2 0
-0.291 -14.888 26.717 -0 -1.2 0
-0.283 -15.351 26.472 -0 -1.2 0
-0.274 -15.809 26.219 -0 -1.2 0
-0.265 -16.264 25.959 -0 -1.2 0
-0.257 -16.713 25.691 -0 -1.2 0
-0.248 -17.157 25.414 -0 -1.2 0
-0.24 -17.597 25.13 -0 -1.2 0
-0.231 -18.031 24.838 -0 -1.2 0
-0.222 -18.462 24.539 -0 -1.2 0
-0.213 -18.886 24.233 -0 -1.2 0
-0.204 -19.305 23.918 -0 -1.2 0
-0.195 -19.717 23.598 -0 -1.2 0
-0.186 -20.125 23.269 -0 -1.2 0
-0.176 -20.527 22.933 -0 -1.2 0
-0.167 -20.923 22.591 -0 -1.2 0
-0.158 -21.313 22.241 -0 -1.2 0
-0.148 -21.696 21.885 -0 -1.2 0
-0.139 -22.074 21.523 -0 -1.2 0
-0.13 -22.446 21.153 -0 -1.2 0
0.508 -9.578 28.863 -0 -1.2 0
0.511 -10.079 28.711 -0 -1.2 0
0.516 -11.072 28.379 -0 -1.2 0
0.518 -11.564 28.201 -0 -1.2 0
0.52 -12.054 28.014 -0 -1.2 0
0.522 -12.539 27.818 -0 -1.2 0
0.523 -13.021 27.615 -0 -1.2 0
0.525 -13.5 27.402 -0 -1.2 0
0.526 -13.974 27.182 -0 -1.2 0
0.528 -14.446 26.953 -0 -1.2 0
0.529 -14.912 26.716 -0 -1.2 0
0.53 -15.375 26.47 -0 -1.2 0
0.531 -15.833 26.217 -0 -1.2 0
0.531 -16.287 25.956 -0 -1.2 0
0.531 -16.736 25.687 -0 -1.2 0
0.533 -17.18 25.41 -0 -1.2 0
0.533 -17.62 25.125 -0 -1.2 0
0.532 -18.054 24.833 -0 -1.2 0
0.532 -18.484 24.534 -0 -1.2 0
0.532 -18.908 24.227 -0 -1.2 0
0.532 -19.326 23.912 -0 -1.2 0
0.531 -19.739 23.59 -0 -1.2 0
0.53 -20.147 23.261 -0 -1.2 0
0.529 -20.548 22.925 -0 -1.2 0
0.528 -20.944 22.582 -0 -1.2 0
0.526 -21.333 22.233 -0 -1.2 0
0.525 -21.716 21.876 -0 -1.2 0
0.524 -22.094 21.513 -0 -1.2 0
0.522 -22.465 21.143 -0 -1.2 0
1.461 -10.107 28.686 -0 -1.2 0
1.458 -10.604 28.525 -0 -1.2 0
1.454 -11.1 28.354 -0 -1.2 0
1.451 -11.591 28.175 -0 -1.2 0
1.447 -12.081 27.987 -0 -1.2 0
1.442 -12.566 27.791 -0 -1.2 0
1.437 -13.048 27.587 -0 -1.2 0
1.433 -13.527 27.375 -0 -1.2 0
1.427 -14.001 27.153 -0 -1.2 0
1.421 -14.472 26.924 -0 -1.2 0
1.414 -14.938 26.686 -0 -1.2 0
1.407 -15.401 26.441 -0 -1.2 0
1.4 -15.859 26.187 -0 -1.2 0
1.392 -16.313 25.926 -0 -1.2 0
1.383 -16.761 25.657 -0 -1.2 0
1.375 -17.205 25.379 -0 -1.2 0
1.366 -17.645 25.094 -0 -1.2 0
1.355 -18.078 24.802 -0 -1.2 0
1.346 -18.508 24.501 -0 -1.2 0
1.336 -18.931 24.195 -0 -1.2 0
1.325 -19.35 23.88 -0 -1.2 0
1.314 -19.762 23.557 -0 -1.2 0
1.302 -20.169 23.229 -0 -1.2 0
1.29 -20.57 22.892 -0 -1.2 0
1.278 -20.965 22.55 -0 -1.2 0
1.265 -21.355 22.199 -0 -1.2 0
1.253 -21.738 21.843 -0 -1.2 0
1.239 -22.114 21.479 -0 -1.2 0
1.225 -22.485 21.109 -0 -1.2 0
2.348 -9.632 28.788 -0 -1.2 0
2.341 -10.132 28.635 -0 -1.2 0
2.334 -10.63 28.472 -0 -1.2 0
2.326 -11.125 28.301 -0 -1.2 0
2.316 -11.617 28.122 -0 -1.2 0
2.307 -12.106 27.934 -0 -1.2 0
2.296 -12.591 27.738 -0 -1.2 0
2.286 -13.072 27.534 -0 -1.2 0
2.274 -13.551 27.321 -0 -1.2 0
2.261 -14.025 27.1 -0 -1.2 0
2.249 -14.496 26.87 -0 -1.2 0
2.235 -14.962 26.632 -0 -1.2 0
2.22 -15.424 26.387 -0 -1.2 0
2.206 -15.882 26.134 -0 -1.2 0
2.19 -16.336 25.872 -0 -1.2 0
2.173 -16.784 25.603 -0 -1.2 0
2.157 -17.228 25.325 -0 -1.2 0
2.139 -17.667 25.04 -0 -1.2 0
2.12 -18.1 24.748 -0 -1.2 0
2.102 -18.529 24.448 -0 -1.2 0
2.082 -18.953 24.14 -0 -1.2 0
2.062 -19.371 23.826 -0 -1.2 0
2.041 -19.783 23.504 -0 -1.2 0
2.019 -20.19 23.174 -0 -1.2 0
1.998 -20.591 22.838 -0 -1.2 0
1.975 -20.985 22.496 -0 -1.2 0
1.952 -21.374 22.146 -0 -1.2 0
1.927 -21.757 21.789 -0 -1.2 0
1.903 -22.133 21.426 -0 -1.2 0
1.878 -22.504 21.056 -0 -1.2 0
3.259 -9.657 28.706 -0 -1.2 0
3.248 -10.157 28.553 -0 -1.2 0
3.235 -10.654 28.391 -0 -1.2 0
3.222 -11.15 28.22 -0 -1.2 0
3.208 -11.641 28.041 -0 -1.2 0
3.192 -12.13 27.853 -0 -1.2 0
3.176 -12.615 27.657 -0 -1.2 0
3.159 -13.096 27.453 -0 -1.2 0
3.141 -13.575 27.239 -0 -1.2 0
3.122 -14.048 27.018 -0 -1.2 0
3.101 -14.519 26.789 -0 -1.2 0
3.08 -14.985 26.551 -0 -1.2 0
3.059 -15.447 26.306 -0 -1.2 0
3.035 -15.905 26.053 -0 -1.2 0
3.011 -16.358 25.791 -0 -1.2 0
2.987 -16.806 25.522 -0 -1.2 0
2.961 -17.249 25.245 -0 -1.2 0
2.934 -17.689 24.961 -0 -1.2 0
2.908 -18.122 24.669 -0 -1.2 0
2.879 -18.55 24.368 -0 -1.2 0
2.849 -18.973 24.061 -0 -1.2 0
2.82 -19.391 23.747 -0 -1.2 0
2.789 -19.803 23.426 -0 -1.2 0
2.758 -20.21 23.098 -0 -1.2 0
2.725 -20.61 22.762 -0 -1.2 0
2.691 -21.005 22.419 -0 -1.2 0
2.658 -21.393 22.069 -0 -1.2 0
2.622 -21.775 21.714 -0 -1.2 0
2.586 -22.152 21.351 -0 -1.2 0
2.55 -22.522 20.983 -0 -1.2 0
4.257 -9.682 28.584 -0 -1.2 0
4.24 -10.183 28.43 -0 -1.2 0
4.222 -10.68 28.269 -0 -1.2 0
4.203 -11.175 28.099 -0 -1.2 0
4.183 -11.666 27.919 -0 -1.2 0
4.161 -12.155 27.732 -0 -1.2 0
4.138 -12.64 27.535 -0 -1.2 0
4.114 -13.121 27.331 -0 -1.2 0
4.088 -13.599 27.119 -0 -1.2 0
4.062 -14.073 26.897 -0 -1.2 0
4.034 -14.543 26.669 -0 -1.2 0
4.005 -15.009 26.432 -0 -1.2 0
3.975 -15.471 26.187 -0 -1.2 0
3.944 -15.928 25.933 -0 -1.2 0
3.911 -16.381 25.672 -0 -1.2 0
3.877 -16.829 25.404 -0 -1.2 0
3.842 -17.272 25.127 -0 -1.2 0
3.805 -17.711 24.844 -0 -1.2 0
3.768 -18.144 24.552 -0 -1.2 0
3.729 -18.572 24.254 -0 -1.2 0
3.691 -18.995 23.948 -0 -1.2 0
3.65 -19.412 23.634 -0 -1.2 0
3.608 -19.824 23.313 -0 -1.2 0
3.564 -20.23 22.986 -0 -1.2 0
3.521 -20.63 22.651 -0 -1.2 0
3.476 -21.025 22.31 -0 -1.2 0
3.429 -21.413 21.961 -0 -1.2 0
3.383 -21.795 21.606 -0 -1.2 0
3.334 -22.171 21.245 -0 -1.2 0
3.285 -22.541 20.877 -0 -1.2 0
5.162 -10.203 28.286 -0 -1.2 0
5.138 -10.7 28.125 -0 -1.2 0
5.114 -11.195 27.954 -0 -1.2 0
5.088 -11.686 27.776 -0 -1.2 0
5.061 -12.174 27.589 -0 -1.2 0
5.032 -12.659 27.393 -0 -1.2 0
5.002 -13.14 27.189 -0 -1.2 0
4.97 -13.618 26.977 -0 -1.2 0
4.936 -14.092 26.757 -0 -1.2 0
4.901 -14.562 26.529 -0 -1.2 0
4.864 -15.027 26.292 -0 -1.2 0
4.827 -15.489 26.048 -0 -1.2 0
4.787 -15.946 25.795 -0 -1.2 0
4.746 -16.399 25.535 -0 -1.2 0
4.704 -16.847 25.267 -0 -1.2 0
4.66 -17.29 24.993 -0 -1.2 0
4.615 -17.728 24.709 -0 -1.2 0
4.568 -18.161 24.418 -0 -1.2 0
4.521 -18.589 24.121 -0 -1.2 0
4.471 -19.012 23.816 -0 -1.2 0
4.421 -19.429 23.504 -0 -1.2 0
4.369 -19.84 23.185 -0 -1.2 0
4.315 -20.246 22.857 -0 -1.2 0
4.261 -20.646 22.524 -0 -1.2 0
4.205 -21.04 22.184 -0 -1.2 0
4.147 -21.428 21.838 -0 -1.2 0
4.089 -21.81 21.484 -0 -1.2 0
4.029 -22.186 21.124 -0 -1.2 0
3.969 -22.555 20.758 -0 -1.2 0
6.125 -10.185 28.117 -0 -1.2 0
6.097 -10.682 27.955 -0 -1.2 0
6.067 -11.177 27.786 -0 -1.2 0
6.035 -11.668 27.609 -0 -1.2 0
6.001 -12.157 27.423 -0 -1.2 0
5.966 -12.642 27.229 -0 -1.2 0
5.929 -13.122 27.027 -0 -1.2 0
5.89 -13.601 26.816 -0 -1.2 0
5.849 -14.075 26.597 -0 -1.2 0
5.806 -14.545 26.371 -0 -1.2 0
5.762 -15.01 26.136 -0 -1.2 0
5.717 -15.473 25.893 -0 -1.2 0
5.668 -15.93 25.642 -0 -1.2 0
5.619 -16.383 25.384 -0 -1.2 0
5.568 -16.831 25.118 -0 -1.2 0
5.515 -17.274 24.845 -0 -1.2 0
5.46 -17.712 24.564 -0 -1.2 0
5.404 -18.145 24.275 -0 -1.2 0
5.346 -18.574 23.98 -0 -1.2 0
5.287 -18.996 23.677 -0 -1.2 0
5.225 -19.414 23.366 -0 -1.2 0
5.162 -19.825 23.049 -0 -1.2 0
5.099 -20.232 22.724 -0 -1.2 0
5.033 -20.632 22.394 -0 -1.2 0
4.965 -21.026 22.056 -0 -1.2 0
4.896 -21.414 21.712 -0 -1.2 0
4.827 -21.796 21.36 -0 -1.2 0
4.755 -22.172 21.003 -0 -1.2 0
4.682 -22.542 20.639 -0 -1.2 0
7.154 -10.165 27.896 -0 -1.2 0
7.12 -10.662 27.737 -0 -1.2 0
7.084 -11.158 27.57 -0 -1.2 0
7.047 -11.649 27.393 -0 -1.2 0
7.007 -12.138 27.209 -0 -1.2 0
6.964 -12.623 27.017 -0 -1.2 0
6.92 -13.103 26.816 -0 -1.2 0
6.873 -13.582 26.607 -0 -1.2 0
6.825 -14.056 26.391 -0 -1.2 0
6.774 -14.526 26.166 -0 -1.2 0
6.721 -14.992 25.933 -0 -1.2 0
6.667 -15.454 25.693 -0 -1.2 0
6.61 -15.912 25.444 -0 -1.2 0
6.552 -16.365 25.188 -0 -1.2 0
6.491 -16.813 24.925 -0 -1.2 0
6.428 -17.256 24.653 -0 -1.2 0
6.363 -17.695 24.376 -0 -1.2 0
6.297 -18.128 24.089 -0 -1.2 0
6.228 -18.557 23.796 -0 -1.2 0
6.158 -18.98 23.495 -0 -1.2 0
6.086 -19.397 23.188 -0 -1.2 0
6.011 -19.809 22.873 -0 -1.2 0
5.936 -20.216 22.553 -0 -1.2 0
5.858 -20.616 22.224 -0 -1.2 0
5.779 -21.011 21.889 -0 -1.2 0
5.697 -21.399 21.547 -0 -1.2 0
5.615 -21.781 21.2 -0 -1.2 0
5.529 -22.157 20.845 -0 -1.2 0
5.444 -22.527 20.484 -0 -1.2 0
8.101 -10.147 27.658 -0 -1.2 0
8.063 -10.644 27.5 -0 -1.2 0
8.022 -11.139 27.334 -0 -1.2 0
7.978 -11.63 27.16 -0 -1.2 0
7.931 -12.12 26.978 -0 -1.2 0
7.883 -12.605 26.787 -0 -1.2 0
7.832 -13.086 26.589 -0 -1.2 0
7.779 -13.565 26.382 -0 -1.2 0
7.723 -14.038 26.166 -0 -1.2 0
7.665 -14.509 25.944 -0 -1.2 0
7.604 -14.975 25.713 -0 -1.2 0
7.541 -15.437 25.475 -0 -1.2 0
7.477 -15.895 25.229 -0 -1.2 0
7.409 -16.348 24.976 -0 -1.2 0
7.341 -16.797 24.714 -0 -1.2 0
7.269 -17.24 24.446 -0 -1.2 0
7.195 -17.679 24.17 -0 -1.2 0
7.118 -18.112 23.887 -0 -1.2 0
7.041 -18.541 23.597 -0 -1.2 0
6.96 -18.964 23.299 -0 -1.2 0
6.878 -19.382 22.994 -0 -1.2 0
6.793 -19.794 22.682 -0 -1.2 0
6.707 -20.201 22.364 -0 -1.2 0
6.617 -20.601 22.039 -0 -1.2 0
6.527 -20.996 21.708 -0 -1.2 0
6.435 -21.385 21.369 -0 -1.2 0
6.34 -21.767 21.025 -0 -1.2 0
6.243 -22.143 20.673 -0 -1.2 0
6.145 -22.514 20.316 -0 -1.2 0
8.995 -10.625 27.231 -0 -1.2 0
8.948 -11.121 27.067 -0 -1.2 0
8.899 -11.612 26.895 -0 -1.2 0
8.847 -12.101 26.714 -0 -1.2 0
8.792 -12.586 26.526 -0 -1.2 0
8.734 -13.068 26.328 -0 -1.2 0
8.674 -13.547 26.124 -0 -1.2 0
8.612 -14.021 25.912 -0 -1.2 0
8.546 -14.491 25.691 -0 -1.2 0
8.478 -14.957 25.463 -0 -1.2 0
8.408 -15.42 25.228 -0 -1.2 0
8.335 -15.878 24.985 -0 -1.2 0
8.259 -16.331 24.734 -0 -1.2 0
8.181 -16.78 24.475 -0 -1.2 0
8.1 -17.223 24.21 -0 -1.2 0
8.017 -17.663 23.937 -0 -1.2 0
7.932 -18.096 23.656 -0 -1.2 0
7.844 -18.525 23.369 -0 -1.2 0
7.754 -18.948 23.074 -0 -1.2 0
7.661 -19.366 22.773 -0 -1.2 0
7.566 -19.778 22.464 -0 -1.2 0
7.469 -20.185 22.149 -0 -1.2 0
7.37 -20.586 21.827 -0 -1.2 0
7.268 -20.981 21.5 -0 -1.2 0
7.164 -21.37 21.165 -0 -1.2 0
7.057 -21.753 20.823 -0 -1.2 0
6.949 -22.129 20.476 -0 -1.2 0
6.839 -22.5 20.122 -0 -1.2 0
9.986 -10.605 26.908 -0 -1.2 0
9.934 -11.101 26.746 -0 -1.2 0
9.879 -11.592 26.575 -0 -1.2 0
9.82 -12.081 26.397 -0 -1.2 0
9.758 -12.567 26.211 -0 -1.2 0
9.694 -13.048 26.017 -0 -1.2 0
9.626 -13.527 25.815 -0 -1.2 0
9.556 -14.001 25.604 -0 -1.2 0
9.483 -14.472 25.387 -0 -1.2 0
9.406 -14.938 25.162 -0 -1.2 0
9.328 -15.401 24.93 -0 -1.2 0
9.246 -15.859 24.689 -0 -1.2 0
9.162 -16.313 24.441 -0 -1.2 0
9.075 -16.762 24.186 -0 -1.2 0
8.984 -17.205 23.924 -0 -1.2 0
8.892 -17.645 23.654 -0 -1.2 0
8.796 -18.078 23.378 -0 -1.2 0
8.698 -18.508 23.094 -0 -1.2 0
8.597 -18.931 22.804 -0 -1.2 0
8.494 -19.349 22.506 -0 -1.2 0
8.387 -19.762 22.202 -0 -1.2 0
8.279 -20.169 21.891 -0 -1.2 0
8.168 -20.57 21.573 -0 -1.2 0
8.055 -20.965 21.249 -0 -1.2 0
7.939 -21.354 20.918 -0 -1.2 0
7.82 -21.737 20.581 -0 -1.2 0
7.7 -22.114 20.238 -0 -1.2 0
7.577 -22.485 19.888 -0 -1.2 0
10.879 -10.586 26.581 -0 -1.2 0
10.821 -11.082 26.421 -0 -1.2 0
10.76 -11.574 26.253 -0 -1.2 0
10.695 -12.063 26.077 -0 -1.2 0
10.628 -12.549 25.893 -0 -1.2 0
10.558 -13.03 25.701 -0 -1.2 0
10.484 -13.509 25.502 -0 -1.2 0
10.407 -13.983 25.296 -0 -1.2 0
10.326 -14.455 25.08 -0 -1.2 0
10.243 -14.921 24.858 -0 -1.2 0
10.156 -15.384 24.629 -0 -1.2 0
10.067 -15.842 24.392 -0 -1.2 0
9.974 -16.296 24.147 -0 -1.2 0
9.879 -16.745 23.895 -0 -1.2 0
9.78 -17.189 23.636 -0 -1.2 0
9.679 -17.628 23.37 -0 -1.2 0
9.574 -18.062 23.097 -0 -1.2 0
9.467 -18.492 22.817 -0 -1.2 0
9.357 -18.915 22.53 -0 -1.2 0
9.244 -19.334 22.237 -0 -1.2 0
9.128 -19.746 21.935 -0 -1.2 0
9.01 -20.154 21.628 -0 -1.2 0
8.888 -20.555 21.315 -0 -1.2 0
8.764 -20.95 20.995 -0 -1.2 0
8.637 -21.34 20.669 -0 -1.2 0
8.507 -21.723 20.337 -0 -1.2 0
8.376 -22.1 19.998 -0 -1.2 0
8.241 -22.471 19.653 -0 -1.2 0
11.759 -10.567 26.225 -0 -1.2 0
11.696 -11.063 26.067 -0 -1.2 0
11.63 -11.555 25.902 -0 -1.2 0
11.56 -12.045 25.728 -0 -1.2 0
11.486 -12.53 25.547 -0 -1.2 0
11.409 -13.012 25.358 -0 -1.2 0
11.329 -13.491 25.161 -0 -1.2 0
11.245 -13.966 24.958 -0 -1.2 0
11.159 -14.437 24.746 -0 -1.2 0
11.068 -14.903 24.527 -0 -1.2 0
10.974 -15.366 24.3 -0 -1.2 0
10.877 -15.825 24.066 -0 -1.2 0
10.776 -16.279 23.825 -0 -1.2 0
10.673 -16.728 23.578 -0 -1.2 0
10.566 -17.172 23.322 -0 -1.2 0
10.455 -17.612 23.06 -0 -1.2 0
10.342 -18.046 22.791 -0 -1.2 0
10.225 -18.475 22.514 -0 -1.2 0
10.106 -18.899 22.232 -0 -1.2 0
9.983 -19.318 21.941 -0 -1.2 0
9.857 -19.731 21.646 -0 -1.2 0
9.729 -20.138 21.343 -0 -1.2 0
9.598 -20.54 21.035 -0 -1.2 0
9.463 -20.935 20.718 -0 -1.2 0
9.326 -21.325 20.397 -0 -1.2 0
9.185 -21.708 20.069 -0 -1.2 0
9.042 -22.086 19.736 -0 -1.2 0
8.897 -22.457 19.395 -0 -1.2 0
12.624 -10.539 25.847 -0 -1.2 0
12.556 -11.035 25.692 -0 -1.2 0
12.485 -11.527 25.529 -0 -1.2 0
12.41 -12.017 25.358 -0 -1.2 0
12.331 -12.502 25.18 -0 -1.2 0
12.248 -12.984 24.994 -0 -1.2 0
12.162 -13.464 24.801 -0 -1.2 0
12.072 -13.938 24.6 -0 -1.2 0
11.978 -14.41 24.392 -0 -1.2 0
11.881 -14.877 24.176 -0 -1.2 0
11.779 -15.34 23.954 -0 -1.2 0
11.675 -15.798 23.723 -0 -1.2 0
11.567 -16.253 23.486 -0 -1.2 0
11.455 -16.702 23.241 -0 -1.2 0
11.34 -17.146 22.991 -0 -1.2 0
11.222 -17.587 22.732 -0 -1.2 0
11.1 -18.021 22.467 -0 -1.2 0
10.975 -18.451 22.195 -0 -1.2 0
10.846 -18.875 21.917 -0 -1.2 0
10.714 -19.294 21.632 -0 -1.2 0
10.579 -19.707 21.341 -0 -1.2 0
10.44 -20.115 21.043 -0 -1.2 0
10.3 -20.517 20.738 -0 -1.2 0
10.154 -20.913 20.427 -0 -1.2 0
10.007 -21.303 20.112 -0 -1.2 0
9.856 -21.687 19.789 -0 -1.2 0
9.703 -22.064 19.46 -0 -1.2 0
9.546 -22.436 19.125 -0 -1.2 0
13.404 -10.51 25.477 -0 -1.2 0
13.331 -11.006 25.325 -0 -1.2 0
13.255 -11.498 25.164 -0 -1.2 0
13.176 -11.988 24.997 -0 -1.2 0
13.092 -12.474 24.821 -0 -1.2 0
13.004 -12.956 24.638 -0 -1.2 0
12.912 -13.436 24.447 -0 -1.2 0
12.817 -13.91 24.25 -0 -1.2 0
12.717 -14.382 24.046 -0 -1.2 0
12.614 -14.849 23.833 -0 -1.2 0
12.506 -15.313 23.613 -0 -1.2 0
12.395 -15.771 23.387 -0 -1.2 0
12.28 -16.226 23.153 -0 -1.2 0
12.161 -16.676 22.913 -0 -1.2 0
12.039 -17.12 22.666 -0 -1.2 0
11.914 -17.561 22.412 -0 -1.2 0
11.783 -17.995 22.151 -0 -1.2 0
11.651 -18.426 21.883 -0 -1.2 0
11.514 -18.85 21.61 -0 -1.2 0
11.374 -19.27 21.328 -0 -1.2 0
11.23 -19.683 21.042 -0 -1.2 0
11.084 -20.091 20.748 -0 -1.2 0
10.933 -20.494 20.449 -0 -1.2 0
10.78 -20.89 20.144 -0 -1.2 0
10.622 -21.28 19.832 -0 -1.2 0
10.462 -21.664 19.514 -0 -1.2 0
10.299 -22.042 19.19 -0 -1.2 0
10.133 -22.414 18.862 -0 -1.2 0
14.169 -10.48 25.086 -0 -1.2 0
14.093 -10.976 24.935 -0 -1.2 0
14.012 -11.469 24.778 -0 -1.2 0
13.928 -11.959 24.613 -0 -1.2 0
13.839 -12.445 24.44 -0 -1.2 0
13.747 -12.927 24.26 -0 -1.2 0
13.649 -13.407 24.073 -0 -1.2 0
13.548 -13.882 23.879 -0 -1.2 0
13.442 -14.354 23.677 -0 -1.2 0
13.333 -14.821 23.469 -0 -1.2 0
13.219 -15.285 23.254 -0 -1.2 0
13.101 -15.744 23.031 -0 -1.2 0
12.98 -16.199 22.801 -0 -1.2 0
12.854 -16.649 22.565 -0 -1.2 0
12.725 -17.094 22.322 -0 -1.2 0
12.592 -17.535 22.072 -0 -1.2 0
12.455 -17.97 21.816 -0 -1.2 0
12.315 -18.4 21.553 -0 -1.2 0
12.17 -18.825 21.283 -0 -1.2 0
12.021 -19.245 21.007 -0 -1.2 0
11.869 -19.658 20.725 -0 -1.2 0
11.714 -20.067 20.437 -0 -1.2 0
11.555 -20.47 20.141 -0 -1.2 0
11.392 -20.866 19.841 -0 -1.2 0
11.226 -21.257 19.535 -0 -1.2 0
11.057 -21.641 19.223 -0 -1.2 0
10.884 -22.02 18.905 -0 -1.2 0
10.708 -22.392 18.58 -0 -1.2 0
14.979 -10.448 24.638 -0 -1.2 0
14.899 -10.944 24.491 -0 -1.2 0
14.813 -11.437 24.336 -0 -1.2 0
14.724 -11.927 24.175 -0 -1.2 0
14.629 -12.413 24.006 -0 -1.2 0
14.532 -12.896 23.829 -0 -1.2 0
14.429 -13.376 23.646 -0 -1.2 0
14.321 -13.851 23.455 -0 -1.2 0
14.21 -14.324 23.258 -0 -1.2 0
14.093 -14.791 23.054 -0 -1.2 0
13.973 -15.255 22.842 -0 -1.2 0
13.85 -15.715 22.624 -0 -1.2 0
13.721 -16.17 22.399 -0 -1.2 0
13.588 -16.62 22.167 -0 -1.2 0
13.451 -17.065 21.928 -0 -1.2 0
13.31 -17.506 21.684 -0 -1.2 0
13.166 -17.941 21.432 -0 -1.2 0
13.016 -18.372 21.174 -0 -1.2 0
12.863 -18.798 20.91 -0 -1.2 0
12.706 -19.218 20.639 -0 -1.2 0
12.546 -19.632 20.362 -0 -1.2 0
12.381 -20.041 20.08 -0 -1.2 0
12.213 -20.444 19.791 -0 -1.2 0
12.041 -20.841 19.496 -0 -1.2 0
11.866 -21.232 19.196 -0 -1.2 0
11.686 -21.617 18.889 -0 -1.2 0
11.503 -21.995 18.577 -0 -1.2 0
11.318 -22.368 18.259 -0 -1.2 0
15.717 -10.417 24.199 -0 -1.2 0
15.633 -10.914 24.055 -0 -1.2 0
15.543 -11.407 23.903 -0 -1.2 0
15.449 -11.897 23.745 -0 -1.2 0
15.351 -12.384 23.579 -0 -1.2 0
15.246 -12.866 23.406 -0 -1.2 0
15.139 -13.347 23.226 -0 -1.2 0
15.026 -13.823 23.04 -0 -1.2 0
14.909 -14.295 22.846 -0 -1.2 0
14.787 -14.763 22.646 -0 -1.2 0
14.661 -15.227 22.438 -0 -1.2 0
14.531 -15.687 22.225 -0 -1.2 0
14.395 -16.142 22.004 -0 -1.2 0
14.256 -16.593 21.776 -0 -1.2 0
14.113 -17.038 21.542 -0 -1.2 0
13.964 -17.48 21.302 -0 -1.2 0
13.812 -17.915 21.055 -0 -1.2 0
13.656 -18.346 20.803 -0 -1.2 0
13.495 -18.772 20.544 -0 -1.2 0
13.331 -19.192 20.278 -0 -1.2 0
13.162 -19.607 20.007 -0 -1.2 0
12.99 -20.016 19.729 -0 -1.2 0
12.813 -20.419 19.446 -0 -1.2 0
12.632 -20.817 19.157 -0 -1.2 0
12.448 -21.208 18.862 -0 -1.2 0
12.26 -21.593 18.562 -0 -1.2 0
12.068 -21.973 18.256 -0 -1.2 0
11.872 -22.346 17.944 -0 -1.2 0
16.43 -10.387 23.746 -0 -1.2 0
16.341 -10.884 23.604 -0 -1.2 0
16.248 -11.377 23.457 -0 -1.2 0
16.15 -11.868 23.301 -0 -1.2 0
16.047 -12.354 23.139 -0 -1.2 0
15.938 -12.837 22.97 -0 -1.2 0
15.825 -13.318 22.793 -0 -1.2 0
15.708 -13.794 22.611 -0 -1.2 0
15.585 -14.267 22.42 -0 -1.2 0
15.458 -14.734 22.224 -0 -1.2 0
15.326 -15.199 22.021 -0 -1.2 0
15.189 -15.659 21.811 -0 -1.2 0
15.048 -16.115 21.595 -0 -1.2 0
14.902 -16.565 21.372 -0 -1.2 0
14.752 -17.011 21.143 -0 -1.2 0
14.597 -17.453 20.908 -0 -1.2 0
14.438 -17.889 20.666 -0 -1.2 0
14.275 -18.32 20.418 -0 -1.2 0
14.107 -18.746 20.164 -0 -1.2 0
13.934 -19.167 19.904 -0 -1.2 0
13.758 -19.582 19.639 -0 -1.2 0
13.577 -19.991 19.366 -0 -1.2 0
13.393 -20.395 19.089 -0 -1.2 0
13.203 -20.793 18.806 -0 -1.2 0
13.011 -21.184 18.517 -0 -1.2 0
12.815 -21.57 18.222 -0 -1.2 0
12.614 -21.95 17.922 -0 -1.2 0
12.409 -22.323 17.617 -0 -1.2 0
17.173 -10.355 23.241 -0 -1.2 0
17.08 -10.852 23.103 -0 -1.2 0
16.982 -11.345 22.959 -0 -1.2 0
16.88 -11.836 22.807 -0 -1.2 0
16.772 -12.323 22.648 -0 -1.2 0
16.658 -12.806 22.482 -0 -1.2 0
16.54 -13.287 22.311 -0 -1.2 0
16.416 -13.763 22.133 -0 -1.2 0
16.288 -14.236 21.947 -0 -1.2 0
16.155 -14.704 21.755 -0 -1.2 0
16.018 -15.169 21.556 -0 -1.2 0
15.875 -15.629 21.352 -0 -1.2 0
15.727 -16.085 21.141 -0 -1.2 0
15.575 -16.536 20.923 -0 -1.2 0
15.418 -16.982 20.699 -0 -1.2 0
15.255 -17.424 20.469 -0 -1.2 0
15.089 -17.86 20.233 -0 -1.2 0
14.918 -18.292 19.991 -0 -1.2 0
14.742 -18.718 19.742 -0 -1.2 0
14.562 -19.14 19.489 -0 -1.2 0
14.378 -19.555 19.229 -0 -1.2 0
14.189 -19.965 18.964 -0 -1.2 0
13.996 -20.369 18.692 -0 -1.2 0
13.799 -20.767 18.415 -0 -1.2 0
13.598 -21.159 18.133 -0 -1.2 0
13.392 -21.545 17.846 -0 -1.2 0
13.182 -21.925 17.553 -0 -1.2 0
12.969 -22.299 17.254 -0 -1.2 0
17.818 -10.341 22.767 -0 -1.2 0
17.721 -10.838 22.631 -0 -1.2 0
17.62 -11.332 22.489 -0 -1.2 0
17.513 -11.823 22.34 -0 -1.2 0
17.401 -12.31 22.186 -0 -1.2 0
17.283 -12.793 22.023 -0 -1.2 0
17.161 -13.274 21.854 -0 -1.2 0
17.033 -13.75 21.679 -0 -1.2 0
16.9 -14.223 21.498 -0 -1.2 0
16.762 -14.691 21.311 -0 -1.2 0
16.618 -15.157 21.116 -0 -1.2 0
16.471 -15.617 20.915 -0 -1.2 0
16.317 -16.073 20.708 -0 -1.2 0
16.159 -16.524 20.495 -0 -1.2 0
15.995 -16.97 20.276 -0 -1.2 0
15.828 -17.413 20.05 -0 -1.2 0
15.655 -17.849 19.819 -0 -1.2 0
15.477 -18.281 19.582 -0 -1.2 0
15.295 -18.707 19.339 -0 -1.2 0
15.108 -19.128 19.09 -0 -1.2 0
14.917 -19.544 18.835 -0 -1.2 0
14.721 -19.954 18.576 -0 -1.2 0
14.52 -20.358 18.309 -0 -1.2 0
14.316 -20.756 18.039 -0 -1.2 0
14.106 -21.149 17.762 -0 -1.2 0
13.894 -21.535 17.48 -0 -1.2 0
13.675 -21.915 17.194 -0 -1.2 0
13.454 -22.29 16.902 -0 -1.2 0
18.438 -10.333 22.281 -0 -1.2 0
18.339 -10.83 22.149 -0 -1.2 0
18.233 -11.323 22.01 -0 -1.2 0
18.123 -11.815 21.863 -0 -1.2 0
18.007 -12.302 21.712 -0 -1.2 0
17.885 -12.785 21.553 -0 -1.2 0
17.758 -13.266 21.388 -0 -1.2 0
17.626 -13.742 21.216 -0 -1.2 0
17.488 -14.216 21.038 -0 -1.2 0
17.345 -14.684 20.854 -0 -1.2 0
17.196 -15.149 20.664 -0 -1.2 0
17.044 -15.609 20.467 -0 -1.2 0
16.884 -16.065 20.264 -0 -1.2 0
16.721 -16.517 20.055 -0 -1.2 0
16.552 -16.963 19.841 -0 -1.2 0
16.378 -17.405 19.62 -0 -1.2 0
16.2 -17.842 19.394 -0 -1.2 0
16.016 -18.274 19.161 -0 -1.2 0
15.827 -18.7 18.923 -0 -1.2 0
15.634 -19.121 18.68 -0 -1.2 0
15.436 -19.537 18.43 -0 -1.2 0
15.233 -19.947 18.176 -0 -1.2 0
15.026 -20.351 17.916 -0 -1.2 0
14.814 -20.75 17.65 -0 -1.2 0
14.597 -21.142 17.38 -0 -1.2 0
14.376 -21.528 17.103 -0 -1.2 0
14.151 -21.909 16.823 -0 -1.2 0
13.922 -22.283 16.537 -0 -1.2 0
19.103 -10.323 21.728 -0 -1.2 0
19 -10.82 21.598 -0 -1.2 0
18.891 -11.313 21.462 -0 -1.2 0
18.776 -11.804 21.32 -0 -1.2 0
18.656 -12.292 21.171 -0 -1.2 0
18.53 -12.775 21.016 -0 -1.2 0
18.399 -13.256 20.854 -0 -1.2 0
18.262 -13.732 20.686 -0 -1.2 0
18.118 -14.206 20.513 -0 -1.2 0
17.97 -14.674 20.333 -0 -1.2 0
17.817 -15.139 20.147 -0 -1.2 0
17.658 -15.599 19.955 -0 -1.2 0
17.493 -16.056 19.758 -0 -1.2 0
17.324 -16.507 19.553 -0 -1.2 0
17.148 -16.953 19.344 -0 -1.2 0
16.969 -17.396 19.128 -0 -1.2 0
16.784 -17.832 18.908 -0 -1.2 0
16.593 -18.265 18.681 -0 -1.2 0
16.398 -18.691 18.448 -0 -1.2 0
16.198 -19.112 18.211 -0 -1.2 0
15.992 -19.528 17.968 -0 -1.2 0
15.783 -19.938 17.719 -0 -1.2 0
15.567 -20.343 17.466 -0 -1.2 0
15.347 -20.741 17.207 -0 -1.2 0
15.123 -21.134 16.943 -0 -1.2 0
14.895 -21.52 16.674 -0 -1.2 0
14.661 -21.901 16.399 -0 -1.2 0
14.424 -22.275 16.12 -0 -1.2 0
19.71 -10.312 21.191 -0 -1.2 0
19.604 -10.809 21.064 -0 -1.2 0
19.492 -11.302 20.932 -0 -1.2 0
19.373 -11.793 20.792 -0 -1.2 0
19.249 -12.281 20.647 -0 -1.2 0
19.119 -12.764 20.495 -0 -1.2 0
18.983 -13.245 20.337 -0 -1.2 0
18.842 -13.722 20.174 -0 -1.2 0
18.694 -14.195 20.005 -0 -1.2 0
18.542 -14.663 19.829 -0 -1.2 0
18.383 -15.129 19.647 -0 -1.2 0
18.219 -15.589 19.46 -0 -1.2 0
18.05 -16.046 19.266 -0 -1.2 0
17.874 -16.497 19.068 -0 -1.2 0
17.693 -16.943 18.863 -0 -1.2 0
17.508 -17.386 18.652 -0 -1.2 0
17.317 -17.822 18.437 -0 -1.2 0
17.121 -18.255 18.216 -0 -1.2 0
16.919 -18.681 17.989 -0 -1.2 0
16.712 -19.103 17.757 -0 -1.2 0
16.5 -19.518 17.52 -0 -1.2 0
16.283 -19.929 17.277 -0 -1.2 0
16.062 -20.334 17.03 -0 -1.2 0
15.835 -20.732 16.777 -0 -1.2 0
15.604 -21.125 16.52 -0 -1.2 0
15.368 -21.511 16.257 -0 -1.2 0
15.127 -21.892 15.99 -0 -1.2 0
14.882 -22.267 15.718 -0 -1.2 0
20.301 -10.299 20.639 -0 -1.2 0
20.192 -10.796 20.515 -0 -1.2 0
20.076 -11.29 20.385 -0 -1.2 0
19.955 -11.781 20.249 -0 -1.2 0
19.826 -12.269 20.108 -0 -1.2 0
19.693 -12.752 19.96 -0 -1.2 0
19.552 -13.233 19.807 -0 -1.2 0
19.407 -13.71 19.647 -0 -1.2 0
19.255 -14.183 19.481 -0 -1.2 0
19.098 -14.652 19.309 -0 -1.2 0
18.935 -15.117 19.133 -0 -1.2 0
18.766 -15.578 18.95 -0 -1.2 0
18.591 -16.034 18.762 -0 -1.2 0
18.411 -16.486 18.568 -0 -1.2 0
18.225 -16.932 18.369 -0 -1.2 0
18.033 -17.375 18.163 -0 -1.2 0
17.837 -17.811 17.953 -0 -1.2 0
17.633 -18.244 17.738 -0 -1.2 0
17.427 -18.671 17.516 -0 -1.2 0
17.213 -19.092 17.29 -0 -1.2 0
16.995 -19.508 17.059 -0 -1.2 0
16.772 -19.919 16.823 -0 -1.2 0
16.543 -20.323 16.581 -0 -1.2 0
16.311 -20.722 16.335 -0 -1.2 0
16.072 -21.115 16.085 -0 -1.2 0
15.828 -21.502 15.829 -0 -1.2 0
15.581 -21.882 15.569 -0 -1.2 0
15.328 -22.257 15.304 -0 -1.2 0
20.921 -10.284 20.025 -0 -1.2 0
20.808 -10.782 19.904 -0 -1.2 0
20.688 -11.275 19.778 -0 -1.2 0
20.563 -11.767 19.646 -0 -1.2 0
20.431 -12.254 19.508 -0 -1.2 0
20.293 -12.738 19.364 -0 -1.2 0
20.148 -13.219 19.215 -0 -1.2 0
19.999 -13.696 19.059 -0 -1.2 0
19.842 -14.169 18.899 -0 -1.2 0
19.679 -14.638 18.733 -0 -1.2 0
19.512 -15.103 18.561 -0 -1.2 0
19.338 -15.564 18.383 -0 -1.2 0
19.158 -16.021 18.2 -0 -1.2 0
18.971 -16.472 18.012 -0 -1.2 0
18.78 -16.919 17.818 -0 -1.2 0
18.583 -17.362 17.619 -0 -1.2 0
18.38 -17.798 17.415 -0 -1.2 0
18.171 -18.231 17.206 -0 -1.2 0
17.957 -18.658 16.991 -0 -1.2 0
17.738 -19.08 16.772 -0 -1.2 0
17.513 -19.496 16.547 -0 -1.2 0
17.283 -19.907 16.318 -0 -1.2 0
17.048 -20.311 16.083 -0 -1.2 0
16.807 -20.71 15.845 -0 -1.2 0
16.562 -21.103 15.601 -0 -1.2 0
16.311 -21.49 15.353 -0 -1.2 0
16.055 -21.871 15.099 -0 -1.2 0
15.796 -22.246 14.843 -0 -1.2 0
21.466 -10.27 19.452 -0 -1.2 0
21.35 -10.767 19.335 -0 -1.2 0
21.227 -11.261 19.212 -0 -1.2 0
21.099 -11.752 19.083 -0 -1.2 0
20.963 -12.24 18.95 -0 -1.2 0
20.822 -12.723 18.809 -0 -1.2 0
20.674 -13.205 18.664 -0 -1.2 0
20.52 -13.682 18.513 -0 -1.2 0
20.36 -14.155 18.357 -0 -1.2 0
20.194 -14.624 18.195 -0 -1.2 0
20.021 -15.09 18.027 -0 -1.2 0
19.842 -15.55 17.854 -0 -1.2 0
19.658 -16.007 17.677 -0 -1.2 0
19.467 -16.459 17.493 -0 -1.2 0
19.27 -16.906 17.305 -0 -1.2 0
19.068 -17.349 17.112 -0 -1.2 0
18.86 -17.786 16.913 -0 -1.2 0
18.646 -18.219 16.71 -0 -1.2 0
18.426 -18.645 16.501 -0 -1.2 0
18.201 -19.067 16.288 -0 -1.2 0
17.971 -19.483 16.069 -0 -1.2 0
17.734 -19.894 15.846 -0 -1.2 0
17.493 -20.299 15.619 -0 -1.2 0
17.246 -20.698 15.386 -0 -1.2 0
16.995 -21.092 15.15 -0 -1.2 0
16.738 -21.479 14.909 -0 -1.2 0
16.476 -21.86 14.663 -0 -1.2 0
16.208 -22.235 14.413 -0 -1.2 0
22.022 -10.247 18.835 -0 -1.2 0
21.903 -10.744 18.722 -0 -1.2 0
21.778 -11.238 18.603 -0 -1.2 0
21.645 -11.73 18.478 -0 -1.2 0
21.506 -12.217 18.348 -0 -1.2 0
21.362 -12.701 18.212 -0 -1.2 0
21.21 -13.183 18.072 -0 -1.2 0
21.052 -13.66 17.925 -0 -1.2 0
20.887 -14.134 17.774 -0 -1.2 0
20.716 -14.602 17.617 -0 -1.2 0
20.54 -15.068 17.455 -0 -1.2 0
20.356 -15.529 17.287 -0 -1.2 0
20.167 -15.986 17.115 -0 -1.2 0
19.971 -16.438 16.938 -0 -1.2 0
19.77 -16.885 16.756 -0 -1.2 0
19.562 -17.328 16.568 -0 -1.2 0
19.348 -17.766 16.376 -0 -1.2 0
19.129 -18.199 16.179 -0 -1.2 0
18.904 -18.626 15.977 -0 -1.2 0
18.673 -19.048 15.771 -0 -1.2 0
18.437 -19.464 15.56 -0 -1.2 0
