# .PCD v.7 - Point Cloud Data file format
FIELDS x y z vp_x vp_y vp_z
SIZE 4 4 4 4 4 4
TYPE F F F F F F
COUNT 1 1 1 1 1 1
WIDTH 1527
HEIGHT 1
VIEWPOINT 0 -1.20004 0 1 0 0 0
POINTS 1527
DATA ascii
-3.611 -20.306 22.763 -0 -1.2 0
-3.544 -20.705 22.431 -0 -1.2 0
-3.475 -21.098 22.092 -0 -1.2 0
-3.407 -21.485 21.746 -0 -1.2 0
-3.336 -21.866 21.394 -0 -1.2 0
-3.264 -22.242 21.035 -0 -1.2 0
-3.378 -15.502 26.12 -0 -1.2 0
-3.333 -15.959 25.867 -0 -1.2 0
-3.286 -16.411 25.608 -0 -1.2 0
-3.239 -16.859 25.342 -0 -1.2 0
-3.191 -17.302 25.066 -0 -1.2 0
-3.141 -17.739 24.784 -0 -1.2 0
-3.091 -18.173 24.494 -0 -1.2 0
-3.04 -18.6 24.196 -0 -1.2 0
-2.987 -19.023 23.891 -0 -1.2 0
-2.935 -19.44 23.579 -0 -1.2 0
-2.88 -19.851 23.259 -0 -1.2 0
-2.826 -20.257 22.934 -0 -1.2 0
-2.77 -20.657 22.6 -0 -1.2 0
-2.714 -21.05 22.26 -0 -1.2 0
-2.656 -21.438 21.913 -0 -1.2 0
-2.598 -21.82 21.559 -0 -1.2 0
-2.538 -22.196 21.199 -0 -1.2 0
-3.104 0.173 29.851 -0 -1.2 0
-2.933 -4.996 29.246 -0 -1.2 0
-2.953 -5.567 29.558 -0 -1.2 0
-2.934 -6.083 29.477 -0 -1.2 0
-2.914 -6.599 29.387 -0 -1.2 0
-2.893 -7.112 29.289 -0 -1.2 0
-2.871 -7.624 29.181 -0 -1.2 0
-2.848 -8.134 29.064 -0 -1.2 0
-2.824 -8.642 28.939 -0 -1.2 0
-2.774 -9.651 28.662 -0 -1.2 0
-2.748 -10.151 28.51 -0 -1.2 0
-2.721 -10.649 28.35 -0 -1.2 0
-2.694 -11.143 28.181 -0 -1.2 0
-2.664 -11.635 28.003 -0 -1.2 0
-2.635 -12.124 27.817 -0 -1.2 0
-2.508 -14.043 26.989 -0 -1.2 0
-2.475 -14.513 26.761 -0 -1.2 0
-2.44 -14.979 26.525 -0 -1.2 0
-2.406 -15.441 26.281 -0 -1.2 0
-2.37 -15.899 26.03 -0 -1.2 0
-2.334 -16.352 25.769 -0 -1.2 0
-2.296 -16.8 25.501 -0 -1.2 0
-2.259 -17.244 25.225 -0 -1.2 0
-2.22 -17.682 24.943 -0 -1.2 0
-2.181 -18.116 24.652 -0 -1.2 0
-2.141 -18.544 24.354 -0 -1.2 0
-2.1 -18.968 24.048 -0 -1.2 0
-2.059 -19.385 23.735 -0 -1.2 0
-2.017 -19.797 23.415 -0 -1.2 0
-1.974 -20.204 23.088 -0 -1.2 0
-1.932 -20.604 22.754 -0 -1.2 0
-1.888 -20.999 22.412 -0 -1.2 0
-1.844 -21.387 22.064 -0 -1.2 0
-1.799 -21.77 21.709 -0 -1.2 0
-1.753 -22.147 21.347 -0 -1.2 0
-2.104 0.236 29.955 -0 -1.2 0
-1.966 -5.504 29.669 -0 -1.2 0
-1.949 -6.021 29.589 -0 -1.2 0
-1.932 -6.537 29.5 -0 -1.2 0
-1.915 -7.05 29.401 -0 -1.2 0
-1.897 -7.562 29.294 -0 -1.2 0
-1.878 -8.073 29.178 -0 -1.2 0
-1.859 -8.581 29.052 -0 -1.2 0
-1.839 -9.087 28.918 -0 -1.2 0
-1.819 -9.59 28.776 -0 -1.2 0
-1.798 -10.091 28.624 -0 -1.2 0
-1.777 -10.589 28.464 -0 -1.2 0
-1.754 -11.084 28.295 -0 -1.2 0
-1.732 -11.576 28.118 -0 -1.2 0
-1.708 -12.065 27.932 -0 -1.2 0
-1.685 -12.55 27.738 -0 -1.2 0
-1.661 -13.033 27.534 -0 -1.2 0
-1.637 -13.511 27.323 -0 -1.2 0
-1.611 -13.986 27.104 -0 -1.2 0
-1.586 -14.456 26.876 -0 -1.2 0
-1.559 -14.923 26.64 -0 -1.2 0
-1.533 -15.386 26.396 -0 -1.2 0
-1.505 -15.844 26.144 -0 -1.2 0
-1.478 -16.298 25.883 -0 -1.2 0
-1.45 -16.746 25.616 -0 -1.2 0
-1.421 -17.191 25.34 -0 -1.2 0
-1.393 -17.629 25.057 -0 -1.2 0
-1.364 -18.064 24.766 -0 -1.2 0
-1.334 -18.493 24.468 -0 -1.2 0
-1.304 -18.917 24.161 -0 -1.2 0
-1.273 -19.335 23.848 -0 -1.2 0
-1.241 -19.748 23.527 -0 -1.2 0
-1.211 -20.155 23.2 -0 -1.2 0
-1.178 -20.556 22.865 -0 -1.2 0
-1.146 -20.952 22.524 -0 -1.2 0
-1.114 -21.341 22.175 -0 -1.2 0
-1.081 -21.725 21.819 -0 -1.2 0
-1.048 -22.102 21.457 -0 -1.2 0
-1.146 0.298 30.023 -0 -1.2 0
-1.136 -0.224 30.044 -0 -1.2 0
-1.126 -0.747 30.054 -0 -1.2 0
-1.116 -1.27 30.057 -0 -1.2 0
-1.105 -1.793 30.05 -0 -1.2 0
-1.093 -2.317 30.033 -0 -1.2 0
-1.082 -2.839 30.008 -0 -1.2 0
-1.07 -3.362 29.973 -0 -1.2 0
-1.045 -4.405 29.878 -0 -1.2 0
-1.032 -4.924 29.816 -0 -1.2 0
-1.019 -5.443 29.745 -0 -1.2 0
-1.006 -5.96 29.665 -0 -1.2 0
-0.992 -6.476 29.577 -0 -1.2 0
-0.978 -6.99 29.478 -0 -1.2 0
-0.964 -7.502 29.372 -0 -1.2 0
-0.949 -8.012 29.256 -0 -1.2 0
-0.934 -8.521 29.131 -0 -1.2 0
-0.918 -9.027 28.998 -0 -1.2 0
-0.903 -9.531 28.856 -0 -1.2 0
-0.887 -10.032 28.704 -0 -1.2 0
-0.871 -10.531 28.545 -0 -1.2 0
-0.855 -11.025 28.377 -0 -1.2 0
-0.838 -11.519 28.199 -0 -1.2 0
-0.821 -12.008 28.014 -0 -1.2 0
-0.804 -12.493 27.819 -0 -1.2 0
-0.786 -12.976 27.617 -0 -1.2 0
-0.769 -13.455 27.406 -0 -1.2 0
-0.751 -13.93 27.187 -0 -1.2 0
-0.733 -14.401 26.959 -0 -1.2 0
-0.714 -14.869 26.724 -0 -1.2 0
-0.696 -15.331 26.48 -0 -1.2 0
-0.677 -15.79 26.228 -0 -1.2 0
-0.658 -16.244 25.968 -0 -1.2 0
-0.639 -16.693 25.7 -0 -1.2 0
-0.619 -17.139 25.424 -0 -1.2 0
-0.6 -17.578 25.141 -0 -1.2 0
-0.58 -18.013 24.85 -0 -1.2 0
-0.56 -18.443 24.552 -0 -1.2 0
-0.54 -18.867 24.246 -0 -1.2 0
-0.52 -19.286 23.933 -0 -1.2 0
-0.499 -19.7 23.612 -0 -1.2 0
-0.479 -20.108 23.285 -0 -1.2 0
-0.457 -20.51 22.95 -0 -1.2 0
-0.437 -20.906 22.609 -0 -1.2 0
-0.415 -21.296 22.259 -0 -1.2 0
-0.394 -21.68 21.904 -0 -1.2 0
-0.372 -22.058 21.542 -0 -1.2 0
-0.113 0.364 30.062 -0 -1.2 0
-0.102 -0.158 30.084 -0 -1.2 0
-0.092 -0.681 30.095 -0 -1.2 0
-0.082 -1.204 30.099 -0 -1.2 0
-0.072 -1.727 30.092 -0 -1.2 0
-0.062 -2.251 30.076 -0 -1.2 0
-0.051 -2.773 30.052 -0 -1.2 0
-0.04 -3.296 30.018 -0 -1.2 0
-0.03 -3.817 29.975 -0 -1.2 0
-0.02 -4.339 29.924 -0 -1.2 0
-0.01 -4.859 29.862 -0 -1.2 0
0 -5.378 29.792 -0 -1.2 0
0.01 -5.895 29.713 -0 -1.2 0
0.021 -6.411 29.625 -0 -1.2 0
0.031 -6.925 29.528 -0 -1.2 0
0.041 -7.438 29.421 -0 -1.2 0
0.052 -7.948 29.307 -0 -1.2 0
0.063 -8.457 29.183 -0 -1.2 0
0.073 -8.964 29.05 -0 -1.2 0
0.083 -9.468 28.908 -0 -1.2 0
0.094 -9.969 28.758 -0 -1.2 0
0.104 -10.468 28.599 -0 -1.2 0
0.114 -10.963 28.431 -0 -1.2 0
0.125 -11.457 28.255 -0 -1.2 0
0.135 -11.946 28.07 -0 -1.2 0
0.144 -12.432 27.876 -0 -1.2 0
0.155 -12.916 27.675 -0 -1.2 0
0.165 -13.395 27.463 -0 -1.2 0
0.175 -13.871 27.245 -0 -1.2 0
0.185 -14.342 27.018 -0 -1.2 0
0.195 -14.81 26.783 -0 -1.2 0
0.205 -15.274 26.54 -0 -1.2 0
0.216 -15.733 26.288 -0 -1.2 0
0.225 -16.188 26.029 -0 -1.2 0
0.235 -16.637 25.762 -0 -1.2 0
0.244 -17.083 25.486 -0 -1.2 0
0.254 -17.523 25.203 -0 -1.2 0
0.264 -17.959 24.914 -0 -1.2 0
0.273 -18.389 24.616 -0 -1.2 0
0.282 -18.815 24.31 -0 -1.2 0
0.292 -19.234 23.997 -0 -1.2 0
0.301 -19.648 23.677 -0 -1.2 0
0.311 -20.057 23.35 -0 -1.2 0
0.319 -20.46 23.016 -0 -1.2 0
0.329 -20.856 22.674 -0 -1.2 0
0.337 -21.247 22.326 -0 -1.2 0
0.346 -21.632 21.97 -0 -1.2 0
0.354 -22.011 21.609 -0 -1.2 0
0.845 0.424 30.066 -0 -1.2 0
0.856 -0.098 30.089 -0 -1.2 0
0.866 -0.62 30.102 -0 -1.2 0
0.876 -1.143 30.105 -0 -1.2 0
0.886 -1.666 30.099 -0 -1.2 0
0.895 -2.191 30.085 -0 -1.2 0
0.904 -2.713 30.061 -0 -1.2 0
0.913 -3.235 30.028 -0 -1.2 0
0.922 -3.757 29.985 -0 -1.2 0
0.931 -4.279 29.934 -0 -1.2 0
0.939 -4.799 29.875 -0 -1.2 0
0.947 -5.318 29.805 -0 -1.2 0
0.955 -5.835 29.727 -0 -1.2 0
0.962 -6.352 29.64 -0 -1.2 0
0.968 -6.866 29.543 -0 -1.2 0
0.975 -7.379 29.438 -0 -1.2 0
0.981 -7.89 29.323 -0 -1.2 0
0.988 -8.398 29.2 -0 -1.2 0
0.994 -8.906 29.068 -0 -1.2 0
1 -9.41 28.927 -0 -1.2 0
1.004 -9.911 28.778 -0 -1.2 0
1.01 -10.411 28.62 -0 -1.2 0
1.014 -10.906 28.452 -0 -1.2 0
1.018 -11.4 28.277 -0 -1.2 0
1.022 -11.89 28.092 -0 -1.2 0
1.026 -12.376 27.9 -0 -1.2 0
1.03 -12.86 27.698 -0 -1.2 0
1.033 -13.34 27.489 -0 -1.2 0
1.035 -13.816 27.271 -0 -1.2 0
1.038 -14.288 27.045 -0 -1.2 0
1.04 -14.757 26.81 -0 -1.2 0
1.042 -15.22 26.568 -0 -1.2 0
1.044 -15.68 26.317 -0 -1.2 0
1.045 -16.136 26.058 -0 -1.2 0
1.046 -16.586 25.792 -0 -1.2 0
1.047 -17.032 25.518 -0 -1.2 0
1.047 -17.473 25.236 -0 -1.2 0
1.047 -17.909 24.946 -0 -1.2 0
1.047 -18.34 24.648 -0 -1.2 0
1.046 -18.766 24.344 -0 -1.2 0
1.045 -19.186 24.031 -0 -1.2 0
1.044 -19.601 23.713 -0 -1.2 0
1.043 -20.01 23.386 -0 -1.2 0
1.04 -20.414 23.052 -0 -1.2 0
1.038 -20.811 22.711 -0 -1.2 0
1.035 -21.203 22.363 -0 -1.2 0
1.033 -21.588 22.009 -0 -1.2 0
1.03 -21.968 21.648 -0 -1.2 0
1.799 0.483 30.041 -0 -1.2 0
1.81 -0.038 30.063 -0 -1.2 0
1.82 -0.561 30.077 -0 -1.2 0
1.83 -1.084 30.081 -0 -1.2 0
1.839 -1.607 30.077 -0 -1.2 0
1.847 -2.131 30.063 -0 -1.2 0
1.856 -2.654 30.039 -0 -1.2 0
1.863 -3.176 30.007 -0 -1.2 0
1.87 -3.698 29.966 -0 -1.2 0
1.876 -4.22 29.916 -0 -1.2 0
1.882 -4.74 29.857 -0 -1.2 0
1.888 -5.259 29.788 -0 -1.2 0
1.892 -5.777 29.71 -0 -1.2 0
1.897 -6.293 29.624 -0 -1.2 0
1.9 -6.808 29.529 -0 -1.2 0
1.904 -7.321 29.423 -0 -1.2 0
1.905 -7.832 29.31 -0 -1.2 0
1.907 -8.341 29.189 -0 -1.2 0
1.909 -8.848 29.057 -0 -1.2 0
1.91 -9.353 28.917 -0 -1.2 0
1.91 -9.854 28.768 -0 -1.2 0
1.91 -10.354 28.611 -0 -1.2 0
1.909 -10.85 28.445 -0 -1.2 0
1.907 -11.344 28.27 -0 -1.2 0
1.904 -11.835 28.087 -0 -1.2 0
1.902 -12.321 27.895 -0 -1.2 0
1.899 -12.806 27.695 -0 -1.2 0
1.895 -13.286 27.486 -0 -1.2 0
1.891 -13.763 27.269 -0 -1.2 0
1.886 -14.235 27.044 -0 -1.2 0
1.881 -14.704 26.811 -0 -1.2 0
1.875 -15.168 26.569 -0 -1.2 0
1.867 -15.629 26.32 -0 -1.2 0
1.86 -16.084 26.062 -0 -1.2 0
1.853 -16.535 25.797 -0 -1.2 0
1.844 -16.982 25.523 -0 -1.2 0
1.835 -17.423 25.242 -0 -1.2 0
1.825 -17.86 24.953 -0 -1.2 0
1.816 -18.292 24.657 -0 -1.2 0
1.805 -18.718 24.354 -0 -1.2 0
1.794 -19.139 24.043 -0 -1.2 0
1.782 -19.555 23.724 -0 -1.2 0
1.77 -19.964 23.399 -0 -1.2 0
1.758 -20.368 23.066 -0 -1.2 0
1.744 -20.767 22.726 -0 -1.2 0
1.731 -21.159 22.38 -0 -1.2 0
1.716 -21.545 22.026 -0 -1.2 0
1.702 -21.926 21.667 -0 -1.2 0
2.732 0.994 29.957 -0 -1.2 0
2.744 0.471 29.987 -0 -1.2 0
2.755 -0.051 30.01 -0 -1.2 0
2.765 -0.574 30.022 -0 -1.2 0
2.775 -1.096 30.026 -0 -1.2 0
2.783 -1.62 30.021 -0 -1.2 0
2.79 -2.144 30.007 -0 -1.2 0
2.797 -2.666 29.983 -0 -1.2 0
2.803 -3.189 29.951 -0 -1.2 0
2.808 -3.711 29.909 -0 -1.2 0
2.813 -4.232 29.858 -0 -1.2 0
2.816 -4.752 29.799 -0 -1.2 0
2.819 -5.272 29.73 -0 -1.2 0
2.82 -5.789 29.652 -0 -1.2 0
2.821 -6.306 29.566 -0 -1.2 0
2.821 -6.82 29.47 -0 -1.2 0
2.82 -7.333 29.365 -0 -1.2 0
2.819 -7.844 29.251 -0 -1.2 0
2.816 -8.353 29.129 -0 -1.2 0
2.813 -8.861 28.998 -0 -1.2 0
2.809 -9.365 28.858 -0 -1.2 0
2.803 -9.867 28.709 -0 -1.2 0
2.797 -10.366 28.551 -0 -1.2 0
2.791 -10.862 28.385 -0 -1.2 0
2.783 -11.356 28.211 -0 -1.2 0
2.774 -11.847 28.027 -0 -1.2 0
2.765 -12.333 27.835 -0 -1.2 0
2.756 -12.818 27.635 -0 -1.2 0
2.744 -13.297 27.426 -0 -1.2 0
2.733 -13.774 27.21 -0 -1.2 0
2.72 -14.246 26.984 -0 -1.2 0
2.707 -14.715 26.752 -0 -1.2 0
2.692 -15.179 26.51 -0 -1.2 0
2.678 -15.64 26.26 -0 -1.2 0
2.661 -16.095 26.004 -0 -1.2 0
2.645 -16.546 25.738 -0 -1.2 0
2.627 -16.993 25.465 -0 -1.2 0
2.609 -17.434 25.185 -0 -1.2 0
2.59 -17.871 24.895 -0 -1.2 0
2.57 -18.302 24.6 -0 -1.2 0
2.549 -18.729 24.297 -0 -1.2 0
2.528 -19.149 23.985 -0 -1.2 0
2.506 -19.565 23.668 -0 -1.2 0
2.483 -19.975 23.342 -0 -1.2 0
2.46 -20.378 23.011 -0 -1.2 0
2.435 -20.776 22.671 -0 -1.2 0
2.41 -21.169 22.325 -0 -1.2 0
2.384 -21.555 21.972 -0 -1.2 0
2.358 -21.935 21.613 -0 -1.2 0
3.658 0.982 29.875 -0 -1.2 0
3.671 0.459 29.906 -0 -1.2 0
3.681 -0.063 29.927 -0 -1.2 0
3.692 -0.586 29.94 -0 -1.2 0
3.7 -1.109 29.943 -0 -1.2 0
3.708 -1.632 29.937 -0 -1.2 0
3.715 -2.156 29.922 -0 -1.2 0
3.721 -2.678 29.898 -0 -1.2 0
3.725 -3.201 29.866 -0 -1.2 0
3.728 -3.723 29.824 -0 -1.2 0
3.73 -4.245 29.773 -0 -1.2 0
3.731 -4.765 29.713 -0 -1.2 0
3.731 -5.284 29.643 -0 -1.2 0
3.729 -5.801 29.566 -0 -1.2 0
3.727 -6.318 29.479 -0 -1.2 0
3.724 -6.832 29.383 -0 -1.2 0
3.72 -7.345 29.278 -0 -1.2 0
3.713 -7.856 29.165 -0 -1.2 0
3.707 -8.365 29.043 -0 -1.2 0
3.699 -8.872 28.911 -0 -1.2 0
3.689 -9.377 28.771 -0 -1.2 0
3.679 -9.878 28.622 -0 -1.2 0
3.668 -10.378 28.465 -0 -1.2 0
3.656 -10.874 28.299 -0 -1.2 0
3.642 -11.368 28.124 -0 -1.2 0
3.628 -11.858 27.942 -0 -1.2 0
3.611 -12.345 27.75 -0 -1.2 0
3.595 -12.829 27.55 -0 -1.2 0
3.577 -13.309 27.342 -0 -1.2 0
3.558 -13.785 27.125 -0 -1.2 0
3.538 -14.257 26.9 -0 -1.2 0
3.517 -14.726 26.667 -0 -1.2 0
3.494 -15.19 26.427 -0 -1.2 0
3.472 -15.651 26.178 -0 -1.2 0
3.447 -16.106 25.921 -0 -1.2 0
3.421 -16.557 25.656 -0 -1.2 0
3.396 -17.004 25.384 -0 -1.2 0
3.368 -17.444 25.103 -0 -1.2 0
3.34 -17.881 24.816 -0 -1.2 0
3.31 -18.313 24.52 -0 -1.2 0
3.28 -18.739 24.217 -0 -1.2 0
3.249 -19.159 23.907 -0 -1.2 0
3.216 -19.575 23.59 -0 -1.2 0
3.182 -19.984 23.265 -0 -1.2 0
3.148 -20.388 22.934 -0 -1.2 0
3.113 -20.786 22.596 -0 -1.2 0
3.077 -21.178 22.251 -0 -1.2 0
3.04 -21.564 21.899 -0 -1.2 0
3.002 -21.944 21.541 -0 -1.2 0
4.624 0.981 29.757 -0 -1.2 0
4.636 0.458 29.786 -0 -1.2 0
4.647 -0.064 29.808 -0 -1.2 0
4.657 -0.587 29.82 -0 -1.2 0
4.666 -1.11 29.823 -0 -1.2 0
4.673 -1.633 29.817 -0 -1.2 0
4.679 -2.157 29.803 -0 -1.2 0
4.682 -2.679 29.778 -0 -1.2 0
4.686 -3.202 29.746 -0 -1.2 0
4.687 -3.724 29.704 -0 -1.2 0
4.687 -4.246 29.653 -0 -1.2 0
4.686 -4.766 29.593 -0 -1.2 0
4.683 -5.285 29.524 -0 -1.2 0
4.678 -5.802 29.446 -0 -1.2 0
4.673 -6.319 29.359 -0 -1.2 0
4.665 -6.833 29.264 -0 -1.2 0
4.657 -7.346 29.159 -0 -1.2 0
4.647 -7.857 29.047 -0 -1.2 0
4.636 -8.366 28.924 -0 -1.2 0
4.623 -8.874 28.793 -0 -1.2 0
4.609 -9.378 28.654 -0 -1.2 0
4.594 -9.88 28.506 -0 -1.2 0
4.576 -10.379 28.349 -0 -1.2 0
4.558 -10.875 28.183 -0 -1.2 0
4.539 -11.369 28.009 -0 -1.2 0
4.517 -11.859 27.826 -0 -1.2 0
4.495 -12.346 27.636 -0 -1.2 0
4.472 -12.83 27.436 -0 -1.2 0
4.446 -13.31 27.229 -0 -1.2 0
4.42 -13.786 27.013 -0 -1.2 0
4.392 -14.258 26.79 -0 -1.2 0
4.362 -14.727 26.557 -0 -1.2 0
4.332 -15.192 26.317 -0 -1.2 0
4.301 -15.652 26.07 -0 -1.2 0
4.268 -16.107 25.813 -0 -1.2 0
4.233 -16.558 25.549 -0 -1.2 0
4.197 -17.005 25.278 -0 -1.2 0
4.161 -17.445 24.999 -0 -1.2 0
4.123 -17.882 24.712 -0 -1.2 0
4.083 -18.314 24.418 -0 -1.2 0
4.042 -18.74 24.117 -0 -1.2 0
4.001 -19.16 23.808 -0 -1.2 0
3.957 -19.576 23.492 -0 -1.2 0
3.914 -19.985 23.169 -0 -1.2 0
3.868 -20.389 22.838 -0 -1.2 0
3.821 -20.787 22.502 -0 -1.2 0
3.774 -21.179 22.158 -0 -1.2 0
3.725 -21.565 21.808 -0 -1.2 0
3.675 -21.945 21.45 -0 -1.2 0
5.676 0.979 29.592 -0 -1.2 0
5.688 0.455 29.621 -0 -1.2 0
5.7 -0.066 29.642 -0 -1.2 0
5.71 -0.589 29.654 -0 -1.2 0
5.718 -1.112 29.657 -0 -1.2 0
5.724 -1.635 29.651 -0 -1.2 0
5.729 -2.159 29.636 -0 -1.2 0
5.731 -2.682 29.612 -0 -1.2 0
5.733 -3.204 29.579 -0 -1.2 0
5.732 -3.726 29.538 -0 -1.2 0
5.729 -4.248 29.486 -0 -1.2 0
5.725 -4.768 29.426 -0 -1.2 0
5.719 -5.287 29.357 -0 -1.2 0
5.712 -5.805 29.281 -0 -1.2 0
5.702 -6.321 29.194 -0 -1.2 0
5.691 -6.836 29.099 -0 -1.2 0
5.678 -7.349 28.994 -0 -1.2 0
5.664 -7.86 28.881 -0 -1.2 0
5.648 -8.369 28.761 -0 -1.2 0
5.63 -8.876 28.631 -0 -1.2 0
5.611 -9.38 28.492 -0 -1.2 0
5.589 -9.882 28.344 -0 -1.2 0
5.566 -10.382 28.187 -0 -1.2 0
5.542 -10.878 28.023 -0 -1.2 0
5.515 -11.372 27.85 -0 -1.2 0
5.487 -11.862 27.668 -0 -1.2 0
5.458 -12.348 27.479 -0 -1.2 0
5.426 -12.833 27.28 -0 -1.2 0
5.394 -13.312 27.074 -0 -1.2 0
5.358 -13.789 26.86 -0 -1.2 0
5.322 -14.261 26.636 -0 -1.2 0
5.284 -14.73 26.405 -0 -1.2 0
5.245 -15.194 26.167 -0 -1.2 0
5.204 -15.654 25.92 -0 -1.2 0
5.161 -16.11 25.665 -0 -1.2 0
5.118 -16.56 25.404 -0 -1.2 0
5.071 -17.007 25.134 -0 -1.2 0
5.025 -17.448 24.856 -0 -1.2 0
4.975 -17.885 24.571 -0 -1.2 0
4.925 -18.316 24.278 -0 -1.2 0
4.874 -18.742 23.978 -0 -1.2 0
4.82 -19.162 23.672 -0 -1.2 0
4.766 -19.578 23.357 -0 -1.2 0
4.709 -19.987 23.036 -0 -1.2 0
4.652 -20.391 22.707 -0 -1.2 0
4.593 -20.789 22.373 -0 -1.2 0
4.533 -21.181 22.031 -0 -1.2 0
4.471 -21.567 21.682 -0 -1.2 0
4.407 -21.947 21.327 -0 -1.2 0
6.647 0.975 29.405 -0 -1.2 0
6.604 -7.863 28.697 -0 -1.2 0
6.536 -9.384 28.308 -0 -1.2 0
6.509 -9.886 28.162 -0 -1.2 0
6.481 -10.385 28.007 -0 -1.2 0
6.45 -10.881 27.842 -0 -1.2 0
6.417 -11.375 27.671 -0 -1.2 0
6.383 -11.865 27.49 -0 -1.2 0
6.347 -12.352 27.302 -0 -1.2 0
6.308 -12.836 27.104 -0 -1.2 0
6.268 -13.316 26.9 -0 -1.2 0
6.225 -13.792 26.686 -0 -1.2 0
6.182 -14.264 26.464 -0 -1.2 0
6.136 -14.733 26.235 -0 -1.2 0
6.088 -15.197 25.998 -0 -1.2 0
6.038 -15.658 25.753 -0 -1.2 0
5.987 -16.113 25.5 -0 -1.2 0
5.934 -16.564 25.239 -0 -1.2 0
5.879 -17.01 24.97 -0 -1.2 0
5.822 -17.451 24.695 -0 -1.2 0
5.763 -17.888 24.412 -0 -1.2 0
5.703 -18.319 24.122 -0 -1.2 0
5.641 -18.745 23.823 -0 -1.2 0
5.577 -19.165 23.518 -0 -1.2 0
5.512 -19.581 23.206 -0 -1.2 0
5.444 -19.99 22.886 -0 -1.2 0
5.376 -20.394 22.561 -0 -1.2 0
5.306 -20.792 22.228 -0 -1.2 0
5.233 -21.184 21.888 -0 -1.2 0
5.16 -21.57 21.542 -0 -1.2 0
5.085 -21.95 21.189 -0 -1.2 0
7.389 -10.39 27.794 -0 -1.2 0
7.353 -10.886 27.631 -0 -1.2 0
7.314 -11.38 27.461 -0 -1.2 0
7.273 -11.87 27.281 -0 -1.2 0
7.23 -12.356 27.093 -0 -1.2 0
7.185 -12.841 26.898 -0 -1.2 0
7.137 -13.32 26.695 -0 -1.2 0
7.087 -13.797 26.483 -0 -1.2 0
7.036 -14.269 26.263 -0 -1.2 0
6.982 -14.738 26.035 -0 -1.2 0
6.926 -15.202 25.8 -0 -1.2 0
6.868 -15.662 25.556 -0 -1.2 0
6.808 -16.117 25.305 -0 -1.2 0
6.746 -16.568 25.046 -0 -1.2 0
6.681 -17.015 24.781 -0 -1.2 0
6.614 -17.455 24.506 -0 -1.2 0
6.546 -17.892 24.226 -0 -1.2 0
6.476 -18.323 23.937 -0 -1.2 0
6.403 -18.749 23.641 -0 -1.2 0
6.33 -19.17 23.339 -0 -1.2 0
6.253 -19.585 23.029 -0 -1.2 0
6.176 -19.995 22.712 -0 -1.2 0
6.095 -20.398 22.388 -0 -1.2 0
6.013 -20.796 22.058 -0 -1.2 0
5.931 -21.188 21.721 -0 -1.2 0
5.845 -21.574 21.377 -0 -1.2 0
5.758 -21.954 21.027 -0 -1.2 0
8.358 -10.397 27.532 -0 -1.2 0
8.315 -10.892 27.371 -0 -1.2 0
8.27 -11.386 27.201 -0 -1.2 0
8.222 -11.876 27.024 -0 -1.2 0
8.172 -12.363 26.838 -0 -1.2 0
8.119 -12.847 26.644 -0 -1.2 0
8.064 -13.327 26.442 -0 -1.2 0
8.007 -13.803 26.233 -0 -1.2 0
7.946 -14.275 26.015 -0 -1.2 0
7.884 -14.744 25.79 -0 -1.2 0
7.819 -15.208 25.556 -0 -1.2 0
7.751 -15.668 25.315 -0 -1.2 0
7.682 -16.123 25.067 -0 -1.2 0
7.611 -16.574 24.81 -0 -1.2 0
7.536 -17.02 24.546 -0 -1.2 0
7.46 -17.461 24.275 -0 -1.2 0
7.381 -17.898 23.996 -0 -1.2 0
7.3 -18.329 23.71 -0 -1.2 0
7.217 -18.755 23.417 -0 -1.2 0
7.132 -19.175 23.118 -0 -1.2 0
7.044 -19.591 22.811 -0 -1.2 0
6.954 -20 22.497 -0 -1.2 0
6.862 -20.404 22.176 -0 -1.2 0
6.769 -20.801 21.849 -0 -1.2 0
6.673 -21.193 21.516 -0 -1.2 0
6.574 -21.579 21.175 -0 -1.2 0
6.475 -21.959 20.829 -0 -1.2 0
9.595 0.432 28.66 -0 -1.2 0
9.24 -10.404 27.26 -0 -1.2 0
9.192 -10.9 27.101 -0 -1.2 0
9.14 -11.394 26.933 -0 -1.2 0
9.086 -11.884 26.757 -0 -1.2 0
9.03 -12.37 26.574 -0 -1.2 0
8.97 -12.854 26.381 -0 -1.2 0
8.908 -13.334 26.181 -0 -1.2 0
8.843 -13.81 25.974 -0 -1.2 0
8.775 -14.282 25.758 -0 -1.2 0
8.705 -14.751 25.535 -0 -1.2 0
8.633 -15.215 25.303 -0 -1.2 0
8.557 -15.675 25.065 -0 -1.2 0
8.478 -16.13 24.818 -0 -1.2 0
8.398 -16.581 24.564 -0 -1.2 0
8.315 -17.027 24.303 -0 -1.2 0
8.229 -17.468 24.035 -0 -1.2 0
8.141 -17.905 23.759 -0 -1.2 0
8.051 -18.335 23.476 -0 -1.2 0
7.957 -18.761 23.186 -0 -1.2 0
7.862 -19.182 22.889 -0 -1.2 0
7.763 -19.597 22.585 -0 -1.2 0
7.663 -20.006 22.274 -0 -1.2 0
7.561 -20.41 21.957 -0 -1.2 0
7.456 -20.807 21.633 -0 -1.2 0
7.349 -21.199 21.303 -0 -1.2 0
7.239 -21.585 20.965 -0 -1.2 0
7.129 -21.965 20.623 -0 -1.2 0
10.117 -10.402 26.962 -0 -1.2 0
10.006 -11.391 26.639 -0 -1.2 0
9.883 -12.368 26.283 -0 -1.2 0
9.817 -12.852 26.093 -0 -1.2 0
9.748 -13.331 25.895 -0 -1.2 0
9.676 -13.808 25.69 -0 -1.2 0
9.601 -14.28 25.477 -0 -1.2 0
9.523 -14.749 25.256 -0 -1.2 0
9.442 -15.213 25.027 -0 -1.2 0
9.359 -15.673 24.792 -0 -1.2 0
9.272 -16.128 24.548 -0 -1.2 0
9.183 -16.578 24.297 -0 -1.2 0
9.091 -17.025 24.04 -0 -1.2 0
8.996 -17.466 23.774 -0 -1.2 0
8.899 -17.902 23.501 -0 -1.2 0
8.798 -18.333 23.222 -0 -1.2 0
8.696 -18.759 22.935 -0 -1.2 0
8.591 -19.179 22.641 -0 -1.2 0
8.482 -19.595 22.341 -0 -1.2 0
8.372 -20.004 22.034 -0 -1.2 0
8.258 -20.407 21.721 -0 -1.2 0
8.142 -20.805 21.4 -0 -1.2 0
8.024 -21.197 21.074 -0 -1.2 0
7.904 -21.583 20.74 -0 -1.2 0
7.781 -21.963 20.401 -0 -1.2 0
11.062 -10.384 26.611 -0 -1.2 0
10.654 -13.314 25.561 -0 -1.2 0
10.575 -13.791 25.358 -0 -1.2 0
10.492 -14.263 25.148 -0 -1.2 0
10.406 -14.732 24.931 -0 -1.2 0
10.317 -15.196 24.705 -0 -1.2 0
10.225 -15.656 24.473 -0 -1.2 0
10.129 -16.112 24.234 -0 -1.2 0
10.031 -16.562 23.986 -0 -1.2 0
9.93 -17.009 23.732 -0 -1.2 0
9.826 -17.45 23.471 -0 -1.2 0
9.718 -17.887 23.202 -0 -1.2 0
9.608 -18.318 22.926 -0 -1.2 0
9.494 -18.744 22.644 -0 -1.2 0
9.378 -19.164 22.354 -0 -1.2 0
9.26 -19.58 22.058 -0 -1.2 0
9.138 -19.99 21.756 -0 -1.2 0
9.013 -20.393 21.447 -0 -1.2 0
8.886 -20.791 21.132 -0 -1.2 0
8.756 -21.183 20.81 -0 -1.2 0
8.624 -21.569 20.481 -0 -1.2 0
8.488 -21.949 20.147 -0 -1.2 0
11.306 -14.248 24.815 -0 -1.2 0
11.213 -14.717 24.601 -0 -1.2 0
11.116 -15.181 24.379 -0 -1.2 0
11.016 -15.642 24.15 -0 -1.2 0
10.913 -16.097 23.914 -0 -1.2 0
10.806 -16.548 23.671 -0 -1.2 0
10.696 -16.995 23.42 -0 -1.2 0
10.583 -17.436 23.163 -0 -1.2 0
10.467 -17.873 22.898 -0 -1.2 0
10.347 -18.304 22.627 -0 -1.2 0
10.225 -18.731 22.349 -0 -1.2 0
10.099 -19.151 22.063 -0 -1.2 0
9.97 -19.567 21.772 -0 -1.2 0
9.838 -19.977 21.474 -0 -1.2 0
9.703 -20.381 21.17 -0 -1.2 0
9.566 -20.779 20.859 -0 -1.2 0
9.424 -21.171 20.542 -0 -1.2 0
9.281 -21.557 20.218 -0 -1.2 0
9.135 -21.937 19.889 -0 -1.2 0
12.295 -13.285 24.856 -0 -1.2 0
12.203 -13.762 24.661 -0 -1.2 0
12.005 -14.703 24.246 -0 -1.2 0
11.901 -15.168 24.028 -0 -1.2 0
11.793 -15.628 23.803 -0 -1.2 0
11.567 -16.535 23.332 -0 -1.2 0
11.449 -16.982 23.085 -0 -1.2 0
11.327 -17.423 22.831 -0 -1.2 0
11.202 -17.86 22.571 -0 -1.2 0
11.074 -18.292 22.305 -0 -1.2 0
10.942 -18.718 22.031 -0 -1.2 0
10.807 -19.139 21.751 -0 -1.2 0
10.667 -19.555 21.464 -0 -1.2 0
10.526 -19.965 21.171 -0 -1.2 0
10.381 -20.369 20.871 -0 -1.2 0
10.233 -20.767 20.565 -0 -1.2 0
10.082 -21.159 20.253 -0 -1.2 0
9.927 -21.546 19.936 -0 -1.2 0
9.77 -21.926 19.612 -0 -1.2 0
13.055 -13.747 24.24 -0 -1.2 0
12.731 -15.153 23.621 -0 -1.2 0
12.495 -16.07 23.172 -0 -1.2 0
12.245 -16.968 22.696 -0 -1.2 0
11.979 -17.847 22.192 -0 -1.2 0
11.841 -18.278 21.93 -0 -1.2 0
11.7 -18.705 21.662 -0 -1.2 0
11.555 -19.126 21.386 -0 -1.2 0
11.405 -19.542 21.105 -0 -1.2 0
11.254 -19.952 20.818 -0 -1.2 0
11.097 -20.356 20.523 -0 -1.2 0
10.938 -20.755 20.224 -0 -1.2 0
10.777 -21.147 19.917 -0 -1.2 0
10.611 -21.534 19.606 -0 -1.2 0
10.442 -21.915 19.288 -0 -1.2 0
13.833 -13.734 23.824 -0 -1.2 0
13.238 -16.058 22.777 -0 -1.2 0
12.689 -17.835 21.816 -0 -1.2 0
12.237 -19.115 21.026 -0 -1.2 0
12.079 -19.531 20.75 -0 -1.2 0
11.918 -19.941 20.468 -0 -1.2 0
11.752 -20.346 20.18 -0 -1.2 0
11.583 -20.744 19.885 -0 -1.2 0
11.41 -21.137 19.585 -0 -1.2 0
11.235 -21.524 19.279 -0 -1.2 0
11.054 -21.905 18.967 -0 -1.2 0
15.028 -11.793 24.074 -0 -1.2 0
14.716 -13.245 23.564 -0 -1.2 0
13.69 -16.945 21.897 -0 -1.2 0
13.391 -17.824 21.413 -0 -1.2 0
13.076 -18.683 20.904 -0 -1.2 0
12.913 -19.104 20.641 -0 -1.2 0
12.745 -19.521 20.37 -0 -1.2 0
12.574 -19.931 20.094 -0 -1.2 0
12.399 -20.336 19.811 -0 -1.2 0
12.22 -20.734 19.523 -0 -1.2 0
12.037 -21.127 19.229 -0 -1.2 0
11.851 -21.514 18.929 -0 -1.2 0
11.661 -21.895 18.624 -0 -1.2 0
16.402 -8.789 24.346 -0 -1.2 0
16.326 -9.294 24.23 -0 -1.2 0
13.804 -18.67 20.452 -0 -1.2 0
13.272 -19.918 19.661 -0 -1.2 0
13.087 -20.323 19.386 -0 -1.2 0
12.898 -20.722 19.105 -0 -1.2 0
12.704 -21.115 18.817 -0 -1.2 0
12.508 -21.502 18.524 -0 -1.2 0
12.307 -21.883 18.227 -0 -1.2 0
15.159 -16.912 20.952 -0 -1.2 0
14.654 -18.224 20.254 -0 -1.2 0
13.92 -19.901 19.237 -0 -1.2 0
13.725 -20.306 18.967 -0 -1.2 0
13.526 -20.705 18.693 -0 -1.2 0
13.324 -21.098 18.414 -0 -1.2 0
13.117 -21.485 18.128 -0 -1.2 0
12.907 -21.867 17.837 -0 -1.2 0
18.584 -0.978 24.025 -0 -1.2 0
18.585 -1.501 24.022 -0 -1.2 0
15.862 -16.894 20.449 -0 -1.2 0
15.691 -17.336 20.228 -0 -1.2 0
15.514 -17.774 20.001 -0 -1.2 0
15.334 -18.207 19.768 -0 -1.2 0
15.149 -18.634 19.529 -0 -1.2 0
14.96 -19.056 19.284 -0 -1.2 0
14.765 -19.473 19.033 -0 -1.2 0
14.566 -19.884 18.777 -0 -1.2 0
14.363 -20.289 18.516 -0 -1.2 0
14.156 -20.688 18.249 -0 -1.2 0
13.944 -21.082 17.976 -0 -1.2 0
13.727 -21.47 17.697 -0 -1.2 0
13.508 -21.851 17.414 -0 -1.2 0
19.457 -0.953 23.333 -0 -1.2 0
19.458 -1.476 23.329 -0 -1.2 0
19.182 -3.541 22.989 -0 -1.2 0
19.185 -4.061 22.989 -0 -1.2 0
19.236 -5.645 23.04 -0 -1.2 0
19.196 -6.165 22.99 -0 -1.2 0
19.138 -6.68 22.918 -0 -1.2 0
19.074 -7.194 22.838 -0 -1.2 0
18.928 -8.215 22.659 -0 -1.2 0
17.278 -15.054 20.666 -0 -1.2 0
17.12 -15.516 20.476 -0 -1.2 0
16.787 -16.425 20.077 -0 -1.2 0
16.061 -18.187 19.209 -0 -1.2 0
15.868 -18.614 18.977 -0 -1.2 0
15.67 -19.036 18.74 -0 -1.2 0
15.466 -19.454 18.496 -0 -1.2 0
15.258 -19.865 18.249 -0 -1.2 0
15.045 -20.27 17.994 -0 -1.2 0
14.828 -20.67 17.735 -0 -1.2 0
14.606 -21.064 17.471 -0 -1.2 0
14.381 -21.452 17.201 -0 -1.2 0
14.15 -21.834 16.926 -0 -1.2 0
20.232 -2.5 22.627 -0 -1.2 0
20.215 -3.023 22.604 -0 -1.2 0
20.19 -3.545 22.574 -0 -1.2 0
20.124 -4.587 22.494 -0 -1.2 0
20.082 -5.107 22.445 -0 -1.2 0
20.033 -5.625 22.388 -0 -1.2 0
19.918 -6.657 22.254 -0 -1.2 0
19.852 -7.171 22.178 -0 -1.2 0
19.428 -9.708 21.697 -0 -1.2 0
19.217 -10.706 21.458 -0 -1.2 0
17.108 -17.296 19.094 -0 -1.2 0
16.917 -17.734 18.881 -0 -1.2 0
16.313 -19.018 18.208 -0 -1.2 0
16.101 -19.435 17.971 -0 -1.2 0
15.885 -19.847 17.731 -0 -1.2 0
15.664 -20.252 17.485 -0 -1.2 0
15.438 -20.652 17.234 -0 -1.2 0
15.207 -21.046 16.977 -0 -1.2 0
14.973 -21.434 16.716 -0 -1.2 0
14.732 -21.817 16.449 -0 -1.2 0
21.015 -0.905 21.952 -0 -1.2 0
21.016 -1.429 21.949 -0 -1.2 0
20.999 -2.476 21.925 -0 -1.2 0
20.98 -2.998 21.902 -0 -1.2 0
20.956 -3.52 21.874 -0 -1.2 0
20.924 -4.043 21.839 -0 -1.2 0
20.887 -4.563 21.798 -0 -1.2 0
20.843 -5.083 21.75 -0 -1.2 0
20.737 -6.118 21.633 -0 -1.2 0
20.674 -6.633 21.566 -0 -1.2 0
20.53 -7.659 21.412 -0 -1.2 0
20.167 -9.685 21.027 -0 -1.2 0
18.142 -16.384 18.908 -0 -1.2 0
17.761 -17.275 18.512 -0 -1.2 0
17.151 -18.575 17.877 -0 -1.2 0
16.936 -18.998 17.654 -0 -1.2 0
16.717 -19.416 17.427 -0 -1.2 0
16.492 -19.827 17.194 -0 -1.2 0
16.029 -20.634 16.713 -0 -1.2 0
15.79 -21.028 16.465 -0 -1.2 0
15.546 -21.416 16.212 -0 -1.2 0
15.298 -21.799 15.955 -0 -1.2 0
21.813 -0.878 21.164 -0 -1.2 0
21.813 -1.401 21.163 -0 -1.2 0
21.796 -2.448 21.14 -0 -1.2 0
21.776 -2.971 21.118 -0 -1.2 0
21.751 -3.493 21.091 -0 -1.2 0
21.719 -4.016 21.057 -0 -1.2 0
21.68 -4.536 21.018 -0 -1.2 0
21.635 -5.056 20.972 -0 -1.2 0
21.46 -6.607 20.796 -0 -1.2 0
21.311 -7.632 20.648 -0 -1.2 0
20.709 -10.657 20.057 -0 -1.2 0
19.025 -15.908 18.424 -0 -1.2 0
18.442 -17.252 17.86 -0 -1.2 0
18.235 -17.691 17.662 -0 -1.2 0
18.025 -18.125 17.458 -0 -1.2 0
17.808 -18.553 17.249 -0 -1.2 0
16.888 -20.213 16.364 -0 -1.2 0
16.644 -20.613 16.13 -0 -1.2 0
16.397 -21.008 15.892 -0 -1.2 0
16.144 -21.397 15.649 -0 -1.2 0
15.886 -21.779 15.401 -0 -1.2 0
22.554 -0.852 20.373 -0 -1.2 0
22.555 -1.375 20.372 -0 -1.2 0
22.537 -2.422 20.35 -0 -1.2 0
22.517 -2.945 20.33 -0 -1.2 0
22.491 -3.467 20.304 -0 -1.2 0
22.458 -3.99 20.272 -0 -1.2 0
22.419 -4.51 20.234 -0 -1.2 0
22.372 -5.03 20.19 -0 -1.2 0
22.259 -6.065 20.084 -0 -1.2 0
22.191 -6.581 20.022 -0 -1.2 0
21.857 -8.625 19.715 -0 -1.2 0
19.866 -15.427 17.916 -0 -1.2 0
18.419 -18.532 16.619 -0 -1.2 0
16.961 -20.988 15.314 -0 -1.2 0
16.7 -21.377 15.081 -0 -1.2 0
16.434 -21.761 14.843 -0 -1.2 0
23.267 -1.349 19.555 -0 -1.2 0
23.248 -2.396 19.535 -0 -1.2 0
23.229 -2.919 19.516 -0 -1.2 0
23.202 -3.441 19.492 -0 -1.2 0
23.168 -3.963 19.461 -0 -1.2 0
22.736 -7.581 19.088 -0 -1.2 0
21.045 -14.003 17.665 -0 -1.2 0
18.28 -19.765 15.364 -0 -1.2 0
18.027 -20.172 15.154 -0 -1.2 0
17.504 -20.968 14.719 -0 -1.2 0
17.235 -21.358 14.496 -0 -1.2 0
23.95 -0.85 18.706 -0 -1.2 0
23.952 -1.373 18.705 -0 -1.2 0
23.931 -2.42 18.686 -0 -1.2 0
23.846 -3.988 18.615 -0 -1.2 0
23.803 -4.508 18.581 -0 -1.2 0
17.987 -20.987 14.092 -0 -1.2 0
17.425 -21.759 13.662 -0 -1.2 0
24.545 -0.89 17.914 -0 -1.2 0
24.538 -1.937 17.907 -0 -1.2 0
24.522 -2.46 17.895 -0 -1.2 0
24.432 -4.027 17.829 -0 -1.2 0
24.133 -6.618 17.611 -0 -1.2 0
20.235 -18.134 14.821 -0 -1.2 0
18.395 -21.016 13.508 -0 -1.2 0
17.818 -21.788 13.097 -0 -1.2 0
25.104 -1.454 17.114 -0 -1.2 0
25.095 -1.979 17.108 -0 -1.2 0
25.079 -2.501 17.097 -0 -1.2 0
25.055 -3.024 17.081 -0 -1.2 0
25.677 -0.977 16.233 -0 -1.2 0
25.674 -1.5 16.232 -0 -1.2 0
25.665 -2.025 16.227 -0 -1.2 0
25.647 -2.547 16.216 -0 -1.2 0
25.621 -3.07 16.201 -0 -1.2 0
25.587 -3.592 16.18 -0 -1.2 0
25.546 -4.114 16.156 -0 -1.2 0
20.308 -19.472 12.965 -0 -1.2 0
26.162 0.023 15.385 -0 -1.2 0
26.175 -0.498 15.394 -0 -1.2 0
26.18 -1.021 15.397 -0 -1.2 0
26.176 -1.545 15.396 -0 -1.2 0
26.165 -2.069 15.392 -0 -1.2 0
26.145 -2.592 15.382 -0 -1.2 0
25.364 -3.056 14.938 -0 -1.2 0
25.408 -3.571 14.965 -0 -1.2 0
18.886 -21.883 11.298 -0 -1.2 0
26.627 -0.021 14.553 -0 -1.2 0
25.634 -4.101 14.043 -0 -1.2 0
19.185 -21.915 10.703 -0 -1.2 0
27.085 -0.071 13.667 -0 -1.2 0
27.096 -0.594 13.675 -0 -1.2 0
27.099 -1.117 13.678 -0 -1.2 0
27.094 -1.64 13.677 -0 -1.2 0
27.08 -2.164 13.672 -0 -1.2 0
27.058 -2.687 13.664 -0 -1.2 0
27.028 -3.209 13.652 -0 -1.2 0
26.99 -3.731 13.635 -0 -1.2 0
26.944 -4.253 13.615 -0 -1.2 0
19.477 -21.951 10.068 -0 -1.2 0
27.498 -0.086 12.795 -0 -1.2 0
27.509 -0.609 12.801 -0 -1.2 0
27.512 -1.132 12.806 -0 -1.2 0
27.506 -1.655 12.806 -0 -1.2 0
27.492 -2.18 12.802 -0 -1.2 0
27.47 -2.702 12.795 -0 -1.2 0
27.439 -3.225 12.784 -0 -1.2 0
27.399 -3.747 12.768 -0 -1.2 0
27.352 -4.268 12.75 -0 -1.2 0
27.902 -0.609 11.893 -0 -1.2 0
27.905 -1.132 11.897 -0 -1.2 0
27.899 -1.655 11.897 -0 -1.2 0
27.885 -2.179 11.895 -0 -1.2 0
27.861 -2.701 11.888 -0 -1.2 0
27.83 -3.224 11.88 -0 -1.2 0
27.791 -3.746 11.867 -0 -1.2 0
27.742 -4.268 11.85 -0 -1.2 0
28.602 -0.089 9.972 -0 -1.2 0
28.614 -0.612 9.981 -0 -1.2 0
28.616 -1.135 9.985 -0 -1.2 0
28.61 -1.658 9.988 -0 -1.2 0
28.595 -2.183 9.988 -0 -1.2 0
28.571 -2.705 9.985 -0 -1.2 0
28.54 -3.228 9.978 -0 -1.2 0
28.498 -3.749 9.969 -0 -1.2 0
28.449 -4.271 9.957 -0 -1.2 0
28.391 -4.791 9.943 -0 -1.2 0
28.323 -5.31 9.925 -0 -1.2 0
24.901 -17.936 2.093 -0 -1.2 0
25.227 -17.545 -0.812 -0 -1.2 0
24.019 -19.255 -0.764 -0 -1.2 0
25.196 -17.564 -1.685 -0 -1.2 0
24.905 -17.999 -1.663 -0 -1.2 0
23.342 -20.095 -1.545 -0 -1.2 0
23.288 -20.112 -2.261 -0 -1.2 0
24.465 -18.475 -3.154 -0 -1.2 0
22.187 -21.326 -2.835 -0 -1.2 0
21.834 -21.71 -2.786 -0 -1.2 0
23.733 -19.347 -3.858 -0 -1.2 0
21.726 -21.736 -3.505 -0 -1.2 0
24.498 -18.106 -4.79 -0 -1.2 0
24.204 -18.535 -4.727 -0 -1.2 0
23.278 -19.788 -4.529 -0 -1.2 0
22.956 -20.194 -4.46 -0 -1.2 0
24.035 -18.564 -5.502 -0 -1.2 0
23.116 -19.817 -5.272 -0 -1.2 0
21.792 -21.406 -4.945 -0 -1.2 0
21.445 -21.789 -4.861 -0 -1.2 0
23.526 -19.018 -6.245 -0 -1.2 0
23.885 -18.2 -7.188 -0 -1.2 0
22.057 -20.682 -6.59 -0 -1.2 0
23.913 -17.798 -8.041 -0 -1.2 0
23.636 -18.23 -7.938 -0 -1.2 0
23.352 -18.657 -7.833 -0 -1.2 0
21.5 -21.103 -7.161 -0 -1.2 0
23.624 -17.82 -8.85 -0 -1.2 0
23.35 -18.252 -8.737 -0 -1.2 0
23.069 -18.679 -8.622 -0 -1.2 0
23.328 -17.841 -9.591 -0 -1.2 0
23.058 -18.273 -9.47 -0 -1.2 0
21.908 -19.946 -8.958 -0 -1.2 0
23.008 -17.862 -10.322 -0 -1.2 0
22.741 -18.293 -10.192 -0 -1.2 0
22.188 -19.14 -9.923 -0 -1.2 0
20.371 -21.546 -9.047 -0 -1.2 0
22.885 -17.447 -11.25 -0 -1.2 0
22.63 -17.884 -11.113 -0 -1.2 0
21.824 -19.161 -10.684 -0 -1.2 0
21.254 -19.986 -10.381 -0 -1.2 0
19.717 -21.946 -9.575 -0 -1.2 0
22.501 -17.468 -11.985 -0 -1.2 0
21.729 -18.761 -11.537 -0 -1.2 0
21.458 -19.181 -11.382 -0 -1.2 0
21.181 -19.596 -11.223 -0 -1.2 0
22.332 -17.048 -12.855 -0 -1.2 0
22.093 -17.489 -12.705 -0 -1.2 0
21.595 -18.355 -12.393 -0 -1.2 0
21.336 -18.781 -12.232 -0 -1.2 0
21.07 -19.201 -12.067 -0 -1.2 0
20.52 -20.025 -11.727 -0 -1.2 0
19.946 -20.825 -11.373 -0 -1.2 0
19.347 -21.602 -11.006 -0 -1.2 0
19.039 -21.981 -10.818 -0 -1.2 0
25.353 -5.364 -16.15 -0 -1.2 0
21.387 -17.947 -13.302 -0 -1.2 0
21.141 -18.377 -13.135 -0 -1.2 0
20.887 -18.802 -12.964 -0 -1.2 0
20.362 -19.636 -12.612 -0 -1.2 0
20.09 -20.045 -12.429 -0 -1.2 0
19.527 -20.845 -12.055 -0 -1.2 0
21.582 -16.663 -14.522 -0 -1.2 0
21.131 -17.548 -14.191 -0 -1.2 0
20.896 -17.984 -14.019 -0 -1.2 0
20.654 -18.414 -13.843 -0 -1.2 0
20.406 -18.839 -13.664 -0 -1.2 0
20.153 -19.258 -13.481 -0 -1.2 0
18.503 -21.654 -12.297 -0 -1.2 0
24.175 -5.457 -17.851 -0 -1.2 0
21.262 -16.256 -15.409 -0 -1.2 0
20.61 -17.589 -14.895 -0 -1.2 0
20.38 -18.025 -14.715 -0 -1.2 0
20.144 -18.454 -14.532 -0 -1.2 0
19.654 -19.297 -14.15 -0 -1.2 0
18.327 -21.306 -13.125 -0 -1.2 0
17.757 -22.068 -12.687 -0 -1.2 0
20.855 -15.845 -16.344 -0 -1.2 0
20.657 -16.299 -16.174 -0 -1.2 0
20.023 -17.631 -15.636 -0 -1.2 0
19.8 -18.065 -15.447 -0 -1.2 0
19.093 -19.336 -14.854 -0 -1.2 0
18.847 -19.749 -14.647 -0 -1.2 0
18.335 -20.558 -14.221 -0 -1.2 0
18.071 -20.953 -14.001 -0 -1.2 0
17.802 -21.342 -13.778 -0 -1.2 0
17.246 -22.103 -13.319 -0 -1.2 0
20.259 -15.887 -17.039 -0 -1.2 0
19.866 -16.788 -16.681 -0 -1.2 0
19.66 -17.232 -16.493 -0 -1.2 0
18.304 -19.786 -15.272 -0 -1.2 0
18.058 -20.193 -15.052 -0 -1.2 0
17.288 -21.377 -14.365 -0 -1.2 0
20.166 -14.539 -18.237 -0 -1.2 0
18.64 -18.141 -16.747 -0 -1.2 0
18.424 -18.569 -16.537 -0 -1.2 0
17.974 -19.409 -16.104 -0 -1.2 0
17.74 -19.821 -15.88 -0 -1.2 0
19.611 -14.109 -19.134 -0 -1.2 0
18.183 -17.744 -17.629 -0 -1.2 0
17.556 -19.027 -16.976 -0 -1.2 0
17.916 -16.898 -18.657 -0 -1.2 0
17.341 -18.211 -18.014 -0 -1.2 0
16.932 -19.06 -17.559 -0 -1.2 0
16.719 -19.477 -17.323 -0 -1.2 0
18.511 -13.222 -20.739 -0 -1.2 0
17.933 -15.107 -20.032 -0 -1.2 0
17.442 -16.476 -19.438 -0 -1.2 0
16.757 -16.498 -20.009 -0 -1.2 0
16.59 -16.945 -19.793 -0 -1.2 0
16.241 -17.824 -19.344 -0 -1.2 0
15.682 -19.104 -18.626 -0 -1.2 0
14.436 -21.513 -17.043 -0 -1.2 0
14.213 -21.894 -16.762 -0 -1.2 0
13.985 -22.268 -16.475 -0 -1.2 0
15.433 -18.277 -19.591 -0 -1.2 0
15.071 -19.125 -19.094 -0 -1.2 0
14.69 -19.95 -18.574 -0 -1.2 0
14.293 -20.753 -18.032 -0 -1.2 0
17.669 -2.139 -24.634 -0 -1.2 0
17.665 -2.663 -24.609 -0 -1.2 0
17.656 -3.185 -24.577 -0 -1.2 0
17.641 -3.707 -24.536 -0 -1.2 0
17.621 -4.228 -24.49 -0 -1.2 0
17.596 -4.749 -24.435 -0 -1.2 0
17.565 -5.268 -24.373 -0 -1.2 0
17.441 -6.817 -24.144 -0 -1.2 0
17.331 -7.84 -23.954 -0 -1.2 0
14.444 -19.146 -19.542 -0 -1.2 0
14.264 -19.561 -19.279 -0 -1.2 0
13.701 -20.773 -18.454 -0 -1.2 0
16.797 -2.168 -25.225 -0 -1.2 0
16.795 -2.692 -25.199 -0 -1.2 0
16.786 -3.214 -25.165 -0 -1.2 0
16.772 -3.736 -25.125 -0 -1.2 0
16.754 -4.257 -25.076 -0 -1.2 0
16.731 -4.777 -25.021 -0 -1.2 0
16.702 -5.296 -24.957 -0 -1.2 0
14.235 -17.89 -20.779 -0 -1.2 0
13.58 -19.583 -19.734 -0 -1.2 0
13.228 -20.397 -19.176 -0 -1.2 0
13.045 -20.794 -18.889 -0 -1.2 0
12.859 -21.186 -18.596 -0 -1.2 0
12.475 -21.951 -17.993 -0 -1.2 0
12.278 -22.325 -17.684 -0 -1.2 0
15.957 -1.151 -25.773 -0 -1.2 0
15.879 -5.324 -25.47 -0 -1.2 0
15.724 -7.385 -25.135 -0 -1.2 0
14.808 -13.346 -23.412 -0 -1.2 0
12.595 -20.418 -19.563 -0 -1.2 0
12.065 -21.592 -18.666 -0 -1.2 0
11.881 -21.972 -18.354 -0 -1.2 0
11.694 -22.345 -18.039 -0 -1.2 0
15.097 -0.657 -26.271 -0 -1.2 0
15.117 -2.749 -26.211 -0 -1.2 0
15.11 -3.271 -26.176 -0 -1.2 0
15.1 -3.793 -26.134 -0 -1.2 0
15.085 -4.313 -26.083 -0 -1.2 0
15.064 -4.834 -26.025 -0 -1.2 0
15.04 -5.353 -25.958 -0 -1.2 0
15.011 -5.87 -25.884 -0 -1.2 0
14.978 -6.386 -25.802 -0 -1.2 0
14.68 -9.443 -25.149 -0 -1.2 0
11.275 -21.992 -18.698 -0 -1.2 0
11.097 -22.365 -18.376 -0 -1.2 0
14.177 -1.205 -26.768 -0 -1.2 0
14.183 -3.296 -26.675 -0 -1.2 0
14.172 -3.818 -26.631 -0 -1.2 0
14.159 -4.339 -26.579 -0 -1.2 0
14.141 -4.859 -26.52 -0 -1.2 0
14.119 -5.378 -26.453 -0 -1.2 0
14.092 -5.896 -26.377 -0 -1.2 0
14.061 -6.411 -26.294 -0 -1.2 0
13.187 -13.395 -24.311 -0 -1.2 0
13.287 -2.264 -27.182 -0 -1.2 0
13.287 -2.788 -27.155 -0 -1.2 0
13.282 -3.31 -27.119 -0 -1.2 0
13.274 -3.831 -27.075 -0 -1.2 0
13.262 -4.352 -27.023 -0 -1.2 0
13.246 -4.873 -26.963 -0 -1.2 0
13.202 -5.909 -26.818 -0 -1.2 0
13.141 -6.939 -26.64 -0 -1.2 0
13.065 -7.962 -26.431 -0 -1.2 0
13.021 -8.47 -26.315 -0 -1.2 0
9.811 -22.392 -19.036 -0 -1.2 0
11.347 -2.256 -28.022 -0 -1.2 0
11.349 -2.78 -27.995 -0 -1.2 0
11.347 -3.302 -27.959 -0 -1.2 0
11.342 -3.823 -27.915 -0 -1.2 0
11.333 -4.344 -27.862 -0 -1.2 0
11.321 -4.865 -27.801 -0 -1.2 0
11.287 -5.901 -27.654 -0 -1.2 0
11.238 -6.931 -27.473 -0 -1.2 0
11.1 -8.969 -27.012 -0 -1.2 0
8.951 -20.86 -21.001 -0 -1.2 0
10.36 -0.68 -28.408 -0 -1.2 0
10.371 -1.202 -28.407 -0 -1.2 0
10.38 -1.725 -28.397 -0 -1.2 0
10.386 -2.248 -28.378 -0 -1.2 0
10.388 -2.772 -28.351 -0 -1.2 0
10.387 -3.294 -28.316 -0 -1.2 0
10.384 -3.815 -28.271 -0 -1.2 0
10.377 -4.336 -28.219 -0 -1.2 0
10.366 -4.857 -28.158 -0 -1.2 0
10.337 -5.893 -28.01 -0 -1.2 0
10.318 -6.409 -27.923 -0 -1.2 0
10.269 -7.436 -27.724 -0 -1.2 0
10.208 -8.455 -27.492 -0 -1.2 0
9.586 -14.34 -25.415 -0 -1.2 0
9.202 -16.635 -24.218 -0 -1.2 0
7.766 -22.381 -19.929 -0 -1.2 0
9.296 -1.199 -28.762 -0 -1.2 0
9.305 -1.721 -28.752 -0 -1.2 0
9.311 -2.244 -28.734 -0 -1.2 0
9.315 -2.768 -28.707 -0 -1.2 0
9.315 -3.29 -28.671 -0 -1.2 0
9.313 -3.812 -28.627 -0 -1.2 0
9.308 -4.332 -28.574 -0 -1.2 0
9.299 -4.853 -28.513 -0 -1.2 0
9.289 -5.372 -28.443 -0 -1.2 0
9.165 -8.451 -27.843 -0 -1.2 0
8.681 -13.865 -25.964 -0 -1.2 0
7.953 -11.935 -27.044 -0 -1.2 0
7.212 -17.948 -23.975 -0 -1.2 0
7.25 -0.661 -29.311 -0 -1.2 0
7.262 -1.184 -29.311 -0 -1.2 0
7.271 -1.707 -29.303 -0 -1.2 0
7.279 -2.23 -29.286 -0 -1.2 0
7.284 -2.754 -29.26 -0 -1.2 0
7.287 -3.275 -29.225 -0 -1.2 0
7.288 -3.797 -29.181 -0 -1.2 0
7.286 -4.318 -29.128 -0 -1.2 0
7.282 -4.839 -29.067 -0 -1.2 0
7.276 -5.357 -28.996 -0 -1.2 0
7.268 -5.875 -28.917 -0 -1.2 0
7.258 -6.391 -28.829 -0 -1.2 0
7.034 -11.437 -27.475 -0 -1.2 0
6.105 -19.632 -22.995 -0 -1.2 0
6.134 -0.655 -29.549 -0 -1.2 0
6.145 -1.178 -29.55 -0 -1.2 0
6.155 -1.701 -29.542 -0 -1.2 0
6.163 -2.224 -29.525 -0 -1.2 0
6.169 -2.748 -29.5 -0 -1.2 0
6.173 -3.27 -29.464 -0 -1.2 0
6.175 -3.791 -29.42 -0 -1.2 0
6.176 -4.312 -29.368 -0 -1.2 0
6.174 -4.833 -29.306 -0 -1.2 0
6.171 -5.352 -29.236 -0 -1.2 0
6.166 -5.869 -29.156 -0 -1.2 0
6.159 -6.385 -29.068 -0 -1.2 0
6.139 -7.412 -28.865 -0 -1.2 0
6.126 -7.923 -28.751 -0 -1.2 0
6.112 -8.431 -28.628 -0 -1.2 0
6.095 -8.938 -28.497 -0 -1.2 0
5.675 -15.709 -25.768 -0 -1.2 0
5.541 -17.06 -24.979 -0 -1.2 0
4.855 -21.991 -21.165 -0 -1.2 0
5.11 -0.721 -29.726 -0 -1.2 0
5.122 -1.244 -29.727 -0 -1.2 0
5.132 -1.766 -29.718 -0 -1.2 0
5.14 -2.289 -29.7 -0 -1.2 0
5.147 -2.813 -29.673 -0 -1.2 0
5.151 -3.335 -29.638 -0 -1.2 0
5.155 -3.856 -29.592 -0 -1.2 0
5.158 -4.377 -29.539 -0 -1.2 0
5.158 -4.898 -29.476 -0 -1.2 0
5.157 -5.416 -29.404 -0 -1.2 0
5.154 -5.934 -29.324 -0 -1.2 0
5.15 -6.449 -29.235 -0 -1.2 0
5.144 -6.964 -29.137 -0 -1.2 0
5.137 -7.476 -29.029 -0 -1.2 0
5.118 -8.495 -28.789 -0 -1.2 0
4.083 -0.789 -29.865 -0 -1.2 0
4.094 -1.312 -29.864 -0 -1.2 0
4.104 -1.835 -29.855 -0 -1.2 0
4.112 -2.358 -29.836 -0 -1.2 0
4.12 -2.881 -29.808 -0 -1.2 0
4.126 -3.403 -29.772 -0 -1.2 0
4.131 -3.925 -29.726 -0 -1.2 0
4.134 -4.445 -29.671 -0 -1.2 0
4.137 -4.966 -29.607 -0 -1.2 0
4.137 -5.484 -29.534 -0 -1.2 0
4.138 -6.001 -29.452 -0 -1.2 0
4.134 -7.031 -29.262 -0 -1.2 0
2.968 -0.856 -29.978 -0 -1.2 0
2.978 -1.379 -29.976 -0 -1.2 0
2.989 -1.902 -29.967 -0 -1.2 0
2.997 -2.425 -29.947 -0 -1.2 0
3.006 -2.948 -29.918 -0 -1.2 0
3.013 -3.47 -29.88 -0 -1.2 0
3.032 -9.132 -28.873 -0 -1.2 0
3.028 -9.635 -28.728 -0 -1.2 0
3.012 -11.128 -28.241 -0 -1.2 0
2.954 -14.028 -27.037 -0 -1.2 0
1.986 -18.155 -24.709 -0 -1.2 0
1.023 -0.985 -30.068 -0 -1.2 0
1.088 -4.64 -29.858 -0 -1.2 0
1.097 -5.16 -29.79 -0 -1.2 0
1.105 -5.678 -29.715 -0 -1.2 0
1.112 -6.195 -29.631 -0 -1.2 0
1.119 -6.71 -29.536 -0 -1.2 0
1.126 -7.223 -29.434 -0 -1.2 0
1.133 -7.735 -29.323 -0 -1.2 0
1.172 -11.741 -28.113 -0 -1.2 0
0.143 -5.222 -29.783 -0 -1.2 0
0.153 -5.739 -29.706 -0 -1.2 0
0.164 -6.256 -29.621 -0 -1.2 0
0.174 -6.771 -29.527 -0 -1.2 0
0.183 -7.284 -29.423 -0 -1.2 0
0.193 -7.795 -29.311 -0 -1.2 0
0.212 -8.811 -29.059 -0 -1.2 0
0.232 -9.819 -28.773 -0 -1.2 0
0.26 -11.309 -28.277 -0 -1.2 0
0.269 -11.799 -28.095 -0 -1.2 0
-0.831 -7.345 -29.38 -0 -1.2 0
-0.818 -7.856 -29.267 -0 -1.2 0
-0.284 -22.317 -21.261 -0 -1.2 0
-0.265 -22.685 -20.888 -0 -1.2 0
-1.739 -5.788 -29.611 -0 -1.2 0
-1.725 -6.305 -29.526 -0 -1.2 0
-1.71 -6.819 -29.432 -0 -1.2 0
-1.694 -7.332 -29.328 -0 -1.2 0
-1.678 -7.843 -29.215 -0 -1.2 0
-1.662 -8.352 -29.094 -0 -1.2 0
-1.609 -9.866 -28.678 -0 -1.2 0
-1.572 -10.861 -28.356 -0 -1.2 0
-1.403 -14.714 -26.729 -0 -1.2 0
-1.38 -15.178 -26.489 -0 -1.2 0
-1.356 -15.639 -26.24 -0 -1.2 0
-1.308 -16.546 -25.719 -0 -1.2 0
-1.258 -17.433 -25.166 -0 -1.2 0
-1.181 -18.728 -24.28 -0 -1.2 0
-0.986 -21.554 -21.958 -0 -1.2 0
-0.957 -21.934 -21.599 -0 -1.2 0
-0.928 -22.308 -21.234 -0 -1.2 0
-0.899 -22.675 -20.861 -0 -1.2 0
-2.78 -4.22 -29.721 -0 -1.2 0
-2.766 -4.74 -29.664 -0 -1.2 0
-2.75 -5.26 -29.597 -0 -1.2 0
-2.735 -5.778 -29.522 -0 -1.2 0
-2.718 -6.294 -29.437 -0 -1.2 0
-2.701 -6.809 -29.343 -0 -1.2 0
-2.683 -7.322 -29.24 -0 -1.2 0
-2.663 -7.833 -29.128 -0 -1.2 0
-2.643 -8.342 -29.007 -0 -1.2 0
-2.601 -9.353 -28.74 -0 -1.2 0
-2.579 -9.856 -28.593 -0 -1.2 0
-2.555 -10.355 -28.438 -0 -1.2 0
-2.532 -10.852 -28.273 -0 -1.2 0
-2.507 -11.346 -28.101 -0 -1.2 0
-2.482 -11.836 -27.919 -0 -1.2 0
-2.4 -13.286 -27.324 -0 -1.2 0
-2.372 -13.764 -27.108 -0 -1.2 0
-2.313 -14.705 -26.654 -0 -1.2 0
-2.218 -16.086 -25.911 -0 -1.2 0
-2.186 -16.537 -25.648 -0 -1.2 0
-2.152 -16.984 -25.376 -0 -1.2 0
-2.118 -17.425 -25.097 -0 -1.2 0
-2.084 -17.862 -24.81 -0 -1.2 0
-2.048 -18.293 -24.516 -0 -1.2 0
-2.013 -18.72 -24.215 -0 -1.2 0
-1.975 -19.141 -23.905 -0 -1.2 0
-1.901 -19.966 -23.265 -0 -1.2 0
-1.823 -20.769 -22.597 -0 -1.2 0
-1.784 -21.161 -22.253 -0 -1.2 0
-1.704 -21.927 -21.544 -0 -1.2 0
-1.663 -22.301 -21.179 -0 -1.2 0
-1.621 -22.668 -20.808 -0 -1.2 0
-3.698 -5.777 -29.4 -0 -1.2 0
-3.679 -6.294 -29.316 -0 -1.2 0
-3.659 -6.808 -29.223 -0 -1.2 0
-3.638 -7.322 -29.12 -0 -1.2 0
-3.616 -7.833 -29.01 -0 -1.2 0
-3.592 -8.342 -28.889 -0 -1.2 0
-3.568 -8.848 -28.761 -0 -1.2 0
-3.542 -9.353 -28.623 -0 -1.2 0
-3.515 -9.856 -28.478 -0 -1.2 0
-3.488 -10.355 -28.322 -0 -1.2 0
-3.459 -10.851 -28.159 -0 -1.2 0
-3.429 -11.345 -27.986 -0 -1.2 0
-3.398 -11.835 -27.806 -0 -1.2 0
-3.366 -12.323 -27.617 -0 -1.2 0
-3.333 -12.807 -27.42 -0 -1.2 0
-3.229 -14.236 -26.777 -0 -1.2 0
-3.191 -14.705 -26.547 -0 -1.2 0
-3.154 -15.169 -26.308 -0 -1.2 0
-3.115 -15.63 -26.062 -0 -1.2 0
-3.034 -16.537 -25.545 -0 -1.2 0
-2.992 -16.983 -25.275 -0 -1.2 0
-2.949 -17.425 -24.997 -0 -1.2 0
-2.906 -17.862 -24.712 -0 -1.2 0
-2.861 -18.293 -24.418 -0 -1.2 0
-2.816 -18.72 -24.118 -0 -1.2 0
-2.77 -19.141 -23.811 -0 -1.2 0
-2.724 -19.556 -23.495 -0 -1.2 0
-2.676 -19.966 -23.173 -0 -1.2 0
-2.627 -20.37 -22.844 -0 -1.2 0
-2.577 -20.769 -22.508 -0 -1.2 0
-2.527 -21.161 -22.165 -0 -1.2 0
-2.476 -21.547 -21.815 -0 -1.2 0
-2.424 -21.927 -21.458 -0 -1.2 0
-2.372 -22.301 -21.096 -0 -1.2 0
-2.319 -22.668 -20.726 -0 -1.2 0
-4.636 -6.291 -29.162 -0 -1.2 0
-4.614 -6.805 -29.07 -0 -1.2 0
-4.591 -7.319 -28.969 -0 -1.2 0
-4.565 -7.83 -28.858 -0 -1.2 0
-4.538 -8.339 -28.739 -0 -1.2 0
-4.51 -8.845 -28.611 -0 -1.2 0
-4.481 -9.35 -28.475 -0 -1.2 0
-4.45 -9.853 -28.329 -0 -1.2 0
-4.418 -10.352 -28.175 -0 -1.2 0
-4.384 -10.848 -28.013 -0 -1.2 0
-4.349 -11.342 -27.842 -0 -1.2 0
-4.313 -11.832 -27.663 -0 -1.2 0
-4.276 -12.32 -27.475 -0 -1.2 0
-4.236 -12.804 -27.278 -0 -1.2 0
-4.197 -13.284 -27.074 -0 -1.2 0
-4.155 -13.761 -26.861 -0 -1.2 0
-4.112 -14.233 -26.639 -0 -1.2 0
-4.068 -14.702 -26.411 -0 -1.2 0
-4.023 -15.166 -26.174 -0 -1.2 0
-3.977 -15.627 -25.928 -0 -1.2 0
-3.929 -16.083 -25.676 -0 -1.2 0
-3.88 -16.534 -25.414 -0 -1.2 0
-3.831 -16.981 -25.145 -0 -1.2 0
-3.779 -17.422 -24.869 -0 -1.2 0
-3.727 -17.859 -24.585 -0 -1.2 0
-3.673 -18.291 -24.293 -0 -1.2 0
-3.619 -18.718 -23.995 -0 -1.2 0
-3.563 -19.138 -23.689 -0 -1.2 0
-3.506 -19.554 -23.376 -0 -1.2 0
-3.448 -19.964 -23.055 -0 -1.2 0
-3.389 -20.368 -22.727 -0 -1.2 0
-3.33 -20.766 -22.393 -0 -1.2 0
-3.268 -21.159 -22.051 -0 -1.2 0
-3.207 -21.545 -21.703 -0 -1.2 0
-3.144 -21.925 -21.349 -0 -1.2 0
-3.08 -22.299 -20.987 -0 -1.2 0
-3.015 -22.666 -20.62 -0 -1.2 0
-5.498 -8.336 -28.555 -0 -1.2 0
-5.466 -8.843 -28.428 -0 -1.2 0
-5.432 -9.347 -28.293 -0 -1.2 0
-5.397 -9.85 -28.148 -0 -1.2 0
-5.36 -10.349 -27.996 -0 -1.2 0
-5.322 -10.846 -27.835 -0 -1.2 0
-5.282 -11.34 -27.665 -0 -1.2 0
-5.24 -11.83 -27.487 -0 -1.2 0
-5.197 -12.318 -27.3 -0 -1.2 0
-5.152 -12.801 -27.105 -0 -1.2 0
-5.106 -13.281 -26.902 -0 -1.2 0
-5.057 -13.758 -26.69 -0 -1.2 0
-5.008 -14.231 -26.471 -0 -1.2 0
-4.957 -14.7 -26.243 -0 -1.2 0
-4.904 -15.164 -26.007 -0 -1.2 0
-4.85 -15.625 -25.764 -0 -1.2 0
-4.795 -16.08 -25.512 -0 -1.2 0
-4.738 -16.532 -25.253 -0 -1.2 0
-4.68 -16.979 -24.987 -0 -1.2 0
-4.62 -17.42 -24.711 -0 -1.2 0
-4.559 -17.857 -24.429 -0 -1.2 0
-4.496 -18.288 -24.14 -0 -1.2 0
-4.432 -18.715 -23.843 -0 -1.2 0
-4.367 -19.136 -23.539 -0 -1.2 0
-4.3 -19.552 -23.228 -0 -1.2 0
-4.232 -19.962 -22.909 -0 -1.2 0
-4.162 -20.366 -22.584 -0 -1.2 0
-4.092 -20.764 -22.252 -0 -1.2 0
-4.02 -21.157 -21.912 -0 -1.2 0
-3.947 -21.543 -21.567 -0 -1.2 0
-3.873 -21.923 -21.214 -0 -1.2 0
-3.798 -22.297 -20.855 -0 -1.2 0
-3.721 -22.665 -20.491 -0 -1.2 0
-6.67 -5.768 -28.823 -0 -1.2 0
-6.645 -6.285 -28.741 -0 -1.2 0
-6.617 -6.799 -28.65 -0 -1.2 0
-6.588 -7.312 -28.551 -0 -1.2 0
-6.556 -7.824 -28.442 -0 -1.2 0
-6.522 -8.333 -28.325 -0 -1.2 0
-6.448 -9.344 -28.065 -0 -1.2 0
-6.408 -9.847 -27.922 -0 -1.2 0
-6.366 -10.346 -27.77 -0 -1.2 0
-6.323 -10.843 -27.611 -0 -1.2 0
-6.277 -11.337 -27.442 -0 -1.2 0
-6.23 -11.827 -27.265 -0 -1.2 0
-6.181 -12.315 -27.081 -0 -1.2 0
-6.13 -12.798 -26.887 -0 -1.2 0
-6.076 -13.278 -26.686 -0 -1.2 0
-6.021 -13.755 -26.476 -0 -1.2 0
-5.964 -14.228 -26.258 -0 -1.2 0
-5.906 -14.697 -26.032 -0 -1.2 0
-5.845 -15.161 -25.799 -0 -1.2 0
-5.783 -15.622 -25.557 -0 -1.2 0
-5.719 -16.078 -25.308 -0 -1.2 0
-5.653 -16.529 -25.051 -0 -1.2 0
-5.586 -16.976 -24.786 -0 -1.2 0
-5.516 -17.417 -24.513 -0 -1.2 0
-5.446 -17.855 -24.233 -0 -1.2 0
-5.373 -18.286 -23.947 -0 -1.2 0
-5.299 -18.713 -23.653 -0 -1.2 0
-5.223 -19.134 -23.351 -0 -1.2 0
-5.146 -19.549 -23.042 -0 -1.2 0
-5.068 -19.959 -22.725 -0 -1.2 0
-4.987 -20.364 -22.403 -0 -1.2 0
-4.905 -20.762 -22.073 -0 -1.2 0
-4.821 -21.154 -21.737 -0 -1.2 0
-4.737 -21.541 -21.394 -0 -1.2 0
-4.65 -21.921 -21.044 -0 -1.2 0
-4.563 -22.295 -20.688 -0 -1.2 0
-4.473 -22.663 -20.326 -0 -1.2 0
-6.911 -13.749 -26.244 -0 -1.2 0
-6.848 -14.221 -26.028 -0 -1.2 0
-6.782 -14.691 -25.805 -0 -1.2 0
-6.715 -15.155 -25.573 -0 -1.2 0
-6.645 -15.616 -25.334 -0 -1.2 0
-6.573 -16.072 -25.087 -0 -1.2 0
-6.499 -16.523 -24.832 -0 -1.2 0
-6.423 -16.97 -24.569 -0 -1.2 0
-6.346 -17.411 -24.299 -0 -1.2 0
-6.266 -17.849 -24.022 -0 -1.2 0
-6.185 -18.28 -23.738 -0 -1.2 0
-6.101 -18.707 -23.445 -0 -1.2 0
-6.016 -19.128 -23.146 -0 -1.2 0
-5.928 -19.544 -22.84 -0 -1.2 0
-5.84 -19.954 -22.527 -0 -1.2 0
-5.749 -20.358 -22.207 -0 -1.2 0
-5.657 -20.757 -21.881 -0 -1.2 0
-5.563 -21.149 -21.547 -0 -1.2 0
-5.467 -21.536 -21.207 -0 -1.2 0
-5.37 -21.916 -20.86 -0 -1.2 0
-5.271 -22.29 -20.507 -0 -1.2 0
-5.17 -22.658 -20.148 -0 -1.2 0
-7.559 -15.61 -25.064 -0 -1.2 0
-7.478 -16.066 -24.82 -0 -1.2 0
-7.396 -16.518 -24.568 -0 -1.2 0
-7.312 -16.965 -24.308 -0 -1.2 0
-7.225 -17.406 -24.042 -0 -1.2 0
-7.136 -17.844 -23.767 -0 -1.2 0
-7.045 -18.275 -23.486 -0 -1.2 0
-6.951 -18.702 -23.196 -0 -1.2 0
-6.857 -19.123 -22.901 -0 -1.2 0
-6.759 -19.539 -22.598 -0 -1.2 0
-6.66 -19.949 -22.288 -0 -1.2 0
-6.557 -20.354 -21.971 -0 -1.2 0
-6.454 -20.752 -21.648 -0 -1.2 0
-6.349 -21.145 -21.318 -0 -1.2 0
-6.241 -21.531 -20.982 -0 -1.2 0
-6.132 -21.911 -20.639 -0 -1.2 0
-6.021 -22.286 -20.289 -0 -1.2 0
-5.907 -22.654 -19.935 -0 -1.2 0
-8.03 -17.407 -23.768 -0 -1.2 0
-7.932 -17.845 -23.497 -0 -1.2 0
-7.832 -18.276 -23.218 -0 -1.2 0
-7.73 -18.703 -22.932 -0 -1.2 0
-7.625 -19.124 -22.64 -0 -1.2 0
-7.518 -19.54 -22.341 -0 -1.2 0
-7.409 -19.95 -22.033 -0 -1.2 0
-7.297 -20.355 -21.72 -0 -1.2 0
-7.183 -20.753 -21.4 -0 -1.2 0
-7.067 -21.146 -21.074 -0 -1.2 0
-6.949 -21.532 -20.742 -0 -1.2 0
-6.829 -21.912 -20.402 -0 -1.2 0
-6.707 -22.286 -20.057 -0 -1.2 0
-6.582 -22.654 -19.705 -0 -1.2 0
-8.386 -19.139 -22.341 -0 -1.2 0
-8.269 -19.555 -22.044 -0 -1.2 0
-8.149 -19.965 -21.741 -0 -1.2 0
-8.028 -20.369 -21.431 -0 -1.2 0
-7.903 -20.768 -21.115 -0 -1.2 0
-7.776 -21.16 -20.793 -0 -1.2 0
-7.648 -21.546 -20.463 -0 -1.2 0
-7.517 -21.926 -20.128 -0 -1.2 0
-7.383 -22.3 -19.787 -0 -1.2 0
-7.246 -22.668 -19.439 -0 -1.2 0
-8.801 -20.383 -21.099 -0 -1.2 0
-8.666 -20.781 -20.788 -0 -1.2 0
-8.388 -21.559 -20.145 -0 -1.2 0
-8.244 -21.939 -19.814 -0 -1.2 0
-8.099 -22.313 -19.477 -0 -1.2 0
-7.951 -22.68 -19.133 -0 -1.2 0
-8.755 -22.325 -19.163 -0 -1.2 0
-8.596 -22.692 -18.826 -0 -1.2 0
-2.877 -4.401 28.596 -0 -1.2 0
-1.933 -4.891 29.018 -0 -1.2 0
16.757 -4.976 23.217 -0 -1.2 0
16.756 -5.479 23.215 -0 -1.2 0
