# .PCD v.7 - Point Cloud Data file format
FIELDS x y z vp_x vp_y vp_z
SIZE 4 4 4 4 4 4
TYPE F F F F F F
COUNT 1 1 1 1 1 1
WIDTH 1515
HEIGHT 1
VIEWPOINT 0 -1.20013 0 1 0 0 0
POINTS 1515
DATA ascii
-27.495 -1.492 11.94 -0 -1.2 0
-27.482 -2.015 11.94 -0 -1.2 0
-27.462 -2.538 11.936 -0 -1.2 0
-27.432 -3.06 11.928 -0 -1.2 0
-27.349 -4.104 11.902 -0 -1.2 0
-27.296 -4.624 11.884 -0 -1.2 0
-27.233 -5.143 11.861 -0 -1.2 0
-27.163 -5.662 11.835 -0 -1.2 0
-27.083 -6.179 11.805 -0 -1.2 0
-26.997 -6.694 11.772 -0 -1.2 0
-26.902 -7.207 11.735 -0 -1.2 0
-26.798 -7.719 11.695 -0 -1.2 0
-26.686 -8.229 11.65 -0 -1.2 0
-26.567 -8.736 11.602 -0 -1.2 0
-26.438 -9.241 11.551 -0 -1.2 0
-26.302 -9.744 11.496 -0 -1.2 0
-26.159 -10.244 11.438 -0 -1.2 0
-26.007 -10.742 11.375 -0 -1.2 0
-25.847 -11.236 11.31 -0 -1.2 0
-25.679 -11.727 11.241 -0 -1.2 0
-25.505 -12.215 11.169 -0 -1.2 0
-25.321 -12.7 11.093 -0 -1.2 0
-25.13 -13.181 11.013 -0 -1.2 0
-24.932 -13.657 10.93 -0 -1.2 0
-24.726 -14.132 10.844 -0 -1.2 0
-24.512 -14.601 10.755 -0 -1.2 0
-24.291 -15.067 10.662 -0 -1.2 0
-24.062 -15.527 10.566 -0 -1.2 0
-23.827 -15.985 10.467 -0 -1.2 0
-23.584 -16.437 10.364 -0 -1.2 0
-23.334 -16.885 10.258 -0 -1.2 0
-23.076 -17.328 10.149 -0 -1.2 0
-22.812 -17.765 10.036 -0 -1.2 0
-22.541 -18.198 9.921 -0 -1.2 0
-22.263 -18.625 9.802 -0 -1.2 0
-21.979 -19.048 9.681 -0 -1.2 0
-21.687 -19.464 9.557 -0 -1.2 0
-21.388 -19.876 9.429 -0 -1.2 0
-21.084 -20.281 9.299 -0 -1.2 0
-20.774 -20.681 9.165 -0 -1.2 0
-20.456 -21.074 9.03 -0 -1.2 0
-20.133 -21.462 8.89 -0 -1.2 0
-19.803 -21.843 8.749 -0 -1.2 0
-19.468 -22.218 8.605 -0 -1.2 0
-19.126 -22.587 8.457 -0 -1.2 0
-18.778 -22.949 8.308 -0 -1.2 0
-27.05 -0.431 12.899 -0 -1.2 0
-27.053 -0.955 12.907 -0 -1.2 0
-27.05 -1.478 12.911 -0 -1.2 0
-27.037 -2.001 12.911 -0 -1.2 0
-27.017 -2.524 12.907 -0 -1.2 0
-26.987 -3.046 12.899 -0 -1.2 0
-26.951 -3.569 12.887 -0 -1.2 0
-26.905 -4.09 12.871 -0 -1.2 0
-26.852 -4.61 12.851 -0 -1.2 0
-26.791 -5.129 12.827 -0 -1.2 0
-26.721 -5.648 12.799 -0 -1.2 0
-26.643 -6.165 12.768 -0 -1.2 0
-26.557 -6.681 12.732 -0 -1.2 0
-26.463 -7.194 12.692 -0 -1.2 0
-26.361 -7.706 12.648 -0 -1.2 0
-26.251 -8.215 12.602 -0 -1.2 0
-26.133 -8.723 12.55 -0 -1.2 0
-26.007 -9.228 12.495 -0 -1.2 0
-25.873 -9.73 12.436 -0 -1.2 0
-25.731 -10.231 12.372 -0 -1.2 0
-25.582 -10.728 12.306 -0 -1.2 0
-25.424 -11.222 12.236 -0 -1.2 0
-25.259 -11.714 12.161 -0 -1.2 0
-25.087 -12.202 12.083 -0 -1.2 0
-24.906 -12.687 12.001 -0 -1.2 0
-24.718 -13.168 11.915 -0 -1.2 0
-24.523 -13.645 11.826 -0 -1.2 0
-24.32 -14.119 11.734 -0 -1.2 0
-24.11 -14.588 11.637 -0 -1.2 0
-23.892 -15.054 11.537 -0 -1.2 0
-23.667 -15.515 11.433 -0 -1.2 0
-23.436 -15.973 11.326 -0 -1.2 0
-23.196 -16.425 11.215 -0 -1.2 0
-22.949 -16.873 11.101 -0 -1.2 0
-22.697 -17.316 10.983 -0 -1.2 0
-22.436 -17.753 10.863 -0 -1.2 0
-22.169 -18.186 10.739 -0 -1.2 0
-21.895 -18.614 10.611 -0 -1.2 0
-21.615 -19.036 10.48 -0 -1.2 0
-21.329 -19.453 10.346 -0 -1.2 0
-21.035 -19.865 10.208 -0 -1.2 0
-20.736 -20.27 10.067 -0 -1.2 0
-20.429 -20.67 9.924 -0 -1.2 0
-20.116 -21.064 9.777 -0 -1.2 0
-19.798 -21.451 9.628 -0 -1.2 0
-19.474 -21.833 9.475 -0 -1.2 0
-19.143 -22.208 9.319 -0 -1.2 0
-18.808 -22.577 9.161 -0 -1.2 0
-18.466 -22.94 8.999 -0 -1.2 0
-26.573 0.628 13.756 -0 -1.2 0
-26.593 0.105 13.772 -0 -1.2 0
-26.604 -1.464 13.798 -0 -1.2 0
-26.592 -1.987 13.798 -0 -1.2 0
-26.572 -2.51 13.794 -0 -1.2 0
-26.543 -3.032 13.786 -0 -1.2 0
-26.507 -3.555 13.773 -0 -1.2 0
-26.462 -4.076 13.756 -0 -1.2 0
-26.409 -4.596 13.735 -0 -1.2 0
-26.348 -5.116 13.71 -0 -1.2 0
-26.28 -5.635 13.681 -0 -1.2 0
-26.203 -6.151 13.647 -0 -1.2 0
-26.118 -6.667 13.609 -0 -1.2 0
-26.025 -7.18 13.566 -0 -1.2 0
-25.925 -7.692 13.52 -0 -1.2 0
-25.817 -8.202 13.47 -0 -1.2 0
-25.701 -8.709 13.414 -0 -1.2 0
-25.576 -9.214 13.356 -0 -1.2 0
-25.444 -9.717 13.293 -0 -1.2 0
-25.304 -10.218 13.226 -0 -1.2 0
-25.157 -10.715 13.155 -0 -1.2 0
-25.003 -11.209 13.08 -0 -1.2 0
-24.84 -11.701 13 -0 -1.2 0
-24.669 -12.188 12.917 -0 -1.2 0
-24.492 -12.674 12.831 -0 -1.2 0
-24.307 -13.155 12.739 -0 -1.2 0
-24.115 -13.632 12.644 -0 -1.2 0
-23.914 -14.106 12.545 -0 -1.2 0
-23.707 -14.576 12.443 -0 -1.2 0
-23.493 -15.042 12.336 -0 -1.2 0
-23.272 -15.503 12.226 -0 -1.2 0
-23.043 -15.96 12.112 -0 -1.2 0
-22.808 -16.413 11.994 -0 -1.2 0
-22.566 -16.861 11.872 -0 -1.2 0
-22.317 -17.304 11.746 -0 -1.2 0
-22.06 -17.741 11.617 -0 -1.2 0
-21.797 -18.175 11.485 -0 -1.2 0
-21.528 -18.602 11.348 -0 -1.2 0
-21.252 -19.025 11.209 -0 -1.2 0
-20.97 -19.442 11.066 -0 -1.2 0
-20.681 -19.853 10.919 -0 -1.2 0
-20.386 -20.259 10.769 -0 -1.2 0
-20.084 -20.659 10.617 -0 -1.2 0
-19.777 -21.053 10.46 -0 -1.2 0
-19.465 -21.441 10.3 -0 -1.2 0
-19.145 -21.822 10.137 -0 -1.2 0
-18.82 -22.198 9.971 -0 -1.2 0
-18.489 -22.567 9.803 -0 -1.2 0
-18.153 -22.93 9.63 -0 -1.2 0
-26.102 0.643 14.625 -0 -1.2 0
-26.122 0.12 14.643 -0 -1.2 0
-26.132 -1.449 14.67 -0 -1.2 0
-26.119 -1.972 14.67 -0 -1.2 0
-26.099 -2.495 14.666 -0 -1.2 0
-26.071 -3.017 14.657 -0 -1.2 0
-26.035 -3.54 14.645 -0 -1.2 0
-25.991 -4.061 14.627 -0 -1.2 0
-25.939 -4.581 14.605 -0 -1.2 0
-25.879 -5.101 14.578 -0 -1.2 0
-25.811 -5.62 14.546 -0 -1.2 0
-25.736 -6.137 14.51 -0 -1.2 0
-25.652 -6.652 14.471 -0 -1.2 0
-25.561 -7.165 14.426 -0 -1.2 0
-25.462 -7.677 14.377 -0 -1.2 0
-25.355 -8.187 14.324 -0 -1.2 0
-25.241 -8.694 14.265 -0 -1.2 0
-25.119 -9.2 14.203 -0 -1.2 0
-24.989 -9.703 14.137 -0 -1.2 0
-24.852 -10.203 14.065 -0 -1.2 0
-24.707 -10.701 13.99 -0 -1.2 0
-24.554 -11.195 13.91 -0 -1.2 0
-24.394 -11.687 13.826 -0 -1.2 0
-24.227 -12.174 13.739 -0 -1.2 0
-24.052 -12.66 13.646 -0 -1.2 0
-23.87 -13.141 13.549 -0 -1.2 0
-23.681 -13.618 13.449 -0 -1.2 0
-23.484 -14.093 13.343 -0 -1.2 0
-23.281 -14.562 13.234 -0 -1.2 0
-23.07 -15.028 13.121 -0 -1.2 0
-22.853 -15.489 13.004 -0 -1.2 0
-22.628 -15.947 12.883 -0 -1.2 0
-22.396 -16.4 12.758 -0 -1.2 0
-22.158 -16.848 12.629 -0 -1.2 0
-21.913 -17.291 12.496 -0 -1.2 0
-21.661 -17.729 12.359 -0 -1.2 0
-21.403 -18.162 12.218 -0 -1.2 0
-21.138 -18.59 12.074 -0 -1.2 0
-20.867 -19.013 11.926 -0 -1.2 0
-20.59 -19.43 11.774 -0 -1.2 0
-20.306 -19.842 11.618 -0 -1.2 0
-20.016 -20.247 11.46 -0 -1.2 0
-19.719 -20.647 11.297 -0 -1.2 0
-19.417 -21.042 11.132 -0 -1.2 0
-19.11 -21.43 10.962 -0 -1.2 0
-18.796 -21.811 10.789 -0 -1.2 0
-18.476 -22.187 10.613 -0 -1.2 0
-18.151 -22.556 10.434 -0 -1.2 0
-17.821 -22.919 10.25 -0 -1.2 0
-25.595 -1.432 15.586 -0 -1.2 0
-25.583 -1.955 15.586 -0 -1.2 0
-25.562 -2.478 15.582 -0 -1.2 0
-25.534 -3 15.573 -0 -1.2 0
-25.499 -3.523 15.558 -0 -1.2 0
-25.455 -4.044 15.54 -0 -1.2 0
-25.404 -4.565 15.516 -0 -1.2 0
-25.345 -5.084 15.488 -0 -1.2 0
-25.279 -5.603 15.455 -0 -1.2 0
-25.204 -6.12 15.417 -0 -1.2 0
-25.122 -6.635 15.375 -0 -1.2 0
-25.032 -7.149 15.327 -0 -1.2 0
-24.935 -7.661 15.276 -0 -1.2 0
-24.831 -8.17 15.219 -0 -1.2 0
-24.718 -8.678 15.158 -0 -1.2 0
-24.598 -9.183 15.092 -0 -1.2 0
-24.471 -9.686 15.021 -0 -1.2 0
-24.336 -10.187 14.946 -0 -1.2 0
-24.194 -10.684 14.866 -0 -1.2 0
-24.044 -11.179 14.782 -0 -1.2 0
-23.887 -11.671 14.693 -0 -1.2 0
-23.723 -12.158 14.599 -0 -1.2 0
-23.551 -12.644 14.501 -0 -1.2 0
-23.373 -13.125 14.399 -0 -1.2 0
-23.188 -13.602 14.292 -0 -1.2 0
-22.994 -14.077 14.181 -0 -1.2 0
-22.795 -14.547 14.065 -0 -1.2 0
-22.588 -15.013 13.946 -0 -1.2 0
-22.375 -15.474 13.822 -0 -1.2 0
-22.155 -15.932 13.693 -0 -1.2 0
-21.928 -16.385 13.561 -0 -1.2 0
-21.695 -16.833 13.424 -0 -1.2 0
-21.454 -17.276 13.283 -0 -1.2 0
-21.207 -17.714 13.138 -0 -1.2 0
-20.954 -18.148 12.988 -0 -1.2 0
-20.694 -18.576 12.835 -0 -1.2 0
-20.428 -18.999 12.678 -0 -1.2 0
-20.156 -19.416 12.518 -0 -1.2 0
-19.878 -19.828 12.353 -0 -1.2 0
-19.594 -20.234 12.184 -0 -1.2 0
-19.303 -20.634 12.012 -0 -1.2 0
-19.007 -21.029 11.836 -0 -1.2 0
-18.706 -21.417 11.655 -0 -1.2 0
-18.398 -21.799 11.473 -0 -1.2 0
-18.085 -22.174 11.285 -0 -1.2 0
-17.766 -22.544 11.095 -0 -1.2 0
-17.442 -22.907 10.902 -0 -1.2 0
-25.046 0.677 16.361 -0 -1.2 0
-25.063 0.155 16.381 -0 -1.2 0
-25.077 -0.892 16.408 -0 -1.2 0
-25.072 -1.415 16.413 -0 -1.2 0
-25.06 -1.938 16.414 -0 -1.2 0
-25.039 -2.46 16.409 -0 -1.2 0
-25.012 -2.983 16.4 -0 -1.2 0
-24.977 -3.506 16.385 -0 -1.2 0
-24.934 -4.026 16.365 -0 -1.2 0
-24.883 -4.547 16.341 -0 -1.2 0
-24.825 -5.066 16.312 -0 -1.2 0
-24.76 -5.585 16.277 -0 -1.2 0
-24.687 -6.102 16.237 -0 -1.2 0
-24.605 -6.618 16.193 -0 -1.2 0
-24.517 -7.131 16.143 -0 -1.2 0
-24.422 -7.643 16.089 -0 -1.2 0
-24.319 -8.153 16.03 -0 -1.2 0
-24.209 -8.661 15.965 -0 -1.2 0
-24.091 -9.166 15.896 -0 -1.2 0
-23.966 -9.669 15.822 -0 -1.2 0
-23.833 -10.17 15.743 -0 -1.2 0
-23.694 -10.668 15.659 -0 -1.2 0
-23.547 -11.162 15.571 -0 -1.2 0
-23.393 -11.654 15.477 -0 -1.2 0
-23.233 -12.142 15.379 -0 -1.2 0
-23.064 -12.628 15.276 -0 -1.2 0
-22.889 -13.109 15.168 -0 -1.2 0
-22.707 -13.586 15.056 -0 -1.2 0
-22.518 -14.061 14.939 -0 -1.2 0
-22.323 -14.531 14.818 -0 -1.2 0
-22.12 -14.997 14.692 -0 -1.2 0
-21.911 -15.459 14.562 -0 -1.2 0
-21.694 -15.917 14.426 -0 -1.2 0
-21.471 -16.369 14.286 -0 -1.2 0
-21.243 -16.818 14.143 -0 -1.2 0
-21.007 -17.261 13.994 -0 -1.2 0
-20.765 -17.7 13.843 -0 -1.2 0
-20.516 -18.133 13.686 -0 -1.2 0
-20.262 -18.561 13.525 -0 -1.2 0
-20.002 -18.985 13.36 -0 -1.2 0
-19.735 -19.402 13.19 -0 -1.2 0
-19.462 -19.814 13.018 -0 -1.2 0
-19.183 -20.22 12.84 -0 -1.2 0
-18.899 -20.621 12.659 -0 -1.2 0
-18.608 -21.015 12.474 -0 -1.2 0
-18.312 -21.404 12.285 -0 -1.2 0
-18.011 -21.786 12.092 -0 -1.2 0
-17.704 -22.162 11.896 -0 -1.2 0
-17.392 -22.531 11.696 -0 -1.2 0
-17.074 -22.895 11.492 -0 -1.2 0
-24.495 0.697 17.17 -0 -1.2 0
-24.525 -0.871 17.22 -0 -1.2 0
-24.52 -1.394 17.226 -0 -1.2 0
-24.507 -1.917 17.226 -0 -1.2 0
-24.487 -2.44 17.222 -0 -1.2 0
-24.46 -2.962 17.213 -0 -1.2 0
-24.425 -3.485 17.197 -0 -1.2 0
-24.383 -4.006 17.177 -0 -1.2 0
-24.333 -4.527 17.151 -0 -1.2 0
-24.276 -5.046 17.121 -0 -1.2 0
-24.212 -5.565 17.085 -0 -1.2 0
-24.14 -6.082 17.043 -0 -1.2 0
-24.061 -6.598 16.997 -0 -1.2 0
-23.975 -7.111 16.945 -0 -1.2 0
-23.881 -7.624 16.888 -0 -1.2 0
-23.78 -8.133 16.826 -0 -1.2 0
-23.672 -8.641 16.759 -0 -1.2 0
-23.556 -9.147 16.686 -0 -1.2 0
-23.433 -9.65 16.609 -0 -1.2 0
-23.304 -10.151 16.526 -0 -1.2 0
-23.167 -10.648 16.438 -0 -1.2 0
-23.023 -11.143 16.346 -0 -1.2 0
-22.872 -11.635 16.248 -0 -1.2 0
-22.715 -12.123 16.145 -0 -1.2 0
-22.55 -12.609 16.038 -0 -1.2 0
-22.378 -13.09 15.924 -0 -1.2 0
-22.2 -13.568 15.807 -0 -1.2 0
-22.015 -14.043 15.685 -0 -1.2 0
-21.823 -14.513 15.558 -0 -1.2 0
-21.625 -14.979 15.426 -0 -1.2 0
-21.419 -15.441 15.289 -0 -1.2 0
-21.208 -15.899 15.148 -0 -1.2 0
-20.99 -16.352 15.002 -0 -1.2 0
-20.766 -16.801 14.851 -0 -1.2 0
-20.535 -17.244 14.696 -0 -1.2 0
-20.298 -17.683 14.536 -0 -1.2 0
-20.055 -18.117 14.372 -0 -1.2 0
-19.805 -18.545 14.203 -0 -1.2 0
-19.551 -18.968 14.03 -0 -1.2 0
-19.289 -19.386 13.854 -0 -1.2 0
-19.023 -19.798 13.672 -0 -1.2 0
-18.75 -20.204 13.486 -0 -1.2 0
-18.471 -20.605 13.297 -0 -1.2 0
-18.188 -21 13.102 -0 -1.2 0
-17.898 -21.388 12.904 -0 -1.2 0
-17.602 -21.771 12.702 -0 -1.2 0
-17.302 -22.147 12.496 -0 -1.2 0
-16.997 -22.517 12.287 -0 -1.2 0
-16.686 -22.881 12.074 -0 -1.2 0
-23.875 0.72 18.021 -0 -1.2 0
-23.903 -0.848 18.075 -0 -1.2 0
-23.898 -1.372 18.081 -0 -1.2 0
-23.885 -1.894 18.082 -0 -1.2 0
-23.865 -2.417 18.077 -0 -1.2 0
-23.838 -2.939 18.068 -0 -1.2 0
-23.804 -3.463 18.052 -0 -1.2 0
-23.762 -3.984 18.031 -0 -1.2 0
-23.714 -4.504 18.004 -0 -1.2 0
-23.658 -5.024 17.972 -0 -1.2 0
-23.595 -5.543 17.935 -0 -1.2 0
-23.524 -6.06 17.891 -0 -1.2 0
-23.447 -6.575 17.843 -0 -1.2 0
-23.362 -7.089 17.789 -0 -1.2 0
-23.271 -7.601 17.73 -0 -1.2 0
-23.172 -8.111 17.664 -0 -1.2 0
-23.066 -8.619 17.594 -0 -1.2 0
-22.953 -9.124 17.518 -0 -1.2 0
-22.833 -9.628 17.437 -0 -1.2 0
-22.706 -10.129 17.351 -0 -1.2 0
-22.573 -10.627 17.258 -0 -1.2 0
-22.432 -11.121 17.162 -0 -1.2 0
-22.285 -11.613 17.06 -0 -1.2 0
-22.13 -12.102 16.952 -0 -1.2 0
-21.97 -12.588 16.839 -0 -1.2 0
-21.802 -13.069 16.721 -0 -1.2 0
-21.628 -13.547 16.598 -0 -1.2 0
-21.448 -14.022 16.47 -0 -1.2 0
-21.26 -14.492 16.337 -0 -1.2 0
-21.066 -14.959 16.199 -0 -1.2 0
-20.866 -15.42 16.056 -0 -1.2 0
-20.66 -15.879 15.908 -0 -1.2 0
-20.447 -16.332 15.755 -0 -1.2 0
-20.228 -16.781 15.597 -0 -1.2 0
-20.003 -17.225 15.434 -0 -1.2 0
-19.772 -17.663 15.267 -0 -1.2 0
-19.535 -18.097 15.094 -0 -1.2 0
-19.292 -18.526 14.918 -0 -1.2 0
-19.042 -18.95 14.737 -0 -1.2 0
-18.788 -19.367 14.551 -0 -1.2 0
-18.527 -19.78 14.361 -0 -1.2 0
-18.261 -20.186 14.166 -0 -1.2 0
-17.989 -20.587 13.968 -0 -1.2 0
-17.712 -20.982 13.764 -0 -1.2 0
-17.43 -21.371 13.557 -0 -1.2 0
-17.141 -21.754 13.345 -0 -1.2 0
-16.849 -22.13 13.129 -0 -1.2 0
-16.551 -22.501 12.91 -0 -1.2 0
-16.247 -22.865 12.685 -0 -1.2 0
-23.261 0.743 18.804 -0 -1.2 0
-23.286 -0.302 18.848 -0 -1.2 0
-23.287 -0.826 18.86 -0 -1.2 0
-23.282 -1.349 18.868 -0 -1.2 0
-23.269 -1.872 18.869 -0 -1.2 0
-23.249 -2.394 18.865 -0 -1.2 0
-23.222 -2.917 18.854 -0 -1.2 0
-23.189 -3.44 18.838 -0 -1.2 0
-23.148 -3.961 18.816 -0 -1.2 0
-23.1 -4.482 18.788 -0 -1.2 0
-23.045 -5.001 18.756 -0 -1.2 0
-22.983 -5.52 18.716 -0 -1.2 0
-22.915 -6.037 18.672 -0 -1.2 0
-22.839 -6.553 18.622 -0 -1.2 0
-22.756 -7.067 18.565 -0 -1.2 0
-22.666 -7.579 18.503 -0 -1.2 0
-22.569 -8.089 18.435 -0 -1.2 0
-22.467 -8.597 18.362 -0 -1.2 0
-22.356 -9.102 18.284 -0 -1.2 0
-22.239 -9.606 18.199 -0 -1.2 0
-22.115 -10.107 18.109 -0 -1.2 0
-21.985 -10.605 18.014 -0 -1.2 0
-21.847 -11.1 17.913 -0 -1.2 0
-21.703 -11.592 17.805 -0 -1.2 0
-21.553 -12.08 17.694 -0 -1.2 0
-21.396 -12.566 17.576 -0 -1.2 0
-21.232 -13.048 17.454 -0 -1.2 0
-21.062 -13.526 17.326 -0 -1.2 0
-20.886 -14.001 17.192 -0 -1.2 0
-20.703 -14.472 17.054 -0 -1.2 0
-20.514 -14.938 16.91 -0 -1.2 0
-20.319 -15.4 16.761 -0 -1.2 0
-20.117 -15.859 16.606 -0 -1.2 0
-19.91 -16.312 16.447 -0 -1.2 0
-19.696 -16.761 16.282 -0 -1.2 0
-19.477 -17.205 16.113 -0 -1.2 0
-19.251 -17.644 15.938 -0 -1.2 0
-19.02 -18.079 15.759 -0 -1.2 0
-18.782 -18.507 15.575 -0 -1.2 0
-18.539 -18.931 15.387 -0 -1.2 0
-18.291 -19.349 15.193 -0 -1.2 0
-18.037 -19.762 14.995 -0 -1.2 0
-17.777 -20.168 14.791 -0 -1.2 0
-17.512 -20.57 14.585 -0 -1.2 0
-17.242 -20.965 14.373 -0 -1.2 0
-16.966 -21.354 14.157 -0 -1.2 0
-16.686 -21.737 13.936 -0 -1.2 0
-16.4 -22.114 13.711 -0 -1.2 0
-16.109 -22.484 13.482 -0 -1.2 0
-15.814 -22.849 13.249 -0 -1.2 0
-22.578 -2.893 19.626 -0 -1.2 0
-22.545 -3.416 19.61 -0 -1.2 0
-22.505 -3.937 19.587 -0 -1.2 0
-22.458 -4.458 19.558 -0 -1.2 0
-22.404 -4.977 19.523 -0 -1.2 0
-22.344 -5.497 19.483 -0 -1.2 0
-22.276 -6.014 19.437 -0 -1.2 0
-22.202 -6.53 19.384 -0 -1.2 0
-22.121 -7.043 19.326 -0 -1.2 0
-22.033 -7.556 19.262 -0 -1.2 0
-21.94 -8.066 19.192 -0 -1.2 0
-21.839 -8.574 19.116 -0 -1.2 0
-21.731 -9.079 19.034 -0 -1.2 0
-21.617 -9.583 18.946 -0 -1.2 0
-21.496 -10.084 18.853 -0 -1.2 0
-21.368 -10.582 18.754 -0 -1.2 0
-21.235 -11.077 18.649 -0 -1.2 0
-21.095 -11.57 18.538 -0 -1.2 0
-20.947 -12.058 18.422 -0 -1.2 0
-20.794 -12.544 18.299 -0 -1.2 0
-20.635 -13.026 18.172 -0 -1.2 0
-20.469 -13.504 18.039 -0 -1.2 0
-20.297 -13.98 17.9 -0 -1.2 0
-20.119 -14.45 17.756 -0 -1.2 0
-19.936 -14.917 17.606 -0 -1.2 0
-19.745 -15.379 17.451 -0 -1.2 0
-19.549 -15.838 17.291 -0 -1.2 0
-19.346 -16.291 17.125 -0 -1.2 0
-19.138 -16.741 16.955 -0 -1.2 0
-18.925 -17.185 16.779 -0 -1.2 0
-18.705 -17.624 16.598 -0 -1.2 0
-18.479 -18.059 16.411 -0 -1.2 0
-18.249 -18.487 16.22 -0 -1.2 0
-18.012 -18.912 16.023 -0 -1.2 0
-17.77 -19.33 15.823 -0 -1.2 0
-17.523 -19.743 15.616 -0 -1.2 0
-17.271 -20.15 15.405 -0 -1.2 0
-17.012 -20.552 15.19 -0 -1.2 0
-16.749 -20.947 14.97 -0 -1.2 0
-16.481 -21.336 14.745 -0 -1.2 0
-16.208 -21.72 14.516 -0 -1.2 0
-15.93 -22.097 14.282 -0 -1.2 0
-15.646 -22.467 14.044 -0 -1.2 0
-15.36 -22.832 13.801 -0 -1.2 0
-21.897 0.793 20.376 -0 -1.2 0
-21.92 -0.775 20.438 -0 -1.2 0
-21.914 -1.299 20.446 -0 -1.2 0
-21.901 -1.821 20.448 -0 -1.2 0
-21.626 -5.47 20.285 -0 -1.2 0
-21.56 -5.987 20.237 -0 -1.2 0
-21.488 -6.503 20.183 -0 -1.2 0
-21.41 -7.017 20.122 -0 -1.2 0
-21.325 -7.529 20.056 -0 -1.2 0
-21.233 -8.04 19.983 -0 -1.2 0
-21.134 -8.548 19.904 -0 -1.2 0
-21.03 -9.054 19.819 -0 -1.2 0
-20.919 -9.557 19.728 -0 -1.2 0
-20.802 -10.059 19.631 -0 -1.2 0
-20.678 -10.557 19.528 -0 -1.2 0
-20.548 -11.052 19.419 -0 -1.2 0
-20.412 -11.544 19.303 -0 -1.2 0
-20.27 -12.033 19.182 -0 -1.2 0
-20.12 -12.519 19.056 -0 -1.2 0
-19.966 -13.002 18.923 -0 -1.2 0
-19.806 -13.48 18.785 -0 -1.2 0
-19.639 -13.955 18.641 -0 -1.2 0
-19.466 -14.426 18.491 -0 -1.2 0
-19.287 -14.893 18.335 -0 -1.2 0
-19.103 -15.355 18.174 -0 -1.2 0
-18.912 -15.814 18.008 -0 -1.2 0
-18.716 -16.268 17.836 -0 -1.2 0
-18.514 -16.718 17.658 -0 -1.2 0
-18.306 -17.162 17.475 -0 -1.2 0
-18.093 -17.601 17.287 -0 -1.2 0
-17.875 -18.036 17.093 -0 -1.2 0
-17.651 -18.465 16.895 -0 -1.2 0
-17.422 -18.89 16.69 -0 -1.2 0
-17.188 -19.308 16.481 -0 -1.2 0
-16.947 -19.722 16.266 -0 -1.2 0
-16.703 -20.129 16.048 -0 -1.2 0
-16.453 -20.531 15.823 -0 -1.2 0
-16.197 -20.927 15.594 -0 -1.2 0
-15.938 -21.316 15.361 -0 -1.2 0
-15.672 -21.7 15.122 -0 -1.2 0
-15.403 -22.077 14.88 -0 -1.2 0
-15.129 -22.448 14.632 -0 -1.2 0
-14.85 -22.813 14.38 -0 -1.2 0
-20.552 -8.014 20.694 -0 -1.2 0
-20.456 -8.523 20.613 -0 -1.2 0
-20.354 -9.029 20.524 -0 -1.2 0
-20.246 -9.532 20.43 -0 -1.2 0
-20.132 -10.034 20.33 -0 -1.2 0
-20.012 -10.532 20.223 -0 -1.2 0
-19.886 -11.027 20.11 -0 -1.2 0
-19.754 -11.52 19.992 -0 -1.2 0
-19.615 -12.009 19.867 -0 -1.2 0
-19.47 -12.495 19.736 -0 -1.2 0
-19.321 -12.978 19.599 -0 -1.2 0
-19.165 -13.456 19.455 -0 -1.2 0
-19.002 -13.932 19.306 -0 -1.2 0
-18.834 -14.403 19.151 -0 -1.2 0
-18.661 -14.87 18.991 -0 -1.2 0
-18.482 -15.332 18.825 -0 -1.2 0
-18.297 -15.792 18.652 -0 -1.2 0
-18.107 -16.246 18.474 -0 -1.2 0
-17.911 -16.695 18.29 -0 -1.2 0
-17.71 -17.14 18.101 -0 -1.2 0
-17.503 -17.58 17.906 -0 -1.2 0
-17.292 -18.015 17.706 -0 -1.2 0
-17.074 -18.444 17.5 -0 -1.2 0
-16.852 -18.869 17.289 -0 -1.2 0
-16.625 -19.288 17.072 -0 -1.2 0
-16.392 -19.701 16.852 -0 -1.2 0
-16.154 -20.109 16.624 -0 -1.2 0
-15.912 -20.511 16.392 -0 -1.2 0
-15.665 -20.907 16.156 -0 -1.2 0
-15.412 -21.297 15.914 -0 -1.2 0
-15.155 -21.681 15.668 -0 -1.2 0
-14.894 -22.058 15.416 -0 -1.2 0
-14.629 -22.43 15.159 -0 -1.2 0
-14.358 -22.795 14.899 -0 -1.2 0
-20.502 -0.724 21.864 -0 -1.2 0
-20.495 -1.247 21.873 -0 -1.2 0
-20.483 -1.77 21.875 -0 -1.2 0
-20.464 -2.293 21.871 -0 -1.2 0
-20.439 -2.815 21.86 -0 -1.2 0
-20.407 -3.338 21.842 -0 -1.2 0
-20.369 -3.859 21.817 -0 -1.2 0
-19.847 -7.989 21.381 -0 -1.2 0
-19.754 -8.498 21.297 -0 -1.2 0
-19.655 -9.004 21.207 -0 -1.2 0
-19.551 -9.508 21.11 -0 -1.2 0
-19.439 -10.009 21.006 -0 -1.2 0
-19.323 -10.508 20.897 -0 -1.2 0
-19.201 -11.003 20.78 -0 -1.2 0
-19.073 -11.496 20.658 -0 -1.2 0
-18.939 -11.985 20.529 -0 -1.2 0
-18.799 -12.471 20.394 -0 -1.2 0
-18.653 -12.954 20.252 -0 -1.2 0
-18.502 -13.432 20.104 -0 -1.2 0
-18.345 -13.908 19.951 -0 -1.2 0
-18.182 -14.379 19.792 -0 -1.2 0
-18.015 -14.847 19.625 -0 -1.2 0
-17.841 -15.31 19.453 -0 -1.2 0
-17.662 -15.769 19.275 -0 -1.2 0
-17.478 -16.223 19.092 -0 -1.2 0
-17.288 -16.673 18.902 -0 -1.2 0
-17.093 -17.118 18.707 -0 -1.2 0
-16.894 -17.558 18.506 -0 -1.2 0
-16.688 -17.993 18.299 -0 -1.2 0
-16.478 -18.423 18.086 -0 -1.2 0
-16.263 -18.848 17.869 -0 -1.2 0
-16.042 -19.267 17.646 -0 -1.2 0
-15.818 -19.681 17.417 -0 -1.2 0
-15.588 -20.088 17.182 -0 -1.2 0
-15.353 -20.491 16.944 -0 -1.2 0
-15.114 -20.887 16.699 -0 -1.2 0
-14.87 -21.278 16.449 -0 -1.2 0
-14.622 -21.662 16.195 -0 -1.2 0
-14.369 -22.04 15.935 -0 -1.2 0
-14.111 -22.411 15.671 -0 -1.2 0
-13.849 -22.777 15.402 -0 -1.2 0
-19.677 0.867 22.53 -0 -1.2 0
-19.688 0.344 22.561 -0 -1.2 0
-19.693 -0.177 22.584 -0 -1.2 0
-19.692 -0.702 22.6 -0 -1.2 0
-19.685 -1.225 22.608 -0 -1.2 0
-19.672 -1.747 22.611 -0 -1.2 0
-19.415 -5.397 22.434 -0 -1.2 0
-19.354 -5.914 22.381 -0 -1.2 0
-19.054 -7.967 22.101 -0 -1.2 0
-18.965 -8.476 22.015 -0 -1.2 0
-18.869 -8.982 21.921 -0 -1.2 0
-18.768 -9.486 21.821 -0 -1.2 0
-18.66 -9.988 21.714 -0 -1.2 0
-18.548 -10.486 21.601 -0 -1.2 0
-18.43 -10.982 21.481 -0 -1.2 0
-18.306 -11.475 21.353 -0 -1.2 0
-18.177 -11.964 21.22 -0 -1.2 0
-18.042 -12.451 21.081 -0 -1.2 0
-17.901 -12.933 20.935 -0 -1.2 0
-17.756 -13.412 20.782 -0 -1.2 0
-17.604 -13.888 20.623 -0 -1.2 0
-17.448 -14.359 20.458 -0 -1.2 0
-17.285 -14.827 20.287 -0 -1.2 0
-17.118 -15.29 20.109 -0 -1.2 0
-16.946 -15.749 19.926 -0 -1.2 0
-16.769 -16.204 19.736 -0 -1.2 0
-16.586 -16.654 19.54 -0 -1.2 0
-16.399 -17.099 19.338 -0 -1.2 0
-16.206 -17.539 19.13 -0 -1.2 0
-16.008 -17.974 18.918 -0 -1.2 0
-15.806 -18.404 18.698 -0 -1.2 0
-15.599 -18.829 18.473 -0 -1.2 0
-15.387 -19.249 18.242 -0 -1.2 0
-15.17 -19.663 18.006 -0 -1.2 0
-14.948 -20.071 17.764 -0 -1.2 0
-14.723 -20.474 17.517 -0 -1.2 0
-14.493 -20.87 17.265 -0 -1.2 0
-14.257 -21.261 17.007 -0 -1.2 0
-14.019 -21.645 16.744 -0 -1.2 0
-13.775 -22.023 16.475 -0 -1.2 0
-13.527 -22.395 16.202 -0 -1.2 0
-13.276 -22.761 15.924 -0 -1.2 0
-18.933 0.383 23.199 -0 -1.2 0
-18.843 -3.277 23.218 -0 -1.2 0
-18.807 -3.799 23.192 -0 -1.2 0
-18.766 -4.319 23.159 -0 -1.2 0
-18.719 -4.839 23.119 -0 -1.2 0
-18.665 -5.359 23.072 -0 -1.2 0
-18.607 -5.876 23.018 -0 -1.2 0
-18.397 -7.419 22.814 -0 -1.2 0
-18.316 -7.93 22.732 -0 -1.2 0
-18.229 -8.438 22.643 -0 -1.2 0
-18.137 -8.945 22.547 -0 -1.2 0
-18.04 -9.449 22.444 -0 -1.2 0
-17.937 -9.951 22.335 -0 -1.2 0
-17.828 -10.449 22.219 -0 -1.2 0
-17.714 -10.945 22.096 -0 -1.2 0
-17.594 -11.438 21.966 -0 -1.2 0
-17.469 -11.928 21.829 -0 -1.2 0
-17.339 -12.415 21.686 -0 -1.2 0
-17.203 -12.898 21.536 -0 -1.2 0
-16.917 -13.853 21.216 -0 -1.2 0
-16.766 -14.324 21.046 -0 -1.2 0
-16.282 -15.715 20.5 -0 -1.2 0
-15.935 -16.621 20.104 -0 -1.2 0
-15.754 -17.066 19.897 -0 -1.2 0
-15.569 -17.506 19.684 -0 -1.2 0
-15.183 -18.372 19.239 -0 -1.2 0
-14.983 -18.798 19.009 -0 -1.2 0
-14.779 -19.218 18.772 -0 -1.2 0
-14.571 -19.632 18.529 -0 -1.2 0
-14.357 -20.041 18.281 -0 -1.2 0
-14.14 -20.444 18.027 -0 -1.2 0
-13.918 -20.841 17.768 -0 -1.2 0
-13.691 -21.232 17.503 -0 -1.2 0
-13.462 -21.617 17.233 -0 -1.2 0
-13.227 -21.995 16.957 -0 -1.2 0
-12.988 -22.368 16.677 -0 -1.2 0
-12.746 -22.734 16.391 -0 -1.2 0
-18.152 -1.147 23.866 -0 -1.2 0
-18.14 -1.67 23.869 -0 -1.2 0
-18.121 -2.192 23.865 -0 -1.2 0
-18.098 -2.715 23.853 -0 -1.2 0
-18.068 -3.238 23.834 -0 -1.2 0
-18.033 -3.759 23.808 -0 -1.2 0
-17.993 -4.28 23.775 -0 -1.2 0
-17.947 -4.8 23.735 -0 -1.2 0
-17.896 -5.32 23.686 -0 -1.2 0
-17.839 -5.837 23.631 -0 -1.2 0
-17.709 -6.868 23.499 -0 -1.2 0
-17.636 -7.381 23.423 -0 -1.2 0
-17.558 -7.891 23.339 -0 -1.2 0
-17.475 -8.4 23.248 -0 -1.2 0
-17.385 -8.906 23.15 -0 -1.2 0
-17.291 -9.411 23.045 -0 -1.2 0
-17.192 -9.913 22.933 -0 -1.2 0
-17.087 -10.412 22.813 -0 -1.2 0
-16.977 -10.908 22.688 -0 -1.2 0
-16.862 -11.401 22.554 -0 -1.2 0
-16.742 -11.891 22.415 -0 -1.2 0
-15.6 -15.681 21.054 -0 -1.2 0
-14.914 -17.473 20.217 -0 -1.2 0
-14.155 -19.186 19.282 -0 -1.2 0
-13.955 -19.601 19.033 -0 -1.2 0
-13.749 -20.01 18.779 -0 -1.2 0
-13.541 -20.413 18.519 -0 -1.2 0
-13.328 -20.811 18.252 -0 -1.2 0
-13.11 -21.202 17.981 -0 -1.2 0
-12.889 -21.587 17.704 -0 -1.2 0
-12.664 -21.967 17.421 -0 -1.2 0
-12.435 -22.34 17.134 -0 -1.2 0
-12.202 -22.706 16.841 -0 -1.2 0
-17.284 0.466 24.458 -0 -1.2 0
-17.287 -0.056 24.483 -0 -1.2 0
-17.285 -0.58 24.502 -0 -1.2 0
-17.277 -1.103 24.512 -0 -1.2 0
-17.264 -1.626 24.516 -0 -1.2 0
-17.246 -2.148 24.512 -0 -1.2 0
-17.223 -2.671 24.5 -0 -1.2 0
-17.195 -3.194 24.481 -0 -1.2 0
-17.16 -3.715 24.455 -0 -1.2 0
-17.122 -4.237 24.421 -0 -1.2 0
-17.077 -4.756 24.38 -0 -1.2 0
-17.028 -5.276 24.331 -0 -1.2 0
-16.974 -5.794 24.274 -0 -1.2 0
-16.849 -6.824 24.14 -0 -1.2 0
-16.704 -7.848 23.975 -0 -1.2 0
-16.623 -8.357 23.883 -0 -1.2 0
-16.352 -9.871 23.56 -0 -1.2 0
-16.147 -10.866 23.309 -0 -1.2 0
-16.037 -11.36 23.173 -0 -1.2 0
-15.922 -11.85 23.029 -0 -1.2 0
-13.638 -18.73 20.066 -0 -1.2 0
-13.451 -19.151 19.817 -0 -1.2 0
-13.26 -19.566 19.562 -0 -1.2 0
-13.064 -19.975 19.301 -0 -1.2 0
-12.865 -20.379 19.034 -0 -1.2 0
-12.662 -20.777 18.762 -0 -1.2 0
-12.454 -21.169 18.483 -0 -1.2 0
-12.243 -21.555 18.199 -0 -1.2 0
-12.028 -21.935 17.91 -0 -1.2 0
-11.81 -22.308 17.614 -0 -1.2 0
-11.588 -22.676 17.313 -0 -1.2 0
-16.446 1.03 24.993 -0 -1.2 0
-16.454 0.507 25.027 -0 -1.2 0
-16.432 -1.584 25.089 -0 -1.2 0
-16.415 -2.107 25.084 -0 -1.2 0
-16.391 -2.629 25.072 -0 -1.2 0
-16.364 -3.153 25.053 -0 -1.2 0
-16.332 -3.674 25.026 -0 -1.2 0
-16.293 -4.195 24.992 -0 -1.2 0
-16.251 -4.715 24.95 -0 -1.2 0
-16.203 -5.235 24.9 -0 -1.2 0
-16.093 -6.269 24.778 -0 -1.2 0
-16.03 -6.784 24.706 -0 -1.2 0
-15.963 -7.297 24.626 -0 -1.2 0
-13.136 -18.269 20.794 -0 -1.2 0
-12.961 -18.696 20.545 -0 -1.2 0
-12.783 -19.117 20.291 -0 -1.2 0
-12.599 -19.533 20.03 -0 -1.2 0
-12.413 -19.943 19.763 -0 -1.2 0
-12.222 -20.347 19.491 -0 -1.2 0
-12.028 -20.746 19.212 -0 -1.2 0
-11.831 -21.138 18.927 -0 -1.2 0
-11.63 -21.524 18.636 -0 -1.2 0
-11.425 -21.904 18.34 -0 -1.2 0
-11.217 -22.278 18.038 -0 -1.2 0
-11.004 -22.646 17.732 -0 -1.2 0
-15.598 1.072 25.534 -0 -1.2 0
-15.604 0.549 25.569 -0 -1.2 0
-15.605 0.027 25.597 -0 -1.2 0
-15.601 -0.496 25.617 -0 -1.2 0
-15.593 -1.019 25.629 -0 -1.2 0
-15.581 -1.542 25.633 -0 -1.2 0
-15.482 -3.632 25.571 -0 -1.2 0
-15.446 -4.153 25.536 -0 -1.2 0
-15.405 -4.673 25.493 -0 -1.2 0
-15.359 -5.193 25.443 -0 -1.2 0
-15.254 -6.228 25.319 -0 -1.2 0
-15.194 -6.742 25.246 -0 -1.2 0
-15.129 -7.255 25.164 -0 -1.2 0
-15.06 -7.767 25.075 -0 -1.2 0
-14.908 -8.783 24.874 -0 -1.2 0
-14.738 -9.79 24.642 -0 -1.2 0
-11.923 -19.499 20.476 -0 -1.2 0
-11.746 -19.91 20.204 -0 -1.2 0
-11.565 -20.315 19.926 -0 -1.2 0
-11.381 -20.714 19.641 -0 -1.2 0
-11.193 -21.106 19.35 -0 -1.2 0
-11.001 -21.493 19.054 -0 -1.2 0
-10.807 -21.874 18.752 -0 -1.2 0
-10.608 -22.248 18.444 -0 -1.2 0
-10.407 -22.617 18.13 -0 -1.2 0
-14.663 1.118 26.086 -0 -1.2 0
-14.668 0.595 26.121 -0 -1.2 0
-14.665 -0.45 26.17 -0 -1.2 0
-14.657 -0.973 26.183 -0 -1.2 0
-14.644 -1.496 26.187 -0 -1.2 0
-14.627 -2.018 26.184 -0 -1.2 0
-14.605 -2.541 26.172 -0 -1.2 0
-14.579 -3.065 26.153 -0 -1.2 0
-14.548 -3.586 26.125 -0 -1.2 0
-14.329 -6.182 25.87 -0 -1.2 0
-14.272 -6.697 25.795 -0 -1.2 0
-14.211 -7.21 25.712 -0 -1.2 0
-14.145 -7.722 25.622 -0 -1.2 0
-14.075 -8.231 25.523 -0 -1.2 0
-13.752 -10.246 25.052 -0 -1.2 0
-10.667 -20.678 20.079 -0 -1.2 0
-10.49 -21.072 19.783 -0 -1.2 0
-10.31 -21.459 19.48 -0 -1.2 0
-10.126 -21.84 19.171 -0 -1.2 0
-9.94 -22.215 18.858 -0 -1.2 0
-9.75 -22.584 18.538 -0 -1.2 0
-13.779 0.639 26.605 -0 -1.2 0
-13.765 -0.929 26.668 -0 -1.2 0
-13.752 -1.452 26.673 -0 -1.2 0
-13.735 -1.975 26.669 -0 -1.2 0
-13.714 -2.498 26.658 -0 -1.2 0
-13.69 -3.021 26.639 -0 -1.2 0
-13.45 -6.139 26.352 -0 -1.2 0
-13.395 -6.654 26.276 -0 -1.2 0
-13.338 -7.168 26.191 -0 -1.2 0
-13.275 -7.679 26.099 -0 -1.2 0
-13.208 -8.189 25.999 -0 -1.2 0
-12.985 -9.704 25.652 -0 -1.2 0
-9.822 -21.039 20.161 -0 -1.2 0
-9.652 -21.427 19.854 -0 -1.2 0
-9.479 -21.809 19.54 -0 -1.2 0
-9.303 -22.184 19.22 -0 -1.2 0
-9.125 -22.554 18.894 -0 -1.2 0
-12.867 0.671 27.062 -0 -1.2 0
-12.851 -0.897 27.126 -0 -1.2 0
-12.838 -1.42 27.131 -0 -1.2 0
-12.748 -3.51 27.068 -0 -1.2 0
-12.716 -4.032 27.032 -0 -1.2 0
-12.679 -4.552 26.988 -0 -1.2 0
-12.64 -5.072 26.935 -0 -1.2 0
-12.596 -5.59 26.874 -0 -1.2 0
-12.548 -6.107 26.805 -0 -1.2 0
-12.496 -6.622 26.728 -0 -1.2 0
-12.181 -9.17 26.22 -0 -1.2 0
-11.948 -10.671 25.819 -0 -1.2 0
-11.863 -11.166 25.67 -0 -1.2 0
-11.774 -11.657 25.513 -0 -1.2 0
-11.866 0.702 27.521 -0 -1.2 0
-11.863 0.18 27.552 -0 -1.2 0
-11.819 -1.912 27.588 -0 -1.2 0
-11.798 -2.434 27.577 -0 -1.2 0
-11.774 -2.958 27.557 -0 -1.2 0
-11.747 -3.479 27.528 -0 -1.2 0
-11.715 -4.001 27.491 -0 -1.2 0
-11.682 -4.521 27.446 -0 -1.2 0
-11.643 -5.041 27.392 -0 -1.2 0
-11.602 -5.559 27.33 -0 -1.2 0
-11.556 -6.076 27.26 -0 -1.2 0
-11.508 -6.591 27.181 -0 -1.2 0
-11.456 -7.105 27.095 -0 -1.2 0
-11.4 -7.617 27 -0 -1.2 0
-11.341 -8.127 26.896 -0 -1.2 0
-10.928 0.209 27.941 -0 -1.2 0
-10.922 -0.314 27.963 -0 -1.2 0
-10.912 -0.837 27.977 -0 -1.2 0
-10.899 -1.36 27.982 -0 -1.2 0
-10.883 -1.883 27.979 -0 -1.2 0
-10.863 -2.405 27.967 -0 -1.2 0
-10.839 -2.929 27.947 -0 -1.2 0
-10.814 -3.45 27.917 -0 -1.2 0
-10.784 -3.972 27.88 -0 -1.2 0
-10.751 -4.492 27.834 -0 -1.2 0
-10.714 -5.013 27.78 -0 -1.2 0
-10.675 -5.531 27.717 -0 -1.2 0
-10.633 -6.048 27.646 -0 -1.2 0
-10.586 -6.563 27.566 -0 -1.2 0
-10.537 -7.077 27.478 -0 -1.2 0
-10.485 -7.589 27.382 -0 -1.2 0
-10.429 -8.099 27.277 -0 -1.2 0
-9.788 -12.575 25.966 -0 -1.2 0
-9.52 -14.009 25.385 -0 -1.2 0
-9.425 -14.479 25.176 -0 -1.2 0
-9.994 0.76 28.264 -0 -1.2 0
-9.99 0.238 28.295 -0 -1.2 0
-9.982 -0.285 28.318 -0 -1.2 0
-9.972 -0.808 28.332 -0 -1.2 0
-9.959 -1.331 28.337 -0 -1.2 0
-9.943 -1.854 28.334 -0 -1.2 0
-9.923 -2.376 28.322 -0 -1.2 0
-9.901 -2.9 28.301 -0 -1.2 0
-9.876 -3.422 28.272 -0 -1.2 0
-9.848 -3.943 28.234 -0 -1.2 0
-9.816 -4.463 28.188 -0 -1.2 0
-9.782 -4.984 28.133 -0 -1.2 0
-9.745 -5.502 28.069 -0 -1.2 0
-9.704 -6.019 27.997 -0 -1.2 0
-9.662 -6.534 27.916 -0 -1.2 0
-9.615 -7.048 27.827 -0 -1.2 0
-9.565 -7.56 27.729 -0 -1.2 0
-9.458 -8.578 27.509 -0 -1.2 0
-8.754 -13.508 25.912 -0 -1.2 0
-8.301 -15.84 24.814 -0 -1.2 0
-8.101 -16.743 24.322 -0 -1.2 0
-8.965 0.269 28.642 -0 -1.2 0
-8.958 -0.254 28.665 -0 -1.2 0
-8.947 -0.777 28.679 -0 -1.2 0
-8.933 -1.3 28.684 -0 -1.2 0
-8.918 -1.822 28.681 -0 -1.2 0
-8.899 -2.345 28.669 -0 -1.2 0
-8.877 -2.869 28.648 -0 -1.2 0
-8.852 -3.39 28.619 -0 -1.2 0
-8.826 -3.912 28.58 -0 -1.2 0
-8.796 -4.432 28.533 -0 -1.2 0
-8.764 -4.953 28.478 -0 -1.2 0
-8.729 -5.471 28.414 -0 -1.2 0
-8.691 -5.988 28.341 -0 -1.2 0
-8.651 -6.503 28.259 -0 -1.2 0
-8.608 -7.018 28.169 -0 -1.2 0
-8.562 -7.53 28.07 -0 -1.2 0
-8.464 -8.548 27.847 -0 -1.2 0
-8.411 -9.054 27.723 -0 -1.2 0
-7.491 -15.355 25.358 -0 -1.2 0
-7.032 -17.6 24.094 -0 -1.2 0
-5.904 0.893 29.412 -0 -1.2 0
-3.837 0.983 29.763 -0 -1.2 0
0.573 1.168 30.023 -0 -1.2 0
5.876 -0.223 29.56 -0 -1.2 0
8.77 -6.752 27.527 -0 -1.2 0
7.677 -18.787 23.163 -0 -1.2 0
10.077 -0.077 28.428 -0 -1.2 0
9.278 -14.737 25.249 -0 -1.2 0
7.81 -21.572 20.682 -0 -1.2 0
9.483 -20.727 20.823 -0 -1.2 0
9.352 -21.12 20.502 -0 -1.2 0
9.219 -21.507 20.176 -0 -1.2 0
10.927 -18.638 21.97 -0 -1.2 0
10.399 -20.292 20.801 -0 -1.2 0
10.259 -20.692 20.492 -0 -1.2 0
10.115 -21.085 20.178 -0 -1.2 0
11.552 -19.026 21.333 -0 -1.2 0
11.267 -19.854 20.759 -0 -1.2 0
11.119 -20.26 20.463 -0 -1.2 0
10.969 -20.66 20.16 -0 -1.2 0
12.718 -17.709 21.747 -0 -1.2 0
12.289 -18.993 20.952 -0 -1.2 0
12.138 -19.41 20.673 -0 -1.2 0
11.984 -19.822 20.39 -0 -1.2 0
11.826 -20.228 20.099 -0 -1.2 0
11.665 -20.628 19.802 -0 -1.2 0
11.332 -21.411 19.192 -0 -1.2 0
13.669 -17.233 21.536 -0 -1.2 0
13.525 -17.673 21.29 -0 -1.2 0
13.222 -18.535 20.778 -0 -1.2 0
13.066 -18.958 20.513 -0 -1.2 0
12.905 -19.376 20.241 -0 -1.2 0
12.739 -19.788 19.964 -0 -1.2 0
12.571 -20.195 19.68 -0 -1.2 0
12.398 -20.596 19.392 -0 -1.2 0
12.222 -20.99 19.096 -0 -1.2 0
11.858 -21.763 18.489 -0 -1.2 0
13.925 -18.513 20.338 -0 -1.2 0
13.589 -19.354 19.814 -0 -1.2 0
13.414 -19.767 19.544 -0 -1.2 0
13.235 -20.174 19.267 -0 -1.2 0
13.052 -20.575 18.984 -0 -1.2 0
12.865 -20.97 18.696 -0 -1.2 0
12.675 -21.359 18.402 -0 -1.2 0
12.48 -21.743 18.103 -0 -1.2 0
14.072 -19.747 19.1 -0 -1.2 0
13.69 -20.555 18.555 -0 -1.2 0
13.494 -20.951 18.274 -0 -1.2 0
13.292 -21.34 17.987 -0 -1.2 0
13.087 -21.724 17.696 -0 -1.2 0
14.563 -20.134 18.334 -0 -1.2 0
14.36 -20.536 18.067 -0 -1.2 0
14.152 -20.932 17.794 -0 -1.2 0
13.941 -21.322 17.516 -0 -1.2 0
13.724 -21.706 17.233 -0 -1.2 0
19.381 -0.233 23.182 -0 -1.2 0
19.391 -0.756 23.187 -0 -1.2 0
19.396 -1.279 23.185 -0 -1.2 0
19.395 -1.804 23.175 -0 -1.2 0
19.389 -2.326 23.159 -0 -1.2 0
19.376 -2.849 23.135 -0 -1.2 0
19.358 -3.372 23.105 -0 -1.2 0
19.333 -3.894 23.068 -0 -1.2 0
19.304 -4.415 23.024 -0 -1.2 0
19.268 -4.935 22.973 -0 -1.2 0
19.226 -5.453 22.914 -0 -1.2 0
19.178 -5.971 22.849 -0 -1.2 0
18.929 -8.023 22.52 -0 -1.2 0
18.853 -8.532 22.422 -0 -1.2 0
14.958 -20.52 17.596 -0 -1.2 0
14.741 -20.916 17.332 -0 -1.2 0
14.519 -21.306 17.062 -0 -1.2 0
14.293 -21.69 16.786 -0 -1.2 0
20.156 -0.214 22.516 -0 -1.2 0
20.165 -0.737 22.52 -0 -1.2 0
20.17 -1.26 22.518 -0 -1.2 0
20.169 -1.784 22.51 -0 -1.2 0
20.161 -2.307 22.495 -0 -1.2 0
20.148 -2.83 22.472 -0 -1.2 0
20.128 -3.352 22.443 -0 -1.2 0
20.102 -3.875 22.408 -0 -1.2 0
20.07 -4.395 22.366 -0 -1.2 0
20.032 -4.915 22.317 -0 -1.2 0
19.988 -5.434 22.261 -0 -1.2 0
19.938 -5.951 22.198 -0 -1.2 0
19.881 -6.467 22.129 -0 -1.2 0
19.417 -9.523 21.574 -0 -1.2 0
19.319 -10.025 21.458 -0 -1.2 0
15.753 -20.103 17.364 -0 -1.2 0
15.531 -20.505 17.114 -0 -1.2 0
15.305 -20.901 16.857 -0 -1.2 0
15.073 -21.292 16.595 -0 -1.2 0
14.838 -21.677 16.328 -0 -1.2 0
20.973 -0.718 21.774 -0 -1.2 0
20.977 -1.241 21.773 -0 -1.2 0
20.974 -1.766 21.764 -0 -1.2 0
20.966 -2.288 21.751 -0 -1.2 0
20.951 -2.811 21.729 -0 -1.2 0
20.93 -3.334 21.702 -0 -1.2 0
20.902 -3.856 21.668 -0 -1.2 0
20.869 -4.377 21.628 -0 -1.2 0
20.828 -4.897 21.581 -0 -1.2 0
20.782 -5.415 21.528 -0 -1.2 0
20.729 -5.933 21.468 -0 -1.2 0
20.604 -6.963 21.329 -0 -1.2 0
20.184 -9.505 20.868 -0 -1.2 0
16.128 -20.491 16.572 -0 -1.2 0
15.892 -20.888 16.324 -0 -1.2 0
15.651 -21.278 16.072 -0 -1.2 0
15.406 -21.663 15.815 -0 -1.2 0
21.688 -0.18 21.047 -0 -1.2 0
21.697 -0.703 21.053 -0 -1.2 0
21.702 -1.226 21.053 -0 -1.2 0
21.699 -1.75 21.046 -0 -1.2 0
21.689 -2.273 21.033 -0 -1.2 0
21.673 -2.796 21.014 -0 -1.2 0
21.651 -3.318 20.988 -0 -1.2 0
21.622 -3.841 20.956 -0 -1.2 0
21.585 -4.362 20.917 -0 -1.2 0
21.543 -4.882 20.873 -0 -1.2 0
21.495 -5.4 20.821 -0 -1.2 0
21.44 -5.918 20.764 -0 -1.2 0
21.378 -6.434 20.7 -0 -1.2 0
21.153 -7.972 20.472 -0 -1.2 0
20.652 -10.491 19.97 -0 -1.2 0
20.533 -10.987 19.851 -0 -1.2 0
19.358 -14.832 18.69 -0 -1.2 0
16.419 -20.877 15.81 -0 -1.2 0
16.17 -21.267 15.567 -0 -1.2 0
15.916 -21.652 15.319 -0 -1.2 0
22.4 -0.173 20.288 -0 -1.2 0
22.41 -0.696 20.294 -0 -1.2 0
22.414 -1.219 20.294 -0 -1.2 0
22.41 -1.744 20.287 -0 -1.2 0
22.4 -2.266 20.275 -0 -1.2 0
22.383 -2.789 20.257 -0 -1.2 0
22.359 -3.312 20.233 -0 -1.2 0
22.328 -3.834 20.202 -0 -1.2 0
22.291 -4.355 20.165 -0 -1.2 0
22.247 -4.875 20.123 -0 -1.2 0
22.196 -5.394 20.074 -0 -1.2 0
22.138 -5.911 20.019 -0 -1.2 0
22.003 -6.942 19.891 -0 -1.2 0
21.925 -7.454 19.819 -0 -1.2 0
21.197 -10.981 19.144 -0 -1.2 0
16.939 -20.872 15.26 -0 -1.2 0
16.681 -21.263 15.025 -0 -1.2 0
16.418 -21.648 14.787 -0 -1.2 0
23.099 -3.308 19.383 -0 -1.2 0
23.029 -4.351 19.32 -0 -1.2 0
22.982 -4.872 19.279 -0 -1.2 0
22.802 -6.424 19.124 -0 -1.2 0
22.728 -6.938 19.06 -0 -1.2 0
21.467 -12.446 17.989 -0 -1.2 0
19.849 -16.651 16.625 -0 -1.2 0
17.482 -20.869 14.639 -0 -1.2 0
17.215 -21.26 14.415 -0 -1.2 0
16.943 -21.645 14.186 -0 -1.2 0
22.224 -11.957 17.363 -0 -1.2 0
18.499 -20.068 14.459 -0 -1.2 0
17.41 -21.644 13.611 -0 -1.2 0
24.446 0.877 17.678 -0 -1.2 0
24.497 -0.69 17.714 -0 -1.2 0
24.5 -1.213 17.715 -0 -1.2 0
24.494 -1.738 17.711 -0 -1.2 0
24.482 -2.26 17.703 -0 -1.2 0
24.462 -2.783 17.688 -0 -1.2 0
24.435 -3.306 17.668 -0 -1.2 0
24.4 -3.828 17.643 -0 -1.2 0
24.358 -4.349 17.612 -0 -1.2 0
24.308 -4.869 17.577 -0 -1.2 0
24.186 -5.905 17.489 -0 -1.2 0
24.115 -6.421 17.437 -0 -1.2 0
23.28 -10.478 16.838 -0 -1.2 0
21.803 -14.821 15.778 -0 -1.2 0
18.177 -21.258 13.18 -0 -1.2 0
17.889 -21.643 12.973 -0 -1.2 0
25.045 0.876 16.819 -0 -1.2 0
25.028 0.351 16.808 -0 -1.2 0
25.087 -0.168 16.847 -0 -1.2 0
25.096 -0.691 16.854 -0 -1.2 0
25.098 -1.214 16.856 -0 -1.2 0
25.093 -1.739 16.852 -0 -1.2 0
25.079 -2.261 16.845 -0 -1.2 0
25.059 -2.784 16.831 -0 -1.2 0
25.03 -3.307 16.813 -0 -1.2 0
24.994 -3.829 16.789 -0 -1.2 0
24.95 -4.35 16.761 -0 -1.2 0
24.7 -6.422 16.596 -0 -1.2 0
24.33 -8.469 16.353 -0 -1.2 0
23.842 -10.479 16.031 -0 -1.2 0
18.607 -21.259 12.564 -0 -1.2 0
18.312 -21.644 12.368 -0 -1.2 0
25.612 0.873 15.938 -0 -1.2 0
25.653 -0.171 15.966 -0 -1.2 0
25.663 -0.693 15.973 -0 -1.2 0
25.665 -1.217 15.976 -0 -1.2 0
25.658 -1.741 15.973 -0 -1.2 0
25.645 -2.264 15.965 -0 -1.2 0
25.623 -2.787 15.954 -0 -1.2 0
25.593 -3.309 15.937 -0 -1.2 0
25.556 -3.832 15.915 -0 -1.2 0
25.232 -4.317 15.717 -0 -1.2 0
25.458 -4.873 15.857 -0 -1.2 0
25.398 -5.391 15.821 -0 -1.2 0
25.17 -6.939 15.685 -0 -1.2 0
19.31 -20.87 12.115 -0 -1.2 0
19.013 -21.261 11.934 -0 -1.2 0
18.71 -21.646 11.748 -0 -1.2 0
26.166 -3.313 14.972 -0 -1.2 0
25.85 -3.807 14.796 -0 -1.2 0
25.586 -4.813 14.651 -0 -1.2 0
25.87 -5.38 14.813 -0 -1.2 0
25.894 -5.913 14.829 -0 -1.2 0
25.816 -6.429 14.787 -0 -1.2 0
24.612 -11.475 14.127 -0 -1.2 0
24.103 -12.934 13.845 -0 -1.2 0
23.727 -13.888 13.637 -0 -1.2 0
20.028 -20.476 11.575 -0 -1.2 0
19.73 -20.873 11.409 -0 -1.2 0
19.426 -21.264 11.239 -0 -1.2 0
19.116 -21.649 11.066 -0 -1.2 0
26.69 0.854 14.046 -0 -1.2 0
26.665 -3.328 14.052 -0 -1.2 0
25.756 -5.295 13.59 -0 -1.2 0
26.387 -5.928 13.92 -0 -1.2 0
26.307 -6.444 13.881 -0 -1.2 0
20.988 -19.677 11.183 -0 -1.2 0
20.696 -20.085 11.033 -0 -1.2 0
20.399 -20.488 10.881 -0 -1.2 0
20.094 -20.884 10.724 -0 -1.2 0
19.784 -21.275 10.566 -0 -1.2 0
19.468 -21.66 10.403 -0 -1.2 0
27.118 -3.349 13.144 -0 -1.2 0
26.833 -5.948 13.021 -0 -1.2 0
26.752 -6.464 12.984 -0 -1.2 0
21.625 -19.28 10.606 -0 -1.2 0
21.335 -19.693 10.469 -0 -1.2 0
21.037 -20.101 10.33 -0 -1.2 0
20.735 -20.503 10.187 -0 -1.2 0
20.425 -20.9 10.042 -0 -1.2 0
20.109 -21.29 9.893 -0 -1.2 0
19.787 -21.675 9.741 -0 -1.2 0
27.612 -0.231 12.236 -0 -1.2 0
26.491 -6.871 11.781 -0 -1.2 0
22.796 -18.022 10.231 -0 -1.2 0
22.24 -18.876 9.994 -0 -1.2 0
21.952 -19.296 9.87 -0 -1.2 0
21.656 -19.709 9.744 -0 -1.2 0
21.354 -20.117 9.614 -0 -1.2 0
21.046 -20.519 9.483 -0 -1.2 0
20.731 -20.915 9.348 -0 -1.2 0
20.41 -21.305 9.21 -0 -1.2 0
20.083 -21.69 9.069 -0 -1.2 0
28.034 -0.252 11.223 -0 -1.2 0
28.043 -0.775 11.23 -0 -1.2 0
28.042 -1.298 11.232 -0 -1.2 0
27.689 -1.813 11.096 -0 -1.2 0
27.701 -2.331 11.104 -0 -1.2 0
27.936 -2.865 11.198 -0 -1.2 0
27.958 -3.391 11.21 -0 -1.2 0
25.584 -12.374 10.327 -0 -1.2 0
25.531 -13.484 10.313 -0 -1.2 0
23.93 -16.721 9.702 -0 -1.2 0
23.671 -17.165 9.603 -0 -1.2 0
23.406 -17.606 9.501 -0 -1.2 0
23.134 -18.04 9.397 -0 -1.2 0
22.854 -18.47 9.29 -0 -1.2 0
22.567 -18.894 9.179 -0 -1.2 0
22.275 -19.313 9.067 -0 -1.2 0
21.974 -19.726 8.951 -0 -1.2 0
21.667 -20.133 8.833 -0 -1.2 0
21.354 -20.535 8.712 -0 -1.2 0
21.034 -20.931 8.589 -0 -1.2 0
20.709 -21.321 8.463 -0 -1.2 0
20.377 -21.705 8.335 -0 -1.2 0
28.392 -0.272 10.266 -0 -1.2 0
28.401 -0.795 10.273 -0 -1.2 0
28.401 -1.318 10.275 -0 -1.2 0
28.391 -1.842 10.275 -0 -1.2 0
27.689 -2.846 10.033 -0 -1.2 0
28.314 -3.41 10.256 -0 -1.2 0
27.089 -10.08 9.861 -0 -1.2 0
25.46 -12.198 9.297 -0 -1.2 0
26.051 -13.022 9.51 -0 -1.2 0
25.531 -13.92 9.332 -0 -1.2 0
25.425 -14.447 9.297 -0 -1.2 0
24.841 -14.715 9.092 -0 -1.2 0
24.969 -15.377 9.141 -0 -1.2 0
24.729 -15.835 9.059 -0 -1.2 0
24.227 -16.738 8.887 -0 -1.2 0
23.966 -17.182 8.796 -0 -1.2 0
23.697 -17.622 8.704 -0 -1.2 0
23.42 -18.056 8.608 -0 -1.2 0
23.137 -18.486 8.511 -0 -1.2 0
22.846 -18.909 8.41 -0 -1.2 0
22.55 -19.328 8.307 -0 -1.2 0
22.246 -19.741 8.203 -0 -1.2 0
21.935 -20.148 8.095 -0 -1.2 0
21.618 -20.55 7.985 -0 -1.2 0
21.294 -20.945 7.872 -0 -1.2 0
20.963 -21.335 7.758 -0 -1.2 0
20.626 -21.719 7.641 -0 -1.2 0
28.725 0.229 9.212 -0 -1.2 0
28.742 -0.292 9.221 -0 -1.2 0
28.75 -0.815 9.226 -0 -1.2 0
28.75 -1.338 9.229 -0 -1.2 0
28.74 -1.863 9.23 -0 -1.2 0
28.661 -3.43 9.214 -0 -1.2 0
28.267 -6.545 9.108 -0 -1.2 0
28.17 -7.058 9.082 -0 -1.2 0
25.411 -12.607 8.251 -0 -1.2 0
26.161 -13.52 8.49 -0 -1.2 0
25.511 -13.776 8.288 -0 -1.2 0
25.466 -14.327 8.278 -0 -1.2 0
24.903 -14.605 8.103 -0 -1.2 0
25.269 -15.395 8.222 -0 -1.2 0
25.026 -15.853 8.149 -0 -1.2 0
24.776 -16.306 8.073 -0 -1.2 0
24.517 -16.755 7.995 -0 -1.2 0
24.252 -17.199 7.915 -0 -1.2 0
23.98 -17.639 7.832 -0 -1.2 0
23.7 -18.073 7.747 -0 -1.2 0
23.413 -18.502 7.66 -0 -1.2 0
23.119 -18.926 7.571 -0 -1.2 0
22.817 -19.344 7.479 -0 -1.2 0
22.509 -19.757 7.385 -0 -1.2 0
22.195 -20.164 7.289 -0 -1.2 0
21.873 -20.565 7.19 -0 -1.2 0
21.545 -20.961 7.09 -0 -1.2 0
21.21 -21.35 6.988 -0 -1.2 0
20.869 -21.734 6.883 -0 -1.2 0
29.016 0.211 8.23 -0 -1.2 0
29.033 -0.311 8.239 -0 -1.2 0
29.041 -0.834 8.243 -0 -1.2 0
29.04 -1.357 8.247 -0 -1.2 0
29.03 -1.881 8.247 -0 -1.2 0
27.691 -10.117 7.926 -0 -1.2 0
27.534 -10.615 7.886 -0 -1.2 0
26.42 -13.537 7.596 -0 -1.2 0
26.207 -14.011 7.54 -0 -1.2 0
25.372 -14.165 7.312 -0 -1.2 0
25.071 -14.579 7.231 -0 -1.2 0
24.873 -15.048 7.179 -0 -1.2 0
25.272 -15.869 7.294 -0 -1.2 0
25.019 -16.322 7.226 -0 -1.2 0
24.759 -16.771 7.158 -0 -1.2 0
24.49 -17.215 7.087 -0 -1.2 0
24.215 -17.654 7.013 -0 -1.2 0
23.932 -18.088 6.938 -0 -1.2 0
23.641 -18.517 6.86 -0 -1.2 0
23.344 -18.94 6.781 -0 -1.2 0
23.04 -19.359 6.7 -0 -1.2 0
22.729 -19.771 6.617 -0 -1.2 0
22.411 -20.178 6.531 -0 -1.2 0
22.085 -20.579 6.444 -0 -1.2 0
21.754 -20.974 6.355 -0 -1.2 0
21.415 -21.364 6.264 -0 -1.2 0
21.07 -21.747 6.172 -0 -1.2 0
29.273 0.192 7.235 -0 -1.2 0
29.29 -0.33 7.242 -0 -1.2 0
29.297 -0.853 7.247 -0 -1.2 0
29.297 -1.376 7.25 -0 -1.2 0
27.773 -10.633 6.943 -0 -1.2 0
27.605 -11.128 6.906 -0 -1.2 0
26.647 -13.554 6.692 -0 -1.2 0
26.432 -14.028 6.643 -0 -1.2 0
25.303 -14.034 6.374 -0 -1.2 0
25.312 -14.609 6.38 -0 -1.2 0
25.276 -15.762 6.378 -0 -1.2 0
25.232 -16.338 6.371 -0 -1.2 0
24.969 -16.787 6.311 -0 -1.2 0
24.699 -17.231 6.249 -0 -1.2 0
24.42 -17.67 6.185 -0 -1.2 0
24.134 -18.104 6.119 -0 -1.2 0
23.841 -18.533 6.052 -0 -1.2 0
23.541 -18.956 5.983 -0 -1.2 0
23.234 -19.374 5.912 -0 -1.2 0
22.92 -19.786 5.84 -0 -1.2 0
22.599 -20.193 5.765 -0 -1.2 0
22.27 -20.594 5.69 -0 -1.2 0
21.936 -20.989 5.612 -0 -1.2 0
21.594 -21.378 5.533 -0 -1.2 0
21.246 -21.761 5.452 -0 -1.2 0
29.513 0.169 6.141 -0 -1.2 0
29.53 -0.353 6.148 -0 -1.2 0
29.538 -0.876 6.153 -0 -1.2 0
29.537 -1.399 6.157 -0 -1.2 0
29.507 -2.446 6.158 -0 -1.2 0
29.479 -2.969 6.156 -0 -1.2 0
29.442 -3.491 6.152 -0 -1.2 0
29.032 -6.604 6.091 -0 -1.2 0
28.933 -7.118 6.074 -0 -1.2 0
28.825 -7.63 6.055 -0 -1.2 0
28.154 -10.157 5.938 -0 -1.2 0
27.994 -10.655 5.91 -0 -1.2 0
27.069 -13.097 5.741 -0 -1.2 0
26.859 -13.575 5.703 -0 -1.2 0
26.64 -14.049 5.662 -0 -1.2 0
26.274 -14.448 5.592 -0 -1.2 0
26.067 -14.926 5.553 -0 -1.2 0
25.687 -15.905 5.484 -0 -1.2 0
25.429 -16.358 5.436 -0 -1.2 0
25.164 -16.807 5.385 -0 -1.2 0
24.891 -17.25 5.334 -0 -1.2 0
24.61 -17.689 5.28 -0 -1.2 0
24.322 -18.123 5.226 -0 -1.2 0
24.027 -18.551 5.169 -0 -1.2 0
23.723 -18.974 5.112 -0 -1.2 0
23.414 -19.392 5.053 -0 -1.2 0
23.096 -19.804 4.992 -0 -1.2 0
22.772 -20.211 4.93 -0 -1.2 0
22.441 -20.611 4.867 -0 -1.2 0
22.104 -21.006 4.802 -0 -1.2 0
21.758 -21.395 4.736 -0 -1.2 0
21.407 -21.778 4.669 -0 -1.2 0
29.717 -0.374 5.125 -0 -1.2 0
29.724 -0.897 5.129 -0 -1.2 0
29.722 -1.42 5.133 -0 -1.2 0
29.692 -2.467 5.135 -0 -1.2 0
29.663 -2.99 5.135 -0 -1.2 0
29.626 -3.512 5.132 -0 -1.2 0
29.579 -4.035 5.128 -0 -1.2 0
29.385 -5.593 5.107 -0 -1.2 0
29.303 -6.11 5.097 -0 -1.2 0
29.212 -6.625 5.086 -0 -1.2 0
29.111 -7.139 5.074 -0 -1.2 0
29.003 -7.651 5.059 -0 -1.2 0
28.758 -8.669 5.027 -0 -1.2 0
28.623 -9.174 5.007 -0 -1.2 0
28.479 -9.677 4.988 -0 -1.2 0
28.326 -10.178 4.966 -0 -1.2 0
28.165 -10.675 4.943 -0 -1.2 0
27.995 -11.17 4.919 -0 -1.2 0
27.393 -11.499 4.822 -0 -1.2 0
27.63 -12.149 4.866 -0 -1.2 0
27.435 -12.635 4.838 -0 -1.2 0
27.232 -13.116 4.807 -0 -1.2 0
27.02 -13.595 4.777 -0 -1.2 0
26.801 -14.068 4.744 -0 -1.2 0
26.572 -14.539 4.71 -0 -1.2 0
26.337 -15.005 4.674 -0 -1.2 0
26.093 -15.467 4.637 -0 -1.2 0
25.84 -15.924 4.6 -0 -1.2 0
25.582 -16.377 4.56 -0 -1.2 0
25.314 -16.825 4.519 -0 -1.2 0
25.038 -17.268 4.478 -0 -1.2 0
24.755 -17.707 4.435 -0 -1.2 0
24.465 -18.14 4.39 -0 -1.2 0
24.168 -18.569 4.344 -0 -1.2 0
23.863 -18.991 4.297 -0 -1.2 0
23.55 -19.409 4.249 -0 -1.2 0
23.231 -19.821 4.2 -0 -1.2 0
22.905 -20.227 4.149 -0 -1.2 0
22.571 -20.627 4.098 -0 -1.2 0
22.231 -21.022 4.045 -0 -1.2 0
21.884 -21.41 3.991 -0 -1.2 0
21.53 -21.793 3.935 -0 -1.2 0
29.852 0.126 4.089 -0 -1.2 0
29.868 -0.396 4.094 -0 -1.2 0
29.875 -0.919 4.099 -0 -1.2 0
29.873 -1.442 4.103 -0 -1.2 0
29.862 -1.966 4.105 -0 -1.2 0
29.843 -2.489 4.107 -0 -1.2 0
29.813 -3.012 4.107 -0 -1.2 0
29.775 -3.534 4.106 -0 -1.2 0
29.727 -4.056 4.103 -0 -1.2 0
29.672 -4.576 4.101 -0 -1.2 0
29.607 -5.096 4.096 -0 -1.2 0
29.532 -5.614 4.09 -0 -1.2 0
29.45 -6.131 4.083 -0 -1.2 0
29.357 -6.646 4.075 -0 -1.2 0
29.257 -7.16 4.066 -0 -1.2 0
29.146 -7.672 4.056 -0 -1.2 0
29.027 -8.181 4.044 -0 -1.2 0
28.901 -8.69 4.032 -0 -1.2 0
28.764 -9.195 4.017 -0 -1.2 0
28.619 -9.697 4.003 -0 -1.2 0
28.465 -10.198 3.987 -0 -1.2 0
28.303 -10.695 3.97 -0 -1.2 0
28.132 -11.19 3.952 -0 -1.2 0
27.953 -11.682 3.932 -0 -1.2 0
27.765 -12.169 3.912 -0 -1.2 0
27.568 -12.655 3.89 -0 -1.2 0
27.364 -13.136 3.868 -0 -1.2 0
27.152 -13.614 3.843 -0 -1.2 0
26.93 -14.087 3.819 -0 -1.2 0
26.7 -14.558 3.793 -0 -1.2 0
26.463 -15.024 3.766 -0 -1.2 0
26.218 -15.486 3.738 -0 -1.2 0
25.964 -15.943 3.709 -0 -1.2 0
25.703 -16.395 3.679 -0 -1.2 0
25.434 -16.844 3.647 -0 -1.2 0
25.157 -17.286 3.616 -0 -1.2 0
24.872 -17.725 3.582 -0 -1.2 0
24.58 -18.158 3.548 -0 -1.2 0
24.281 -18.586 3.513 -0 -1.2 0
23.974 -19.009 3.476 -0 -1.2 0
23.66 -19.426 3.44 -0 -1.2 0
23.339 -19.838 3.402 -0 -1.2 0
23.011 -20.244 3.363 -0 -1.2 0
22.676 -20.644 3.323 -0 -1.2 0
22.333 -21.038 3.282 -0 -1.2 0
21.984 -21.426 3.24 -0 -1.2 0
21.629 -21.809 3.197 -0 -1.2 0
29.973 0.103 2.974 -0 -1.2 0
29.989 -0.419 2.979 -0 -1.2 0
29.996 -0.942 2.984 -0 -1.2 0
29.983 -1.989 2.99 -0 -1.2 0
29.962 -2.512 2.992 -0 -1.2 0
29.933 -3.035 2.995 -0 -1.2 0
29.894 -3.557 2.995 -0 -1.2 0
29.847 -4.079 2.994 -0 -1.2 0
29.79 -4.599 2.993 -0 -1.2 0
29.724 -5.119 2.992 -0 -1.2 0
29.65 -5.637 2.989 -0 -1.2 0
29.566 -6.154 2.986 -0 -1.2 0
29.473 -6.669 2.981 -0 -1.2 0
29.372 -7.182 2.975 -0 -1.2 0
29.261 -7.694 2.97 -0 -1.2 0
29.142 -8.204 2.963 -0 -1.2 0
29.013 -8.712 2.956 -0 -1.2 0
28.876 -9.217 2.947 -0 -1.2 0
28.731 -9.72 2.938 -0 -1.2 0
28.576 -10.22 2.927 -0 -1.2 0
28.412 -10.717 2.917 -0 -1.2 0
28.241 -11.212 2.905 -0 -1.2 0
28.061 -11.703 2.892 -0 -1.2 0
27.871 -12.191 2.879 -0 -1.2 0
27.674 -12.676 2.865 -0 -1.2 0
27.468 -13.157 2.85 -0 -1.2 0
27.255 -13.635 2.834 -0 -1.2 0
27.032 -14.108 2.818 -0 -1.2 0
26.801 -14.579 2.801 -0 -1.2 0
26.563 -15.044 2.783 -0 -1.2 0
26.316 -15.506 2.764 -0 -1.2 0
26.061 -15.963 2.745 -0 -1.2 0
25.799 -16.415 2.725 -0 -1.2 0
25.528 -16.863 2.704 -0 -1.2 0
25.25 -17.306 2.682 -0 -1.2 0
24.964 -17.744 2.66 -0 -1.2 0
24.671 -18.177 2.637 -0 -1.2 0
24.37 -18.605 2.613 -0 -1.2 0
24.062 -19.027 2.588 -0 -1.2 0
23.746 -19.444 2.564 -0 -1.2 0
23.424 -19.856 2.538 -0 -1.2 0
23.093 -20.261 2.511 -0 -1.2 0
22.757 -20.661 2.483 -0 -1.2 0
22.412 -21.055 2.455 -0 -1.2 0
22.063 -21.443 2.427 -0 -1.2 0
21.705 -21.825 2.398 -0 -1.2 0
30.064 -0.44 1.956 -0 -1.2 0
30.067 -1.486 1.965 -0 -1.2 0
30.056 -2.011 1.968 -0 -1.2 0
30.036 -2.533 1.972 -0 -1.2 0
30.006 -3.056 1.974 -0 -1.2 0
29.967 -3.578 1.976 -0 -1.2 0
29.918 -4.1 1.977 -0 -1.2 0
29.861 -4.62 1.978 -0 -1.2 0
29.796 -5.14 1.979 -0 -1.2 0
29.721 -5.658 1.978 -0 -1.2 0
29.636 -6.175 1.978 -0 -1.2 0
29.543 -6.69 1.977 -0 -1.2 0
29.441 -7.203 1.976 -0 -1.2 0
29.33 -7.715 1.973 -0 -1.2 0
29.21 -8.225 1.97 -0 -1.2 0
29.081 -8.732 1.968 -0 -1.2 0
28.943 -9.238 1.964 -0 -1.2 0
28.797 -9.74 1.96 -0 -1.2 0
28.642 -10.24 1.955 -0 -1.2 0
28.478 -10.737 1.95 -0 -1.2 0
28.306 -11.232 1.945 -0 -1.2 0
28.124 -11.723 1.938 -0 -1.2 0
27.935 -12.21 1.932 -0 -1.2 0
27.737 -12.696 1.924 -0 -1.2 0
27.53 -13.177 1.917 -0 -1.2 0
27.315 -13.654 1.909 -0 -1.2 0
27.092 -14.127 1.901 -0 -1.2 0
26.86 -14.598 1.891 -0 -1.2 0
26.621 -15.063 1.882 -0 -1.2 0
26.374 -15.524 1.871 -0 -1.2 0
26.118 -15.981 1.86 -0 -1.2 0
25.854 -16.433 1.85 -0 -1.2 0
25.584 -16.881 1.838 -0 -1.2 0
25.304 -17.323 1.826 -0 -1.2 0
25.018 -17.762 1.813 -0 -1.2 0
24.724 -18.194 1.801 -0 -1.2 0
24.422 -18.622 1.787 -0 -1.2 0
24.113 -19.044 1.774 -0 -1.2 0
23.795 -19.461 1.759 -0 -1.2 0
23.472 -19.872 1.744 -0 -1.2 0
23.141 -20.278 1.73 -0 -1.2 0
22.803 -20.677 1.714 -0 -1.2 0
22.458 -21.071 1.697 -0 -1.2 0
