# .PCD v.7 - Point Cloud Data file format
FIELDS x y z vp_x vp_y vp_z
SIZE 4 4 4 4 4 4
TYPE F F F F F F
COUNT 1 1 1 1 1 1
WIDTH 1532
HEIGHT 1
VIEWPOINT 0 -1.20013 0 1 0 0 0
POINTS 1532
DATA ascii
-18.855 -17.919 16.325 -0 -1.2 0
-18.622 -18.35 16.14 -0 -1.2 0
-18.384 -18.776 15.95 -0 -1.2 0
-18.141 -19.196 15.754 -0 -1.2 0
-17.891 -19.61 15.555 -0 -1.2 0
-17.636 -20.02 15.35 -0 -1.2 0
-17.376 -20.423 15.141 -0 -1.2 0
-17.11 -20.82 14.928 -0 -1.2 0
-16.84 -21.212 14.709 -0 -1.2 0
-16.564 -21.597 14.487 -0 -1.2 0
-16.284 -21.976 14.259 -0 -1.2 0
-15.998 -22.35 14.028 -0 -1.2 0
-21.548 -8.392 19.703 -0 -1.2 0
-21.445 -8.898 19.622 -0 -1.2 0
-21.334 -9.403 19.534 -0 -1.2 0
-21.217 -9.905 19.442 -0 -1.2 0
-21.093 -10.404 19.342 -0 -1.2 0
-20.964 -10.9 19.238 -0 -1.2 0
-20.827 -11.393 19.126 -0 -1.2 0
-20.685 -11.884 19.01 -0 -1.2 0
-20.536 -12.37 18.888 -0 -1.2 0
-20.381 -12.853 18.76 -0 -1.2 0
-20.219 -13.334 18.626 -0 -1.2 0
-20.052 -13.809 18.487 -0 -1.2 0
-19.878 -14.282 18.343 -0 -1.2 0
-19.698 -14.75 18.192 -0 -1.2 0
-19.513 -15.214 18.036 -0 -1.2 0
-19.322 -15.674 17.874 -0 -1.2 0
-19.124 -16.13 17.707 -0 -1.2 0
-18.921 -16.58 17.535 -0 -1.2 0
-18.712 -17.026 17.358 -0 -1.2 0
-18.498 -17.468 17.174 -0 -1.2 0
-18.277 -17.903 16.986 -0 -1.2 0
-18.051 -18.335 16.794 -0 -1.2 0
-17.82 -18.76 16.595 -0 -1.2 0
-17.584 -19.181 16.392 -0 -1.2 0
-17.341 -19.595 16.183 -0 -1.2 0
-17.094 -20.005 15.971 -0 -1.2 0
-16.841 -20.409 15.752 -0 -1.2 0
-16.584 -20.806 15.529 -0 -1.2 0
-16.322 -21.198 15.302 -0 -1.2 0
-16.054 -21.583 15.07 -0 -1.2 0
-15.782 -21.963 14.834 -0 -1.2 0
-15.505 -22.336 14.592 -0 -1.2 0
-21.635 -1.119 20.924 -0 -1.2 0
-21.625 -1.642 20.928 -0 -1.2 0
-21.608 -2.165 20.925 -0 -1.2 0
-21.585 -2.689 20.916 -0 -1.2 0
-21.555 -3.211 20.9 -0 -1.2 0
-20.896 -8.375 20.4 -0 -1.2 0
-20.796 -8.881 20.316 -0 -1.2 0
-20.688 -9.386 20.226 -0 -1.2 0
-20.574 -9.888 20.128 -0 -1.2 0
-20.454 -10.387 20.026 -0 -1.2 0
-20.328 -10.884 19.917 -0 -1.2 0
-20.196 -11.377 19.802 -0 -1.2 0
-20.058 -11.867 19.681 -0 -1.2 0
-19.913 -12.354 19.555 -0 -1.2 0
-19.762 -12.837 19.422 -0 -1.2 0
-19.605 -13.318 19.283 -0 -1.2 0
-19.443 -13.794 19.138 -0 -1.2 0
-19.274 -14.266 18.988 -0 -1.2 0
-19.1 -14.734 18.832 -0 -1.2 0
-18.92 -15.199 18.67 -0 -1.2 0
-18.542 -16.115 18.33 -0 -1.2 0
-18.345 -16.565 18.151 -0 -1.2 0
-18.142 -17.011 17.967 -0 -1.2 0
-17.934 -17.453 17.777 -0 -1.2 0
-17.72 -17.889 17.582 -0 -1.2 0
-17.501 -18.32 17.382 -0 -1.2 0
-17.276 -18.746 17.176 -0 -1.2 0
-17.047 -19.167 16.966 -0 -1.2 0
-16.811 -19.582 16.749 -0 -1.2 0
-16.572 -19.991 16.529 -0 -1.2 0
-16.326 -20.395 16.303 -0 -1.2 0
-16.077 -20.793 16.071 -0 -1.2 0
-15.822 -21.185 15.836 -0 -1.2 0
-15.562 -21.57 15.595 -0 -1.2 0
-15.298 -21.95 15.35 -0 -1.2 0
-15.029 -22.324 15.1 -0 -1.2 0
-20.933 0.467 21.57 -0 -1.2 0
-20.942 -0.056 21.594 -0 -1.2 0
-20.944 -0.579 21.61 -0 -1.2 0
-20.736 -4.757 21.508 -0 -1.2 0
-20.681 -5.276 21.465 -0 -1.2 0
-20.62 -5.794 21.417 -0 -1.2 0
-20.553 -6.31 21.362 -0 -1.2 0
-20.314 -7.849 21.157 -0 -1.2 0
-20.222 -8.358 21.076 -0 -1.2 0
-20.125 -8.865 20.988 -0 -1.2 0
-20.02 -9.37 20.895 -0 -1.2 0
-19.91 -9.872 20.794 -0 -1.2 0
-19.794 -10.37 20.688 -0 -1.2 0
-19.671 -10.867 20.575 -0 -1.2 0
-19.542 -11.36 20.456 -0 -1.2 0
-19.409 -11.851 20.331 -0 -1.2 0
-19.268 -12.338 20.2 -0 -1.2 0
-19.123 -12.821 20.062 -0 -1.2 0
-18.97 -13.302 19.918 -0 -1.2 0
-18.813 -13.778 19.769 -0 -1.2 0
-18.48 -14.719 19.452 -0 -1.2 0
-18.306 -15.184 19.285 -0 -1.2 0
-17.553 -16.996 18.557 -0 -1.2 0
-17.351 -17.438 18.36 -0 -1.2 0
-16.931 -18.306 17.952 -0 -1.2 0
-16.031 -19.978 17.069 -0 -1.2 0
-15.793 -20.382 16.836 -0 -1.2 0
-15.552 -20.78 16.597 -0 -1.2 0
-15.305 -21.172 16.353 -0 -1.2 0
-15.054 -21.558 16.104 -0 -1.2 0
-14.798 -21.938 15.85 -0 -1.2 0
-14.537 -22.312 15.592 -0 -1.2 0
-20.139 -2.129 22.347 -0 -1.2 0
-20.116 -2.653 22.337 -0 -1.2 0
-20.088 -3.175 22.32 -0 -1.2 0
-20.053 -3.697 22.297 -0 -1.2 0
-20.013 -4.218 22.265 -0 -1.2 0
-19.966 -4.739 22.228 -0 -1.2 0
-19.913 -5.258 22.185 -0 -1.2 0
-19.854 -5.776 22.134 -0 -1.2 0
-19.789 -6.292 22.076 -0 -1.2 0
-19.558 -7.83 21.864 -0 -1.2 0
-19.47 -8.339 21.78 -0 -1.2 0
-19.375 -8.846 21.69 -0 -1.2 0
-19.274 -9.351 21.592 -0 -1.2 0
-19.168 -9.854 21.489 -0 -1.2 0
-19.056 -10.353 21.378 -0 -1.2 0
-18.938 -10.85 21.262 -0 -1.2 0
-18.814 -11.343 21.138 -0 -1.2 0
-18.685 -11.834 21.009 -0 -1.2 0
-18.549 -12.321 20.873 -0 -1.2 0
-18.408 -12.804 20.73 -0 -1.2 0
-18.261 -13.285 20.581 -0 -1.2 0
-17.447 -15.627 19.746 -0 -1.2 0
-16.295 -18.291 18.547 -0 -1.2 0
-15.652 -19.553 17.87 -0 -1.2 0
-14.966 -20.766 17.145 -0 -1.2 0
-14.728 -21.158 16.892 -0 -1.2 0
-14.486 -21.544 16.635 -0 -1.2 0
-14.239 -21.924 16.373 -0 -1.2 0
-13.988 -22.298 16.106 -0 -1.2 0
-19.425 -0.542 22.987 -0 -1.2 0
-19.421 -1.065 22.997 -0 -1.2 0
-19.411 -1.588 23.001 -0 -1.2 0
-19.395 -2.111 22.997 -0 -1.2 0
-19.373 -2.634 22.987 -0 -1.2 0
-19.345 -3.156 22.97 -0 -1.2 0
-19.312 -3.678 22.944 -0 -1.2 0
-19.272 -4.199 22.913 -0 -1.2 0
-19.227 -4.72 22.875 -0 -1.2 0
-19.176 -5.239 22.829 -0 -1.2 0
-19.119 -5.757 22.776 -0 -1.2 0
-19.056 -6.273 22.717 -0 -1.2 0
-18.913 -7.301 22.579 -0 -1.2 0
-18.833 -7.813 22.498 -0 -1.2 0
-18.748 -8.322 22.412 -0 -1.2 0
-18.656 -8.829 22.318 -0 -1.2 0
-18.559 -9.334 22.218 -0 -1.2 0
-18.348 -10.335 21.997 -0 -1.2 0
-18.234 -10.832 21.878 -0 -1.2 0
-17.989 -11.816 21.616 -0 -1.2 0
-17.723 -12.787 21.33 -0 -1.2 0
-14.849 -19.949 18.14 -0 -1.2 0
-14.629 -20.353 17.89 -0 -1.2 0
-14.403 -20.752 17.637 -0 -1.2 0
-14.174 -21.144 17.377 -0 -1.2 0
-13.941 -21.53 17.112 -0 -1.2 0
-13.703 -21.911 16.842 -0 -1.2 0
-13.461 -22.285 16.566 -0 -1.2 0
-18.651 0.522 23.571 -0 -1.2 0
-18.659 -0.523 23.613 -0 -1.2 0
-18.655 -1.046 23.624 -0 -1.2 0
-18.645 -1.569 23.627 -0 -1.2 0
-18.63 -2.092 23.623 -0 -1.2 0
-18.609 -2.616 23.612 -0 -1.2 0
-18.582 -3.138 23.593 -0 -1.2 0
-18.549 -3.66 23.568 -0 -1.2 0
-18.511 -4.181 23.536 -0 -1.2 0
-18.467 -4.702 23.496 -0 -1.2 0
-18.418 -5.221 23.45 -0 -1.2 0
-18.363 -5.739 23.395 -0 -1.2 0
-18.164 -7.283 23.191 -0 -1.2 0
-18.088 -7.795 23.109 -0 -1.2 0
-17.917 -8.811 22.923 -0 -1.2 0
-17.51 -10.815 22.469 -0 -1.2 0
-17.149 -12.286 22.058 -0 -1.2 0
-14.462 -19.524 18.877 -0 -1.2 0
-14.254 -19.935 18.627 -0 -1.2 0
-14.042 -20.339 18.371 -0 -1.2 0
-13.825 -20.738 18.109 -0 -1.2 0
-13.605 -21.13 17.843 -0 -1.2 0
-13.38 -21.517 17.57 -0 -1.2 0
-13.152 -21.898 17.292 -0 -1.2 0
-12.919 -22.272 17.009 -0 -1.2 0
-17.805 0.542 24.215 -0 -1.2 0
-17.799 -1.549 24.273 -0 -1.2 0
-17.784 -2.072 24.269 -0 -1.2 0
-17.763 -2.596 24.256 -0 -1.2 0
-17.737 -3.118 24.238 -0 -1.2 0
-17.706 -3.64 24.212 -0 -1.2 0
-17.669 -4.161 24.178 -0 -1.2 0
-17.627 -4.682 24.137 -0 -1.2 0
-17.58 -5.201 24.088 -0 -1.2 0
-17.527 -5.72 24.033 -0 -1.2 0
-17.405 -6.751 23.9 -0 -1.2 0
-17.336 -7.264 23.822 -0 -1.2 0
-17.263 -7.775 23.738 -0 -1.2 0
-17.184 -8.284 23.647 -0 -1.2 0
-17.009 -9.297 23.441 -0 -1.2 0
-16.914 -9.799 23.327 -0 -1.2 0
-13.185 -20.723 18.597 -0 -1.2 0
-12.975 -21.116 18.322 -0 -1.2 0
-12.76 -21.502 18.042 -0 -1.2 0
-12.542 -21.883 17.757 -0 -1.2 0
-12.319 -22.258 17.466 -0 -1.2 0
-17.01 0.56 24.78 -0 -1.2 0
-17.017 -0.486 24.824 -0 -1.2 0
-17.012 -1.008 24.835 -0 -1.2 0
-16.943 -3.1 24.802 -0 -1.2 0
-16.913 -3.622 24.775 -0 -1.2 0
-16.877 -4.143 24.741 -0 -1.2 0
-16.837 -4.664 24.698 -0 -1.2 0
-16.791 -5.184 24.648 -0 -1.2 0
-16.74 -5.702 24.592 -0 -1.2 0
-16.624 -6.733 24.455 -0 -1.2 0
-16.558 -7.246 24.376 -0 -1.2 0
-16.487 -7.758 24.289 -0 -1.2 0
-16.411 -8.267 24.194 -0 -1.2 0
-16.33 -8.774 24.093 -0 -1.2 0
-16.244 -9.28 23.985 -0 -1.2 0
-16.154 -9.782 23.868 -0 -1.2 0
-12.178 -21.489 18.456 -0 -1.2 0
-11.969 -21.87 18.164 -0 -1.2 0
-11.756 -22.245 17.867 -0 -1.2 0
-16.199 0.578 25.318 -0 -1.2 0
-16.205 -0.468 25.363 -0 -1.2 0
-16.2 -0.99 25.373 -0 -1.2 0
-16.191 -1.513 25.376 -0 -1.2 0
-16.177 -2.036 25.371 -0 -1.2 0
-16.157 -2.56 25.359 -0 -1.2 0
-16.133 -3.082 25.339 -0 -1.2 0
-15.885 -6.2 25.057 -0 -1.2 0
-15.826 -6.716 24.983 -0 -1.2 0
-15.764 -7.229 24.902 -0 -1.2 0
-15.696 -7.74 24.814 -0 -1.2 0
-15.623 -8.25 24.717 -0 -1.2 0
-15.545 -8.757 24.613 -0 -1.2 0
-15.463 -9.262 24.501 -0 -1.2 0
-15.377 -9.765 24.383 -0 -1.2 0
-15.189 -10.762 24.124 -0 -1.2 0
-11.779 -21.089 19.144 -0 -1.2 0
-11.181 -22.233 18.248 -0 -1.2 0
-15.307 0.597 25.867 -0 -1.2 0
-15.005 -6.181 25.598 -0 -1.2 0
-14.95 -6.697 25.523 -0 -1.2 0
-14.89 -7.21 25.44 -0 -1.2 0
-14.825 -7.722 25.349 -0 -1.2 0
-14.756 -8.231 25.25 -0 -1.2 0
-14.682 -8.738 25.145 -0 -1.2 0
-14.463 0.615 26.349 -0 -1.2 0
-14.465 -0.431 26.394 -0 -1.2 0
-14.46 -0.954 26.405 -0 -1.2 0
-14.451 -1.477 26.408 -0 -1.2 0
-14.438 -2 26.403 -0 -1.2 0
-14.42 -2.524 26.39 -0 -1.2 0
-14.304 -4.61 26.257 -0 -1.2 0
-14.264 -5.129 26.204 -0 -1.2 0
-14.172 -6.164 26.073 -0 -1.2 0
-14.119 -6.679 25.997 -0 -1.2 0
-14.062 -7.193 25.911 -0 -1.2 0
-13.935 -8.214 25.719 -0 -1.2 0
-13.865 -8.721 25.61 -0 -1.2 0
-13.79 -9.227 25.494 -0 -1.2 0
-13.358 -11.713 24.798 -0 -1.2 0
-13.26 -12.201 24.637 -0 -1.2 0
-13.585 0.633 26.811 -0 -1.2 0
-13.588 0.109 26.838 -0 -1.2 0
-13.587 -0.413 26.857 -0 -1.2 0
-13.583 -0.936 26.869 -0 -1.2 0
-13.521 -3.028 26.83 -0 -1.2 0
-13.495 -3.55 26.801 -0 -1.2 0
-13.465 -4.071 26.763 -0 -1.2 0
-13.431 -4.592 26.717 -0 -1.2 0
-13.394 -5.112 26.662 -0 -1.2 0
-13.164 -6.092 26.248 -0 -1.2 0
-13.256 -6.662 26.452 -0 -1.2 0
-13.202 -7.175 26.365 -0 -1.2 0
-13.144 -7.687 26.271 -0 -1.2 0
-13.082 -8.197 26.169 -0 -1.2 0
-13.016 -8.704 26.058 -0 -1.2 0
-12.946 -9.21 25.94 -0 -1.2 0
-12.444 -12.184 25.066 -0 -1.2 0
-12.246 -13.15 24.714 -0 -1.2 0
-12.141 -13.627 24.526 -0 -1.2 0
-11.687 -15.498 23.703 -0 -1.2 0
-12.611 -1.44 27.338 -0 -1.2 0
-12.598 -1.963 27.331 -0 -1.2 0
-12.581 -2.487 27.318 -0 -1.2 0
-12.561 -3.009 27.296 -0 -1.2 0
-12.537 -3.531 27.265 -0 -1.2 0
-12.508 -4.052 27.227 -0 -1.2 0
-12.477 -4.574 27.179 -0 -1.2 0
-12.441 -5.093 27.124 -0 -1.2 0
-12.401 -5.611 27.061 -0 -1.2 0
-12.358 -6.128 26.989 -0 -1.2 0
-12.204 -6.595 26.677 -0 -1.2 0
-12.26 -7.157 26.821 -0 -1.2 0
-12.201 -7.666 26.716 -0 -1.2 0
-12.147 -8.178 26.62 -0 -1.2 0
-12.085 -8.686 26.508 -0 -1.2 0
-11.716 0.669 27.679 -0 -1.2 0
-11.716 -0.377 27.726 -0 -1.2 0
-11.711 -0.899 27.737 -0 -1.2 0
-11.702 -1.422 27.739 -0 -1.2 0
-11.69 -1.945 27.734 -0 -1.2 0
-11.674 -2.469 27.72 -0 -1.2 0
-11.654 -2.992 27.697 -0 -1.2 0
-11.383 -3.462 27.078 -0 -1.2 0
-11.605 -4.035 27.626 -0 -1.2 0
-11.575 -4.556 27.578 -0 -1.2 0
-11.541 -5.076 27.523 -0 -1.2 0
-11.463 -6.111 27.385 -0 -1.2 0
-11.419 -6.626 27.304 -0 -1.2 0
-11.371 -7.14 27.215 -0 -1.2 0
-11.32 -7.651 27.117 -0 -1.2 0
-11.266 -8.161 27.011 -0 -1.2 0
-11.208 -8.669 26.897 -0 -1.2 0
-11.147 -9.175 26.774 -0 -1.2 0
-11.082 -9.678 26.644 -0 -1.2 0
-10.153 -15.005 24.686 -0 -1.2 0
-10.796 0.686 28.05 -0 -1.2 0
-10.797 0.163 28.078 -0 -1.2 0
-10.795 -0.359 28.098 -0 -1.2 0
-10.789 -0.882 28.108 -0 -1.2 0
-10.781 -1.405 28.111 -0 -1.2 0
-10.769 -1.928 28.105 -0 -1.2 0
-10.754 -2.452 28.091 -0 -1.2 0
-10.735 -2.974 28.068 -0 -1.2 0
-10.713 -3.497 28.036 -0 -1.2 0
-10.688 -4.018 27.996 -0 -1.2 0
-10.66 -4.539 27.948 -0 -1.2 0
-10.629 -5.059 27.891 -0 -1.2 0
-10.594 -5.577 27.826 -0 -1.2 0
-10.556 -6.094 27.751 -0 -1.2 0
-10.514 -6.609 27.669 -0 -1.2 0
-10.47 -7.123 27.579 -0 -1.2 0
-10.422 -7.635 27.479 -0 -1.2 0
-10.318 -8.652 27.256 -0 -1.2 0
-9.432 -14.523 25.235 -0 -1.2 0
-9.339 -14.99 25.015 -0 -1.2 0
-9.789 -0.341 28.464 -0 -1.2 0
-9.784 -0.864 28.475 -0 -1.2 0
-9.775 -1.387 28.478 -0 -1.2 0
-9.764 -1.91 28.472 -0 -1.2 0
-9.749 -2.434 28.457 -0 -1.2 0
-9.732 -2.956 28.433 -0 -1.2 0
-9.601 -5.559 28.187 -0 -1.2 0
-9.565 -6.076 28.112 -0 -1.2 0
-9.527 -6.591 28.029 -0 -1.2 0
-9.486 -7.105 27.936 -0 -1.2 0
-9.396 -8.127 27.727 -0 -1.2 0
-9.294 -9.141 27.484 -0 -1.2 0
-8.274 -15.893 24.871 -0 -1.2 0
-8.181 -16.346 24.626 -0 -1.2 0
-7.786 -18.111 23.57 -0 -1.2 0
9.274 -0.094 28.638 -0 -1.2 0
10.236 -0.085 28.308 -0 -1.2 0
10.593 -19.16 21.619 -0 -1.2 0
11.776 -17.877 22.042 -0 -1.2 0
11.64 -18.308 21.779 -0 -1.2 0
11.5 -18.734 21.509 -0 -1.2 0
10.259 -21.941 19.123 -0 -1.2 0
12.499 -17.873 21.644 -0 -1.2 0
12.354 -18.304 21.386 -0 -1.2 0
12.204 -18.73 21.121 -0 -1.2 0
13.223 -17.869 21.212 -0 -1.2 0
13.069 -18.3 20.959 -0 -1.2 0
12.91 -18.727 20.7 -0 -1.2 0
12.239 -20.377 19.6 -0 -1.2 0
12.061 -20.775 19.31 -0 -1.2 0
11.696 -21.554 18.713 -0 -1.2 0
11.508 -21.934 18.406 -0 -1.2 0
14.151 -17.429 20.957 -0 -1.2 0
13.828 -18.297 20.469 -0 -1.2 0
13.311 -19.56 19.692 -0 -1.2 0
12.947 -20.374 19.143 -0 -1.2 0
12.758 -20.772 18.86 -0 -1.2 0
12.566 -21.165 18.571 -0 -1.2 0
12.37 -21.551 18.277 -0 -1.2 0
12.171 -21.931 17.976 -0 -1.2 0
13.588 -20.372 18.695 -0 -1.2 0
13.39 -20.77 18.419 -0 -1.2 0
13.188 -21.162 18.137 -0 -1.2 0
12.982 -21.549 17.85 -0 -1.2 0
12.772 -21.929 17.556 -0 -1.2 0
15.001 -18.72 19.245 -0 -1.2 0
14.007 -20.769 17.956 -0 -1.2 0
13.579 -21.547 17.402 -0 -1.2 0
13.358 -21.928 17.116 -0 -1.2 0
19.341 -1.081 23.089 -0 -1.2 0
19.331 -2.129 23.074 -0 -1.2 0
19.318 -2.651 23.056 -0 -1.2 0
19.297 -3.174 23.031 -0 -1.2 0
19.272 -3.696 22.999 -0 -1.2 0
19.241 -4.218 22.961 -0 -1.2 0
19.204 -4.738 22.915 -0 -1.2 0
19.161 -5.257 22.862 -0 -1.2 0
19.058 -6.291 22.736 -0 -1.2 0
18.782 -8.339 22.401 -0 -1.2 0
14.869 -20.369 17.696 -0 -1.2 0
14.204 -21.546 16.897 -0 -1.2 0
13.973 -21.927 16.62 -0 -1.2 0
20.12 -0.558 22.406 -0 -1.2 0
20.124 -1.081 22.41 -0 -1.2 0
20.122 -1.604 22.406 -0 -1.2 0
20.113 -2.128 22.395 -0 -1.2 0
20.098 -2.651 22.379 -0 -1.2 0
20.078 -3.173 22.354 -0 -1.2 0
20.051 -3.695 22.324 -0 -1.2 0
20.018 -4.217 22.287 -0 -1.2 0
19.98 -4.737 22.242 -0 -1.2 0
19.934 -5.257 22.191 -0 -1.2 0
19.883 -5.774 22.133 -0 -1.2 0
19.827 -6.291 22.069 -0 -1.2 0
19.764 -6.805 21.997 -0 -1.2 0
19.451 -8.846 21.646 -0 -1.2 0
15.002 -21.159 16.671 -0 -1.2 0
14.525 -21.926 16.139 -0 -1.2 0
20.879 -0.556 21.7 -0 -1.2 0
20.883 -1.079 21.704 -0 -1.2 0
20.881 -1.602 21.7 -0 -1.2 0
20.872 -2.126 21.69 -0 -1.2 0
20.856 -2.649 21.674 -0 -1.2 0
20.834 -3.172 21.651 -0 -1.2 0
20.806 -3.693 21.621 -0 -1.2 0
20.772 -4.215 21.586 -0 -1.2 0
20.732 -4.735 21.543 -0 -1.2 0
20.685 -5.255 21.494 -0 -1.2 0
20.631 -5.772 21.438 -0 -1.2 0
20.434 -7.317 21.232 -0 -1.2 0
20.085 -9.349 20.866 -0 -1.2 0
15.559 -21.158 16.154 -0 -1.2 0
15.314 -21.545 15.898 -0 -1.2 0
15.064 -21.925 15.639 -0 -1.2 0
21.67 -1.077 20.918 -0 -1.2 0
21.667 -1.6 20.915 -0 -1.2 0
21.657 -2.125 20.906 -0 -1.2 0
21.641 -2.647 20.89 -0 -1.2 0
21.618 -3.17 20.868 -0 -1.2 0
21.589 -3.692 20.84 -0 -1.2 0
21.553 -4.214 20.805 -0 -1.2 0
21.511 -4.734 20.764 -0 -1.2 0
21.462 -5.253 20.718 -0 -1.2 0
21.407 -5.771 20.664 -0 -1.2 0
21.344 -6.287 20.604 -0 -1.2 0
21.276 -6.802 20.538 -0 -1.2 0
21.202 -7.315 20.466 -0 -1.2 0
20.939 -8.843 20.212 -0 -1.2 0
20.731 -9.85 20.013 -0 -1.2 0
20.619 -10.35 19.903 -0 -1.2 0
20.104 -12.317 19.407 -0 -1.2 0
16.136 -21.157 15.578 -0 -1.2 0
15.881 -21.543 15.332 -0 -1.2 0
15.622 -21.924 15.083 -0 -1.2 0
22.366 -1.076 20.171 -0 -1.2 0
22.363 -1.6 20.168 -0 -1.2 0
22.353 -2.124 20.16 -0 -1.2 0
22.336 -2.646 20.145 -0 -1.2 0
22.313 -3.169 20.124 -0 -1.2 0
22.282 -3.691 20.097 -0 -1.2 0
22.245 -4.213 20.064 -0 -1.2 0
22.201 -4.733 20.025 -0 -1.2 0
22.15 -5.252 19.98 -0 -1.2 0
22.093 -5.77 19.928 -0 -1.2 0
22.029 -6.287 19.871 -0 -1.2 0
21.958 -6.801 19.807 -0 -1.2 0
21.706 -8.335 19.582 -0 -1.2 0
21.025 -11.339 18.969 -0 -1.2 0
16.647 -21.156 15.031 -0 -1.2 0
16.384 -21.543 14.795 -0 -1.2 0
16.116 -21.923 14.554 -0 -1.2 0
23.033 -0.553 19.397 -0 -1.2 0
23.037 -1.076 19.401 -0 -1.2 0
23.033 -1.599 19.399 -0 -1.2 0
23.023 -2.124 19.391 -0 -1.2 0
23.006 -2.646 19.377 -0 -1.2 0
22.981 -3.169 19.357 -0 -1.2 0
22.95 -3.691 19.331 -0 -1.2 0
22.91 -4.213 19.299 -0 -1.2 0
22.865 -4.733 19.262 -0 -1.2 0
22.813 -5.252 19.218 -0 -1.2 0
22.754 -5.77 19.17 -0 -1.2 0
22.688 -6.286 19.115 -0 -1.2 0
22.448 -7.825 18.915 -0 -1.2 0
22.254 -8.842 18.754 -0 -1.2 0
17.404 -20.764 14.69 -0 -1.2 0
16.869 -21.543 14.24 -0 -1.2 0
16.593 -21.923 14.009 -0 -1.2 0
23.293 -6.801 18.219 -0 -1.2 0
23.21 -7.314 18.155 -0 -1.2 0
23.024 -8.335 18.012 -0 -1.2 0
22.155 -11.829 17.341 -0 -1.2 0
22.003 -12.316 17.224 -0 -1.2 0
17.648 -21.156 13.842 -0 -1.2 0
17.369 -21.543 13.625 -0 -1.2 0
22.243 -13.281 16.228 -0 -1.2 0
18.103 -21.157 13.239 -0 -1.2 0
17.817 -21.543 13.032 -0 -1.2 0
17.525 -21.924 12.821 -0 -1.2 0
24.89 1.012 16.824 -0 -1.2 0
24.916 0.489 16.844 -0 -1.2 0
24.944 -1.602 16.87 -0 -1.2 0
24.932 -2.126 16.864 -0 -1.2 0
24.912 -2.649 16.852 -0 -1.2 0
24.885 -3.172 16.836 -0 -1.2 0
24.851 -3.693 16.815 -0 -1.2 0
24.809 -4.215 16.788 -0 -1.2 0
24.759 -4.735 16.757 -0 -1.2 0
24.565 -6.289 16.631 -0 -1.2 0
24.398 -7.317 16.522 -0 -1.2 0
17.95 -21.925 12.217 -0 -1.2 0
25.5 1.007 15.884 -0 -1.2 0
25.526 0.484 15.903 -0 -1.2 0
25.556 -0.561 15.926 -0 -1.2 0
25.559 -1.084 15.93 -0 -1.2 0
25.554 -1.607 15.929 -0 -1.2 0
25.542 -2.131 15.924 -0 -1.2 0
25.522 -2.654 15.913 -0 -1.2 0
25.494 -3.176 15.899 -0 -1.2 0
25.458 -3.698 15.878 -0 -1.2 0
25.415 -4.22 15.854 -0 -1.2 0
25.082 -6.808 15.659 -0 -1.2 0
24.896 -7.832 15.547 -0 -1.2 0
24.792 -8.342 15.484 -0 -1.2 0
24.68 -8.849 15.416 -0 -1.2 0
24.299 -10.355 15.185 -0 -1.2 0
24.008 -11.346 15.009 -0 -1.2 0
23.852 -11.836 14.913 -0 -1.2 0
23.517 -12.807 14.709 -0 -1.2 0
18.382 -21.928 11.55 -0 -1.2 0
26.061 0.478 15.01 -0 -1.2 0
25.991 -3.704 14.989 -0 -1.2 0
25.601 -4.184 14.768 -0 -1.2 0
25.593 -5.227 14.768 -0 -1.2 0
25.611 -5.755 14.782 -0 -1.2 0
25.416 -7.838 14.679 -0 -1.2 0
25.194 -8.855 14.557 -0 -1.2 0
19.681 -20.774 11.441 -0 -1.2 0
18.759 -21.933 10.916 -0 -1.2 0
26.557 0.471 14.115 -0 -1.2 0
26.585 -1.62 14.141 -0 -1.2 0
26.572 -2.144 14.136 -0 -1.2 0
26.483 -3.711 14.098 -0 -1.2 0
25.88 -6.247 13.792 -0 -1.2 0
25.891 -6.777 13.8 -0 -1.2 0
25.722 -7.267 13.713 -0 -1.2 0
24.637 -12.335 13.164 -0 -1.2 0
20.049 -20.779 10.773 -0 -1.2 0
19.742 -21.171 10.612 -0 -1.2 0
19.428 -21.557 10.448 -0 -1.2 0
19.109 -21.938 10.281 -0 -1.2 0
27.052 0.463 13.139 -0 -1.2 0
26.976 -3.719 13.127 -0 -1.2 0
26.662 -6.314 12.99 -0 -1.2 0
26.575 -6.829 12.952 -0 -1.2 0
26.48 -7.342 12.908 -0 -1.2 0
25.092 -12.342 12.265 -0 -1.2 0
23.665 -15.649 11.592 -0 -1.2 0
20.417 -20.785 10.046 -0 -1.2 0
20.104 -21.177 9.896 -0 -1.2 0
19.785 -21.563 9.744 -0 -1.2 0
19.459 -21.943 9.589 -0 -1.2 0
27.481 0.455 12.218 -0 -1.2 0
27.5 -0.066 12.229 -0 -1.2 0
26.882 -2.136 11.969 -0 -1.2 0
26.843 -2.646 11.954 -0 -1.2 0
27.441 -3.205 12.224 -0 -1.2 0
27.402 -3.727 12.21 -0 -1.2 0
21.046 -20.393 9.495 -0 -1.2 0
20.735 -20.791 9.359 -0 -1.2 0
20.416 -21.183 9.22 -0 -1.2 0
20.092 -21.569 9.079 -0 -1.2 0
19.762 -21.949 8.934 -0 -1.2 0
27.878 0.447 11.283 -0 -1.2 0
21.655 -19.995 8.909 -0 -1.2 0
21.345 -20.399 8.787 -0 -1.2 0
21.029 -20.797 8.662 -0 -1.2 0
20.706 -21.189 8.534 -0 -1.2 0
20.377 -21.575 8.404 -0 -1.2 0
20.042 -21.955 8.27 -0 -1.2 0
28.192 -3.745 10.245 -0 -1.2 0
25.309 -14.226 9.28 -0 -1.2 0
23.15 -18.332 8.53 -0 -1.2 0
22.863 -18.758 8.429 -0 -1.2 0
22.268 -19.594 8.219 -0 -1.2 0
21.959 -20.003 8.111 -0 -1.2 0
21.645 -20.406 8 -0 -1.2 0
21.324 -20.804 7.887 -0 -1.2 0
20.996 -21.196 7.772 -0 -1.2 0
20.662 -21.582 7.654 -0 -1.2 0
20.322 -21.962 7.533 -0 -1.2 0
28.642 -0.616 9.282 -0 -1.2 0
28.645 -1.139 9.286 -0 -1.2 0
28.527 -3.753 9.269 -0 -1.2 0
27.215 -10.408 8.898 -0 -1.2 0
27.055 -10.904 8.851 -0 -1.2 0
26.134 -13.338 8.572 -0 -1.2 0
25.709 -14.286 8.442 -0 -1.2 0
24.251 -17.031 7.993 -0 -1.2 0
23.982 -17.471 7.909 -0 -1.2 0
23.705 -17.908 7.823 -0 -1.2 0
23.422 -18.339 7.735 -0 -1.2 0
23.13 -18.765 7.644 -0 -1.2 0
22.833 -19.185 7.551 -0 -1.2 0
22.528 -19.6 7.456 -0 -1.2 0
22.216 -20.01 7.359 -0 -1.2 0
21.899 -20.413 7.259 -0 -1.2 0
21.574 -20.811 7.156 -0 -1.2 0
21.242 -21.202 7.053 -0 -1.2 0
20.904 -21.588 6.947 -0 -1.2 0
20.56 -21.968 6.839 -0 -1.2 0
28.944 -0.624 8.29 -0 -1.2 0
28.947 -1.147 8.294 -0 -1.2 0
28.941 -1.671 8.298 -0 -1.2 0
28.926 -2.195 8.297 -0 -1.2 0
28.732 -3.753 8.255 -0 -1.2 0
28.396 -6.871 8.185 -0 -1.2 0
27.501 -10.416 7.96 -0 -1.2 0
25.978 -14.293 7.558 -0 -1.2 0
25.179 -14.456 7.331 -0 -1.2 0
24.806 -14.831 7.228 -0 -1.2 0
24.664 -15.331 7.191 -0 -1.2 0
25.026 -16.141 7.302 -0 -1.2 0
24.769 -16.591 7.233 -0 -1.2 0
24.505 -17.038 7.16 -0 -1.2 0
24.233 -17.478 7.086 -0 -1.2 0
23.953 -17.915 7.01 -0 -1.2 0
23.666 -18.346 6.932 -0 -1.2 0
23.372 -18.772 6.851 -0 -1.2 0
23.072 -19.192 6.769 -0 -1.2 0
22.763 -19.607 6.685 -0 -1.2 0
22.448 -20.016 6.598 -0 -1.2 0
22.127 -20.419 6.51 -0 -1.2 0
21.798 -20.817 6.419 -0 -1.2 0
21.463 -21.208 6.326 -0 -1.2 0
21.122 -21.594 6.232 -0 -1.2 0
20.774 -21.974 6.136 -0 -1.2 0
29.231 -0.634 7.212 -0 -1.2 0
29.233 -1.157 7.217 -0 -1.2 0
29.227 -1.68 7.221 -0 -1.2 0
29.212 -2.204 7.221 -0 -1.2 0
26.455 -13.83 6.648 -0 -1.2 0
26.234 -14.302 6.597 -0 -1.2 0
25.116 -14.301 6.322 -0 -1.2 0
25.093 -14.862 6.322 -0 -1.2 0
25.071 -16.028 6.327 -0 -1.2 0
25.012 -16.599 6.318 -0 -1.2 0
24.745 -17.046 6.256 -0 -1.2 0
24.471 -17.486 6.193 -0 -1.2 0
24.188 -17.923 6.127 -0 -1.2 0
23.899 -18.353 6.059 -0 -1.2 0
23.601 -18.779 5.99 -0 -1.2 0
23.298 -19.199 5.92 -0 -1.2 0
22.986 -19.614 5.847 -0 -1.2 0
22.668 -20.023 5.772 -0 -1.2 0
22.344 -20.426 5.696 -0 -1.2 0
22.012 -20.824 5.617 -0 -1.2 0
21.673 -21.215 5.537 -0 -1.2 0
21.328 -21.601 5.456 -0 -1.2 0
20.977 -21.981 5.373 -0 -1.2 0
29.449 -0.12 6.202 -0 -1.2 0
29.459 -0.643 6.21 -0 -1.2 0
29.462 -1.166 6.215 -0 -1.2 0
29.456 -1.689 6.22 -0 -1.2 0
29.44 -2.214 6.221 -0 -1.2 0
29.416 -2.736 6.221 -0 -1.2 0
29.382 -3.259 6.219 -0 -1.2 0
29.34 -3.78 6.215 -0 -1.2 0
27.823 -10.929 5.964 -0 -1.2 0
27.65 -11.423 5.932 -0 -1.2 0
26.66 -13.838 5.748 -0 -1.2 0
26.438 -14.31 5.705 -0 -1.2 0
25.064 -14.747 5.42 -0 -1.2 0
25.054 -15.911 5.429 -0 -1.2 0
25.206 -16.607 5.468 -0 -1.2 0
24.937 -17.054 5.415 -0 -1.2 0
24.659 -17.494 5.362 -0 -1.2 0
24.375 -17.93 5.306 -0 -1.2 0
24.084 -18.361 5.248 -0 -1.2 0
23.784 -18.787 5.189 -0 -1.2 0
23.478 -19.206 5.13 -0 -1.2 0
23.164 -19.621 5.068 -0 -1.2 0
22.843 -20.03 5.004 -0 -1.2 0
22.516 -20.434 4.939 -0 -1.2 0
22.182 -20.831 4.872 -0 -1.2 0
21.841 -21.222 4.804 -0 -1.2 0
21.493 -21.608 4.735 -0 -1.2 0
21.139 -21.987 4.664 -0 -1.2 0
29.643 -0.13 5.194 -0 -1.2 0
29.654 -0.653 5.202 -0 -1.2 0
29.656 -1.176 5.207 -0 -1.2 0
29.65 -1.699 5.211 -0 -1.2 0
29.61 -2.746 5.215 -0 -1.2 0
29.575 -3.268 5.214 -0 -1.2 0
29.533 -3.79 5.211 -0 -1.2 0
29.186 -6.384 5.177 -0 -1.2 0
29.09 -6.899 5.166 -0 -1.2 0
28.984 -7.411 5.152 -0 -1.2 0
28.328 -9.944 5.063 -0 -1.2 0
28.172 -10.443 5.04 -0 -1.2 0
28.005 -10.938 5.016 -0 -1.2 0
27.028 -11.132 4.846 -0 -1.2 0
27.051 -13.371 4.873 -0 -1.2 0
26.835 -13.847 4.841 -0 -1.2 0
26.611 -14.319 4.806 -0 -1.2 0
26.379 -14.787 4.77 -0 -1.2 0
26.07 -15.213 4.721 -0 -1.2 0
25.371 -16.616 4.612 -0 -1.2 0
25.1 -17.062 4.569 -0 -1.2 0
24.82 -17.502 4.525 -0 -1.2 0
24.534 -17.938 4.479 -0 -1.2 0
24.241 -18.369 4.432 -0 -1.2 0
23.939 -18.795 4.383 -0 -1.2 0
23.631 -19.214 4.334 -0 -1.2 0
23.315 -19.629 4.283 -0 -1.2 0
22.992 -20.038 4.23 -0 -1.2 0
22.663 -20.441 4.177 -0 -1.2 0
22.326 -20.838 4.122 -0 -1.2 0
21.983 -21.229 4.065 -0 -1.2 0
21.633 -21.615 4.008 -0 -1.2 0
21.276 -21.994 3.95 -0 -1.2 0
29.813 -0.141 4.102 -0 -1.2 0
29.824 -0.664 4.108 -0 -1.2 0
29.827 -1.187 4.114 -0 -1.2 0
29.82 -1.71 4.119 -0 -1.2 0
29.78 -2.757 4.124 -0 -1.2 0
29.745 -3.279 4.125 -0 -1.2 0
29.702 -3.801 4.124 -0 -1.2 0
29.651 -4.323 4.123 -0 -1.2 0
29.441 -5.879 4.11 -0 -1.2 0
29.353 -6.395 4.103 -0 -1.2 0
29.257 -6.91 4.096 -0 -1.2 0
29.15 -7.422 4.087 -0 -1.2 0
29.036 -7.933 4.076 -0 -1.2 0
28.519 -8.342 4.01 -0 -1.2 0
28.781 -8.949 4.052 -0 -1.2 0
28.64 -9.453 4.038 -0 -1.2 0
28.49 -9.954 4.023 -0 -1.2 0
28.333 -10.454 4.006 -0 -1.2 0
28.166 -10.949 3.988 -0 -1.2 0
27.991 -11.443 3.97 -0 -1.2 0
27.807 -11.932 3.949 -0 -1.2 0
27.614 -12.418 3.928 -0 -1.2 0
27.415 -12.902 3.906 -0 -1.2 0
27.205 -13.381 3.882 -0 -1.2 0
26.988 -13.857 3.858 -0 -1.2 0
26.763 -14.329 3.832 -0 -1.2 0
26.529 -14.797 3.804 -0 -1.2 0
26.288 -15.261 3.776 -0 -1.2 0
26.038 -15.72 3.747 -0 -1.2 0
25.781 -16.175 3.716 -0 -1.2 0
25.516 -16.625 3.685 -0 -1.2 0
25.243 -17.071 3.651 -0 -1.2 0
24.962 -17.511 3.618 -0 -1.2 0
24.674 -17.948 3.583 -0 -1.2 0
24.379 -18.378 3.547 -0 -1.2 0
24.075 -18.803 3.509 -0 -1.2 0
23.765 -19.223 3.472 -0 -1.2 0
23.448 -19.638 3.433 -0 -1.2 0
23.123 -20.047 3.392 -0 -1.2 0
22.792 -20.449 3.351 -0 -1.2 0
22.453 -20.846 3.309 -0 -1.2 0
22.108 -21.238 3.265 -0 -1.2 0
21.755 -21.623 3.221 -0 -1.2 0
21.397 -22.002 3.176 -0 -1.2 0
29.934 -0.152 3.093 -0 -1.2 0
29.945 -0.675 3.1 -0 -1.2 0
29.948 -1.198 3.105 -0 -1.2 0
29.941 -1.721 3.111 -0 -1.2 0
29.901 -2.768 3.118 -0 -1.2 0
29.866 -3.29 3.12 -0 -1.2 0
29.823 -3.812 3.121 -0 -1.2 0
29.771 -4.334 3.122 -0 -1.2 0
29.71 -4.854 3.121 -0 -1.2 0
29.64 -5.373 3.12 -0 -1.2 0
29.56 -5.89 3.117 -0 -1.2 0
29.472 -6.406 3.113 -0 -1.2 0
29.375 -6.92 3.11 -0 -1.2 0
29.268 -7.433 3.104 -0 -1.2 0
29.154 -7.944 3.097 -0 -1.2 0
29.03 -8.452 3.09 -0 -1.2 0
28.897 -8.959 3.083 -0 -1.2 0
28.756 -9.463 3.073 -0 -1.2 0
28.606 -9.964 3.063 -0 -1.2 0
28.447 -10.464 3.052 -0 -1.2 0
28.28 -10.959 3.04 -0 -1.2 0
28.104 -11.453 3.028 -0 -1.2 0
27.919 -11.942 3.014 -0 -1.2 0
27.726 -12.428 2.999 -0 -1.2 0
27.525 -12.912 2.984 -0 -1.2 0
27.315 -13.391 2.968 -0 -1.2 0
27.097 -13.867 2.951 -0 -1.2 0
26.871 -14.338 2.933 -0 -1.2 0
26.636 -14.807 2.913 -0 -1.2 0
26.394 -15.27 2.893 -0 -1.2 0
26.143 -15.73 2.873 -0 -1.2 0
25.885 -16.185 2.851 -0 -1.2 0
25.619 -16.634 2.829 -0 -1.2 0
25.345 -17.08 2.805 -0 -1.2 0
25.062 -17.52 2.781 -0 -1.2 0
24.773 -17.956 2.756 -0 -1.2 0
24.477 -18.387 2.73 -0 -1.2 0
24.172 -18.812 2.704 -0 -1.2 0
23.861 -19.232 2.676 -0 -1.2 0
23.542 -19.646 2.648 -0 -1.2 0
23.215 -20.055 2.619 -0 -1.2 0
22.883 -20.458 2.589 -0 -1.2 0
22.543 -20.854 2.558 -0 -1.2 0
22.196 -21.245 2.526 -0 -1.2 0
21.843 -21.63 2.494 -0 -1.2 0
21.483 -22.01 2.462 -0 -1.2 0
30.019 -0.163 2.099 -0 -1.2 0
30.031 -0.686 2.106 -0 -1.2 0
30.033 -1.209 2.111 -0 -1.2 0
30.027 -1.732 2.117 -0 -1.2 0
29.986 -2.779 2.127 -0 -1.2 0
29.951 -3.301 2.13 -0 -1.2 0
29.908 -3.823 2.133 -0 -1.2 0
29.856 -4.345 2.135 -0 -1.2 0
29.795 -4.865 2.136 -0 -1.2 0
29.725 -5.383 2.138 -0 -1.2 0
29.644 -5.901 2.138 -0 -1.2 0
29.556 -6.417 2.137 -0 -1.2 0
29.459 -6.931 2.137 -0 -1.2 0
29.352 -7.444 2.135 -0 -1.2 0
29.237 -7.954 2.133 -0 -1.2 0
29.113 -8.463 2.13 -0 -1.2 0
28.98 -8.97 2.127 -0 -1.2 0
28.838 -9.474 2.123 -0 -1.2 0
28.687 -9.975 2.118 -0 -1.2 0
28.528 -10.474 2.112 -0 -1.2 0
28.36 -10.97 2.106 -0 -1.2 0
28.184 -11.463 2.099 -0 -1.2 0
27.999 -11.953 2.092 -0 -1.2 0
27.805 -12.438 2.084 -0 -1.2 0
27.604 -12.922 2.076 -0 -1.2 0
27.393 -13.401 2.067 -0 -1.2 0
27.174 -13.877 2.057 -0 -1.2 0
26.947 -14.348 2.047 -0 -1.2 0
26.712 -14.817 2.035 -0 -1.2 0
26.469 -15.28 2.024 -0 -1.2 0
26.217 -15.739 2.012 -0 -1.2 0
25.958 -16.194 1.998 -0 -1.2 0
25.691 -16.644 1.985 -0 -1.2 0
25.417 -17.09 1.971 -0 -1.2 0
25.133 -17.53 1.957 -0 -1.2 0
24.844 -17.966 1.941 -0 -1.2 0
24.546 -18.396 1.925 -0 -1.2 0
24.241 -18.821 1.909 -0 -1.2 0
23.929 -19.24 1.892 -0 -1.2 0
23.608 -19.655 1.875 -0 -1.2 0
23.281 -20.063 1.857 -0 -1.2 0
22.948 -20.466 1.838 -0 -1.2 0
22.607 -20.863 1.819 -0 -1.2 0
22.259 -21.254 1.798 -0 -1.2 0
21.904 -21.638 1.778 -0 -1.2 0
21.543 -22.017 1.758 -0 -1.2 0
30.075 -0.176 1.026 -0 -1.2 0
30.086 -0.699 1.033 -0 -1.2 0
30.089 -1.222 1.039 -0 -1.2 0
30.066 -2.269 1.05 -0 -1.2 0
30.041 -2.791 1.056 -0 -1.2 0
30.006 -3.314 1.061 -0 -1.2 0
29.963 -3.835 1.066 -0 -1.2 0
29.911 -4.357 1.07 -0 -1.2 0
29.85 -4.877 1.074 -0 -1.2 0
29.779 -5.396 1.078 -0 -1.2 0
29.699 -5.913 1.081 -0 -1.2 0
29.611 -6.429 1.084 -0 -1.2 0
29.513 -6.943 1.087 -0 -1.2 0
29.406 -7.456 1.09 -0 -1.2 0
29.291 -7.966 1.091 -0 -1.2 0
29.167 -8.475 1.094 -0 -1.2 0
29.033 -8.982 1.095 -0 -1.2 0
28.891 -9.486 1.096 -0 -1.2 0
28.74 -9.987 1.097 -0 -1.2 0
28.581 -10.486 1.097 -0 -1.2 0
28.412 -10.981 1.097 -0 -1.2 0
28.236 -11.475 1.097 -0 -1.2 0
28.05 -11.964 1.097 -0 -1.2 0
27.856 -12.45 1.096 -0 -1.2 0
27.654 -12.933 1.095 -0 -1.2 0
27.443 -13.412 1.094 -0 -1.2 0
27.224 -13.888 1.092 -0 -1.2 0
26.996 -14.359 1.09 -0 -1.2 0
26.761 -14.828 1.088 -0 -1.2 0
26.517 -15.291 1.085 -0 -1.2 0
26.265 -15.75 1.082 -0 -1.2 0
26.006 -16.205 1.078 -0 -1.2 0
25.738 -16.654 1.075 -0 -1.2 0
25.463 -17.1 1.07 -0 -1.2 0
25.179 -17.54 1.067 -0 -1.2 0
24.889 -17.976 1.062 -0 -1.2 0
24.591 -18.406 1.056 -0 -1.2 0
24.285 -18.831 1.052 -0 -1.2 0
23.972 -19.25 1.046 -0 -1.2 0
23.652 -19.664 1.04 -0 -1.2 0
23.324 -20.073 1.034 -0 -1.2 0
22.99 -20.475 1.027 -0 -1.2 0
22.648 -20.872 1.021 -0 -1.2 0
22.3 -21.263 1.013 -0 -1.2 0
21.944 -21.647 1.006 -0 -1.2 0
21.583 -22.026 0.998 -0 -1.2 0
30.092 -0.188 0.03 -0 -1.2 0
30.103 -0.711 0.036 -0 -1.2 0
30.106 -1.234 0.043 -0 -1.2 0
30.058 -2.803 0.062 -0 -1.2 0
30.023 -3.326 0.068 -0 -1.2 0
29.98 -3.847 0.075 -0 -1.2 0
29.928 -4.369 0.081 -0 -1.2 0
29.867 -4.889 0.087 -0 -1.2 0
29.796 -5.408 0.094 -0 -1.2 0
29.716 -5.925 0.1 -0 -1.2 0
29.627 -6.441 0.107 -0 -1.2 0
29.53 -6.955 0.113 -0 -1.2 0
29.423 -7.468 0.118 -0 -1.2 0
29.307 -7.978 0.124 -0 -1.2 0
29.183 -8.487 0.131 -0 -1.2 0
29.049 -8.993 0.137 -0 -1.2 0
28.908 -9.497 0.143 -0 -1.2 0
28.756 -9.998 0.149 -0 -1.2 0
28.597 -10.497 0.155 -0 -1.2 0
28.428 -10.993 0.161 -0 -1.2 0
28.252 -11.486 0.167 -0 -1.2 0
28.066 -11.975 0.173 -0 -1.2 0
27.872 -12.461 0.179 -0 -1.2 0
27.67 -12.944 0.184 -0 -1.2 0
27.459 -13.423 0.19 -0 -1.2 0
27.239 -13.899 0.196 -0 -1.2 0
27.012 -14.37 0.202 -0 -1.2 0
26.776 -14.838 0.208 -0 -1.2 0
26.532 -15.301 0.213 -0 -1.2 0
26.28 -15.761 0.219 -0 -1.2 0
26.021 -16.215 0.223 -0 -1.2 0
25.753 -16.665 0.229 -0 -1.2 0
25.478 -17.11 0.234 -0 -1.2 0
25.194 -17.55 0.24 -0 -1.2 0
24.903 -17.986 0.245 -0 -1.2 0
24.605 -18.415 0.25 -0 -1.2 0
24.299 -18.84 0.255 -0 -1.2 0
23.986 -19.26 0.26 -0 -1.2 0
23.665 -19.674 0.265 -0 -1.2 0
23.337 -20.082 0.27 -0 -1.2 0
23.003 -20.484 0.275 -0 -1.2 0
22.661 -20.881 0.279 -0 -1.2 0
22.312 -21.271 0.284 -0 -1.2 0
21.957 -21.656 0.288 -0 -1.2 0
21.595 -22.035 0.293 -0 -1.2 0
30.077 -0.202 -0.939 -0 -1.2 0
30.088 -0.725 -0.932 -0 -1.2 0
30.084 -1.771 -0.916 -0 -1.2 0
30.068 -2.295 -0.909 -0 -1.2 0
30.043 -2.817 -0.901 -0 -1.2 0
30.008 -3.34 -0.892 -0 -1.2 0
29.965 -3.861 -0.883 -0 -1.2 0
29.913 -4.383 -0.874 -0 -1.2 0
29.852 -4.903 -0.865 -0 -1.2 0
29.781 -5.421 -0.855 -0 -1.2 0
29.701 -5.938 -0.845 -0 -1.2 0
29.613 -6.454 -0.835 -0 -1.2 0
29.515 -6.969 -0.825 -0 -1.2 0
29.408 -7.481 -0.814 -0 -1.2 0
29.293 -7.992 -0.803 -0 -1.2 0
29.169 -8.5 -0.792 -0 -1.2 0
29.035 -9.007 -0.78 -0 -1.2 0
28.893 -9.511 -0.768 -0 -1.2 0
28.742 -10.011 -0.756 -0 -1.2 0
28.583 -10.51 -0.745 -0 -1.2 0
28.414 -11.006 -0.733 -0 -1.2 0
28.238 -11.499 -0.72 -0 -1.2 0
28.052 -11.988 -0.707 -0 -1.2 0
27.858 -12.474 -0.693 -0 -1.2 0
27.656 -12.957 -0.681 -0 -1.2 0
27.445 -13.436 -0.667 -0 -1.2 0
27.226 -13.911 -0.654 -0 -1.2 0
26.998 -14.382 -0.639 -0 -1.2 0
26.763 -14.85 -0.626 -0 -1.2 0
26.519 -15.313 -0.611 -0 -1.2 0
26.267 -15.773 -0.597 -0 -1.2 0
26.008 -16.227 -0.582 -0 -1.2 0
25.74 -16.676 -0.567 -0 -1.2 0
25.465 -17.122 -0.552 -0 -1.2 0
25.181 -17.561 -0.537 -0 -1.2 0
24.891 -17.997 -0.521 -0 -1.2 0
24.593 -18.427 -0.506 -0 -1.2 0
24.287 -18.851 -0.49 -0 -1.2 0
23.974 -19.27 -0.475 -0 -1.2 0
23.653 -19.684 -0.458 -0 -1.2 0
23.325 -20.093 -0.442 -0 -1.2 0
22.991 -20.495 -0.426 -0 -1.2 0
22.65 -20.891 -0.409 -0 -1.2 0
22.301 -21.281 -0.393 -0 -1.2 0
21.946 -21.666 -0.376 -0 -1.2 0
21.584 -22.044 -0.359 -0 -1.2 0
30.029 -0.216 -1.938 -0 -1.2 0
30.036 -1.785 -1.916 -0 -1.2 0
30.02 -2.309 -1.907 -0 -1.2 0
29.995 -2.832 -1.898 -0 -1.2 0
29.96 -3.354 -1.887 -0 -1.2 0
29.917 -3.875 -1.877 -0 -1.2 0
29.865 -4.397 -1.866 -0 -1.2 0
29.804 -4.917 -1.855 -0 -1.2 0
29.734 -5.436 -1.843 -0 -1.2 0
29.653 -5.953 -1.83 -0 -1.2 0
29.565 -6.469 -1.816 -0 -1.2 0
29.468 -6.983 -1.802 -0 -1.2 0
29.361 -7.495 -1.788 -0 -1.2 0
29.246 -8.006 -1.773 -0 -1.2 0
29.122 -8.514 -1.757 -0 -1.2 0
28.988 -9.021 -1.741 -0 -1.2 0
28.847 -9.524 -1.725 -0 -1.2 0
28.696 -10.025 -1.707 -0 -1.2 0
28.537 -10.524 -1.69 -0 -1.2 0
28.369 -11.019 -1.672 -0 -1.2 0
28.193 -11.512 -1.653 -0 -1.2 0
28.007 -12.001 -1.634 -0 -1.2 0
27.813 -12.487 -1.614 -0 -1.2 0
27.612 -12.97 -1.594 -0 -1.2 0
27.401 -13.449 -1.573 -0 -1.2 0
27.182 -13.924 -1.552 -0 -1.2 0
26.955 -14.395 -1.531 -0 -1.2 0
26.72 -14.863 -1.509 -0 -1.2 0
26.477 -15.326 -1.486 -0 -1.2 0
26.225 -15.785 -1.463 -0 -1.2 0
25.966 -16.239 -1.44 -0 -1.2 0
25.699 -16.688 -1.415 -0 -1.2 0
25.424 -17.134 -1.391 -0 -1.2 0
25.141 -17.573 -1.366 -0 -1.2 0
24.851 -18.009 -1.341 -0 -1.2 0
24.554 -18.438 -1.315 -0 -1.2 0
24.248 -18.863 -1.289 -0 -1.2 0
23.936 -19.282 -1.262 -0 -1.2 0
23.616 -19.696 -1.236 -0 -1.2 0
23.288 -20.104 -1.208 -0 -1.2 0
22.955 -20.506 -1.181 -0 -1.2 0
22.614 -20.902 -1.153 -0 -1.2 0
22.266 -21.292 -1.125 -0 -1.2 0
21.911 -21.676 -1.095 -0 -1.2 0
21.55 -22.055 -1.067 -0 -1.2 0
29.939 -0.232 -3.02 -0 -1.2 0
29.95 -0.755 -3.013 -0 -1.2 0
29.946 -1.801 -2.997 -0 -1.2 0
29.93 -2.325 -2.988 -0 -1.2 0
29.905 -2.848 -2.977 -0 -1.2 0
29.871 -3.37 -2.965 -0 -1.2 0
29.828 -3.891 -2.953 -0 -1.2 0
29.776 -4.413 -2.94 -0 -1.2 0
29.715 -4.933 -2.926 -0 -1.2 0
29.645 -5.451 -2.911 -0 -1.2 0
29.565 -5.968 -2.896 -0 -1.2 0
29.477 -6.484 -2.879 -0 -1.2 0
29.38 -6.999 -2.861 -0 -1.2 0
29.273 -7.511 -2.842 -0 -1.2 0
29.159 -8.021 -2.823 -0 -1.2 0
29.035 -8.529 -2.803 -0 -1.2 0
28.902 -9.036 -2.781 -0 -1.2 0
28.761 -9.54 -2.759 -0 -1.2 0
28.61 -10.04 -2.738 -0 -1.2 0
28.452 -10.539 -2.714 -0 -1.2 0
28.284 -11.034 -2.689 -0 -1.2 0
28.109 -11.527 -2.664 -0 -1.2 0
27.924 -12.016 -2.637 -0 -1.2 0
27.73 -12.502 -2.611 -0 -1.2 0
27.53 -12.985 -2.583 -0 -1.2 0
27.32 -13.463 -2.554 -0 -1.2 0
27.101 -13.939 -2.526 -0 -1.2 0
26.875 -14.409 -2.495 -0 -1.2 0
26.64 -14.877 -2.465 -0 -1.2 0
26.398 -15.34 -2.433 -0 -1.2 0
26.147 -15.799 -2.4 -0 -1.2 0
25.889 -16.253 -2.368 -0 -1.2 0
25.623 -16.702 -2.334 -0 -1.2 0
25.349 -17.147 -2.3 -0 -1.2 0
25.066 -17.586 -2.265 -0 -1.2 0
24.777 -18.022 -2.229 -0 -1.2 0
24.481 -18.451 -2.192 -0 -1.2 0
24.176 -18.876 -2.155 -0 -1.2 0
23.865 -19.294 -2.116 -0 -1.2 0
23.546 -19.708 -2.078 -0 -1.2 0
23.219 -20.116 -2.039 -0 -1.2 0
22.887 -20.518 -1.999 -0 -1.2 0
22.547 -20.914 -1.959 -0 -1.2 0
22.2 -21.304 -1.917 -0 -1.2 0
21.846 -21.688 -1.876 -0 -1.2 0
21.486 -22.066 -1.834 -0 -1.2 0
29.834 -1.293 -4.006 -0 -1.2 0
29.828 -1.816 -3.997 -0 -1.2 0
29.812 -2.34 -3.987 -0 -1.2 0
29.787 -2.863 -3.976 -0 -1.2 0
29.753 -3.385 -3.963 -0 -1.2 0
29.71 -3.906 -3.949 -0 -1.2 0
29.658 -4.428 -3.934 -0 -1.2 0
29.597 -4.948 -3.918 -0 -1.2 0
29.528 -5.466 -3.9 -0 -1.2 0
29.448 -5.983 -3.882 -0 -1.2 0
29.361 -6.499 -3.862 -0 -1.2 0
29.264 -7.013 -3.841 -0 -1.2 0
29.158 -7.525 -3.819 -0 -1.2 0
29.044 -8.036 -3.795 -0 -1.2 0
28.921 -8.544 -3.771 -0 -1.2 0
28.788 -9.051 -3.745 -0 -1.2 0
28.648 -9.554 -3.718 -0 -1.2 0
28.498 -10.055 -3.69 -0 -1.2 0
28.34 -10.554 -3.661 -0 -1.2 0
28.173 -11.048 -3.63 -0 -1.2 0
27.998 -11.541 -3.6 -0 -1.2 0
27.814 -12.03 -3.567 -0 -1.2 0
27.621 -12.515 -3.533 -0 -1.2 0
27.422 -12.999 -3.499 -0 -1.2 0
27.212 -13.477 -3.463 -0 -1.2 0
26.995 -13.952 -3.427 -0 -1.2 0
26.769 -14.423 -3.388 -0 -1.2 0
26.536 -14.891 -3.35 -0 -1.2 0
26.294 -15.353 -3.309 -0 -1.2 0
26.045 -15.812 -3.269 -0 -1.2 0
25.787 -16.266 -3.227 -0 -1.2 0
25.522 -16.715 -3.185 -0 -1.2 0
25.25 -17.16 -3.14 -0 -1.2 0
24.968 -17.599 -3.095 -0 -1.2 0
24.68 -18.034 -3.049 -0 -1.2 0
24.385 -18.463 -3.004 -0 -1.2 0
24.081 -18.888 -2.956 -0 -1.2 0
23.771 -19.306 -2.907 -0 -1.2 0
23.453 -19.72 -2.857 -0 -1.2 0
23.128 -20.127 -2.808 -0 -1.2 0
22.797 -20.529 -2.756 -0 -1.2 0
22.459 -20.925 -2.705 -0 -1.2 0
22.113 -21.315 -2.651 -0 -1.2 0
21.761 -21.699 -2.598 -0 -1.2 0
21.402 -22.077 -2.544 -0 -1.2 0
29.68 -0.786 -5.01 -0 -1.2 0
29.682 -1.308 -5.003 -0 -1.2 0
29.676 -1.832 -4.993 -0 -1.2 0
29.66 -2.356 -4.983 -0 -1.2 0
29.636 -2.878 -4.97 -0 -1.2 0
29.601 -3.4 -4.956 -0 -1.2 0
29.559 -3.922 -4.941 -0 -1.2 0
29.507 -4.443 -4.923 -0 -1.2 0
29.447 -4.963 -4.905 -0 -1.2 0
29.378 -5.482 -4.885 -0 -1.2 0
29.298 -5.998 -4.863 -0 -1.2 0
29.211 -6.514 -4.84 -0 -1.2 0
29.115 -7.028 -4.816 -0 -1.2 0
29.01 -7.54 -4.79 -0 -1.2 0
28.896 -8.051 -4.762 -0 -1.2 0
28.774 -8.559 -4.733 -0 -1.2 0
28.642 -9.065 -4.703 -0 -1.2 0
28.502 -9.569 -4.671 -0 -1.2 0
28.353 -10.069 -4.639 -0 -1.2 0
28.196 -10.568 -4.604 -0 -1.2 0
28.03 -11.063 -4.568 -0 -1.2 0
27.856 -11.556 -4.53 -0 -1.2 0
27.673 -12.045 -4.491 -0 -1.2 0
27.482 -12.53 -4.452 -0 -1.2 0
27.283 -13.013 -4.41 -0 -1.2 0
27.075 -13.491 -4.367 -0 -1.2 0
26.858 -13.966 -4.323 -0 -1.2 0
26.634 -14.437 -4.278 -0 -1.2 0
26.402 -14.904 -4.23 -0 -1.2 0
26.161 -15.367 -4.182 -0 -1.2 0
25.913 -15.825 -4.133 -0 -1.2 0
25.657 -16.279 -4.083 -0 -1.2 0
25.393 -16.728 -4.03 -0 -1.2 0
25.122 -17.173 -3.977 -0 -1.2 0
24.842 -17.612 -3.923 -0 -1.2 0
24.556 -18.047 -3.867 -0 -1.2 0
24.262 -18.476 -3.81 -0 -1.2 0
23.96 -18.9 -3.753 -0 -1.2 0
23.652 -19.318 -3.694 -0 -1.2 0
23.335 -19.732 -3.634 -0 -1.2 0
23.012 -20.139 -3.573 -0 -1.2 0
22.683 -20.541 -3.51 -0 -1.2 0
22.346 -20.936 -3.447 -0 -1.2 0
22.002 -21.326 -3.382 -0 -1.2 0
21.652 -21.71 -3.317 -0 -1.2 0
21.295 -22.088 -3.25 -0 -1.2 0
29.452 0.243 -6.071 -0 -1.2 0
29.471 -0.279 -6.067 -0 -1.2 0
29.483 -0.802 -6.06 -0 -1.2 0
29.485 -1.325 -6.052 -0 -1.2 0
29.479 -1.848 -6.042 -0 -1.2 0
29.463 -2.372 -6.03 -0 -1.2 0
29.439 -2.894 -6.017 -0 -1.2 0
29.405 -3.417 -6.002 -0 -1.2 0
29.363 -3.938 -5.985 -0 -1.2 0
29.312 -4.46 -5.966 -0 -1.2 0
29.252 -4.979 -5.945 -0 -1.2 0
29.182 -5.498 -5.922 -0 -1.2 0
29.104 -6.015 -5.897 -0 -1.2 0
29.018 -6.531 -5.87 -0 -1.2 0
28.923 -7.045 -5.842 -0 -1.2 0
28.818 -7.557 -5.812 -0 -1.2 0
28.705 -8.067 -5.782 -0 -1.2 0
28.584 -8.575 -5.748 -0 -1.2 0
28.452 -9.081 -5.713 -0 -1.2 0
28.314 -9.585 -5.676 -0 -1.2 0
28.166 -10.085 -5.637 -0 -1.2 0
28.01 -10.584 -5.596 -0 -1.2 0
27.845 -11.078 -5.554 -0 -1.2 0
27.672 -11.571 -5.511 -0 -1.2 0
27.49 -12.06 -5.465 -0 -1.2 0
27.3 -12.545 -5.419 -0 -1.2 0
27.103 -13.028 -5.37 -0 -1.2 0
26.896 -13.506 -5.319 -0 -1.2 0
26.681 -13.981 -5.267 -0 -1.2 0
26.458 -14.451 -5.214 -0 -1.2 0
26.228 -14.919 -5.158 -0 -1.2 0
25.989 -15.381 -5.102 -0 -1.2 0
25.742 -15.84 -5.044 -0 -1.2 0
25.488 -16.293 -4.983 -0 -1.2 0
25.226 -16.742 -4.922 -0 -1.2 0
24.957 -17.187 -4.859 -0 -1.2 0
24.394 -18.06 -4.728 -0 -1.2 0
24.102 -18.489 -4.661 -0 -1.2 0
23.802 -18.913 -4.593 -0 -1.2 0
23.496 -19.332 -4.523 -0 -1.2 0
23.182 -19.745 -4.451 -0 -1.2 0
22.861 -20.152 -4.378 -0 -1.2 0
22.534 -20.553 -4.304 -0 -1.2 0
22.199 -20.949 -4.229 -0 -1.2 0
21.858 -21.338 -4.152 -0 -1.2 0
21.51 -21.722 -4.073 -0 -1.2 0
21.155 -22.099 -3.994 -0 -1.2 0
29.209 0.751 -7.028 -0 -1.2 0
29.238 0.227 -7.026 -0 -1.2 0
29.258 -0.295 -7.022 -0 -1.2 0
29.269 -0.817 -7.015 -0 -1.2 0
29.272 -1.34 -7.007 -0 -1.2 0
29.265 -1.863 -6.997 -0 -1.2 0
29.25 -2.388 -6.985 -0 -1.2 0
29.226 -2.91 -6.97 -0 -1.2 0
29.192 -3.432 -6.953 -0 -1.2 0
29.15 -3.954 -6.935 -0 -1.2 0
29.1 -4.475 -6.914 -0 -1.2 0
29.04 -4.995 -6.891 -0 -1.2 0
28.971 -5.513 -6.866 -0 -1.2 0
28.894 -6.03 -6.839 -0 -1.2 0
28.808 -6.546 -6.809 -0 -1.2 0
28.714 -7.06 -6.778 -0 -1.2 0
28.61 -7.572 -6.744 -0 -1.2 0
28.498 -8.082 -6.709 -0 -1.2 0
28.377 -8.59 -6.671 -0 -1.2 0
28.247 -9.096 -6.631 -0 -1.2 0
28.11 -9.599 -6.59 -0 -1.2 0
27.963 -10.1 -6.547 -0 -1.2 0
27.808 -10.598 -6.501 -0 -1.2 0
27.644 -11.093 -6.453 -0 -1.2 0
27.292 -12.074 -6.352 -0 -1.2 0
26.908 -13.042 -6.244 -0 -1.2 0
26.702 -13.52 -6.186 -0 -1.2 0
26.489 -13.995 -6.127 -0 -1.2 0
26.268 -14.465 -6.066 -0 -1.2 0
26.039 -14.932 -6.003 -0 -1.2 0
25.802 -15.395 -5.939 -0 -1.2 0
25.557 -15.853 -5.871 -0 -1.2 0
25.305 -16.306 -5.803 -0 -1.2 0
25.045 -16.755 -5.733 -0 -1.2 0
24.778 -17.2 -5.661 -0 -1.2 0
23.016 -19.757 -5.195 -0 -1.2 0
22.697 -20.164 -5.112 -0 -1.2 0
22.373 -20.565 -5.026 -0 -1.2 0
22.04 -20.96 -4.94 -0 -1.2 0
21.701 -21.349 -4.853 -0 -1.2 0
21.356 -21.733 -4.762 -0 -1.2 0
21.004 -22.11 -4.672 -0 -1.2 0
28.965 0.735 -7.974 -0 -1.2 0
28.994 0.212 -7.973 -0 -1.2 0
29.013 -0.31 -7.97 -0 -1.2 0
29.025 -0.833 -7.963 -0 -1.2 0
29.027 -1.356 -7.955 -0 -1.2 0
29.021 -1.879 -7.944 -0 -1.2 0
29.006 -2.403 -7.931 -0 -1.2 0
28.982 -2.925 -7.916 -0 -1.2 0
28.949 -3.448 -7.898 -0 -1.2 0
28.907 -3.969 -7.878 -0 -1.2 0
28.857 -4.49 -7.855 -0 -1.2 0
28.798 -5.01 -7.83 -0 -1.2 0
28.73 -5.529 -7.802 -0 -1.2 0
28.653 -6.045 -7.772 -0 -1.2 0
28.568 -6.561 -7.74 -0 -1.2 0
28.475 -7.075 -7.705 -0 -1.2 0
28.372 -7.587 -7.668 -0 -1.2 0
28.261 -8.097 -7.629 -0 -1.2 0
28.141 -8.605 -7.587 -0 -1.2 0
28.012 -9.111 -7.544 -0 -1.2 0
27.876 -9.614 -7.497 -0 -1.2 0
27.73 -10.115 -7.449 -0 -1.2 0
27.577 -10.613 -7.397 -0 -1.2 0
27.415 -11.108 -7.345 -0 -1.2 0
26.878 -12.573 -7.172 -0 -1.2 0
26.481 -13.534 -7.046 -0 -1.2 0
26.27 -14.009 -6.98 -0 -1.2 0
25.823 -14.946 -6.841 -0 -1.2 0
24.299 -17.651 -6.375 -0 -1.2 0
22.826 -19.769 -5.933 -0 -1.2 0
22.187 -20.577 -5.744 -0 -1.2 0
21.858 -20.972 -5.647 -0 -1.2 0
21.522 -21.361 -5.548 -0 -1.2 0
21.18 -21.744 -5.447 -0 -1.2 0
20.831 -22.121 -5.344 -0 -1.2 0
28.697 0.195 -8.983 -0 -1.2 0
28.716 -0.327 -8.98 -0 -1.2 0
28.727 -0.85 -8.975 -0 -1.2 0
28.73 -1.373 -8.966 -0 -1.2 0
28.724 -1.896 -8.955 -0 -1.2 0
28.709 -2.42 -8.941 -0 -1.2 0
28.686 -2.942 -8.925 -0 -1.2 0
28.652 -3.465 -8.905 -0 -1.2 0
28.612 -3.986 -8.883 -0 -1.2 0
28.562 -4.507 -8.859 -0 -1.2 0
28.504 -5.027 -8.831 -0 -1.2 0
28.436 -5.545 -8.801 -0 -1.2 0
28.36 -6.062 -8.768 -0 -1.2 0
28.276 -6.578 -8.733 -0 -1.2 0
28.184 -7.092 -8.695 -0 -1.2 0
28.082 -7.603 -8.655 -0 -1.2 0
27.972 -8.113 -8.611 -0 -1.2 0
27.854 -8.621 -8.565 -0 -1.2 0
27.726 -9.127 -8.516 -0 -1.2 0
27.591 -9.631 -8.465 -0 -1.2 0
27.447 -10.131 -8.411 -0 -1.2 0
27.296 -10.629 -8.355 -0 -1.2 0
27.135 -11.124 -8.296 -0 -1.2 0
26.967 -11.616 -8.234 -0 -1.2 0
26.79 -12.105 -8.171 -0 -1.2 0
25.56 -14.961 -7.735 -0 -1.2 0
25.328 -15.423 -7.654 -0 -1.2 0
25.088 -15.881 -7.571 -0 -1.2 0
21.962 -20.59 -6.509 -0 -1.2 0
21.637 -20.984 -6.4 -0 -1.2 0
21.305 -21.373 -6.289 -0 -1.2 0
20.966 -21.756 -6.177 -0 -1.2 0
20.62 -22.133 -6.062 -0 -1.2 0
28.359 0.703 -9.915 -0 -1.2 0
28.388 0.179 -9.916 -0 -1.2 0
28.418 -0.866 -9.908 -0 -1.2 0
28.421 -1.389 -9.899 -0 -1.2 0
28.415 -1.912 -9.888 -0 -1.2 0
28.4 -2.436 -9.873 -0 -1.2 0
28.377 -2.958 -9.856 -0 -1.2 0
28.344 -3.48 -9.835 -0 -1.2 0
28.304 -4.002 -9.811 -0 -1.2 0
28.255 -4.523 -9.785 -0 -1.2 0
28.198 -5.042 -9.755 -0 -1.2 0
28.132 -5.561 -9.723 -0 -1.2 0
28.056 -6.077 -9.687 -0 -1.2 0
27.973 -6.593 -9.649 -0 -1.2 0
27.881 -7.107 -9.608 -0 -1.2 0
27.555 -8.637 -9.466 -0 -1.2 0
27.429 -9.143 -9.413 -0 -1.2 0
24.575 -16.348 -8.286 -0 -1.2 0
22.046 -20.201 -7.332 -0 -1.2 0
20.402 -22.144 -6.722 -0 -1.2 0
28.048 0.163 -10.839 -0 -1.2 0
28.067 -0.358 -10.837 -0 -1.2 0
28.078 -0.881 -10.831 -0 -1.2 0
28.081 -1.404 -10.823 -0 -1.2 0
28.075 -1.927 -10.811 -0 -1.2 0
28.061 -2.451 -10.795 -0 -1.2 0
28.038 -2.973 -10.777 -0 -1.2 0
28.007 -3.496 -10.755 -0 -1.2 0
27.966 -4.017 -10.73 -0 -1.2 0
27.918 -4.538 -10.702 -0 -1.2 0
27.861 -5.058 -10.67 -0 -1.2 0
27.796 -5.576 -10.635 -0 -1.2 0
27.722 -6.093 -10.597 -0 -1.2 0
27.639 -6.608 -10.555 -0 -1.2 0
27.549 -7.122 -10.511 -0 -1.2 0
27.227 -8.651 -10.359 -0 -1.2 0
26.526 -11.153 -10.041 -0 -1.2 0
21.786 -20.213 -8.04 -0 -1.2 0
27.679 -0.898 -11.813 -0 -1.2 0
27.682 -1.421 -11.804 -0 -1.2 0
27.676 -1.944 -11.792 -0 -1.2 0
27.662 -2.468 -11.776 -0 -1.2 0
27.64 -2.99 -11.756 -0 -1.2 0
27.609 -3.512 -11.733 -0 -1.2 0
27.57 -4.034 -11.706 -0 -1.2 0
27.522 -4.555 -11.676 -0 -1.2 0
27.465 -5.074 -11.642 -0 -1.2 0
27.401 -5.593 -11.605 -0 -1.2 0
27.329 -6.109 -11.564 -0 -1.2 0
27.248 -6.625 -11.519 -0 -1.2 0
27.061 -7.65 -11.419 -0 -1.2 0
26.956 -8.16 -11.364 -0 -1.2 0
21.782 -19.819 -8.93 -0 -1.2 0
27.278 -0.914 -12.711 -0 -1.2 0
27.275 -1.96 -12.689 -0 -1.2 0
27.261 -2.484 -12.673 -0 -1.2 0
27.239 -3.006 -12.652 -0 -1.2 0
27.209 -3.528 -12.628 -0 -1.2 0
27.17 -4.049 -12.6 -0 -1.2 0
27.123 -4.571 -12.568 -0 -1.2 0
27.069 -5.09 -12.532 -0 -1.2 0
27.005 -5.608 -12.492 -0 -1.2 0
26.933 -6.125 -12.448 -0 -1.2 0
26.854 -6.64 -12.401 -0 -1.2 0
26.766 -7.154 -12.35 -0 -1.2 0
26.567 -8.175 -12.236 -0 -1.2 0
26.454 -8.683 -12.174 -0 -1.2 0
26.334 -9.189 -12.109 -0 -1.2 0
22.32 -18.58 -10.049 -0 -1.2 0
26.843 -1.976 -13.577 -0 -1.2 0
26.828 -2.5 -13.56 -0 -1.2 0
26.807 -3.022 -13.538 -0 -1.2 0
26.777 -3.544 -13.513 -0 -1.2 0
26.739 -4.066 -13.483 -0 -1.2 0
26.694 -4.587 -13.449 -0 -1.2 0
26.64 -5.106 -13.411 -0 -1.2 0
26.578 -5.625 -13.369 -0 -1.2 0
26.508 -6.141 -13.324 -0 -1.2 0
26.429 -6.656 -13.274 -0 -1.2 0
26.342 -7.17 -13.22 -0 -1.2 0
26.248 -7.681 -13.161 -0 -1.2 0
26.146 -8.191 -13.099 -0 -1.2 0
26.036 -8.699 -13.033 -0 -1.2 0
25.918 -9.204 -12.962 -0 -1.2 0
24.873 -12.663 -12.363 -0 -1.2 0
26.346 -0.948 -14.54 -0 -1.2 0
26.349 -1.471 -14.531 -0 -1.2 0
26.344 -1.994 -14.517 -0 -1.2 0
26.331 -2.518 -14.499 -0 -1.2 0
26.31 -3.04 -14.477 -0 -1.2 0
26.281 -3.562 -14.45 -0 -1.2 0
26.244 -4.083 -14.419 -0 -1.2 0
26.198 -4.605 -14.383 -0 -1.2 0
26.146 -5.124 -14.343 -0 -1.2 0
26.085 -5.642 -14.298 -0 -1.2 0
25.855 -7.187 -14.139 -0 -1.2 0
24.966 -9.238 -14.691 -0 -1.2 0
24.845 -9.74 -14.608 -0 -1.2 0
25.335 -0.982 -16.235 -0 -1.2 0
25.022 -6.192 -15.918 -0 -1.2 0
24.948 -6.707 -15.86 -0 -1.2 0
24.091 -10.754 -15.221 -0 -1.2 0
23.951 -11.247 -15.119 -0 -1.2 0
21.245 -17.774 -13.238 -0 -1.2 0
24.756 -1 -17.103 -0 -1.2 0
24.439 -1.517 -16.872 -0 -1.2 0
24.755 -2.046 -17.079 -0 -1.2 0
24.743 -2.57 -17.059 -0 -1.2 0
24.724 -3.092 -17.034 -0 -1.2 0
24.697 -3.614 -17.003 -0 -1.2 0
24.663 -4.135 -16.968 -0 -1.2 0
24.621 -4.656 -16.927 -0 -1.2 0
24.572 -5.175 -16.881 -0 -1.2 0
24.515 -5.694 -16.83 -0 -1.2 0
23.796 -9.774 -16.239 -0 -1.2 0
24.191 -1.017 -17.892 -0 -1.2 0
24.195 -1.54 -17.882 -0 -1.2 0
24.191 -2.063 -17.867 -0 -1.2 0
24.179 -2.587 -17.846 -0 -1.2 0
24.161 -3.109 -17.82 -0 -1.2 0
24.135 -3.631 -17.789 -0 -1.2 0
24.101 -4.152 -17.752 -0 -1.2 0
24.061 -4.673 -17.71 -0 -1.2 0
24.013 -5.192 -17.662 -0 -1.2 0
23.958 -5.71 -17.609 -0 -1.2 0
23.895 -6.227 -17.55 -0 -1.2 0
23.826 -6.742 -17.487 -0 -1.2 0
23.749 -7.255 -17.418 -0 -1.2 0
23.474 -8.783 -17.179 -0 -1.2 0
23.369 -9.288 -17.089 -0 -1.2 0
21.747 -14.643 -15.763 -0 -1.2 0
21.559 -15.109 -15.613 -0 -1.2 0
17.416 -22.252 -12.378 -0 -1.2 0
23.602 -2.08 -18.636 -0 -1.2 0
23.591 -2.604 -18.615 -0 -1.2 0
23.573 -3.126 -18.588 -0 -1.2 0
23.547 -3.648 -18.555 -0 -1.2 0
23.515 -4.169 -18.517 -0 -1.2 0
23.476 -4.69 -18.473 -0 -1.2 0
23.429 -5.209 -18.424 -0 -1.2 0
23.375 -5.727 -18.369 -0 -1.2 0
23.315 -6.243 -18.308 -0 -1.2 0
23.247 -6.759 -18.243 -0 -1.2 0
23.172 -7.272 -18.171 -0 -1.2 0
23.09 -7.783 -18.094 -0 -1.2 0
23.001 -8.292 -18.011 -0 -1.2 0
22.692 -9.807 -17.73 -0 -1.2 0
22.576 -10.306 -17.627 -0 -1.2 0
22.452 -10.803 -17.517 -0 -1.2 0
22.185 -11.788 -17.281 -0 -1.2 0
20.849 -15.584 -16.132 -0 -1.2 0
17.559 -21.508 -13.385 -0 -1.2 0
17.281 -21.889 -13.157 -0 -1.2 0
22.935 -1.053 -19.473 -0 -1.2 0
22.935 -2.099 -19.448 -0 -1.2 0
22.925 -2.623 -19.426 -0 -1.2 0
22.907 -3.145 -19.398 -0 -1.2 0
22.883 -3.667 -19.365 -0 -1.2 0
22.852 -4.188 -19.325 -0 -1.2 0
22.814 -4.709 -19.28 -0 -1.2 0
22.769 -5.228 -19.228 -0 -1.2 0
22.717 -5.746 -19.171 -0 -1.2 0
22.658 -6.262 -19.109 -0 -1.2 0
22.592 -6.777 -19.04 -0 -1.2 0
22.52 -7.29 -18.966 -0 -1.2 0
22.44 -7.801 -18.885 -0 -1.2 0
22.354 -8.31 -18.8 -0 -1.2 0
22.26 -8.817 -18.708 -0 -1.2 0
21.821 -10.821 -18.285 -0 -1.2 0
21.695 -11.314 -18.165 -0 -1.2 0
17.071 -21.522 -13.981 -0 -1.2 0
16.801 -21.902 -13.743 -0 -1.2 0
16.528 -22.277 -13.5 -0 -1.2 0
22.285 -1.07 -20.212 -0 -1.2 0
22.286 -2.116 -20.185 -0 -1.2 0
22.276 -2.64 -20.164 -0 -1.2 0
22.259 -3.162 -20.136 -0 -1.2 0
22.236 -3.684 -20.101 -0 -1.2 0
22.206 -4.205 -20.06 -0 -1.2 0
22.169 -4.726 -20.013 -0 -1.2 0
22.125 -5.245 -19.96 -0 -1.2 0
22.075 -5.763 -19.902 -0 -1.2 0
22.018 -6.279 -19.837 -0 -1.2 0
21.954 -6.794 -19.766 -0 -1.2 0
21.884 -7.307 -19.689 -0 -1.2 0
21.724 -8.327 -19.517 -0 -1.2 0
21.634 -8.834 -19.422 -0 -1.2 0
21.084 -11.331 -18.86 -0 -1.2 0
20.53 -13.273 -18.308 -0 -1.2 0
