# .PCD v.7 - Point Cloud Data file format
FIELDS x y z vp_x vp_y vp_z
SIZE 4 4 4 4 4 4
TYPE F F F F F F
COUNT 1 1 1 1 1 1
WIDTH 1599
HEIGHT 1
VIEWPOINT 0 -1.20005 0 1 0 0 0
POINTS 1599
DATA ascii
5.918 -4.129 -7.504 -0 -1.2 0
5.932 -4.313 -7.509 -0 -1.2 0
7.446 -5.369 -9.349 -0 -1.2 0
5.072 -4.144 -6.435 -0 -1.2 0
4.909 -4.194 -6.223 -0 -1.2 0
6.817 -5.632 -8.534 -0 -1.2 0
4.702 -4.353 -5.952 -0 -1.2 0
4.677 -4.483 -5.91 -0 -1.2 0
5.215 -5.049 -6.552 -0 -1.2 0
5.449 -5.407 -6.821 -0 -1.2 0
5.339 -5.496 -6.676 -0 -1.2 0
6.634 -6.809 -8.224 -0 -1.2 0
4.155 -4.784 -5.229 -0 -1.2 0
4.611 -5.359 -5.766 -0 -1.2 0
4.036 -4.96 -5.068 -0 -1.2 0
5.923 -7.025 -7.308 -0 -1.2 0
3.84 -5.048 -4.814 -0 -1.2 0
3.795 -5.143 -4.751 -0 -1.2 0
3.634 -5.106 -4.55 -0 -1.2 0
3.681 -5.303 -4.596 -0 -1.2 0
3.623 -5.38 -4.517 -0 -1.2 0
3.539 -5.424 -4.408 -0 -1.2 0
3.491 -5.509 -4.34 -0 -1.2 0
4.673 -7.252 -5.714 -0 -1.2 0
5.073 -8.018 -6.165 -0 -1.2 0
0.697 -0.01 -1.24 -0 -1.2 0
0.721 -0.008 -1.272 -0 -1.2 0
0.745 -0.006 -1.305 -0 -1.2 0
0.766 -0.013 -1.332 -0 -1.2 0
0.795 -0.007 -1.372 -0 -1.2 0
0.815 -0.016 -1.399 -0 -1.2 0
0.839 -0.019 -1.432 -0 -1.2 0
0.869 -0.016 -1.472 -0 -1.2 0
0.895 -0.022 -1.506 -0 -1.2 0
0.93 -0.017 -1.554 -0 -1.2 0
0.96 -0.019 -1.595 -0 -1.2 0
0.99 -0.023 -1.637 -0 -1.2 0
1.026 -0.022 -1.685 -0 -1.2 0
1.068 -0.018 -1.741 -0 -1.2 0
1.104 -0.022 -1.79 -0 -1.2 0
1.156 -0.012 -1.86 -0 -1.2 0
1.192 -0.019 -1.91 -0 -1.2 0
1.245 -0.014 -1.982 -0 -1.2 0
1.283 -0.025 -2.033 -0 -1.2 0
1.336 -0.025 -2.106 -0 -1.2 0
1.4 -0.019 -2.192 -0 -1.2 0
1.455 -0.025 -2.266 -0 -1.2 0
1.515 -0.03 -2.347 -0 -1.2 0
1.581 -0.034 -2.436 -0 -1.2 0
1.657 -0.034 -2.54 -0 -1.2 0
1.741 -0.036 -2.653 -0 -1.2 0
1.829 -0.038 -2.774 -0 -1.2 0
1.936 -0.034 -2.918 -0 -1.2 0
2.037 -0.041 -3.055 -0 -1.2 0
2.15 -0.047 -3.208 -0 -1.2 0
2.31 -0.038 -3.424 -0 -1.2 0
2.453 -0.045 -3.617 -0 -1.2 0
2.562 -0.075 -3.764 -0 -1.2 0
2.712 -0.095 -3.966 -0 -1.2 0
2.874 -0.121 -4.184 -0 -1.2 0
3.083 -0.14 -4.466 -0 -1.2 0
3.309 -0.166 -4.771 -0 -1.2 0
3.572 -0.196 -5.125 -0 -1.2 0
3.888 -0.229 -5.551 -0 -1.2 0
4.269 -0.266 -6.066 -0 -1.2 0
4.78 -0.304 -6.756 -0 -1.2 0
5.392 -0.357 -7.583 -0 -1.2 0
6.337 -0.41 -8.86 -0 -1.2 0
8.241 -0.439 -11.44 -0 -1.2 0
9.468 -0.615 -13.093 -0 -1.2 0
11.344 -0.849 -15.619 -0 -1.2 0
13.659 -1.194 -18.734 -0 -1.2 0
11.401 -1.51 -15.647 -0 -1.2 0
11.204 -1.829 -15.357 -0 -1.2 0
11.171 -2.151 -15.289 -0 -1.2 0
11.212 -2.48 -15.319 -0 -1.2 0
11.802 -2.896 -16.088 -0 -1.2 0
11.954 -3.267 -16.267 -0 -1.2 0
6.426 -2.444 -8.829 -0 -1.2 0
6.4 -2.623 -8.78 -0 -1.2 0
4.941 -2.414 -6.816 -0 -1.2 0
5.657 -2.773 -7.762 -0 -1.2 0
5.204 -2.788 -7.145 -0 -1.2 0
4.245 -2.595 -5.859 -0 -1.2 0
5.276 -3.123 -7.219 -0 -1.2 0
4.915 -3.127 -6.728 -0 -1.2 0
4.874 -3.256 -6.664 -0 -1.2 0
13.57 -7.588 -18.135 -0 -1.2 0
4.56 -3.388 -6.227 -0 -1.2 0
3.529 -2.967 -4.86 -0 -1.2 0
3.472 -3.042 -4.778 -0 -1.2 0
3.415 -3.114 -4.695 -0 -1.2 0
4.003 -3.597 -5.457 -0 -1.2 0
4.093 -3.784 -5.565 -0 -1.2 0
5.378 -4.819 -7.229 -0 -1.2 0
4.532 -4.372 -6.116 -0 -1.2 0
6.097 -5.728 -8.139 -0 -1.2 0
4.449 -4.606 -5.986 -0 -1.2 0
3.312 -3.8 -4.504 -0 -1.2 0
3.222 -3.836 -4.38 -0 -1.2 0
3.149 -3.88 -4.276 -0 -1.2 0
3.913 -4.715 -5.251 -0 -1.2 0
3.958 -4.901 -5.298 -0 -1.2 0
3.969 -5.057 -5.301 -0 -1.2 0
4.297 -5.555 -5.709 -0 -1.2 0
4.439 -5.875 -5.878 -0 -1.2 0
3.64 -5.138 -4.849 -0 -1.2 0
4.551 -6.359 -5.993 -0 -1.2 0
4.302 -6.242 -5.665 -0 -1.2 0
5.234 -7.601 -6.827 -0 -1.2 0
4.496 -6.859 -5.881 -0 -1.2 0
4.654 -7.272 -6.066 -0 -1.2 0
3.447 -5.792 -4.539 -0 -1.2 0
4.036 -6.805 -5.263 -0 -1.2 0
4.003 -6.948 -5.208 -0 -1.2 0
3.974 -7.097 -5.156 -0 -1.2 0
0.657 -0.018 -1.243 -0 -1.2 0
0.684 -0.008 -1.282 -0 -1.2 0
0.702 -0.014 -1.309 -0 -1.2 0
0.73 -0.007 -1.349 -0 -1.2 0
0.75 -0.015 -1.377 -0 -1.2 0
0.773 -0.016 -1.412 -0 -1.2 0
0.796 -0.02 -1.447 -0 -1.2 0
0.824 -0.017 -1.488 -0 -1.2 0
0.857 -0.01 -1.536 -0 -1.2 0
0.882 -0.018 -1.572 -0 -1.2 0
0.915 -0.014 -1.621 -0 -1.2 0
0.944 -0.018 -1.663 -0 -1.2 0
0.978 -0.018 -1.713 -0 -1.2 0
1.017 -0.014 -1.77 -0 -1.2 0
1.051 -0.017 -1.821 -0 -1.2 0
1.096 -0.013 -1.886 -0 -1.2 0
1.131 -0.02 -1.938 -0 -1.2 0
1.176 -0.019 -2.004 -0 -1.2 0
1.222 -0.022 -2.071 -0 -1.2 0
1.268 -0.026 -2.137 -0 -1.2 0
1.324 -0.025 -2.219 -0 -1.2 0
1.38 -0.027 -2.302 -0 -1.2 0
1.443 -0.027 -2.393 -0 -1.2 0
1.505 -0.032 -2.485 -0 -1.2 0
1.577 -0.032 -2.591 -0 -1.2 0
1.652 -0.037 -2.699 -0 -1.2 0
1.737 -0.039 -2.824 -0 -1.2 0
1.837 -0.036 -2.971 -0 -1.2 0
1.939 -0.04 -3.12 -0 -1.2 0
2.051 -0.043 -3.286 -0 -1.2 0
2.186 -0.043 -3.483 -0 -1.2 0
2.338 -0.043 -3.706 -0 -1.2 0
2.486 -0.054 -3.921 -0 -1.2 0
2.596 -0.09 -4.08 -0 -1.2 0
2.772 -0.108 -4.337 -0 -1.2 0
2.948 -0.136 -4.593 -0 -1.2 0
3.201 -0.151 -4.965 -0 -1.2 0
3.423 -0.19 -5.286 -0 -1.2 0
3.696 -0.231 -5.683 -0 -1.2 0
4.086 -0.264 -6.252 -0 -1.2 0
4.515 -0.313 -6.878 -0 -1.2 0
5.186 -0.353 -7.86 -0 -1.2 0
6.139 -0.403 -9.253 -0 -1.2 0
7.117 -0.508 -10.678 -0 -1.2 0
9.001 -0.625 -13.433 -0 -1.2 0
10.624 -0.864 -15.794 -0 -1.2 0
13.431 -1.212 -19.886 -0 -1.2 0
13.444 -1.624 -19.87 -0 -1.2 0
13.452 -2.037 -19.849 -0 -1.2 0
10.956 -2.197 -16.175 -0 -1.2 0
11.21 -2.565 -16.517 -0 -1.2 0
13.464 -3.274 -19.767 -0 -1.2 0
13.445 -3.682 -19.706 -0 -1.2 0
6.502 -2.539 -9.613 -0 -1.2 0
5.887 -2.58 -8.706 -0 -1.2 0
5.36 -2.609 -7.934 -0 -1.2 0
6.473 -3.126 -9.524 -0 -1.2 0
13.462 -5.761 -19.563 -0 -1.2 0
4.992 -2.963 -7.364 -0 -1.2 0
4.188 -2.786 -6.199 -0 -1.2 0
4.62 -3.107 -6.805 -0 -1.2 0
6.259 -4.031 -9.136 -0 -1.2 0
4.654 -3.414 -6.832 -0 -1.2 0
4.411 -3.431 -6.473 -0 -1.2 0
3.452 -3.023 -5.099 -0 -1.2 0
4.415 -3.718 -6.457 -0 -1.2 0
4.486 -3.906 -6.545 -0 -1.2 0
4.172 -3.843 -6.09 -0 -1.2 0
4.84 -4.453 -7.02 -0 -1.2 0
3.662 -3.744 -5.349 -0 -1.2 0
3.406 -3.67 -4.981 -0 -1.2 0
3.385 -3.768 -4.94 -0 -1.2 0
4.207 -4.582 -6.081 -0 -1.2 0
4.296 -4.81 -6.193 -0 -1.2 0
4.587 -5.234 -6.586 -0 -1.2 0
5.132 -5.924 -7.33 -0 -1.2 0
3.153 -4.145 -4.572 -0 -1.2 0
4.191 -5.498 -5.983 -0 -1.2 0
3.965 -5.411 -5.658 -0 -1.2 0
3.873 -5.463 -5.519 -0 -1.2 0
3.953 -5.718 -5.618 -0 -1.2 0
4.117 -6.085 -5.828 -0 -1.2 0
5.31 -7.794 -7.44 -0 -1.2 0
3.932 -6.196 -5.548 -0 -1.2 0
4.373 -6.977 -6.132 -0 -1.2 0
4.687 -7.625 -6.54 -0 -1.2 0
4.641 -7.778 -6.459 -0 -1.2 0
3.889 -6.862 -5.432 -0 -1.2 0
4.569 -8.122 -6.326 -0 -1.2 0
4.014 -7.456 -5.567 -0 -1.2 0
0.631 -0.004 -1.259 -0 -1.2 0
0.649 -0.009 -1.287 -0 -1.2 0
0.667 -0.015 -1.316 -0 -1.2 0
0.693 -0.008 -1.357 -0 -1.2 0
0.715 -0.008 -1.392 -0 -1.2 0
0.734 -0.017 -1.419 -0 -1.2 0
0.76 -0.013 -1.461 -0 -1.2 0
0.787 -0.012 -1.504 -0 -1.2 0
0.81 -0.017 -1.54 -0 -1.2 0
0.837 -0.019 -1.583 -0 -1.2 0
0.864 -0.021 -1.626 -0 -1.2 0
0.9 -0.013 -1.684 -0 -1.2 0
0.929 -0.018 -1.728 -0 -1.2 0
0.966 -0.015 -1.787 -0 -1.2 0
0.998 -0.018 -1.838 -0 -1.2 0
1.04 -0.014 -1.905 -0 -1.2 0
1.078 -0.016 -1.965 -0 -1.2 0
1.116 -0.02 -2.025 -0 -1.2 0
1.16 -0.023 -2.093 -0 -1.2 0
1.203 -0.027 -2.162 -0 -1.2 0
1.261 -0.022 -2.254 -0 -1.2 0
1.314 -0.024 -2.338 -0 -1.2 0
1.369 -0.028 -2.424 -0 -1.2 0
1.428 -0.033 -2.517 -0 -1.2 0
1.503 -0.03 -2.634 -0 -1.2 0
1.567 -0.039 -2.737 -0 -1.2 0
1.643 -0.044 -2.856 -0 -1.2 0
1.743 -0.038 -3.016 -0 -1.2 0
1.835 -0.045 -3.159 -0 -1.2 0
1.952 -0.043 -3.344 -0 -1.2 0
2.075 -0.045 -3.539 -0 -1.2 0
2.229 -0.039 -3.783 -0 -1.2 0
2.384 -0.045 -4.028 -0 -1.2 0
2.525 -0.066 -4.248 -0 -1.2 0
2.635 -0.108 -4.419 -0 -1.2 0
2.839 -0.123 -4.741 -0 -1.2 0
3.018 -0.16 -5.02 -0 -1.2 0
3.286 -0.183 -5.442 -0 -1.2 0
3.523 -0.23 -5.814 -0 -1.2 0
3.915 -0.259 -6.43 -0 -1.2 0
4.286 -0.317 -7.012 -0 -1.2 0
5.002 -0.346 -8.142 -0 -1.2 0
5.948 -0.393 -9.635 -0 -1.2 0
6.946 -0.497 -11.204 -0 -1.2 0
8.724 -0.623 -14.004 -0 -1.2 0
10.025 -0.875 -16.039 -0 -1.2 0
13.337 -1.23 -21.247 -0 -1.2 0
13.351 -1.662 -21.231 -0 -1.2 0
13.36 -2.093 -21.208 -0 -1.2 0
13.468 -2.535 -21.34 -0 -1.2 0
13.658 -2.996 -21.6 -0 -1.2 0
13.575 -3.421 -21.432 -0 -1.2 0
13.37 -3.816 -21.074 -0 -1.2 0
5.798 -2.455 -9.218 -0 -1.2 0
5.814 -2.644 -9.225 -0 -1.2 0
5.107 -2.617 -8.109 -0 -1.2 0
6.329 -3.19 -9.993 -0 -1.2 0
14.257 -6.31 -22.257 -0 -1.2 0
4.472 -2.856 -7.084 -0 -1.2 0
4.37 -2.958 -6.915 -0 -1.2 0
4.332 -3.081 -6.842 -0 -1.2 0
4.291 -3.203 -6.769 -0 -1.2 0
4.219 -3.307 -6.644 -0 -1.2 0
4.98 -3.88 -7.799 -0 -1.2 0
4.378 -3.684 -6.863 -0 -1.2 0
3.478 -3.259 -5.478 -0 -1.2 0
4.356 -4.118 -6.792 -0 -1.2 0
5.255 -4.939 -8.141 -0 -1.2 0
4.091 -4.217 -6.363 -0 -1.2 0
3.437 -3.828 -5.363 -0 -1.2 0
3.37 -3.895 -5.251 -0 -1.2 0
3.318 -3.971 -5.162 -0 -1.2 0
3.275 -4.054 -5.086 -0 -1.2 0
4.693 -5.55 -7.2 -0 -1.2 0
6.381 -7.429 -9.704 -0 -1.2 0
4.194 -5.555 -6.409 -0 -1.2 0
4.83 -6.642 -7.32 -0 -1.2 0
4.44 -6.372 -6.728 -0 -1.2 0
5.447 -7.827 -8.192 -0 -1.2 0
4.382 -6.68 -6.608 -0 -1.2 0
4.896 -7.568 -7.343 -0 -1.2 0
4.028 -6.582 -6.057 -0 -1.2 0
4.104 -6.879 -6.151 -0 -1.2 0
4.089 -7.054 -6.112 -0 -1.2 0
3.606 -6.509 -5.395 -0 -1.2 0
4.019 -7.348 -5.976 -0 -1.2 0
4.007 -7.535 -5.939 -0 -1.2 0
3.958 -7.668 -5.852 -0 -1.2 0
0.596 -0.005 -1.264 -0 -1.2 0
0.616 -0.003 -1.299 -0 -1.2 0
0.634 -0.008 -1.328 -0 -1.2 0
0.655 -0.009 -1.363 -0 -1.2 0
0.676 -0.009 -1.399 -0 -1.2 0
0.697 -0.012 -1.435 -0 -1.2 0
0.718 -0.014 -1.471 -0 -1.2 0
0.747 -0.007 -1.521 -0 -1.2 0
0.765 -0.018 -1.551 -0 -1.2 0
0.795 -0.013 -1.602 -0 -1.2 0
0.821 -0.016 -1.647 -0 -1.2 0
0.851 -0.014 -1.699 -0 -1.2 0
0.877 -0.019 -1.743 -0 -1.2 0
0.912 -0.016 -1.802 -0 -1.2 0
0.947 -0.014 -1.863 -0 -1.2 0
0.983 -0.015 -1.924 -0 -1.2 0
1.023 -0.012 -1.992 -0 -1.2 0
1.06 -0.017 -2.054 -0 -1.2 0
1.1 -0.019 -2.124 -0 -1.2 0
1.146 -0.02 -2.202 -0 -1.2 0
1.196 -0.019 -2.288 -0 -1.2 0
1.247 -0.021 -2.375 -0 -1.2 0
1.303 -0.023 -2.47 -0 -1.2 0
1.368 -0.019 -2.581 -0 -1.2 0
1.425 -0.028 -2.677 -0 -1.2 0
1.49 -0.033 -2.79 -0 -1.2 0
1.562 -0.039 -2.911 -0 -1.2 0
1.648 -0.04 -3.058 -0 -1.2 0
1.743 -0.04 -3.221 -0 -1.2 0
1.849 -0.042 -3.402 -0 -1.2 0
1.98 -0.037 -3.626 -0 -1.2 0
2.102 -0.045 -3.833 -0 -1.2 0
2.272 -0.038 -4.125 -0 -1.2 0
2.429 -0.048 -4.393 -0 -1.2 0
2.554 -0.085 -4.602 -0 -1.2 0
2.713 -0.115 -4.87 -0 -1.2 0
2.877 -0.155 -5.147 -0 -1.2 0
3.115 -0.184 -5.554 -0 -1.2 0
3.395 -0.217 -6.028 -0 -1.2 0
3.745 -0.253 -6.622 -0 -1.2 0
4.131 -0.306 -7.277 -0 -1.2 0
4.353 -0.413 -7.647 -0 -1.2 0
4.41 -0.555 -7.73 -0 -1.2 0
4.43 -0.704 -7.751 -0 -1.2 0
8.382 -0.625 -14.512 -0 -1.2 0
9.321 -0.891 -16.091 -0 -1.2 0
9.334 -1.209 -16.084 -0 -1.2 0
9.37 -1.528 -16.116 -0 -1.2 0
9.378 -1.848 -16.099 -0 -1.2 0
9.444 -2.175 -16.181 -0 -1.2 0
6.984 -2.129 -11.98 -0 -1.2 0
13.266 -3.515 -22.586 -0 -1.2 0
4.373 -2.033 -7.527 -0 -1.2 0
4.34 -2.172 -7.457 -0 -1.2 0
4.296 -2.305 -7.369 -0 -1.2 0
3.876 -2.315 -6.65 -0 -1.2 0
6.174 -3.262 -10.489 -0 -1.2 0
4.703 -2.899 -8.009 -0 -1.2 0
6.44 -3.798 -10.893 -0 -1.2 0
13.277 -7.162 -22.259 -0 -1.2 0
4.054 -3.061 -6.884 -0 -1.2 0
13.273 -8.091 -22.166 -0 -1.2 0
3.736 -3.163 -6.331 -0 -1.2 0
3.43 -3.109 -5.814 -0 -1.2 0
4.313 -3.792 -7.258 -0 -1.2 0
4.216 -3.881 -7.084 -0 -1.2 0
4.918 -4.711 -8.206 -0 -1.2 0
4.429 -4.508 -7.389 -0 -1.2 0
4.875 -5.04 -8.1 -0 -1.2 0
4.05 -4.511 -6.738 -0 -1.2 0
2.743 -3.489 -4.604 -0 -1.2 0
2.698 -3.55 -4.519 -0 -1.2 0
2.661 -3.617 -4.451 -0 -1.2 0
3.083 -4.152 -5.12 -0 -1.2 0
3.58 -4.803 -5.908 -0 -1.2 0
3.469 -4.826 -5.717 -0 -1.2 0
3.359 -4.843 -5.527 -0 -1.2 0
3.392 -5.025 -5.567 -0 -1.2 0
3.211 -4.946 -5.264 -0 -1.2 0
3.137 -4.991 -5.133 -0 -1.2 0
3.458 -5.557 -5.631 -0 -1.2 0
2.751 -4.744 -4.498 -0 -1.2 0
3.776 -6.326 -6.099 -0 -1.2 0
5.142 -8.513 -8.228 -0 -1.2 0
3.612 -6.44 -5.808 -0 -1.2 0
3.598 -6.599 -5.769 -0 -1.2 0
3.533 -6.678 -5.651 -0 -1.2 0
3.824 -7.352 -6.086 -0 -1.2 0
3.739 -7.409 -5.933 -0 -1.2 0
4.241 -8.517 -6.687 -0 -1.2 0
0.561 0.001 -1.274 -0 -1.2 0
0.576 -0.003 -1.304 -0 -1.2 0
0.592 -0.009 -1.333 -0 -1.2 0
0.612 -0.01 -1.369 -0 -1.2 0
0.631 -0.01 -1.406 -0 -1.2 0
0.652 -0.013 -1.442 -0 -1.2 0
0.678 -0.003 -1.493 -0 -1.2 0
0.701 -0.002 -1.538 -0 -1.2 0
0.723 -0.007 -1.575 -0 -1.2 0
0.747 -0.009 -1.62 -0 -1.2 0
0.771 -0.011 -1.665 -0 -1.2 0
0.799 -0.01 -1.718 -0 -1.2 0
0.824 -0.016 -1.764 -0 -1.2 0
0.856 -0.012 -1.825 -0 -1.2 0
0.889 -0.011 -1.887 -0 -1.2 0
0.923 -0.012 -1.949 -0 -1.2 0
0.96 -0.009 -2.019 -0 -1.2 0
0.998 -0.009 -2.09 -0 -1.2 0
1.041 -0.008 -2.169 -0 -1.2 0
1.075 -0.018 -2.233 -0 -1.2 0
1.127 -0.013 -2.329 -0 -1.2 0
1.17 -0.02 -2.41 -0 -1.2 0
1.23 -0.013 -2.523 -0 -1.2 0
1.284 -0.018 -2.62 -0 -1.2 0
1.345 -0.02 -2.735 -0 -1.2 0
1.406 -0.026 -2.85 -0 -1.2 0
1.478 -0.029 -2.983 -0 -1.2 0
1.554 -0.034 -3.124 -0 -1.2 0
1.644 -0.037 -3.292 -0 -1.2 0
1.752 -0.032 -3.494 -0 -1.2 0
1.865 -0.034 -3.704 -0 -1.2 0
2.001 -0.03 -3.959 -0 -1.2 0
2.148 -0.032 -4.232 -0 -1.2 0
2.314 -0.036 -4.541 -0 -1.2 0
2.462 -0.059 -4.815 -0 -1.2 0
2.592 -0.101 -5.054 -0 -1.2 0
2.756 -0.14 -5.355 -0 -1.2 0
3.008 -0.162 -5.822 -0 -1.2 0
3.293 -0.193 -6.35 -0 -1.2 0
3.621 -0.235 -6.958 -0 -1.2 0
3.992 -0.292 -7.644 -0 -1.2 0
4.135 -0.415 -7.899 -0 -1.2 0
4.146 -0.565 -7.905 -0 -1.2 0
4.152 -0.716 -7.9 -0 -1.2 0
4.161 -0.867 -7.902 -0 -1.2 0
4.149 -1.017 -7.865 -0 -1.2 0
4.156 -1.166 -7.861 -0 -1.2 0
4.161 -1.315 -7.856 -0 -1.2 0
4.16 -1.465 -7.839 -0 -1.2 0
4.164 -1.614 -7.829 -0 -1.2 0
4.16 -1.762 -7.808 -0 -1.2 0
4.161 -1.911 -7.793 -0 -1.2 0
4.174 -2.064 -7.803 -0 -1.2 0
4.167 -2.211 -7.775 -0 -1.2 0
4.178 -2.364 -7.779 -0 -1.2 0
3.695 -2.347 -6.881 -0 -1.2 0
3.67 -2.471 -6.823 -0 -1.2 0
3.485 -2.525 -6.472 -0 -1.2 0
3.417 -2.62 -6.334 -0 -1.2 0
3.634 -2.851 -6.717 -0 -1.2 0
3.648 -2.991 -6.728 -0 -1.2 0
3.591 -3.092 -6.611 -0 -1.2 0
3.361 -3.085 -6.182 -0 -1.2 0
3.511 -3.307 -6.44 -0 -1.2 0
4.185 -3.899 -7.638 -0 -1.2 0
3.975 -3.906 -7.244 -0 -1.2 0
4.214 -4.24 -7.655 -0 -1.2 0
2.772 -3.355 -5.056 -0 -1.2 0
2.757 -3.449 -5.019 -0 -1.2 0
4.036 -4.737 -7.271 -0 -1.2 0
3.864 -4.735 -6.952 -0 -1.2 0
3.786 -4.814 -6.799 -0 -1.2 0
3.001 -4.148 -5.402 -0 -1.2 0
3.464 -4.778 -6.201 -0 -1.2 0
3.42 -4.877 -6.11 -0 -1.2 0
3.291 -4.871 -5.869 -0 -1.2 0
3.336 -5.07 -5.934 -0 -1.2 0
4.885 -7.187 -8.605 -0 -1.2 0
2.952 -4.866 -5.238 -0 -1.2 0
2.764 -4.745 -4.899 -0 -1.2 0
4.572 -7.43 -7.998 -0 -1.2 0
4.713 -7.857 -8.216 -0 -1.2 0
4.715 -8.095 -8.197 -0 -1.2 0
3.045 -5.721 -5.325 -0 -1.2 0
4.14 -7.649 -7.17 -0 -1.2 0
3.976 -7.81 -6.848 -0 -1.2 0
4.247 -8.514 -7.281 -0 -1.2 0
4.031 -8.36 -6.893 -0 -1.2 0
0.524 -0.008 -1.27 -0 -1.2 0
0.538 -0.013 -1.3 -0 -1.2 0
0.559 -0.005 -1.343 -0 -1.2 0
0.578 -0.006 -1.38 -0 -1.2 0
0.596 -0.006 -1.417 -0 -1.2 0
0.614 -0.009 -1.454 -0 -1.2 0
0.637 -0.006 -1.499 -0 -1.2 0
0.659 -0.005 -1.544 -0 -1.2 0
0.678 -0.011 -1.582 -0 -1.2 0
0.7 -0.012 -1.627 -0 -1.2 0
0.727 -0.009 -1.681 -0 -1.2 0
0.75 -0.013 -1.727 -0 -1.2 0
0.777 -0.014 -1.782 -0 -1.2 0
0.804 -0.016 -1.836 -0 -1.2 0
0.835 -0.015 -1.899 -0 -1.2 0
0.866 -0.016 -1.962 -0 -1.2 0
0.901 -0.014 -2.034 -0 -1.2 0
0.941 -0.01 -2.114 -0 -1.2 0
0.976 -0.013 -2.186 -0 -1.2 0
1.016 -0.014 -2.267 -0 -1.2 0
1.065 -0.01 -2.365 -0 -1.2 0
1.106 -0.017 -2.447 -0 -1.2 0
1.155 -0.019 -2.546 -0 -1.2 0
1.212 -0.017 -2.662 -0 -1.2 0
1.266 -0.023 -2.77 -0 -1.2 0
1.32 -0.032 -2.879 -0 -1.2 0
1.392 -0.033 -3.022 -0 -1.2 0
1.462 -0.039 -3.166 -0 -1.2 0
1.551 -0.038 -3.345 -0 -1.2 0
1.644 -0.04 -3.533 -0 -1.2 0
1.754 -0.039 -3.756 -0 -1.2 0
1.886 -0.035 -4.024 -0 -1.2 0
2.024 -0.038 -4.302 -0 -1.2 0
2.196 -0.033 -4.651 -0 -1.2 0
2.374 -0.041 -5.009 -0 -1.2 0
2.493 -0.087 -5.245 -0 -1.2 0
2.646 -0.129 -5.551 -0 -1.2 0
2.84 -0.17 -5.937 -0 -1.2 0
3.133 -0.196 -6.528 -0 -1.2 0
3.476 -0.231 -7.217 -0 -1.2 0
3.956 -0.265 -8.184 -0 -1.2 0
4.766 -0.277 -9.822 -0 -1.2 0
5.474 -0.367 -11.246 -0 -1.2 0
6.578 -0.475 -13.466 -0 -1.2 0
7.923 -0.654 -16.167 -0 -1.2 0
6.111 -2.173 -12.336 -0 -1.2 0
6.415 -2.474 -12.918 -0 -1.2 0
5.845 -2.574 -11.752 -0 -1.2 0
5.753 -2.772 -11.545 -0 -1.2 0
3.947 -2.39 -7.936 -0 -1.2 0
4.374 -2.699 -8.766 -0 -1.2 0
3.343 -2.443 -6.709 -0 -1.2 0
3.197 -2.505 -6.404 -0 -1.2 0
2.89 -2.476 -5.787 -0 -1.2 0
2.932 -2.609 -5.858 -0 -1.2 0
2.999 -2.761 -5.978 -0 -1.2 0
3.07 -2.921 -6.102 -0 -1.2 0
3.095 -3.057 -6.139 -0 -1.2 0
3.803 -3.668 -7.505 -0 -1.2 0
4.036 -3.991 -7.942 -0 -1.2 0
2.887 -3.265 -5.697 -0 -1.2 0
3.955 -4.251 -7.748 -0 -1.2 0
2.742 -3.373 -5.39 -0 -1.2 0
3.972 -4.592 -7.745 -0 -1.2 0
3.972 -4.758 -7.727 -0 -1.2 0
3.983 -4.937 -7.73 -0 -1.2 0
3.097 -4.196 -6.018 -0 -1.2 0
3.406 -4.661 -6.593 -0 -1.2 0
3.503 -4.918 -6.761 -0 -1.2 0
3.971 -5.619 -7.631 -0 -1.2 0
4.479 -6.413 -8.571 -0 -1.2 0
3.233 -5.052 -6.2 -0 -1.2 0
3.107 -5.038 -5.946 -0 -1.2 0
4.048 -6.461 -7.697 -0 -1.2 0
3.14 -5.381 -5.976 -0 -1.2 0
3.002 -5.334 -5.703 -0 -1.2 0
3 -5.481 -5.683 -0 -1.2 0
2.959 -5.57 -5.591 -0 -1.2 0
3.926 -7.281 -7.359 -0 -1.2 0
2.927 -5.827 -5.498 -0 -1.2 0
2.839 -5.835 -5.319 -0 -1.2 0
3.876 -7.836 -7.197 -0 -1.2 0
3.909 -8.119 -7.232 -0 -1.2 0
3.782 -8.107 -6.977 -0 -1.2 0
3.691 -8.157 -6.787 -0 -1.2 0
0.49 -0.012 -1.268 -0 -1.2 0
0.506 -0.009 -1.305 -0 -1.2 0
0.528 0.004 -1.356 -0 -1.2 0
0.54 -0.009 -1.38 -0 -1.2 0
0.557 -0.01 -1.418 -0 -1.2 0
0.577 -0.007 -1.463 -0 -1.2 0
0.598 -0.003 -1.508 -0 -1.2 0
0.616 -0.009 -1.547 -0 -1.2 0
0.637 -0.009 -1.593 -0 -1.2 0
0.659 -0.01 -1.64 -0 -1.2 0
0.68 -0.013 -1.687 -0 -1.2 0
0.705 -0.013 -1.742 -0 -1.2 0
0.733 -0.007 -1.805 -0 -1.2 0
0.762 -0.005 -1.868 -0 -1.2 0
0.785 -0.015 -1.916 -0 -1.2 0
0.817 -0.011 -1.989 -0 -1.2 0
0.843 -0.019 -2.044 -0 -1.2 0
0.88 -0.015 -2.126 -0 -1.2 0
0.92 -0.009 -2.216 -0 -1.2 0
0.951 -0.02 -2.282 -0 -1.2 0
0.996 -0.016 -2.381 -0 -1.2 0
1.041 -0.015 -2.481 -0 -1.2 0
1.087 -0.018 -2.582 -0 -1.2 0
1.138 -0.02 -2.691 -0 -1.2 0
1.191 -0.023 -2.81 -0 -1.2 0
1.246 -0.03 -2.928 -0 -1.2 0
1.312 -0.031 -3.074 -0 -1.2 0
1.386 -0.032 -3.238 -0 -1.2 0
1.465 -0.035 -3.411 -0 -1.2 0
1.556 -0.036 -3.611 -0 -1.2 0
1.66 -0.036 -3.838 -0 -1.2 0
1.772 -0.041 -4.084 -0 -1.2 0
1.908 -0.04 -4.384 -0 -1.2 0
2.069 -0.038 -4.737 -0 -1.2 0
2.247 -0.04 -5.129 -0 -1.2 0
2.394 -0.073 -5.449 -0 -1.2 0
2.522 -0.126 -5.724 -0 -1.2 0
2.732 -0.159 -6.179 -0 -1.2 0
3.015 -0.187 -6.798 -0 -1.2 0
3.384 -0.215 -7.607 -0 -1.2 0
3.854 -0.252 -8.634 -0 -1.2 0
4.62 -0.274 -10.316 -0 -1.2 0
5.385 -0.361 -11.989 -0 -1.2 0
6.463 -0.481 -14.343 -0 -1.2 0
7.726 -0.682 -17.095 -0 -1.2 0
5.734 -2.21 -12.541 -0 -1.2 0
5.349 -2.354 -11.676 -0 -1.2 0
5.673 -2.664 -12.353 -0 -1.2 0
4.089 -2.388 -8.904 -0 -1.2 0
3.737 -2.426 -8.126 -0 -1.2 0
3.032 -2.294 -6.59 -0 -1.2 0
3.704 -2.717 -8.02 -0 -1.2 0
5.017 -3.51 -10.811 -0 -1.2 0
5.012 -3.714 -10.776 -0 -1.2 0
3.919 -3.297 -8.425 -0 -1.2 0
3.004 -3.022 -6.445 -0 -1.2 0
3.724 -3.651 -7.953 -0 -1.2 0
3.41 -3.574 -7.271 -0 -1.2 0
2.775 -3.22 -5.918 -0 -1.2 0
3.586 -4.011 -7.608 -0 -1.2 0
2.624 -3.324 -5.573 -0 -1.2 0
4.143 -4.836 -8.737 -0 -1.2 0
2.419 -3.353 -5.12 -0 -1.2 0
3.808 -4.864 -7.997 -0 -1.2 0
2.366 -3.511 -4.985 -0 -1.2 0
2.337 -3.584 -4.912 -0 -1.2 0
4.08 -5.697 -8.497 -0 -1.2 0
3.124 -4.742 -6.508 -0 -1.2 0
3.256 -5.054 -6.762 -0 -1.2 0
3.641 -5.71 -7.531 -0 -1.2 0
3.015 -5.044 -6.233 -0 -1.2 0
4.017 -6.591 -8.253 -0 -1.2 0
2.9 -5.177 -5.964 -0 -1.2 0
2.812 -5.192 -5.769 -0 -1.2 0
2.809 -5.333 -5.745 -0 -1.2 0
2.807 -5.48 -5.726 -0 -1.2 0
2.759 -5.549 -5.61 -0 -1.2 0
3.769 -7.442 -7.611 -0 -1.2 0
2.674 -5.706 -5.405 -0 -1.2 0
2.569 -5.664 -5.178 -0 -1.2 0
2.511 -5.708 -5.049 -0 -1.2 0
2.476 -5.787 -4.96 -0 -1.2 0
2.582 -6.155 -5.151 -0 -1.2 0
3.219 -7.651 -6.376 -0 -1.2 0
3.16 -7.735 -6.237 -0 -1.2 0
0.458 0 -1.28 -0 -1.2 0
0.47 -0.006 -1.311 -0 -1.2 0
0.489 0 -1.356 -0 -1.2 0
0.501 -0.006 -1.387 -0 -1.2 0
0.52 -0.001 -1.433 -0 -1.2 0
0.537 -0.003 -1.471 -0 -1.2 0
0.556 -0.001 -1.518 -0 -1.2 0
0.575 0 -1.565 -0 -1.2 0
0.595 -0.001 -1.612 -0 -1.2 0
0.614 -0.003 -1.659 -0 -1.2 0
0.637 -0.001 -1.715 -0 -1.2 0
0.658 -0.006 -1.763 -0 -1.2 0
0.681 -0.007 -1.818 -0 -1.2 0
0.707 -0.005 -1.883 -0 -1.2 0
0.734 -0.004 -1.948 -0 -1.2 0
0.761 -0.007 -2.013 -0 -1.2 0
0.794 -0.001 -2.095 -0 -1.2 0
0.826 -0.002 -2.17 -0 -1.2 0
0.854 -0.011 -2.237 -0 -1.2 0
0.895 -0.005 -2.337 -0 -1.2 0
0.933 -0.006 -2.43 -0 -1.2 0
0.976 -0.005 -2.532 -0 -1.2 0
1.014 -0.013 -2.625 -0 -1.2 0
1.061 -0.017 -2.737 -0 -1.2 0
1.118 -0.013 -2.875 -0 -1.2 0
1.176 -0.014 -3.013 -0 -1.2 0
1.24 -0.013 -3.17 -0 -1.2 0
1.302 -0.022 -3.319 -0 -1.2 0
1.382 -0.021 -3.512 -0 -1.2 0
1.466 -0.024 -3.716 -0 -1.2 0
1.566 -0.024 -3.956 -0 -1.2 0
1.677 -0.025 -4.223 -0 -1.2 0
1.803 -0.027 -4.528 -0 -1.2 0
1.955 -0.026 -4.897 -0 -1.2 0
2.15 -0.017 -5.367 -0 -1.2 0
2.3 -0.047 -5.729 -0 -1.2 0
2.426 -0.101 -6.028 -0 -1.2 0
2.638 -0.133 -6.536 -0 -1.2 0
2.931 -0.158 -7.239 -0 -1.2 0
3.292 -0.19 -8.106 -0 -1.2 0
3.883 -0.2 -9.537 -0 -1.2 0
4.615 -0.237 -11.3 -0 -1.2 0
5.396 -0.335 -13.175 -0 -1.2 0
6.419 -0.478 -15.629 -0 -1.2 0
8.502 -0.659 -20.641 -0 -1.2 0
4.96 -2.172 -11.89 -0 -1.2 0
4.985 -2.398 -11.921 -0 -1.2 0
3.869 -2.273 -9.241 -0 -1.2 0
2.73 -2.041 -6.516 -0 -1.2 0
4.982 -3.058 -11.831 -0 -1.2 0
3.168 -2.473 -7.52 -0 -1.2 0
3.89 -2.965 -9.203 -0 -1.2 0
3.383 -2.867 -7.989 -0 -1.2 0
5.091 -4.008 -11.974 -0 -1.2 0
3.683 -3.355 -8.654 -0 -1.2 0
3.709 -3.537 -8.693 -0 -1.2 0
2.772 -3.032 -6.493 -0 -1.2 0
3.438 -3.665 -8.023 -0 -1.2 0
2.502 -3.063 -5.837 -0 -1.2 0
5.669 -5.891 -13.133 -0 -1.2 0
2.578 -3.359 -5.982 -0 -1.2 0
3.616 -4.466 -8.351 -0 -1.2 0
4.016 -5.036 -9.246 -0 -1.2 0
3.28 -4.454 -7.539 -0 -1.2 0
10.12 -12.618 -23.041 -0 -1.2 0
2.151 -3.577 -4.922 -0 -1.2 0
2.203 -3.747 -5.026 -0 -1.2 0
2.2 -3.852 -5.006 -0 -1.2 0
4.088 -6.515 -9.233 -0 -1.2 0
3.394 -5.752 -7.652 -0 -1.2 0
2.786 -5.042 -6.272 -0 -1.2 0
2.764 -5.157 -6.205 -0 -1.2 0
3.482 -6.622 -7.755 -0 -1.2 0
2.512 -5.185 -5.591 -0 -1.2 0
3.234 -6.584 -7.162 -0 -1.2 0
2.564 -5.566 -5.671 -0 -1.2 0
2.848 -6.245 -6.271 -0 -1.2 0
2.45 -5.652 -5.385 -0 -1.2 0
2.926 -6.748 -6.397 -0 -1.2 0
2.888 -6.853 -6.289 -0 -1.2 0
2.417 -6.042 -5.254 -0 -1.2 0
2.341 -6.035 -5.072 -0 -1.2 0
2.306 -6.113 -4.977 -0 -1.2 0
2.279 -6.21 -4.899 -0 -1.2 0
0.424 0.003 -1.285 -0 -1.2 0
0.435 -0.009 -1.31 -0 -1.2 0
0.453 0.004 -1.362 -0 -1.2 0
0.467 0.003 -1.401 -0 -1.2 0
0.483 0.001 -1.44 -0 -1.2 0
0.498 -0.001 -1.479 -0 -1.2 0
0.513 -0.005 -1.519 -0 -1.2 0
0.528 -0.011 -1.559 -0 -1.2 0
0.549 -0.005 -1.614 -0 -1.2 0
0.57 -0.001 -1.67 -0 -1.2 0
0.591 0 -1.726 -0 -1.2 0
0.609 -0.005 -1.774 -0 -1.2 0
0.63 -0.006 -1.831 -0 -1.2 0
0.656 -0.004 -1.897 -0 -1.2 0
0.68 -0.004 -1.963 -0 -1.2 0
0.708 -0.002 -2.037 -0 -1.2 0
0.733 -0.006 -2.104 -0 -1.2 0
0.765 -0.003 -2.188 -0 -1.2 0
0.793 -0.008 -2.264 -0 -1.2 0
0.828 -0.006 -2.358 -0 -1.2 0
0.867 -0.003 -2.459 -0 -1.2 0
0.906 -0.004 -2.563 -0 -1.2 0
0.948 -0.005 -2.675 -0 -1.2 0
0.988 -0.013 -2.78 -0 -1.2 0
1.038 -0.013 -2.911 -0 -1.2 0
1.097 -0.009 -3.069 -0 -1.2 0
1.147 -0.019 -3.201 -0 -1.2 0
1.214 -0.018 -3.379 -0 -1.2 0
1.291 -0.015 -3.584 -0 -1.2 0
1.369 -0.019 -3.79 -0 -1.2 0
1.46 -0.021 -4.033 -0 -1.2 0
1.563 -0.024 -4.305 -0 -1.2 0
1.696 -0.017 -4.659 -0 -1.2 0
1.837 -0.018 -5.034 -0 -1.2 0
1.999 -0.022 -5.464 -0 -1.2 0
2.206 -0.018 -6.015 -0 -1.2 0
2.348 -0.066 -6.383 -0 -1.2 0
2.523 -0.114 -6.843 -0 -1.2 0
2.841 -0.128 -7.684 -0 -1.2 0
3.181 -0.167 -8.582 -0 -1.2 0
3.78 -0.175 -10.172 -0 -1.2 0
4.469 -0.224 -11.996 -0 -1.2 0
5.308 -0.319 -14.212 -0 -1.2 0
6.629 -0.449 -17.7 -0 -1.2 0
6.295 -0.792 -16.767 -0 -1.2 0
5.216 -1.858 -13.757 -0 -1.2 0
5.19 -2.103 -13.654 -0 -1.2 0
4.854 -2.27 -12.739 -0 -1.2 0
4.654 -2.444 -12.184 -0 -1.2 0
3.614 -2.312 -9.441 -0 -1.2 0
2.491 -2.045 -6.496 -0 -1.2 0
4.547 -3.065 -11.814 -0 -1.2 0
2.864 -2.462 -7.431 -0 -1.2 0
4.815 -3.645 -12.449 -0 -1.2 0
3.142 -2.896 -8.107 -0 -1.2 0
4.77 -4.08 -12.269 -0 -1.2 0
3.977 -3.769 -10.208 -0 -1.2 0
2.576 -2.933 -6.597 -0 -1.2 0
2.545 -3.033 -6.502 -0 -1.2 0
3.178 -3.684 -8.097 -0 -1.2 0
2.279 -3.044 -5.794 -0 -1.2 0
2.264 -3.142 -5.742 -0 -1.2 0
2.824 -3.805 -7.139 -0 -1.2 0
3.416 -4.559 -8.61 -0 -1.2 0
3.57 -4.9 -8.972 -0 -1.2 0
3.048 -4.486 -7.641 -0 -1.2 0
3.264 -4.9 -8.158 -0 -1.2 0
3.424 -5.45 -8.509 -0 -1.2 0
2.003 -3.706 -4.97 -0 -1.2 0
3.255 -5.937 -7.993 -0 -1.2 0
2.587 -5.064 -6.339 -0 -1.2 0
2.929 -5.77 -7.15 -0 -1.2 0
2.804 -5.727 -6.822 -0 -1.2 0
2.584 -5.504 -6.269 -0 -1.2 0
3.441 -7.22 -8.313 -0 -1.2 0
2.375 -5.569 -5.706 -0 -1.2 0
2.948 -6.87 -7.049 -0 -1.2 0
2.304 -5.723 -5.497 -0 -1.2 0
3.266 -8.159 -7.718 -0 -1.2 0
2.595 -7.036 -6.091 -0 -1.2 0
3.239 -8.79 -7.559 -0 -1.2 0
0.386 0 -1.282 -0 -1.2 0
0.397 -0.006 -1.314 -0 -1.2 0
0.41 -0.006 -1.352 -0 -1.2 0
0.422 -0.013 -1.385 -0 -1.2 0
0.439 -0.002 -1.438 -0 -1.2 0
0.453 -0.005 -1.478 -0 -1.2 0
0.467 -0.009 -1.518 -0 -1.2 0
0.483 -0.008 -1.566 -0 -1.2 0
0.499 -0.009 -1.614 -0 -1.2 0
0.518 -0.005 -1.67 -0 -1.2 0
0.535 -0.009 -1.719 -0 -1.2 0
0.554 -0.01 -1.777 -0 -1.2 0
0.576 -0.006 -1.843 -0 -1.2 0
0.597 -0.009 -1.901 -0 -1.2 0
0.619 -0.009 -1.968 -0 -1.2 0
0.647 -0.002 -2.051 -0 -1.2 0
0.668 -0.011 -2.111 -0 -1.2 0
0.699 -0.005 -2.204 -0 -1.2 0
0.725 -0.009 -2.28 -0 -1.2 0
0.758 -0.008 -2.375 -0 -1.2 0
0.789 -0.009 -2.47 -0 -1.2 0
0.825 -0.01 -2.575 -0 -1.2 0
0.86 -0.016 -2.68 -0 -1.2 0
0.907 -0.008 -2.821 -0 -1.2 0
0.95 -0.013 -2.944 -0 -1.2 0
0.996 -0.02 -3.078 -0 -1.2 0
1.05 -0.021 -3.239 -0 -1.2 0
1.106 -0.027 -3.4 -0 -1.2 0
1.176 -0.025 -3.608 -0 -1.2 0
1.25 -0.027 -3.826 -0 -1.2 0
1.333 -0.029 -4.072 -0 -1.2 0
1.429 -0.031 -4.356 -0 -1.2 0
1.559 -0.017 -4.743 -0 -1.2 0
1.679 -0.027 -5.093 -0 -1.2 0
1.833 -0.028 -5.547 -0 -1.2 0
2.018 -0.029 -6.097 -0 -1.2 0
2.227 -0.038 -6.713 -0 -1.2 0
2.373 -0.099 -7.132 -0 -1.2 0
2.632 -0.131 -7.889 -0 -1.2 0
2.991 -0.16 -8.95 -0 -1.2 0
3.557 -0.172 -10.616 -0 -1.2 0
4.112 -0.247 -12.244 -0 -1.2 0
5.049 -0.324 -14.999 -0 -1.2 0
6.035 -0.496 -17.885 -0 -1.2 0
5.845 -0.831 -17.271 -0 -1.2 0
5.783 -1.144 -17.04 -0 -1.2 0
4.393 -2.294 -12.768 -0 -1.2 0
3.311 -2.169 -9.593 -0 -1.2 0
2.826 -2.156 -8.165 -0 -1.2 0
2.826 -2.303 -8.144 -0 -1.2 0
8.741 -5.341 -25.152 -0 -1.2 0
3.34 -2.873 -9.573 -0 -1.2 0
4.362 -3.657 -12.476 -0 -1.2 0
2.832 -2.893 -8.073 -0 -1.2 0
2.903 -3.09 -8.251 -0 -1.2 0
3.117 -3.404 -8.837 -0 -1.2 0
2.375 -2.966 -6.711 -0 -1.2 0
2.315 -3.039 -6.524 -0 -1.2 0
2.316 -3.161 -6.506 -0 -1.2 0
2.088 -3.063 -5.852 -0 -1.2 0
2.324 -3.416 -6.493 -0 -1.2 0
2.05 -3.243 -5.71 -0 -1.2 0
1.988 -3.284 -5.523 -0 -1.2 0
6.65 -8.972 -18.437 -0 -1.2 0
4.464 -6.606 -12.338 -0 -1.2 0
2.738 -4.592 -7.54 -0 -1.2 0
3.216 -5.402 -8.832 -0 -1.2 0
8.56 -13.218 -23.445 -0 -1.2 0
2.8 -5.153 -7.643 -0 -1.2 0
3.158 -5.871 -8.591 -0 -1.2 0
3.189 -6.108 -8.648 -0 -1.2 0
3.038 -6.232 -8.184 -0 -1.2 0
2.641 -5.706 -7.087 -0 -1.2 0
2.957 -6.46 -7.91 -0 -1.2 0
2.331 -5.443 -6.213 -0 -1.2 0
2.262 -5.455 -6.008 -0 -1.2 0
2.214 -5.504 -5.859 -0 -1.2 0
2.035 -5.271 -5.365 -0 -1.2 0
2.907 -7.328 -7.633 -0 -1.2 0
3.433 -8.726 -8.977 -0 -1.2 0
2.67 -7.182 -6.955 -0 -1.2 0
2.731 -7.524 -7.083 -0 -1.2 0
2.7 -7.651 -6.974 -0 -1.2 0
3.032 -8.712 -7.795 -0 -1.2 0
3.056 -9.259 -7.785 -0 -1.2 0
0.345 -0.003 -1.277 -0 -1.2 0
0.357 -0.002 -1.316 -0 -1.2 0
0.369 -0.002 -1.356 -0 -1.2 0
0.381 -0.004 -1.395 -0 -1.2 0
0.393 -0.006 -1.436 -0 -1.2 0
0.405 -0.009 -1.475 -0 -1.2 0
0.418 -0.013 -1.516 -0 -1.2 0
0.432 -0.012 -1.564 -0 -1.2 0
0.449 -0.008 -1.621 -0 -1.2 0
0.462 -0.016 -1.662 -0 -1.2 0
0.479 -0.014 -1.72 -0 -1.2 0
0.498 -0.009 -1.786 -0 -1.2 0
0.515 -0.011 -1.844 -0 -1.2 0
0.534 -0.014 -1.903 -0 -1.2 0
0.556 -0.009 -1.979 -0 -1.2 0
0.576 -0.013 -2.047 -0 -1.2 0
0.603 -0.002 -2.141 -0 -1.2 0
0.625 -0.011 -2.209 -0 -1.2 0
0.649 -0.015 -2.287 -0 -1.2 0
0.679 -0.01 -2.392 -0 -1.2 0
0.709 -0.012 -2.488 -0 -1.2 0
0.74 -0.014 -2.594 -0 -1.2 0
0.775 -0.015 -2.709 -0 -1.2 0
0.811 -0.016 -2.833 -0 -1.2 0
0.854 -0.015 -2.977 -0 -1.2 0
0.895 -0.021 -3.112 -0 -1.2 0
0.941 -0.026 -3.266 -0 -1.2 0
0.996 -0.027 -3.447 -0 -1.2 0
1.053 -0.032 -3.639 -0 -1.2 0
1.122 -0.032 -3.869 -0 -1.2 0
1.2 -0.033 -4.127 -0 -1.2 0
1.288 -0.034 -4.424 -0 -1.2 0
1.402 -0.025 -4.805 -0 -1.2 0
1.506 -0.038 -5.152 -0 -1.2 0
1.643 -0.04 -5.611 -0 -1.2 0
1.801 -0.048 -6.138 -0 -1.2 0
2.022 -0.04 -6.874 -0 -1.2 0
2.226 -0.068 -7.556 -0 -1.2 0
2.391 -0.137 -8.094 -0 -1.2 0
2.753 -0.156 -9.3 -0 -1.2 0
3.218 -0.19 -10.851 -0 -1.2 0
3.757 -0.263 -12.643 -0 -1.2 0
3.825 -0.481 -12.834 -0 -1.2 0
3.838 -0.711 -12.839 -0 -1.2 0
3.85 -0.941 -12.841 -0 -1.2 0
3.86 -1.17 -12.839 -0 -1.2 0
3.867 -1.4 -12.824 -0 -1.2 0
3.878 -1.63 -12.822 -0 -1.2 0
3.877 -1.858 -12.78 -0 -1.2 0
3.851 -2.079 -12.657 -0 -1.2 0
3.821 -2.295 -12.522 -0 -1.2 0
3.04 -2.223 -9.921 -0 -1.2 0
2.523 -2.174 -8.2 -0 -1.2 0
3.335 -2.723 -10.828 -0 -1.2 0
1.967 -2.155 -6.344 -0 -1.2 0
3.944 -3.483 -12.737 -0 -1.2 0
2.571 -2.787 -8.26 -0 -1.2 0
2.496 -2.882 -7.996 -0 -1.2 0
2.778 -3.249 -8.874 -0 -1.2 0
2.147 -2.872 -6.826 -0 -1.2 0
2.835 -3.624 -9.004 -0 -1.2 0
3.088 -4.037 -9.782 -0 -1.2 0
2.602 -3.716 -8.208 -0 -1.2 0
4.008 -5.41 -12.635 -0 -1.2 0
4.002 -5.643 -12.576 -0 -1.2 0
2.761 -4.374 -8.633 -0 -1.2 0
1.83 -3.35 -5.689 -0 -1.2 0
1.773 -3.382 -5.49 -0 -1.2 0
1.816 -3.549 -5.608 -0 -1.2 0
2.434 -4.568 -7.509 -0 -1.2 0
2.445 -4.736 -7.517 -0 -1.2 0
3.011 -5.793 -9.236 -0 -1.2 0
2.664 -5.409 -8.139 -0 -1.2 0
2.651 -5.559 -8.073 -0 -1.2 0
2.878 -6.137 -8.732 -0 -1.2 0
2.989 -6.535 -9.039 -0 -1.2 0
2.727 -6.23 -8.214 -0 -1.2 0
3.2 -7.363 -9.61 -0 -1.2 0
2.105 -5.461 -6.262 -0 -1.2 0
2.663 -6.846 -7.898 -0 -1.2 0
2.295 -6.194 -6.774 -0 -1.2 0
2.019 -5.71 -5.932 -0 -1.2 0
2.228 -6.372 -6.522 -0 -1.2 0
2.194 -6.456 -6.395 -0 -1.2 0
2.053 -6.259 -5.956 -0 -1.2 0
2.41 -7.379 -6.963 -0 -1.2 0
2.513 -8.509 -7.124 -0 -1.2 0
0.308 -0.006 -1.272 -0 -1.2 0
0.318 -0.005 -1.311 -0 -1.2 0
0.328 -0.006 -1.351 -0 -1.2 0
0.338 -0.013 -1.384 -0 -1.2 0
0.35 -0.009 -1.432 -0 -1.2 0
0.36 -0.013 -1.472 -0 -1.2 0
0.371 -0.017 -1.513 -0 -1.2 0
0.385 -0.016 -1.562 -0 -1.2 0
0.399 -0.012 -1.619 -0 -1.2 0
0.412 -0.014 -1.669 -0 -1.2 0
0.427 -0.013 -1.727 -0 -1.2 0
0.441 -0.019 -1.777 -0 -1.2 0
0.458 -0.015 -1.845 -0 -1.2 0
0.475 -0.019 -1.904 -0 -1.2 0
0.494 -0.014 -1.981 -0 -1.2 0
0.513 -0.018 -2.048 -0 -1.2 0
0.535 -0.013 -2.134 -0 -1.2 0
0.555 -0.016 -2.213 -0 -1.2 0
0.576 -0.021 -2.292 -0 -1.2 0
0.603 -0.016 -2.397 -0 -1.2 0
0.629 -0.018 -2.494 -0 -1.2 0
0.66 -0.016 -2.61 -0 -1.2 0
0.688 -0.022 -2.717 -0 -1.2 0
0.721 -0.023 -2.843 -0 -1.2 0
0.762 -0.019 -2.997 -0 -1.2 0
0.795 -0.029 -3.124 -0 -1.2 0
0.834 -0.038 -3.27 -0 -1.2 0
0.885 -0.036 -3.463 -0 -1.2 0
0.934 -0.044 -3.647 -0 -1.2 0
0.997 -0.042 -3.888 -0 -1.2 0
1.065 -0.044 -4.149 -0 -1.2 0
1.142 -0.047 -4.438 -0 -1.2 0
1.231 -0.05 -4.777 -0 -1.2 0
1.336 -0.053 -5.173 -0 -1.2 0
1.448 -0.064 -5.599 -0 -1.2 0
1.605 -0.06 -6.198 -0 -1.2 0
1.783 -0.065 -6.874 -0 -1.2 0
2.02 -0.065 -7.772 -0 -1.2 0
2.215 -0.116 -8.509 -0 -1.2 0
2.475 -0.169 -9.487 -0 -1.2 0
2.901 -0.204 -11.101 -0 -1.2 0
3.34 -0.295 -12.754 -0 -1.2 0
4.192 -0.372 -15.983 -0 -1.2 0
5.186 -0.55 -19.732 -0 -1.2 0
3.362 -2.312 -12.468 -0 -1.2 0
2.753 -2.268 -10.158 -0 -1.2 0
2.103 -2.122 -7.712 -0 -1.2 0
3.214 -2.886 -11.799 -0 -1.2 0
2.35 -2.548 -8.575 -0 -1.2 0
2.919 -3.097 -10.636 -0 -1.2 0
2.468 -2.941 -8.953 -0 -1.2 0
2.188 -2.867 -7.901 -0 -1.2 0
2.46 -3.253 -8.863 -0 -1.2 0
5.521 -6.37 -19.934 -0 -1.2 0
2.657 -3.776 -9.515 -0 -1.2 0
2.367 -3.631 -8.441 -0 -1.2 0
2.324 -3.734 -8.257 -0 -1.2 0
1.835 -3.284 -6.482 -0 -1.2 0
2.728 -4.567 -9.64 -0 -1.2 0
1.843 -3.535 -6.465 -0 -1.2 0
2.313 -4.335 -8.107 -0 -1.2 0
2.82 -5.255 -9.864 -0 -1.2 0
1.55 -3.441 -5.368 -0 -1.2 0
3.298 -6.429 -11.465 -0 -1.2 0
2.157 -4.695 -7.446 -0 -1.2 0
3.667 -7.555 -12.668 -0 -1.2 0
2.397 -5.444 -8.222 -0 -1.2 0
2.416 -5.651 -8.255 -0 -1.2 0
2.29 -5.571 -7.79 -0 -1.2 0
2.242 -5.638 -7.596 -0 -1.2 0
2.791 -6.99 -9.434 -0 -1.2 0
2.432 -6.397 -8.181 -0 -1.2 0
2.695 -7.191 -9.033 -0 -1.2 0
2.55 -7.052 -8.508 -0 -1.2 0
2.29 -6.606 -7.6 -0 -1.2 0
2.382 -7.025 -7.874 -0 -1.2 0
2.362 -7.164 -7.771 -0 -1.2 0
1.777 -5.762 -5.805 -0 -1.2 0
2.346 -7.513 -7.647 -0 -1.2 0
2.179 -7.417 -7.028 -0 -1.2 0
2.128 -7.846 -6.756 -0 -1.2 0
0.267 -0.008 -1.264 -0 -1.2 0
0.275 -0.014 -1.297 -0 -1.2 0
0.286 -0.008 -1.344 -0 -1.2 0
0.293 -0.015 -1.378 -0 -1.2 0
0.304 -0.012 -1.426 -0 -1.2 0
0.314 -0.015 -1.467 -0 -1.2 0
0.325 -0.014 -1.516 -0 -1.2 0
0.336 -0.013 -1.564 -0 -1.2 0
0.348 -0.009 -1.623 -0 -1.2 0
0.357 -0.023 -1.657 -0 -1.2 0
0.372 -0.016 -1.723 -0 -1.2 0
0.386 -0.016 -1.782 -0 -1.2 0
0.399 -0.019 -1.842 -0 -1.2 0
0.413 -0.022 -1.902 -0 -1.2 0
0.43 -0.018 -1.979 -0 -1.2 0
0.446 -0.022 -2.048 -0 -1.2 0
0.466 -0.017 -2.135 -0 -1.2 0
0.483 -0.021 -2.214 -0 -1.2 0
0.502 -0.025 -2.292 -0 -1.2 0
0.524 -0.025 -2.39 -0 -1.2 0
0.546 -0.027 -2.488 -0 -1.2 0
0.573 -0.025 -2.605 -0 -1.2 0
0.6 -0.028 -2.722 -0 -1.2 0
0.626 -0.033 -2.84 -0 -1.2 0
0.657 -0.035 -2.976 -0 -1.2 0
0.69 -0.04 -3.123 -0 -1.2 0
0.728 -0.041 -3.289 -0 -1.2 0
0.769 -0.047 -3.464 -0 -1.2 0
0.813 -0.052 -3.659 -0 -1.2 0
0.868 -0.05 -3.903 -0 -1.2 0
0.926 -0.055 -4.155 -0 -1.2 0
0.995 -0.057 -4.458 -0 -1.2 0
1.074 -0.058 -4.809 -0 -1.2 0
1.163 -0.064 -5.198 -0 -1.2 0
1.261 -0.076 -5.627 -0 -1.2 0
1.394 -0.077 -6.211 -0 -1.2 0
1.549 -0.084 -6.893 -0 -1.2 0
1.746 -0.09 -7.761 -0 -1.2 0
2.02 -0.088 -8.969 -0 -1.2 0
2.232 -0.157 -9.887 -0 -1.2 0
2.573 -0.214 -11.379 -0 -1.2 0
2.975 -0.307 -13.124 -0 -1.2 0
3.719 -0.397 -16.39 -0 -1.2 0
4.032 -0.652 -17.713 -0 -1.2 0
4.103 -0.965 -17.958 -0 -1.2 0
3.195 -2.211 -13.7 -0 -1.2 0
3.321 -2.505 -14.191 -0 -1.2 0
3.432 -2.809 -14.616 -0 -1.2 0
3.529 -3.121 -14.979 -0 -1.2 0
1.807 -2.25 -7.574 -0 -1.2 0
2.824 -3.128 -11.871 -0 -1.2 0
2.992 -3.474 -12.542 -0 -1.2 0
2.153 -2.951 -8.95 -0 -1.2 0
1.929 -2.893 -7.976 -0 -1.2 0
2.583 -3.711 -10.685 -0 -1.2 0
3.161 -4.545 -13.056 -0 -1.2 0
2.23 -3.675 -9.143 -0 -1.2 0
2.149 -3.735 -8.77 -0 -1.2 0
2.085 -3.808 -8.472 -0 -1.2 0
1.993 -3.833 -8.064 -0 -1.2 0
2.561 -4.83 -10.359 -0 -1.2 0
4.247 -7.671 -17.186 -0 -1.2 0
2.426 -4.992 -9.725 -0 -1.2 0
1.626 -3.795 -6.455 -0 -1.2 0
1.979 -4.554 -7.848 -0 -1.2 0
1.87 -4.79 -7.319 -0 -1.2 0
3.029 -7.403 -11.88 -0 -1.2 0
2.154 -5.713 -8.379 -0 -1.2 0
2.115 -5.796 -8.188 -0 -1.2 0
2.353 -6.535 -9.081 -0 -1.2 0
1.976 -5.8 -7.574 -0 -1.2 0
2.461 -7.201 -9.419 -0 -1.2 0
2.528 -7.588 -9.634 -0 -1.2 0
2.259 -7.072 -8.556 -0 -1.2 0
2.383 -7.617 -8.987 -0 -1.2 0
1.984 -6.668 -7.427 -0 -1.2 0
2.443 -8.223 -9.124 -0 -1.2 0
2.125 -7.462 -7.881 -0 -1.2 0
2.324 -8.516 -8.538 -0 -1.2 0
0.224 -0.011 -1.255 -0 -1.2 0
0.231 -0.018 -1.288 -0 -1.2 0
0.239 -0.011 -1.335 -0 -1.2 0
0.247 -0.013 -1.376 -0 -1.2 0
0.255 -0.015 -1.417 -0 -1.2 0
0.264 -0.012 -1.466 -0 -1.2 0
0.273 -0.011 -1.516 -0 -1.2 0
0.28 -0.023 -1.55 -0 -1.2 0
0.289 -0.024 -1.6 -0 -1.2 0
0.3 -0.021 -1.659 -0 -1.2 0
0.312 -0.02 -1.718 -0 -1.2 0
0.323 -0.021 -1.777 -0 -1.2 0
0.335 -0.017 -1.846 -0 -1.2 0
0.347 -0.022 -1.906 -0 -1.2 0
0.36 -0.023 -1.976 -0 -1.2 0
0.373 -0.027 -2.045 -0 -1.2 0
0.388 -0.027 -2.123 -0 -1.2 0
0.406 -0.021 -2.221 -0 -1.2 0
0.422 -0.027 -2.3 -0 -1.2 0
0.442 -0.022 -2.407 -0 -1.2 0
0.457 -0.033 -2.489 -0 -1.2 0
0.481 -0.028 -2.615 -0 -1.2 0
0.502 -0.034 -2.724 -0 -1.2 0
0.527 -0.033 -2.861 -0 -1.2 0
0.552 -0.039 -2.99 -0 -1.2 0
0.58 -0.043 -3.137 -0 -1.2 0
0.613 -0.043 -3.314 -0 -1.2 0
0.647 -0.049 -3.491 -0 -1.2 0
0.684 -0.055 -3.688 -0 -1.2 0
0.726 -0.06 -3.913 -0 -1.2 0
0.775 -0.065 -4.169 -0 -1.2 0
0.834 -0.066 -4.483 -0 -1.2 0
0.901 -0.068 -4.837 -0 -1.2 0
0.975 -0.075 -5.229 -0 -1.2 0
1.06 -0.086 -5.671 -0 -1.2 0
1.164 -0.094 -6.231 -0 -1.2 0
1.295 -0.102 -6.918 -0 -1.2 0
1.458 -0.112 -7.782 -0 -1.2 0
1.689 -0.111 -9.009 -0 -1.2 0
1.974 -0.126 -10.523 -0 -1.2 0
2.207 -0.219 -11.732 -0 -1.2 0
2.552 -0.319 -13.541 -0 -1.2 0
3.164 -0.425 -16.762 -0 -1.2 0
3.166 -0.721 -16.7 -0 -1.2 0
3.214 -1.014 -16.878 -0 -1.2 0
2.547 -2.632 -12.925 -0 -1.2 0
2.538 -3.069 -12.764 -0 -1.2 0
2.342 -3.116 -11.71 -0 -1.2 0
1.507 -2.506 -7.43 -0 -1.2 0
1.828 -2.976 -9.017 -0 -1.2 0
2.529 -3.939 -12.494 -0 -1.2 0
2.966 -4.699 -14.624 -0 -1.2 0
2.024 -3.705 -9.873 -0 -1.2 0
2.008 -3.856 -9.749 -0 -1.2 0
1.841 -3.777 -8.882 -0 -1.2 0
2.591 -5.13 -12.521 -0 -1.2 0
1.744 -3.929 -8.327 -0 -1.2 0
1.566 -3.764 -7.428 -0 -1.2 0
2.223 -5.122 -10.569 -0 -1.2 0
2.264 -5.396 -10.715 -0 -1.2 0
2.093 -5.244 -9.843 -0 -1.2 0
1.624 -4.429 -7.564 -0 -1.2 0
2.15 -5.741 -10.022 -0 -1.2 0
3.559 -9.199 -16.623 -0 -1.2 0
3.694 -10.185 -17.084 -0 -1.2 0
3.566 -10.198 -16.407 -0 -1.2 0
1.818 -5.991 -8.195 -0 -1.2 0
1.808 -6.133 -8.109 -0 -1.2 0
1.817 -6.328 -8.102 -0 -1.2 0
1.842 -6.581 -8.173 -0 -1.2 0
1.908 -6.967 -8.422 -0 -1.2 0
2.15 -7.953 -9.461 -0 -1.2 0
1.801 -7.536 -7.709 -0 -1.2 0
0.183 -0.014 -1.246 -0 -1.2 0
0.188 -0.028 -1.273 -0 -1.2 0
0.194 -0.021 -1.32 -0 -1.2 0
0.201 -0.016 -1.369 -0 -1.2 0
0.209 -0.019 -1.41 -0 -1.2 0
0.215 -0.022 -1.452 -0 -1.2 0
0.223 -0.015 -1.509 -0 -1.2 0
0.23 -0.021 -1.551 -0 -1.2 0
0.237 -0.028 -1.593 -0 -1.2 0
0.245 -0.031 -1.644 -0 -1.2 0
0.254 -0.03 -1.703 -0 -1.2 0
0.262 -0.031 -1.763 -0 -1.2 0
0.274 -0.022 -1.84 -0 -1.2 0
0.284 -0.027 -1.9 -0 -1.2 0
0.294 -0.028 -1.97 -0 -1.2 0
0.305 -0.032 -2.04 -0 -1.2 0
0.318 -0.027 -2.128 -0 -1.2 0
0.331 -0.031 -2.208 -0 -1.2 0
0.343 -0.036 -2.289 -0 -1.2 0
0.36 -0.032 -2.396 -0 -1.2 0
0.374 -0.039 -2.487 -0 -1.2 0
0.39 -0.046 -2.587 -0 -1.2 0
0.407 -0.048 -2.705 -0 -1.2 0
0.429 -0.046 -2.843 -0 -1.2 0
0.451 -0.046 -2.99 -0 -1.2 0
0.474 -0.051 -3.139 -0 -1.2 0
0.497 -0.061 -3.289 -0 -1.2 0
0.525 -0.066 -3.467 -0 -1.2 0
0.559 -0.066 -3.684 -0 -1.2 0
0.592 -0.075 -3.901 -0 -1.2 0
0.633 -0.077 -4.167 -0 -1.2 0
0.678 -0.083 -4.464 -0 -1.2 0
0.732 -0.085 -4.819 -0 -1.2 0
0.795 -0.091 -5.224 -0 -1.2 0
0.862 -0.105 -5.659 -0 -1.2 0
0.945 -0.116 -6.203 -0 -1.2 0
1.05 -0.127 -6.884 -0 -1.2 0
1.19 -0.133 -7.793 -0 -1.2 0
1.365 -0.144 -8.938 -0 -1.2 0
1.605 -0.157 -10.509 -0 -1.2 0
1.904 -0.198 -12.445 -0 -1.2 0
2.137 -0.332 -13.929 -0 -1.2 0
2.608 -0.459 -16.972 -0 -1.2 0
3.039 -0.699 -19.717 -0 -1.2 0
3.191 -1.042 -20.598 -0 -1.2 0
3.207 -1.402 -20.593 -0 -1.2 0
3.223 -1.763 -20.582 -0 -1.2 0
3.241 -2.124 -20.586 -0 -1.2 0
3.258 -2.486 -20.582 -0 -1.2 0
3.262 -2.842 -20.493 -0 -1.2 0
3.262 -3.195 -20.389 -0 -1.2 0
3.284 -3.56 -20.415 -0 -1.2 0
2.086 -2.866 -12.795 -0 -1.2 0
3.35 -4.321 -20.606 -0 -1.2 0
2.116 -3.332 -12.84 -0 -1.2 0
3.377 -5.055 -20.545 -0 -1.2 0
2.067 -3.707 -12.404 -0 -1.2 0
1.54 -3.178 -9.123 -0 -1.2 0
2.017 -4.261 -11.905 -0 -1.2 0
1.667 -3.864 -9.74 -0 -1.2 0
1.594 -3.898 -9.246 -0 -1.2 0
2.259 -5.343 -13.138 -0 -1.2 0
1.788 -4.615 -10.29 -0 -1.2 0
1.461 -4.096 -8.316 -0 -1.2 0
3.653 -9.169 -21.051 -0 -1.2 0
1.156 -3.675 -6.457 -0 -1.2 0
3.547 -9.667 -20.201 -0 -1.2 0
1.518 -4.834 -8.455 -0 -1.2 0
3.084 -9.173 -17.33 -0 -1.2 0
1.409 -4.843 -7.742 -0 -1.2 0
1.787 -6.077 -9.82 -0 -1.2 0
3.284 -10.746 -18.136 -0 -1.2 0
3.207 -10.861 -17.602 -0 -1.2 0
3.334 -11.976 -18.078 -0 -1.2 0
3.328 -12.318 -17.927 -0 -1.2 0
3.357 -12.789 -17.969 -0 -1.2 0
3.207 -12.614 -17.043 -0 -1.2 0
3.209 -12.981 -16.936 -0 -1.2 0
0.141 -0.017 -1.235 -0 -1.2 0
0.145 -0.024 -1.268 -0 -1.2 0
0.15 -0.024 -1.309 -0 -1.2 0
0.156 -0.019 -1.357 -0 -1.2 0
0.161 -0.028 -1.391 -0 -1.2 0
0.166 -0.019 -1.448 -0 -1.2 0
0.172 -0.019 -1.498 -0 -1.2 0
0.177 -0.03 -1.533 -0 -1.2 0
0.183 -0.032 -1.584 -0 -1.2 0
0.19 -0.029 -1.643 -0 -1.2 0
0.196 -0.028 -1.702 -0 -1.2 0
0.203 -0.035 -1.754 -0 -1.2 0
0.211 -0.032 -1.823 -0 -1.2 0
0.218 -0.036 -1.884 -0 -1.2 0
0.227 -0.032 -1.963 -0 -1.2 0
0.236 -0.037 -2.033 -0 -1.2 0
0.246 -0.037 -2.113 -0 -1.2 0
0.256 -0.036 -2.202 -0 -1.2 0
0.266 -0.038 -2.291 -0 -1.2 0
0.278 -0.038 -2.39 -0 -1.2 0
0.289 -0.045 -2.481 -0 -1.2 0
0.302 -0.048 -2.59 -0 -1.2 0
0.317 -0.051 -2.71 -0 -1.2 0
0.333 -0.049 -2.848 -0 -1.2 0
0.349 -0.053 -2.987 -0 -1.2 0
0.366 -0.062 -3.127 -0 -1.2 0
0.385 -0.068 -3.287 -0 -1.2 0
0.407 -0.072 -3.475 -0 -1.2 0
0.431 -0.078 -3.673 -0 -1.2 0
0.458 -0.084 -3.902 -0 -1.2 0
0.49 -0.087 -4.17 -0 -1.2 0
0.527 -0.09 -4.477 -0 -1.2 0
0.568 -0.096 -4.824 -0 -1.2 0
0.615 -0.105 -5.222 -0 -1.2 0
0.67 -0.116 -5.678 -0 -1.2 0
0.732 -0.13 -6.214 -0 -1.2 0
0.813 -0.145 -6.889 -0 -1.2 0
0.922 -0.151 -7.811 -0 -1.2 0
1.057 -0.166 -8.953 -0 -1.2 0
1.243 -0.183 -10.52 -0 -1.2 0
1.489 -0.218 -12.605 -0 -1.2 0
1.774 -0.311 -14.979 -0 -1.2 0
2.058 -0.488 -17.322 -0 -1.2 0
2.176 -0.775 -18.202 -0 -1.2 0
2.629 -4.696 -20.434 -0 -1.2 0
2.613 -5.013 -20.162 -0 -1.2 0
2.633 -5.383 -20.177 -0 -1.2 0
1.644 -3.948 -12.375 -0 -1.2 0
2.656 -6.103 -20.08 -0 -1.2 0
2.379 -5.872 -17.822 -0 -1.2 0
2.425 -6.272 -18.05 -0 -1.2 0
2.696 -7.204 -19.967 -0 -1.2 0
2.703 -7.559 -19.875 -0 -1.2 0
2.347 -6.981 -17.086 -0 -1.2 0
2.708 -8.25 -19.634 -0 -1.2 0
1.177 -4.261 -8.28 -0 -1.2 0
2.714 -8.944 -19.399 -0 -1.2 0
2.33 -8.385 -16.359 -0 -1.2 0
1.252 -5.08 -8.577 -0 -1.2 0
3.153 -12.614 -21.607 -0 -1.2 0
2.344 -9.896 -15.857 -0 -1.2 0
2.723 -11.704 -18.334 -0 -1.2 0
2.939 -12.938 -19.657 -0 -1.2 0
2.671 -12.865 -17.408 -0 -1.2 0
2.645 -13.095 -17.094 -0 -1.2 0
0.097 -0.026 -1.215 -0 -1.2 0
0.1 -0.026 -1.255 -0 -1.2 0
0.104 -0.02 -1.304 -0 -1.2 0
0.106 -0.015 -1.352 -0 -1.2 0
0.111 -0.018 -1.394 -0 -1.2 0
0.113 -0.028 -1.429 -0 -1.2 0
0.117 -0.027 -1.479 -0 -1.2 0
0.122 -0.022 -1.537 -0 -1.2 0
0.125 -0.029 -1.58 -0 -1.2 0
0.13 -0.028 -1.64 -0 -1.2 0
0.135 -0.031 -1.691 -0 -1.2 0
0.14 -0.033 -1.752 -0 -1.2 0
0.145 -0.03 -1.821 -0 -1.2 0
0.15 -0.035 -1.882 -0 -1.2 0
0.156 -0.032 -1.961 -0 -1.2 0
0.162 -0.036 -2.032 -0 -1.2 0
0.168 -0.037 -2.112 -0 -1.2 0
0.175 -0.036 -2.201 -0 -1.2 0
0.183 -0.043 -2.283 -0 -1.2 0
0.191 -0.039 -2.391 -0 -1.2 0
0.199 -0.047 -2.482 -0 -1.2 0
0.208 -0.05 -2.592 -0 -1.2 0
0.218 -0.053 -2.712 -0 -1.2 0
0.229 -0.053 -2.851 -0 -1.2 0
0.239 -0.06 -2.981 -0 -1.2 0
0.252 -0.065 -3.131 -0 -1.2 0
0.265 -0.069 -3.3 -0 -1.2 0
0.28 -0.076 -3.48 -0 -1.2 0
0.296 -0.083 -3.68 -0 -1.2 0
0.317 -0.084 -3.928 -0 -1.2 0
0.338 -0.089 -4.197 -0 -1.2 0
0.363 -0.094 -4.506 -0 -1.2 0
0.391 -0.104 -4.845 -0 -1.2 0
0.424 -0.11 -5.263 -0 -1.2 0
0.462 -0.123 -5.721 -0 -1.2 0
0.509 -0.134 -6.298 -0 -1.2 0
0.566 -0.145 -7.006 -0 -1.2 0
0.639 -0.159 -7.902 -0 -1.2 0
0.734 -0.175 -9.087 -0 -1.2 0
0.873 -0.186 -10.81 -0 -1.2 0
1.039 -0.233 -12.863 -0 -1.2 0
1.237 -0.335 -15.265 -0 -1.2 0
1.508 -0.492 -18.553 -0 -1.2 0
1.722 -0.774 -21.062 -0 -1.2 0
0.354 -1.418 -3.584 -0 -1.2 0
2.127 -5.264 -23.382 -0 -1.2 0
1.706 -5.305 -18.094 -0 -1.2 0
1.76 -5.742 -18.5 -0 -1.2 0
1.768 -6.061 -18.405 -0 -1.2 0
1.966 -6.962 -20.324 -0 -1.2 0
2.465 -8.906 -25.376 -0 -1.2 0
2.485 -9.382 -25.338 -0 -1.2 0
1.999 -8.691 -19.684 -0 -1.2 0
1.792 -8.165 -17.418 -0 -1.2 0
1.758 -8.303 -16.907 -0 -1.2 0
1.765 -8.613 -16.814 -0 -1.2 0
1.791 -9.002 -16.887 -0 -1.2 0
1.801 -9.334 -16.826 -0 -1.2 0
1.874 -9.968 -17.343 -0 -1.2 0
1.813 -9.953 -16.597 -0 -1.2 0
2.269 -12.602 -20.664 -0 -1.2 0
1.901 -11.279 -16.884 -0 -1.2 0
1.987 -12.982 -16.912 -0 -1.2 0
0.054 -0.023 -1.207 -0 -1.2 0
0.055 -0.023 -1.248 -0 -1.2 0
0.057 -0.024 -1.289 -0 -1.2 0
0.059 -0.019 -1.338 -0 -1.2 0
0.061 -0.022 -1.38 -0 -1.2 0
0.063 -0.025 -1.422 -0 -1.2 0
0.066 -0.031 -1.465 -0 -1.2 0
0.068 -0.031 -1.515 -0 -1.2 0
0.071 -0.033 -1.566 -0 -1.2 0
0.073 -0.032 -1.626 -0 -1.2 0
0.076 -0.031 -1.686 -0 -1.2 0
0.078 -0.037 -1.738 -0 -1.2 0
0.082 -0.035 -1.808 -0 -1.2 0
0.085 -0.035 -1.878 -0 -1.2 0
0.088 -0.042 -1.939 -0 -1.2 0
0.091 -0.041 -2.019 -0 -1.2 0
0.095 -0.037 -2.108 -0 -1.2 0
0.099 -0.042 -2.189 -0 -1.2 0
0.103 -0.052 -2.261 -0 -1.2 0
0.107 -0.049 -2.37 -0 -1.2 0
0.112 -0.049 -2.48 -0 -1.2 0
0.117 -0.056 -2.581 -0 -1.2 0
0.123 -0.06 -2.701 -0 -1.2 0
0.129 -0.056 -2.849 -0 -1.2 0
0.135 -0.064 -2.98 -0 -1.2 0
0.143 -0.073 -3.121 -0 -1.2 0
0.15 -0.078 -3.29 -0 -1.2 0
0.159 -0.079 -3.49 -0 -1.2 0
0.168 -0.09 -3.68 -0 -1.2 0
0.179 -0.092 -3.929 -0 -1.2 0
0.193 -0.091 -4.227 -0 -1.2 0
0.207 -0.101 -4.517 -0 -1.2 0
0.222 -0.11 -4.867 -0 -1.2 0
0.242 -0.115 -5.296 -0 -1.2 0
0.262 -0.133 -5.736 -0 -1.2 0
0.181 -0.594 -3.411 -0 -1.2 0
0.183 -0.659 -3.37 -0 -1.2 0
0.184 -0.717 -3.367 -0 -1.2 0
0.188 -0.775 -3.373 -0 -1.2 0
0.191 -0.832 -3.379 -0 -1.2 0
0.195 -0.888 -3.402 -0 -1.2 0
0.199 -0.945 -3.436 -0 -1.2 0
0.203 -1.004 -3.468 -0 -1.2 0
0.207 -1.062 -3.479 -0 -1.2 0
0.21 -1.122 -3.489 -0 -1.2 0
0.215 -1.182 -3.518 -0 -1.2 0
0.222 -1.244 -3.606 -0 -1.2 0
0.215 -1.295 -3.414 -0 -1.2 0
0.218 -1.353 -3.399 -0 -1.2 0
0.226 -1.423 -3.524 -0 -1.2 0
0.23 -1.484 -3.528 -0 -1.2 0
0.233 -1.545 -3.531 -0 -1.2 0
0.236 -1.607 -3.532 -0 -1.2 0
1.507 -5.566 -27.495 -0 -1.2 0
1.53 -6.053 -27.46 -0 -1.2 0
1.554 -6.546 -27.447 -0 -1.2 0
1.576 -7.038 -27.416 -0 -1.2 0
1.603 -7.546 -27.443 -0 -1.2 0
1.089 -5.672 -18.064 -0 -1.2 0
1.655 -8.574 -27.478 -0 -1.2 0
1.21 -6.781 -19.55 -0 -1.2 0
1.304 -7.541 -20.801 -0 -1.2 0
1.18 -8.174 -17.349 -0 -1.2 0
1.43 -10.332 -20.549 -0 -1.2 0
1.214 -9.12 -17.062 -0 -1.2 0
1.23 -9.474 -17.035 -0 -1.2 0
1.418 -11.366 -19.158 -0 -1.2 0
1.376 -12.329 -17.178 -0 -1.2 0
0.009 -0.026 -1.192 -0 -1.2 0
0.009 -0.026 -1.232 -0 -1.2 0
0.009 -0.034 -1.266 -0 -1.2 0
0.01 -0.029 -1.315 -0 -1.2 0
0.01 -0.032 -1.357 -0 -1.2 0
0.011 -0.036 -1.399 -0 -1.2 0
0.011 -0.035 -1.449 -0 -1.2 0
0.011 -0.036 -1.5 -0 -1.2 0
0.012 -0.038 -1.551 -0 -1.2 0
0.012 -0.041 -1.602 -0 -1.2 0
0.013 -0.036 -1.671 -0 -1.2 0
0.013 -0.042 -1.723 -0 -1.2 0
0.014 -0.04 -1.792 -0 -1.2 0
0.015 -0.045 -1.854 -0 -1.2 0
0.015 -0.042 -1.933 -0 -1.2 0
0.016 -0.047 -2.004 -0 -1.2 0
0.017 -0.048 -2.084 -0 -1.2 0
0.017 -0.053 -2.165 -0 -1.2 0
0.018 -0.055 -2.255 -0 -1.2 0
0.019 -0.051 -2.364 -0 -1.2 0
0.02 -0.056 -2.465 -0 -1.2 0
0.021 -0.056 -2.585 -0 -1.2 0
0.022 -0.067 -2.686 -0 -1.2 0
0.023 -0.068 -2.826 -0 -1.2 0
0.024 -0.072 -2.966 -0 -1.2 0
0.025 -0.079 -3.117 -0 -1.2 0
0.027 -0.086 -3.276 -0 -1.2 0
0.028 -0.088 -3.476 -0 -1.2 0
0.031 -0.103 -3.657 -0 -1.2 0
0.035 -0.178 -3.625 -0 -1.2 0
0.037 -0.238 -3.651 -0 -1.2 0
0.041 -0.305 -3.646 -0 -1.2 0
0.044 -0.374 -3.631 -0 -1.2 0
0.047 -0.459 -3.524 -0 -1.2 0
0.051 -0.529 -3.477 -0 -1.2 0
0.053 -0.599 -3.417 -0 -1.2 0
0.057 -0.666 -3.365 -0 -1.2 0
0.06 -0.724 -3.373 -0 -1.2 0
0.063 -0.783 -3.369 -0 -1.2 0
0.065 -0.84 -3.374 -0 -1.2 0
0.068 -0.898 -3.379 -0 -1.2 0
0.071 -0.956 -3.381 -0 -1.2 0
0.074 -1.015 -3.344 -0 -1.2 0
0.077 -1.073 -3.344 -0 -1.2 0
0.08 -1.13 -3.345 -0 -1.2 0
0.082 -1.187 -3.353 -0 -1.2 0
0.085 -1.244 -3.362 -0 -1.2 0
0.088 -1.301 -3.339 -0 -1.2 0
0.09 -1.355 -3.285 -0 -1.2 0
0.094 -1.422 -3.4 -0 -1.2 0
0.097 -1.481 -3.404 -0 -1.2 0
0.1 -1.543 -3.417 -0 -1.2 0
0.104 -1.608 -3.458 -0 -1.2 0
0.107 -1.675 -3.498 -0 -1.2 0
0.462 -6.481 -19.605 -0 -1.2 0
0.447 -6.403 -18.089 -0 -1.2 0
0.463 -6.72 -18.003 -0 -1.2 0
0.483 -7.111 -18.14 -0 -1.2 0
0.568 -8.534 -20.065 -0 -1.2 0
0.52 -7.961 -17.577 -0 -1.2 0
0.627 -9.849 -19.36 -0 -1.2 0
0.669 -10.604 -20.089 -0 -1.2 0
0.644 -10.304 -18.613 -0 -1.2 0
0.653 -10.632 -17.699 -0 -1.2 0
0.735 -12.303 -17.725 -0 -1.2 0
-0.032 -0.035 -1.166 -0 -1.2 0
-0.033 -0.029 -1.214 -0 -1.2 0
-0.034 -0.03 -1.255 -0 -1.2 0
-0.035 -0.032 -1.297 -0 -1.2 0
-0.037 -0.028 -1.346 -0 -1.2 0
-0.037 -0.039 -1.381 -0 -1.2 0
-0.038 -0.038 -1.431 -0 -1.2 0
-0.04 -0.039 -1.481 -0 -1.2 0
-0.042 -0.035 -1.54 -0 -1.2 0
-0.043 -0.04 -1.592 -0 -1.2 0
-0.045 -0.039 -1.652 -0 -1.2 0
-0.046 -0.041 -1.713 -0 -1.2 0
-0.048 -0.039 -1.782 -0 -1.2 0
-0.05 -0.044 -1.844 -0 -1.2 0
-0.052 -0.042 -1.923 -0 -1.2 0
-0.053 -0.046 -1.994 -0 -1.2 0
-0.056 -0.048 -2.074 -0 -1.2 0
-0.059 -0.048 -2.164 -0 -1.2 0
-0.061 -0.051 -2.255 -0 -1.2 0
-0.064 -0.053 -2.355 -0 -1.2 0
-0.066 -0.058 -2.455 -0 -1.2 0
-0.069 -0.062 -2.566 -0 -1.2 0
-0.072 -0.062 -2.695 -0 -1.2 0
-0.075 -0.067 -2.826 -0 -1.2 0
-0.079 -0.076 -2.956 -0 -1.2 0
-0.083 -0.077 -3.126 -0 -1.2 0
-0.087 -0.085 -3.286 -0 -1.2 0
-0.086 -0.14 -3.313 -0 -1.2 0
-0.086 -0.178 -3.397 -0 -1.2 0
-0.084 -0.232 -3.432 -0 -1.2 0
-0.081 -0.291 -3.447 -0 -1.2 0
-0.078 -0.359 -3.421 -0 -1.2 0
-0.074 -0.425 -3.405 -0 -1.2 0
-0.072 -0.483 -3.416 -0 -1.2 0
-0.069 -0.544 -3.417 -0 -1.2 0
-0.065 -0.607 -3.397 -0 -1.2 0
-0.061 -0.67 -3.376 -0 -1.2 0
-0.059 -0.73 -3.373 -0 -1.2 0
-0.056 -0.789 -3.369 -0 -1.2 0
-0.052 -0.848 -3.354 -0 -1.2 0
-0.049 -0.906 -3.359 -0 -1.2 0
-0.046 -0.966 -3.341 -0 -1.2 0
-0.043 -1.023 -3.334 -0 -1.2 0
-0.04 -1.081 -3.324 -0 -1.2 0
-0.036 -1.138 -3.315 -0 -1.2 0
-0.033 -1.195 -3.313 -0 -1.2 0
-0.027 -1.245 -3.182 -0 -1.2 0
-0.023 -1.296 -3.1 -0 -1.2 0
