# .PCD v.7 - Point Cloud Data file format
FIELDS x y z vp_x vp_y vp_z
SIZE 4 4 4 4 4 4
TYPE F F F F F F
COUNT 1 1 1 1 1 1
WIDTH 1484
HEIGHT 1
VIEWPOINT 0 -1.20013 0 1 0 0 0
POINTS 1484
DATA ascii
26.129 -15.923 -2.788 -0 -1.2 0
25.868 -16.376 -2.756 -0 -1.2 0
25.599 -16.824 -2.724 -0 -1.2 0
25.323 -17.267 -2.691 -0 -1.2 0
25.039 -17.706 -2.657 -0 -1.2 0
24.748 -18.139 -2.624 -0 -1.2 0
24.448 -18.568 -2.589 -0 -1.2 0
24.141 -18.99 -2.554 -0 -1.2 0
23.827 -19.408 -2.518 -0 -1.2 0
23.507 -19.82 -2.482 -0 -1.2 0
23.178 -20.226 -2.445 -0 -1.2 0
22.843 -20.627 -2.407 -0 -1.2 0
22.501 -21.021 -2.369 -0 -1.2 0
22.152 -21.41 -2.331 -0 -1.2 0
21.796 -21.792 -2.292 -0 -1.2 0
29.392 -6.635 -4.292 -0 -1.2 0
29.294 -7.148 -4.27 -0 -1.2 0
29.185 -7.66 -4.247 -0 -1.2 0
29.068 -8.17 -4.222 -0 -1.2 0
28.943 -8.678 -4.196 -0 -1.2 0
28.808 -9.183 -4.169 -0 -1.2 0
28.665 -9.686 -4.142 -0 -1.2 0
28.514 -10.187 -4.114 -0 -1.2 0
28.353 -10.684 -4.083 -0 -1.2 0
28.185 -11.179 -4.052 -0 -1.2 0
28.007 -11.67 -4.021 -0 -1.2 0
27.821 -12.158 -3.987 -0 -1.2 0
27.627 -12.643 -3.954 -0 -1.2 0
27.424 -13.124 -3.919 -0 -1.2 0
27.213 -13.603 -3.883 -0 -1.2 0
26.994 -14.076 -3.846 -0 -1.2 0
26.766 -14.547 -3.809 -0 -1.2 0
26.53 -15.013 -3.77 -0 -1.2 0
26.287 -15.474 -3.729 -0 -1.2 0
26.034 -15.932 -3.689 -0 -1.2 0
25.775 -16.384 -3.648 -0 -1.2 0
25.507 -16.833 -3.605 -0 -1.2 0
25.233 -17.275 -3.562 -0 -1.2 0
24.95 -17.714 -3.518 -0 -1.2 0
24.659 -18.147 -3.473 -0 -1.2 0
24.362 -18.576 -3.426 -0 -1.2 0
24.057 -18.998 -3.38 -0 -1.2 0
23.744 -19.416 -3.332 -0 -1.2 0
23.425 -19.828 -3.284 -0 -1.2 0
23.097 -20.234 -3.235 -0 -1.2 0
22.764 -20.634 -3.185 -0 -1.2 0
22.423 -21.028 -3.135 -0 -1.2 0
22.076 -21.417 -3.083 -0 -1.2 0
21.721 -21.799 -3.031 -0 -1.2 0
29.248 -6.646 -5.284 -0 -1.2 0
29.149 -7.159 -5.258 -0 -1.2 0
29.043 -7.671 -5.23 -0 -1.2 0
28.927 -8.181 -5.201 -0 -1.2 0
28.803 -8.689 -5.17 -0 -1.2 0
28.669 -9.194 -5.138 -0 -1.2 0
28.527 -9.697 -5.105 -0 -1.2 0
28.376 -10.197 -5.071 -0 -1.2 0
28.216 -10.694 -5.035 -0 -1.2 0
28.048 -11.189 -4.998 -0 -1.2 0
27.872 -11.681 -4.959 -0 -1.2 0
27.688 -12.168 -4.919 -0 -1.2 0
27.495 -12.654 -4.878 -0 -1.2 0
27.293 -13.135 -4.835 -0 -1.2 0
27.083 -13.613 -4.792 -0 -1.2 0
26.865 -14.086 -4.747 -0 -1.2 0
26.638 -14.557 -4.701 -0 -1.2 0
26.404 -15.022 -4.653 -0 -1.2 0
26.162 -15.484 -4.605 -0 -1.2 0
25.912 -15.941 -4.555 -0 -1.2 0
25.654 -16.394 -4.504 -0 -1.2 0
25.387 -16.842 -4.452 -0 -1.2 0
25.114 -17.285 -4.398 -0 -1.2 0
24.833 -17.723 -4.344 -0 -1.2 0
24.544 -18.156 -4.288 -0 -1.2 0
24.248 -18.585 -4.232 -0 -1.2 0
23.944 -19.007 -4.174 -0 -1.2 0
23.634 -19.424 -4.115 -0 -1.2 0
23.316 -19.836 -4.055 -0 -1.2 0
22.991 -20.242 -3.995 -0 -1.2 0
22.659 -20.642 -3.932 -0 -1.2 0
22.32 -21.036 -3.87 -0 -1.2 0
21.975 -21.425 -3.805 -0 -1.2 0
21.623 -21.807 -3.741 -0 -1.2 0
29.068 -6.658 -6.273 -0 -1.2 0
28.971 -7.172 -6.242 -0 -1.2 0
28.865 -7.683 -6.211 -0 -1.2 0
28.75 -8.193 -6.177 -0 -1.2 0
28.627 -8.701 -6.141 -0 -1.2 0
28.494 -9.206 -6.105 -0 -1.2 0
28.354 -9.709 -6.066 -0 -1.2 0
28.204 -10.209 -6.026 -0 -1.2 0
28.045 -10.706 -5.983 -0 -1.2 0
27.879 -11.201 -5.94 -0 -1.2 0
27.704 -11.692 -5.895 -0 -1.2 0
27.52 -12.18 -5.848 -0 -1.2 0
27.329 -12.665 -5.8 -0 -1.2 0
27.129 -13.146 -5.75 -0 -1.2 0
26.92 -13.624 -5.698 -0 -1.2 0
26.704 -14.097 -5.645 -0 -1.2 0
26.479 -14.568 -5.591 -0 -1.2 0
26.246 -15.033 -5.535 -0 -1.2 0
26.006 -15.495 -5.477 -0 -1.2 0
25.758 -15.952 -5.418 -0 -1.2 0
25.502 -16.404 -5.358 -0 -1.2 0
25.237 -16.853 -5.296 -0 -1.2 0
24.966 -17.295 -5.233 -0 -1.2 0
24.686 -17.734 -5.168 -0 -1.2 0
24.4 -18.167 -5.102 -0 -1.2 0
24.106 -18.595 -5.034 -0 -1.2 0
23.804 -19.017 -4.966 -0 -1.2 0
23.496 -19.434 -4.896 -0 -1.2 0
23.179 -19.846 -4.824 -0 -1.2 0
22.857 -20.251 -4.751 -0 -1.2 0
22.527 -20.651 -4.678 -0 -1.2 0
22.191 -21.045 -4.603 -0 -1.2 0
21.848 -21.434 -4.526 -0 -1.2 0
21.498 -21.816 -4.449 -0 -1.2 0
28.836 -6.673 -7.331 -0 -1.2 0
28.74 -7.186 -7.296 -0 -1.2 0
28.635 -7.698 -7.26 -0 -1.2 0
28.521 -8.208 -7.221 -0 -1.2 0
28.399 -8.716 -7.18 -0 -1.2 0
28.268 -9.221 -7.138 -0 -1.2 0
28.129 -9.723 -7.093 -0 -1.2 0
27.98 -10.224 -7.046 -0 -1.2 0
27.659 -11.215 -6.947 -0 -1.2 0
27.485 -11.706 -6.895 -0 -1.2 0
27.303 -12.194 -6.841 -0 -1.2 0
27.113 -12.679 -6.785 -0 -1.2 0
26.915 -13.16 -6.727 -0 -1.2 0
26.709 -13.638 -6.667 -0 -1.2 0
26.495 -14.111 -6.606 -0 -1.2 0
26.272 -14.581 -6.542 -0 -1.2 0
26.042 -15.047 -6.477 -0 -1.2 0
25.803 -15.508 -6.41 -0 -1.2 0
25.557 -15.965 -6.341 -0 -1.2 0
25.303 -16.417 -6.271 -0 -1.2 0
25.041 -16.865 -6.198 -0 -1.2 0
24.772 -17.308 -6.124 -0 -1.2 0
24.496 -17.746 -6.048 -0 -1.2 0
24.211 -18.179 -5.971 -0 -1.2 0
23.921 -18.607 -5.892 -0 -1.2 0
23.622 -19.029 -5.812 -0 -1.2 0
23.316 -19.446 -5.73 -0 -1.2 0
23.003 -19.857 -5.646 -0 -1.2 0
22.683 -20.263 -5.561 -0 -1.2 0
22.356 -20.662 -5.474 -0 -1.2 0
22.023 -21.056 -5.387 -0 -1.2 0
21.683 -21.444 -5.297 -0 -1.2 0
21.336 -21.827 -5.206 -0 -1.2 0
28.585 -6.687 -8.302 -0 -1.2 0
28.274 -8.222 -8.18 -0 -1.2 0
28.153 -8.729 -8.134 -0 -1.2 0
28.024 -9.234 -8.087 -0 -1.2 0
27.584 -10.734 -7.93 -0 -1.2 0
27.25 -11.72 -7.815 -0 -1.2 0
27.069 -12.207 -7.754 -0 -1.2 0
26.881 -12.692 -7.691 -0 -1.2 0
26.685 -13.173 -7.625 -0 -1.2 0
26.481 -13.651 -7.558 -0 -1.2 0
26.268 -14.124 -7.488 -0 -1.2 0
26.048 -14.594 -7.417 -0 -1.2 0
25.821 -15.059 -7.343 -0 -1.2 0
25.584 -15.521 -7.268 -0 -1.2 0
25.341 -15.977 -7.19 -0 -1.2 0
25.089 -16.429 -7.11 -0 -1.2 0
24.83 -16.877 -7.028 -0 -1.2 0
24.564 -17.319 -6.944 -0 -1.2 0
24.29 -17.758 -6.858 -0 -1.2 0
24.008 -18.19 -6.771 -0 -1.2 0
23.719 -18.618 -6.681 -0 -1.2 0
23.423 -19.04 -6.591 -0 -1.2 0
23.121 -19.457 -6.498 -0 -1.2 0
22.811 -19.868 -6.403 -0 -1.2 0
22.494 -20.273 -6.306 -0 -1.2 0
22.17 -20.673 -6.208 -0 -1.2 0
21.84 -21.067 -6.108 -0 -1.2 0
21.502 -21.454 -6.006 -0 -1.2 0
21.16 -21.836 -5.902 -0 -1.2 0
28.004 -8.237 -9.094 -0 -1.2 0
26.433 -13.187 -8.484 -0 -1.2 0
26.23 -13.665 -8.41 -0 -1.2 0
26.02 -14.138 -8.333 -0 -1.2 0
25.803 -14.608 -8.254 -0 -1.2 0
25.577 -15.073 -8.173 -0 -1.2 0
25.343 -15.534 -8.089 -0 -1.2 0
25.102 -15.991 -8.002 -0 -1.2 0
24.853 -16.443 -7.915 -0 -1.2 0
24.597 -16.891 -7.824 -0 -1.2 0
24.333 -17.333 -7.73 -0 -1.2 0
24.062 -17.771 -7.636 -0 -1.2 0
23.784 -18.203 -7.539 -0 -1.2 0
23.498 -18.631 -7.44 -0 -1.2 0
23.205 -19.052 -7.338 -0 -1.2 0
22.905 -19.469 -7.235 -0 -1.2 0
22.599 -19.88 -7.13 -0 -1.2 0
22.285 -20.285 -7.023 -0 -1.2 0
21.964 -20.685 -6.913 -0 -1.2 0
21.637 -21.078 -6.802 -0 -1.2 0
21.303 -21.466 -6.689 -0 -1.2 0
20.964 -21.848 -6.574 -0 -1.2 0
27.788 -7.744 -10.12 -0 -1.2 0
27.679 -8.254 -10.068 -0 -1.2 0
25.721 -14.153 -9.233 -0 -1.2 0
24.815 -16.006 -8.868 -0 -1.2 0
24.569 -16.457 -8.771 -0 -1.2 0
24.316 -16.905 -8.671 -0 -1.2 0
24.055 -17.347 -8.569 -0 -1.2 0
23.788 -17.785 -8.463 -0 -1.2 0
23.513 -18.217 -8.356 -0 -1.2 0
23.23 -18.645 -8.246 -0 -1.2 0
22.942 -19.066 -8.135 -0 -1.2 0
22.645 -19.483 -8.021 -0 -1.2 0
22.342 -19.894 -7.904 -0 -1.2 0
22.033 -20.299 -7.786 -0 -1.2 0
21.717 -20.698 -7.664 -0 -1.2 0
21.393 -21.091 -7.541 -0 -1.2 0
21.064 -21.478 -7.416 -0 -1.2 0
20.728 -21.86 -7.289 -0 -1.2 0
25.817 -13.218 -10.238 -0 -1.2 0
25.416 -14.168 -10.058 -0 -1.2 0
25.203 -14.638 -9.963 -0 -1.2 0
24.984 -15.103 -9.866 -0 -1.2 0
24.521 -16.02 -9.662 -0 -1.2 0
24.278 -16.471 -9.556 -0 -1.2 0
24.028 -16.919 -9.448 -0 -1.2 0
23.771 -17.361 -9.336 -0 -1.2 0
23.507 -17.798 -9.222 -0 -1.2 0
23.236 -18.23 -9.106 -0 -1.2 0
22.957 -18.658 -8.986 -0 -1.2 0
22.672 -19.079 -8.865 -0 -1.2 0
22.38 -19.496 -8.74 -0 -1.2 0
22.081 -19.906 -8.614 -0 -1.2 0
21.775 -20.311 -8.485 -0 -1.2 0
21.463 -20.71 -8.353 -0 -1.2 0
21.143 -21.103 -8.219 -0 -1.2 0
20.818 -21.49 -8.083 -0 -1.2 0
20.487 -21.872 -7.944 -0 -1.2 0
26.008 -11.78 -11.346 -0 -1.2 0
24.651 -15.116 -10.676 -0 -1.2 0
23.957 -16.485 -10.342 -0 -1.2 0
23.711 -16.932 -10.226 -0 -1.2 0
23.197 -17.811 -9.982 -0 -1.2 0
22.929 -18.243 -9.857 -0 -1.2 0
22.655 -18.67 -9.727 -0 -1.2 0
22.374 -19.091 -9.596 -0 -1.2 0
22.085 -19.508 -9.462 -0 -1.2 0
21.79 -19.918 -9.325 -0 -1.2 0
21.489 -20.323 -9.185 -0 -1.2 0
21.182 -20.721 -9.043 -0 -1.2 0
20.868 -21.114 -8.898 -0 -1.2 0
20.547 -21.501 -8.75 -0 -1.2 0
20.22 -21.882 -8.601 -0 -1.2 0
22.56 -18.258 -10.674 -0 -1.2 0
22.29 -18.685 -10.535 -0 -1.2 0
22.014 -19.106 -10.392 -0 -1.2 0
21.731 -19.522 -10.247 -0 -1.2 0
21.442 -19.933 -10.099 -0 -1.2 0
21.145 -20.337 -9.948 -0 -1.2 0
20.843 -20.735 -9.794 -0 -1.2 0
20.534 -21.128 -9.637 -0 -1.2 0
20.219 -21.515 -9.478 -0 -1.2 0
19.898 -21.896 -9.316 -0 -1.2 0
21.924 -18.699 -11.272 -0 -1.2 0
21.653 -19.12 -11.119 -0 -1.2 0
21.376 -19.536 -10.964 -0 -1.2 0
21.091 -19.946 -10.806 -0 -1.2 0
20.799 -20.35 -10.644 -0 -1.2 0
20.503 -20.749 -10.48 -0 -1.2 0
20.199 -21.141 -10.313 -0 -1.2 0
19.89 -21.528 -10.142 -0 -1.2 0
19.575 -21.908 -9.968 -0 -1.2 0
21.792 -18.287 -12.154 -0 -1.2 0
21.533 -18.714 -11.995 -0 -1.2 0
21.267 -19.134 -11.834 -0 -1.2 0
20.994 -19.55 -11.669 -0 -1.2 0
20.715 -19.96 -11.501 -0 -1.2 0
20.43 -20.364 -11.329 -0 -1.2 0
20.138 -20.762 -11.153 -0 -1.2 0
19.842 -21.154 -10.975 -0 -1.2 0
19.538 -21.541 -10.794 -0 -1.2 0
19.229 -21.921 -10.61 -0 -1.2 0
25.318 -6.82 -15.761 -0 -1.2 0
20.8 -19.147 -12.632 -0 -1.2 0
20.533 -19.562 -12.457 -0 -1.2 0
20.26 -19.972 -12.279 -0 -1.2 0
19.981 -20.376 -12.096 -0 -1.2 0
19.697 -20.774 -11.91 -0 -1.2 0
19.406 -21.166 -11.72 -0 -1.2 0
19.11 -21.552 -11.528 -0 -1.2 0
18.807 -21.932 -11.332 -0 -1.2 0
19.797 -19.982 -13.009 -0 -1.2 0
19.525 -20.386 -12.816 -0 -1.2 0
19.246 -20.783 -12.62 -0 -1.2 0
18.963 -21.175 -12.421 -0 -1.2 0
18.672 -21.561 -12.217 -0 -1.2 0
18.378 -21.942 -12.01 -0 -1.2 0
21.213 -16.564 -15.187 -0 -1.2 0
19.567 -19.581 -13.919 -0 -1.2 0
19.308 -19.99 -13.721 -0 -1.2 0
19.043 -20.394 -13.519 -0 -1.2 0
18.772 -20.791 -13.313 -0 -1.2 0
18.495 -21.183 -13.103 -0 -1.2 0
18.212 -21.569 -12.889 -0 -1.2 0
17.925 -21.949 -12.673 -0 -1.2 0
19.724 -18.326 -15.274 -0 -1.2 0
19.25 -19.172 -14.88 -0 -1.2 0
19.005 -19.587 -14.676 -0 -1.2 0
18.752 -19.996 -14.469 -0 -1.2 0
18.495 -20.4 -14.256 -0 -1.2 0
18.232 -20.797 -14.04 -0 -1.2 0
17.963 -21.189 -13.82 -0 -1.2 0
17.689 -21.575 -13.596 -0 -1.2 0
17.41 -21.955 -13.368 -0 -1.2 0
20.79 -14.744 -17.39 -0 -1.2 0
18.723 -19.174 -15.536 -0 -1.2 0
18.484 -19.59 -15.324 -0 -1.2 0
18.24 -19.999 -15.108 -0 -1.2 0
17.989 -20.402 -14.888 -0 -1.2 0
17.734 -20.8 -14.662 -0 -1.2 0
17.473 -21.192 -14.433 -0 -1.2 0
17.206 -21.578 -14.199 -0 -1.2 0
16.935 -21.957 -13.961 -0 -1.2 0
21.234 -11.388 -19.114 -0 -1.2 0
19.26 -17.021 -17.187 -0 -1.2 0
18.632 -18.329 -16.587 -0 -1.2 0
18.411 -18.755 -16.378 -0 -1.2 0
18.185 -19.175 -16.163 -0 -1.2 0
17.953 -19.59 -15.943 -0 -1.2 0
17.716 -19.999 -15.719 -0 -1.2 0
17.473 -20.403 -15.49 -0 -1.2 0
17.225 -20.801 -15.257 -0 -1.2 0
16.972 -21.192 -15.019 -0 -1.2 0
16.713 -21.578 -14.777 -0 -1.2 0
16.451 -21.958 -14.53 -0 -1.2 0
18.221 -17.896 -17.47 -0 -1.2 0
18.013 -18.327 -17.258 -0 -1.2 0
17.8 -18.753 -17.041 -0 -1.2 0
17.582 -19.173 -16.818 -0 -1.2 0
17.358 -19.589 -16.59 -0 -1.2 0
17.128 -19.998 -16.358 -0 -1.2 0
16.894 -20.401 -16.12 -0 -1.2 0
16.654 -20.799 -15.878 -0 -1.2 0
16.41 -21.191 -15.632 -0 -1.2 0
16.16 -21.577 -15.381 -0 -1.2 0
15.906 -21.956 -15.125 -0 -1.2 0
18.179 -16.582 -18.699 -0 -1.2 0
17.804 -17.469 -18.287 -0 -1.2 0
17.609 -17.906 -18.073 -0 -1.2 0
17.408 -18.337 -17.854 -0 -1.2 0
17.202 -18.763 -17.629 -0 -1.2 0
16.992 -19.183 -17.398 -0 -1.2 0
16.775 -19.598 -17.163 -0 -1.2 0
16.554 -20.007 -16.923 -0 -1.2 0
16.328 -20.41 -16.678 -0 -1.2 0
16.096 -20.808 -16.427 -0 -1.2 0
15.86 -21.199 -16.173 -0 -1.2 0
15.619 -21.585 -15.913 -0 -1.2 0
15.374 -21.965 -15.648 -0 -1.2 0
19.153 -11.414 -21.174 -0 -1.2 0
19.037 -11.903 -21.031 -0 -1.2 0
18.512 -13.829 -20.397 -0 -1.2 0
17.558 -16.598 -19.265 -0 -1.2 0
17.379 -17.044 -19.055 -0 -1.2 0
17.196 -17.484 -18.841 -0 -1.2 0
17.008 -17.921 -18.62 -0 -1.2 0
16.814 -18.351 -18.394 -0 -1.2 0
16.615 -18.777 -18.163 -0 -1.2 0
16.412 -19.197 -17.926 -0 -1.2 0
16.203 -19.612 -17.685 -0 -1.2 0
15.99 -20.021 -17.437 -0 -1.2 0
15.771 -20.424 -17.184 -0 -1.2 0
15.548 -20.821 -16.926 -0 -1.2 0
15.32 -21.212 -16.664 -0 -1.2 0
15.087 -21.598 -16.396 -0 -1.2 0
14.85 -21.977 -16.123 -0 -1.2 0
18.506 -10.936 -21.956 -0 -1.2 0
18.4 -11.43 -21.816 -0 -1.2 0
18.169 -12.406 -21.515 -0 -1.2 0
18.047 -12.889 -21.355 -0 -1.2 0
17.918 -13.369 -21.189 -0 -1.2 0
17.499 -14.785 -20.652 -0 -1.2 0
17.194 -15.708 -20.264 -0 -1.2 0
17.033 -16.163 -20.06 -0 -1.2 0
16.867 -16.613 -19.851 -0 -1.2 0
16.697 -17.059 -19.636 -0 -1.2 0
16.521 -17.499 -19.415 -0 -1.2 0
16.341 -17.935 -19.188 -0 -1.2 0
16.154 -18.366 -18.955 -0 -1.2 0
15.963 -18.791 -18.716 -0 -1.2 0
15.768 -19.211 -18.473 -0 -1.2 0
15.568 -19.626 -18.223 -0 -1.2 0
15.363 -20.034 -17.969 -0 -1.2 0
15.153 -20.437 -17.708 -0 -1.2 0
14.939 -20.834 -17.443 -0 -1.2 0
14.72 -21.226 -17.172 -0 -1.2 0
14.497 -21.611 -16.897 -0 -1.2 0
14.269 -21.99 -16.616 -0 -1.2 0
17.78 -10.95 -22.533 -0 -1.2 0
17.678 -11.444 -22.389 -0 -1.2 0
17.571 -11.934 -22.238 -0 -1.2 0
17.458 -12.419 -22.081 -0 -1.2 0
17.34 -12.903 -21.917 -0 -1.2 0
17.216 -13.382 -21.747 -0 -1.2 0
17.087 -13.858 -21.57 -0 -1.2 0
16.953 -14.33 -21.386 -0 -1.2 0
16.815 -14.798 -21.196 -0 -1.2 0
16.671 -15.261 -21 -0 -1.2 0
16.521 -15.721 -20.798 -0 -1.2 0
16.367 -16.176 -20.589 -0 -1.2 0
16.209 -16.625 -20.374 -0 -1.2 0
16.044 -17.071 -20.154 -0 -1.2 0
15.876 -17.511 -19.927 -0 -1.2 0
15.702 -17.948 -19.694 -0 -1.2 0
15.523 -18.378 -19.455 -0 -1.2 0
15.34 -18.803 -19.21 -0 -1.2 0
15.153 -19.223 -18.961 -0 -1.2 0
14.96 -19.637 -18.705 -0 -1.2 0
14.763 -20.046 -18.443 -0 -1.2 0
14.562 -20.449 -18.177 -0 -1.2 0
14.356 -20.846 -17.904 -0 -1.2 0
14.146 -21.237 -17.626 -0 -1.2 0
13.931 -21.622 -17.344 -0 -1.2 0
13.713 -22.001 -17.056 -0 -1.2 0
17.036 -10.963 -23.085 -0 -1.2 0
16.938 -11.457 -22.938 -0 -1.2 0
16.836 -11.946 -22.783 -0 -1.2 0
16.728 -12.432 -22.622 -0 -1.2 0
16.614 -12.916 -22.455 -0 -1.2 0
16.497 -13.394 -22.28 -0 -1.2 0
16.373 -13.87 -22.1 -0 -1.2 0
16.245 -14.342 -21.912 -0 -1.2 0
16.112 -14.81 -21.717 -0 -1.2 0
15.975 -15.273 -21.517 -0 -1.2 0
15.831 -15.733 -21.309 -0 -1.2 0
15.684 -16.187 -21.096 -0 -1.2 0
15.532 -16.637 -20.876 -0 -1.2 0
15.375 -17.083 -20.65 -0 -1.2 0
15.214 -17.523 -20.418 -0 -1.2 0
15.048 -17.959 -20.179 -0 -1.2 0
14.876 -18.389 -19.935 -0 -1.2 0
14.701 -18.814 -19.685 -0 -1.2 0
14.521 -19.233 -19.429 -0 -1.2 0
14.338 -19.648 -19.166 -0 -1.2 0
14.149 -20.056 -18.898 -0 -1.2 0
13.956 -20.459 -18.625 -0 -1.2 0
13.759 -20.856 -18.346 -0 -1.2 0
13.558 -21.247 -18.062 -0 -1.2 0
13.352 -21.632 -17.772 -0 -1.2 0
13.143 -22.011 -17.477 -0 -1.2 0
16.211 -10.975 -23.656 -0 -1.2 0
16.119 -11.469 -23.505 -0 -1.2 0
16.021 -11.958 -23.347 -0 -1.2 0
15.918 -12.444 -23.183 -0 -1.2 0
15.812 -12.927 -23.011 -0 -1.2 0
15.699 -13.406 -22.832 -0 -1.2 0
15.583 -13.882 -22.647 -0 -1.2 0
15.46 -14.353 -22.455 -0 -1.2 0
15.334 -14.821 -22.256 -0 -1.2 0
15.203 -15.285 -22.051 -0 -1.2 0
15.068 -15.744 -21.839 -0 -1.2 0
14.927 -16.199 -21.62 -0 -1.2 0
14.783 -16.648 -21.394 -0 -1.2 0
14.634 -17.094 -21.163 -0 -1.2 0
14.479 -17.534 -20.925 -0 -1.2 0
14.322 -17.97 -20.681 -0 -1.2 0
14.159 -18.4 -20.431 -0 -1.2 0
13.993 -18.825 -20.174 -0 -1.2 0
13.822 -19.244 -19.912 -0 -1.2 0
13.648 -19.658 -19.643 -0 -1.2 0
13.468 -20.067 -19.369 -0 -1.2 0
13.285 -20.469 -19.089 -0 -1.2 0
13.097 -20.866 -18.803 -0 -1.2 0
12.907 -21.256 -18.512 -0 -1.2 0
12.712 -21.641 -18.214 -0 -1.2 0
12.513 -22.02 -17.912 -0 -1.2 0
15.428 -10.985 -24.159 -0 -1.2 0
15.339 -11.479 -24.005 -0 -1.2 0
15.247 -11.968 -23.844 -0 -1.2 0
15.149 -12.454 -23.677 -0 -1.2 0
15.048 -12.937 -23.502 -0 -1.2 0
14.94 -13.416 -23.32 -0 -1.2 0
14.83 -13.892 -23.131 -0 -1.2 0
14.714 -14.363 -22.935 -0 -1.2 0
14.594 -14.831 -22.732 -0 -1.2 0
14.47 -15.294 -22.522 -0 -1.2 0
14.341 -15.753 -22.305 -0 -1.2 0
14.207 -16.208 -22.082 -0 -1.2 0
14.07 -16.657 -21.852 -0 -1.2 0
13.929 -17.103 -21.616 -0 -1.2 0
13.782 -17.543 -21.373 -0 -1.2 0
13.632 -17.978 -21.123 -0 -1.2 0
13.478 -18.408 -20.868 -0 -1.2 0
13.319 -18.833 -20.606 -0 -1.2 0
13.157 -19.252 -20.338 -0 -1.2 0
12.991 -19.667 -20.064 -0 -1.2 0
12.821 -20.075 -19.784 -0 -1.2 0
12.646 -20.477 -19.498 -0 -1.2 0
12.468 -20.874 -19.207 -0 -1.2 0
12.286 -21.264 -18.909 -0 -1.2 0
12.101 -21.649 -18.605 -0 -1.2 0
11.912 -22.028 -18.296 -0 -1.2 0
14.698 -10.522 -24.78 -0 -1.2 0
14.619 -11.017 -24.631 -0 -1.2 0
14.536 -11.51 -24.473 -0 -1.2 0
14.448 -12 -24.309 -0 -1.2 0
14.357 -12.485 -24.137 -0 -1.2 0
14.26 -12.968 -23.959 -0 -1.2 0
14.16 -13.447 -23.773 -0 -1.2 0
14.054 -13.922 -23.579 -0 -1.2 0
13.946 -14.393 -23.379 -0 -1.2 0
13.833 -14.861 -23.172 -0 -1.2 0
13.715 -15.324 -22.957 -0 -1.2 0
13.593 -15.783 -22.736 -0 -1.2 0
13.468 -16.237 -22.508 -0 -1.2 0
13.337 -16.686 -22.274 -0 -1.2 0
13.204 -17.131 -22.031 -0 -1.2 0
13.066 -17.571 -21.784 -0 -1.2 0
12.924 -18.006 -21.529 -0 -1.2 0
12.778 -18.436 -21.268 -0 -1.2 0
12.629 -18.86 -21.001 -0 -1.2 0
12.475 -19.279 -20.727 -0 -1.2 0
12.318 -19.693 -20.447 -0 -1.2 0
12.156 -20.101 -20.161 -0 -1.2 0
11.992 -20.503 -19.869 -0 -1.2 0
11.824 -20.899 -19.571 -0 -1.2 0
11.652 -21.289 -19.267 -0 -1.2 0
11.476 -21.673 -18.957 -0 -1.2 0
11.298 -22.052 -18.642 -0 -1.2 0
13.787 -10.587 -25.259 -0 -1.2 0
13.713 -11.082 -25.105 -0 -1.2 0
13.636 -11.575 -24.944 -0 -1.2 0
13.554 -12.063 -24.775 -0 -1.2 0
13.469 -12.548 -24.6 -0 -1.2 0
13.38 -13.031 -24.415 -0 -1.2 0
13.286 -13.509 -24.225 -0 -1.2 0
13.188 -13.984 -24.027 -0 -1.2 0
13.087 -14.454 -23.821 -0 -1.2 0
12.981 -14.922 -23.609 -0 -1.2 0
12.871 -15.384 -23.389 -0 -1.2 0
12.758 -15.842 -23.162 -0 -1.2 0
12.641 -16.296 -22.929 -0 -1.2 0
12.52 -16.745 -22.688 -0 -1.2 0
12.395 -17.189 -22.441 -0 -1.2 0
12.266 -17.628 -22.186 -0 -1.2 0
12.133 -18.063 -21.926 -0 -1.2 0
11.998 -18.492 -21.659 -0 -1.2 0
11.858 -18.916 -21.385 -0 -1.2 0
11.715 -19.334 -21.105 -0 -1.2 0
11.567 -19.747 -20.818 -0 -1.2 0
11.417 -20.154 -20.526 -0 -1.2 0
11.263 -20.555 -20.226 -0 -1.2 0
11.106 -20.95 -19.921 -0 -1.2 0
10.946 -21.34 -19.61 -0 -1.2 0
10.782 -21.723 -19.293 -0 -1.2 0
10.615 -22.101 -18.97 -0 -1.2 0
12.914 -10.65 -25.679 -0 -1.2 0
12.847 -11.144 -25.521 -0 -1.2 0
12.775 -11.636 -25.356 -0 -1.2 0
12.7 -12.125 -25.184 -0 -1.2 0
12.62 -12.609 -25.003 -0 -1.2 0
12.537 -13.092 -24.816 -0 -1.2 0
12.45 -13.569 -24.62 -0 -1.2 0
12.36 -14.044 -24.418 -0 -1.2 0
12.264 -14.513 -24.208 -0 -1.2 0
12.167 -14.98 -23.99 -0 -1.2 0
12.064 -15.442 -23.766 -0 -1.2 0
11.959 -15.9 -23.535 -0 -1.2 0
11.849 -16.353 -23.296 -0 -1.2 0
11.736 -16.801 -23.051 -0 -1.2 0
11.62 -17.245 -22.797 -0 -1.2 0
11.501 -17.683 -22.538 -0 -1.2 0
11.378 -18.117 -22.272 -0 -1.2 0
11.251 -18.545 -21.999 -0 -1.2 0
11.12 -18.968 -21.72 -0 -1.2 0
10.986 -19.386 -21.434 -0 -1.2 0
10.849 -19.798 -21.141 -0 -1.2 0
10.709 -20.205 -20.842 -0 -1.2 0
10.566 -20.605 -20.537 -0 -1.2 0
10.419 -21 -20.226 -0 -1.2 0
10.27 -21.388 -19.909 -0 -1.2 0
10.117 -21.771 -19.585 -0 -1.2 0
9.961 -22.148 -19.257 -0 -1.2 0
12.086 -10.216 -26.22 -0 -1.2 0
12.028 -10.714 -26.067 -0 -1.2 0
11.965 -11.208 -25.907 -0 -1.2 0
11.9 -11.699 -25.738 -0 -1.2 0
11.83 -12.187 -25.562 -0 -1.2 0
11.756 -12.671 -25.378 -0 -1.2 0
11.68 -13.153 -25.186 -0 -1.2 0
11.599 -13.63 -24.987 -0 -1.2 0
11.516 -14.104 -24.78 -0 -1.2 0
11.429 -14.574 -24.566 -0 -1.2 0
11.338 -15.04 -24.344 -0 -1.2 0
11.243 -15.501 -24.115 -0 -1.2 0
11.146 -15.958 -23.879 -0 -1.2 0
11.045 -16.411 -23.636 -0 -1.2 0
10.941 -16.858 -23.386 -0 -1.2 0
10.833 -17.301 -23.128 -0 -1.2 0
10.722 -17.739 -22.864 -0 -1.2 0
10.608 -18.172 -22.592 -0 -1.2 0
10.49 -18.6 -22.314 -0 -1.2 0
10.37 -19.023 -22.029 -0 -1.2 0
10.246 -19.439 -21.738 -0 -1.2 0
10.12 -19.851 -21.44 -0 -1.2 0
9.99 -20.257 -21.135 -0 -1.2 0
9.857 -20.656 -20.824 -0 -1.2 0
9.721 -21.05 -20.508 -0 -1.2 0
9.582 -21.438 -20.184 -0 -1.2 0
9.44 -21.82 -19.855 -0 -1.2 0
9.296 -22.196 -19.519 -0 -1.2 0
11.11 -10.287 -26.607 -0 -1.2 0
11.058 -10.784 -26.451 -0 -1.2 0
11.001 -11.278 -26.287 -0 -1.2 0
10.941 -11.769 -26.115 -0 -1.2 0
10.878 -12.256 -25.935 -0 -1.2 0
10.812 -12.74 -25.747 -0 -1.2 0
10.742 -13.221 -25.551 -0 -1.2 0
10.669 -13.698 -25.348 -0 -1.2 0
10.593 -14.171 -25.138 -0 -1.2 0
10.513 -14.64 -24.918 -0 -1.2 0
10.431 -15.106 -24.692 -0 -1.2 0
10.346 -15.566 -24.459 -0 -1.2 0
10.256 -16.023 -24.218 -0 -1.2 0
10.165 -16.475 -23.97 -0 -1.2 0
10.069 -16.921 -23.715 -0 -1.2 0
9.971 -17.364 -23.453 -0 -1.2 0
9.871 -17.801 -23.183 -0 -1.2 0
9.767 -18.233 -22.907 -0 -1.2 0
9.659 -18.66 -22.623 -0 -1.2 0
9.549 -19.082 -22.333 -0 -1.2 0
9.436 -19.498 -22.036 -0 -1.2 0
9.32 -19.909 -21.732 -0 -1.2 0
9.202 -20.314 -21.423 -0 -1.2 0
9.081 -20.713 -21.106 -0 -1.2 0
8.957 -21.105 -20.783 -0 -1.2 0
8.83 -21.492 -20.454 -0 -1.2 0
8.701 -21.873 -20.118 -0 -1.2 0
8.568 -22.248 -19.777 -0 -1.2 0
10.239 -9.855 -27.083 -0 -1.2 0
10.194 -10.354 -26.932 -0 -1.2 0
10.147 -10.851 -26.774 -0 -1.2 0
10.096 -11.344 -26.606 -0 -1.2 0
10.042 -11.835 -26.431 -0 -1.2 0
9.985 -12.322 -26.248 -0 -1.2 0
9.925 -12.805 -26.057 -0 -1.2 0
9.862 -13.286 -25.857 -0 -1.2 0
9.796 -13.762 -25.65 -0 -1.2 0
9.727 -14.235 -25.436 -0 -1.2 0
9.655 -14.703 -25.214 -0 -1.2 0
9.58 -15.168 -24.984 -0 -1.2 0
9.503 -15.628 -24.747 -0 -1.2 0
9.422 -16.084 -24.502 -0 -1.2 0
9.338 -16.535 -24.25 -0 -1.2 0
9.252 -16.981 -23.99 -0 -1.2 0
9.163 -17.423 -23.723 -0 -1.2 0
9.071 -17.859 -23.449 -0 -1.2 0
8.976 -18.291 -23.168 -0 -1.2 0
8.879 -18.717 -22.881 -0 -1.2 0
8.779 -19.138 -22.586 -0 -1.2 0
8.676 -19.553 -22.284 -0 -1.2 0
8.571 -19.964 -21.976 -0 -1.2 0
8.464 -20.368 -21.661 -0 -1.2 0
8.353 -20.766 -21.339 -0 -1.2 0
8.239 -21.158 -21.011 -0 -1.2 0
8.125 -21.544 -20.677 -0 -1.2 0
8.007 -21.924 -20.337 -0 -1.2 0
7.886 -22.298 -19.99 -0 -1.2 0
9.307 -9.923 -27.38 -0 -1.2 0
9.268 -10.422 -27.226 -0 -1.2 0
9.225 -10.918 -27.064 -0 -1.2 0
9.18 -11.411 -26.894 -0 -1.2 0
9.132 -11.901 -26.716 -0 -1.2 0
9.082 -12.388 -26.53 -0 -1.2 0
9.027 -12.871 -26.335 -0 -1.2 0
8.971 -13.351 -26.132 -0 -1.2 0
8.913 -13.827 -25.922 -0 -1.2 0
8.851 -14.299 -25.704 -0 -1.2 0
8.786 -14.766 -25.479 -0 -1.2 0
8.72 -15.231 -25.245 -0 -1.2 0
8.65 -15.69 -25.004 -0 -1.2 0
8.578 -16.146 -24.757 -0 -1.2 0
8.503 -16.596 -24.5 -0 -1.2 0
8.425 -17.042 -24.237 -0 -1.2 0
8.345 -17.483 -23.966 -0 -1.2 0
8.263 -17.918 -23.689 -0 -1.2 0
8.177 -18.35 -23.403 -0 -1.2 0
8.09 -18.775 -23.111 -0 -1.2 0
8 -19.195 -22.812 -0 -1.2 0
7.907 -19.61 -22.506 -0 -1.2 0
7.812 -20.019 -22.193 -0 -1.2 0
7.715 -20.422 -21.873 -0 -1.2 0
7.616 -20.82 -21.548 -0 -1.2 0
7.515 -21.211 -21.215 -0 -1.2 0
7.41 -21.596 -20.876 -0 -1.2 0
7.304 -21.976 -20.531 -0 -1.2 0
7.196 -22.349 -20.18 -0 -1.2 0
8.333 -9.486 -27.81 -0 -1.2 0
8.301 -9.987 -27.663 -0 -1.2 0
8.266 -10.485 -27.507 -0 -1.2 0
8.23 -10.982 -27.342 -0 -1.2 0
8.191 -11.474 -27.17 -0 -1.2 0
8.149 -11.964 -26.989 -0 -1.2 0
8.105 -12.45 -26.799 -0 -1.2 0
8.058 -12.932 -26.603 -0 -1.2 0
8.009 -13.412 -26.398 -0 -1.2 0
7.958 -13.887 -26.184 -0 -1.2 0
7.903 -14.359 -25.963 -0 -1.2 0
7.848 -14.826 -25.734 -0 -1.2 0
7.789 -15.29 -25.498 -0 -1.2 0
7.727 -15.749 -25.253 -0 -1.2 0
7.665 -16.204 -25.002 -0 -1.2 0
7.599 -16.654 -24.742 -0 -1.2 0
7.531 -17.098 -24.474 -0 -1.2 0
7.461 -17.539 -24.2 -0 -1.2 0
7.388 -17.974 -23.919 -0 -1.2 0
7.313 -18.405 -23.629 -0 -1.2 0
7.237 -18.829 -23.334 -0 -1.2 0
7.157 -19.249 -23.031 -0 -1.2 0
7.077 -19.663 -22.721 -0 -1.2 0
6.993 -20.071 -22.403 -0 -1.2 0
6.907 -20.474 -22.079 -0 -1.2 0
6.82 -20.87 -21.749 -0 -1.2 0
6.73 -21.261 -21.412 -0 -1.2 0
6.639 -21.645 -21.07 -0 -1.2 0
6.544 -22.024 -20.72 -0 -1.2 0
6.449 -22.396 -20.364 -0 -1.2 0
7.401 -9.521 -28.045 -0 -1.2 0
7.374 -10.022 -27.896 -0 -1.2 0
7.345 -10.52 -27.739 -0 -1.2 0
7.314 -11.016 -27.572 -0 -1.2 0
7.28 -11.508 -27.397 -0 -1.2 0
7.244 -11.998 -27.215 -0 -1.2 0
7.207 -12.484 -27.024 -0 -1.2 0
7.167 -12.966 -26.825 -0 -1.2 0
7.124 -13.446 -26.618 -0 -1.2 0
7.08 -13.921 -26.402 -0 -1.2 0
7.032 -14.392 -26.179 -0 -1.2 0
6.984 -14.859 -25.948 -0 -1.2 0
6.933 -15.323 -25.709 -0 -1.2 0
6.88 -15.781 -25.462 -0 -1.2 0
6.825 -16.236 -25.207 -0 -1.2 0
6.768 -16.685 -24.945 -0 -1.2 0
6.709 -17.13 -24.676 -0 -1.2 0
6.647 -17.57 -24.398 -0 -1.2 0
6.584 -18.004 -24.113 -0 -1.2 0
6.519 -18.435 -23.822 -0 -1.2 0
6.451 -18.859 -23.523 -0 -1.2 0
6.383 -19.278 -23.217 -0 -1.2 0
6.311 -19.692 -22.904 -0 -1.2 0
6.238 -20.1 -22.584 -0 -1.2 0
6.164 -20.502 -22.257 -0 -1.2 0
6.086 -20.898 -21.924 -0 -1.2 0
6.008 -21.288 -21.584 -0 -1.2 0
5.928 -21.672 -21.237 -0 -1.2 0
5.846 -22.05 -20.884 -0 -1.2 0
5.762 -22.422 -20.525 -0 -1.2 0
6.49 -9.052 -28.389 -0 -1.2 0
6.47 -9.556 -28.247 -0 -1.2 0
6.448 -10.057 -28.096 -0 -1.2 0
6.424 -10.555 -27.937 -0 -1.2 0
6.397 -11.051 -27.769 -0 -1.2 0
6.37 -11.543 -27.593 -0 -1.2 0
6.34 -12.032 -27.408 -0 -1.2 0
6.307 -12.518 -27.216 -0 -1.2 0
6.274 -13 -27.016 -0 -1.2 0
6.238 -13.479 -26.806 -0 -1.2 0
6.2 -13.954 -26.589 -0 -1.2 0
6.161 -14.425 -26.364 -0 -1.2 0
6.12 -14.891 -26.131 -0 -1.2 0
6.076 -15.355 -25.89 -0 -1.2 0
6.031 -15.813 -25.641 -0 -1.2 0
5.985 -16.267 -25.384 -0 -1.2 0
5.936 -16.716 -25.12 -0 -1.2 0
5.886 -17.161 -24.848 -0 -1.2 0
5.833 -17.601 -24.568 -0 -1.2 0
5.779 -18.035 -24.281 -0 -1.2 0
5.724 -18.465 -23.986 -0 -1.2 0
5.666 -18.889 -23.686 -0 -1.2 0
5.607 -19.308 -23.377 -0 -1.2 0
5.546 -19.72 -23.06 -0 -1.2 0
5.483 -20.128 -22.738 -0 -1.2 0
5.419 -20.53 -22.408 -0 -1.2 0
5.353 -20.926 -22.072 -0 -1.2 0
5.286 -21.315 -21.729 -0 -1.2 0
5.217 -21.699 -21.38 -0 -1.2 0
5.146 -22.076 -21.023 -0 -1.2 0
5.075 -22.448 -20.661 -0 -1.2 0
5.476 -9.09 -28.573 -0 -1.2 0
5.461 -9.594 -28.429 -0 -1.2 0
5.444 -10.095 -28.278 -0 -1.2 0
5.425 -10.592 -28.117 -0 -1.2 0
5.405 -11.088 -27.948 -0 -1.2 0
5.383 -11.579 -27.77 -0 -1.2 0
5.36 -12.069 -27.585 -0 -1.2 0
5.334 -12.554 -27.39 -0 -1.2 0
5.307 -13.036 -27.188 -0 -1.2 0
5.278 -13.515 -26.977 -0 -1.2 0
5.249 -13.989 -26.758 -0 -1.2 0
5.216 -14.46 -26.531 -0 -1.2 0
5.184 -14.926 -26.296 -0 -1.2 0
5.149 -15.389 -26.052 -0 -1.2 0
5.112 -15.847 -25.802 -0 -1.2 0
5.074 -16.301 -25.543 -0 -1.2 0
5.035 -16.75 -25.277 -0 -1.2 0
4.994 -17.194 -25.002 -0 -1.2 0
4.952 -17.633 -24.72 -0 -1.2 0
4.907 -18.067 -24.431 -0 -1.2 0
4.862 -18.497 -24.134 -0 -1.2 0
4.815 -18.92 -23.83 -0 -1.2 0
4.767 -19.339 -23.52 -0 -1.2 0
4.717 -19.751 -23.202 -0 -1.2 0
4.666 -20.159 -22.876 -0 -1.2 0
4.613 -20.56 -22.544 -0 -1.2 0
4.559 -20.955 -22.206 -0 -1.2 0
4.504 -21.344 -21.859 -0 -1.2 0
4.447 -21.727 -21.508 -0 -1.2 0
4.389 -22.105 -21.149 -0 -1.2 0
4.329 -22.476 -20.783 -0 -1.2 0
4.529 -9.125 -28.711 -0 -1.2 0
4.518 -9.629 -28.567 -0 -1.2 0
4.505 -10.129 -28.414 -0 -1.2 0
4.492 -10.627 -28.252 -0 -1.2 0
4.477 -11.122 -28.082 -0 -1.2 0
4.46 -11.613 -27.903 -0 -1.2 0
4.442 -12.103 -27.716 -0 -1.2 0
4.424 -12.588 -27.52 -0 -1.2 0
4.403 -13.069 -27.317 -0 -1.2 0
4.382 -13.548 -27.105 -0 -1.2 0
4.358 -14.022 -26.884 -0 -1.2 0
4.334 -14.493 -26.655 -0 -1.2 0
4.308 -14.958 -26.419 -0 -1.2 0
4.281 -15.421 -26.174 -0 -1.2 0
4.253 -15.879 -25.922 -0 -1.2 0
4.223 -16.332 -25.661 -0 -1.2 0
4.193 -16.781 -25.393 -0 -1.2 0
4.161 -17.224 -25.117 -0 -1.2 0
4.128 -17.664 -24.834 -0 -1.2 0
4.092 -18.097 -24.543 -0 -1.2 0
4.057 -18.526 -24.245 -0 -1.2 0
4.02 -18.949 -23.939 -0 -1.2 0
3.981 -19.367 -23.626 -0 -1.2 0
3.942 -19.78 -23.306 -0 -1.2 0
3.902 -20.186 -22.979 -0 -1.2 0
3.86 -20.587 -22.644 -0 -1.2 0
3.817 -20.982 -22.303 -0 -1.2 0
3.772 -21.371 -21.955 -0 -1.2 0
3.727 -21.754 -21.601 -0 -1.2 0
3.68 -22.131 -21.24 -0 -1.2 0
3.633 -22.501 -20.873 -0 -1.2 0
3.581 -8.654 -28.954 -0 -1.2 0
3.576 -9.159 -28.818 -0 -1.2 0
3.569 -9.663 -28.672 -0 -1.2 0
3.561 -10.163 -28.519 -0 -1.2 0
3.553 -10.66 -28.356 -0 -1.2 0
3.543 -11.156 -28.185 -0 -1.2 0
3.533 -11.647 -28.006 -0 -1.2 0
3.52 -12.136 -27.817 -0 -1.2 0
3.508 -12.621 -27.62 -0 -1.2 0
3.495 -13.102 -27.415 -0 -1.2 0
3.479 -13.58 -27.202 -0 -1.2 0
3.463 -14.054 -26.981 -0 -1.2 0
3.447 -14.525 -26.751 -0 -1.2 0
3.428 -14.99 -26.513 -0 -1.2 0
3.409 -15.453 -26.267 -0 -1.2 0
3.389 -15.91 -26.013 -0 -1.2 0
3.368 -16.363 -25.752 -0 -1.2 0
3.346 -16.811 -25.482 -0 -1.2 0
3.323 -17.254 -25.204 -0 -1.2 0
3.298 -17.693 -24.92 -0 -1.2 0
3.273 -18.126 -24.628 -0 -1.2 0
3.246 -18.555 -24.327 -0 -1.2 0
3.22 -18.978 -24.02 -0 -1.2 0
3.192 -19.396 -23.706 -0 -1.2 0
3.162 -19.808 -23.383 -0 -1.2 0
3.132 -20.214 -23.055 -0 -1.2 0
3.101 -20.615 -22.719 -0 -1.2 0
3.07 -21.009 -22.376 -0 -1.2 0
3.037 -21.398 -22.027 -0 -1.2 0
3.003 -21.78 -21.671 -0 -1.2 0
2.969 -22.156 -21.308 -0 -1.2 0
2.933 -22.526 -20.939 -0 -1.2 0
2.541 -8.691 -29.035 -0 -1.2 0
2.54 -9.196 -28.898 -0 -1.2 0
2.539 -9.699 -28.752 -0 -1.2 0
2.537 -10.199 -28.597 -0 -1.2 0
2.534 -10.697 -28.434 -0 -1.2 0
2.529 -11.192 -28.262 -0 -1.2 0
2.525 -11.682 -28.081 -0 -1.2 0
2.52 -12.171 -27.892 -0 -1.2 0
2.514 -12.656 -27.695 -0 -1.2 0
2.507 -13.136 -27.488 -0 -1.2 0
2.499 -13.615 -27.274 -0 -1.2 0
2.491 -14.088 -27.051 -0 -1.2 0
2.482 -14.559 -26.821 -0 -1.2 0
2.472 -15.024 -26.582 -0 -1.2 0
2.462 -15.486 -26.335 -0 -1.2 0
2.451 -15.943 -26.08 -0 -1.2 0
2.439 -16.396 -25.817 -0 -1.2 0
2.426 -16.844 -25.546 -0 -1.2 0
2.412 -17.287 -25.267 -0 -1.2 0
2.398 -17.725 -24.982 -0 -1.2 0
2.383 -18.158 -24.688 -0 -1.2 0
2.367 -18.586 -24.386 -0 -1.2 0
2.351 -19.009 -24.078 -0 -1.2 0
2.334 -19.426 -23.762 -0 -1.2 0
2.316 -19.837 -23.439 -0 -1.2 0
2.298 -20.244 -23.109 -0 -1.2 0
2.279 -20.644 -22.772 -0 -1.2 0
2.258 -21.038 -22.428 -0 -1.2 0
2.238 -21.426 -22.077 -0 -1.2 0
2.217 -21.808 -21.719 -0 -1.2 0
2.195 -22.183 -21.355 -0 -1.2 0
2.172 -22.553 -20.985 -0 -1.2 0
1.573 -8.721 -29.078 -0 -1.2 0
1.577 -9.226 -28.941 -0 -1.2 0
1.58 -9.729 -28.794 -0 -1.2 0
1.583 -10.229 -28.638 -0 -1.2 0
1.585 -10.726 -28.475 -0 -1.2 0
1.586 -11.221 -28.302 -0 -1.2 0
1.588 -11.711 -28.121 -0 -1.2 0
1.588 -12.2 -27.931 -0 -1.2 0
1.589 -12.685 -27.734 -0 -1.2 0
1.588 -13.165 -27.526 -0 -1.2 0
1.588 -13.643 -27.312 -0 -1.2 0
1.586 -14.116 -27.088 -0 -1.2 0
1.585 -14.586 -26.857 -0 -1.2 0
1.582 -15.051 -26.618 -0 -1.2 0
1.58 -15.513 -26.37 -0 -1.2 0
1.577 -15.97 -26.115 -0 -1.2 0
1.573 -16.423 -25.85 -0 -1.2 0
1.569 -16.87 -25.579 -0 -1.2 0
1.565 -17.313 -25.299 -0 -1.2 0
1.56 -17.751 -25.013 -0 -1.2 0
1.555 -18.183 -24.719 -0 -1.2 0
1.549 -18.612 -24.416 -0 -1.2 0
1.542 -19.034 -24.107 -0 -1.2 0
1.535 -19.451 -23.791 -0 -1.2 0
1.529 -19.862 -23.466 -0 -1.2 0
1.521 -20.268 -23.136 -0 -1.2 0
1.512 -20.667 -22.797 -0 -1.2 0
1.503 -21.061 -22.452 -0 -1.2 0
1.495 -21.449 -22.101 -0 -1.2 0
1.485 -21.83 -21.743 -0 -1.2 0
1.475 -22.205 -21.378 -0 -1.2 0
1.465 -22.575 -21.006 -0 -1.2 0
0.592 -8.211 -29.226 -0 -1.2 0
0.6 -8.719 -29.098 -0 -1.2 0
0.607 -9.224 -28.961 -0 -1.2 0
0.615 -9.727 -28.814 -0 -1.2 0
0.623 -10.227 -28.659 -0 -1.2 0
0.63 -10.724 -28.496 -0 -1.2 0
0.637 -11.219 -28.323 -0 -1.2 0
0.644 -11.71 -28.142 -0 -1.2 0
0.651 -12.198 -27.953 -0 -1.2 0
0.657 -12.683 -27.755 -0 -1.2 0
0.663 -13.163 -27.549 -0 -1.2 0
0.67 -13.642 -27.334 -0 -1.2 0
0.676 -14.115 -27.111 -0 -1.2 0
0.681 -14.585 -26.879 -0 -1.2 0
0.687 -15.05 -26.64 -0 -1.2 0
0.692 -15.512 -26.392 -0 -1.2 0
0.696 -15.968 -26.136 -0 -1.2 0
0.701 -16.421 -25.872 -0 -1.2 0
0.707 -16.869 -25.602 -0 -1.2 0
0.71 -17.311 -25.322 -0 -1.2 0
0.715 -17.75 -25.036 -0 -1.2 0
0.719 -18.182 -24.741 -0 -1.2 0
0.723 -18.61 -24.439 -0 -1.2 0
0.727 -19.032 -24.129 -0 -1.2 0
0.73 -19.449 -23.813 -0 -1.2 0
0.733 -19.86 -23.489 -0 -1.2 0
0.737 -20.266 -23.158 -0 -1.2 0
0.739 -20.666 -22.819 -0 -1.2 0
0.741 -21.06 -22.474 -0 -1.2 0
0.743 -21.447 -22.123 -0 -1.2 0
0.746 -21.829 -21.765 -0 -1.2 0
0.748 -22.204 -21.399 -0 -1.2 0
0.749 -22.574 -21.027 -0 -1.2 0
-0.454 -8.208 -29.212 -0 -1.2 0
-0.442 -8.716 -29.084 -0 -1.2 0
-0.43 -9.221 -28.947 -0 -1.2 0
-0.418 -9.724 -28.801 -0 -1.2 0
-0.405 -10.224 -28.647 -0 -1.2 0
-0.392 -10.721 -28.483 -0 -1.2 0
-0.379 -11.216 -28.311 -0 -1.2 0
-0.366 -11.707 -28.13 -0 -1.2 0
-0.354 -12.195 -27.942 -0 -1.2 0
-0.341 -12.68 -27.744 -0 -1.2 0
-0.327 -13.16 -27.538 -0 -1.2 0
-0.313 -13.639 -27.323 -0 -1.2 0
-0.3 -14.112 -27.101 -0 -1.2 0
-0.286 -14.582 -26.87 -0 -1.2 0
-0.273 -15.047 -26.631 -0 -1.2 0
-0.259 -15.509 -26.383 -0 -1.2 0
-0.245 -15.966 -26.128 -0 -1.2 0
-0.231 -16.418 -25.865 -0 -1.2 0
-0.217 -16.866 -25.594 -0 -1.2 0
-0.204 -17.309 -25.316 -0 -1.2 0
-0.189 -17.747 -25.029 -0 -1.2 0
-0.175 -18.179 -24.734 -0 -1.2 0
-0.161 -18.608 -24.433 -0 -1.2 0
-0.147 -19.03 -24.124 -0 -1.2 0
-0.132 -19.447 -23.807 -0 -1.2 0
-0.118 -19.858 -23.484 -0 -1.2 0
-0.103 -20.264 -23.154 -0 -1.2 0
-0.089 -20.664 -22.816 -0 -1.2 0
-0.074 -21.057 -22.471 -0 -1.2 0
-0.06 -21.445 -22.12 -0 -1.2 0
-0.045 -21.827 -21.761 -0 -1.2 0
-0.03 -22.202 -21.396 -0 -1.2 0
-0.016 -22.571 -21.025 -0 -1.2 0
-1.436 -7.695 -29.286 -0 -1.2 0
-1.421 -8.204 -29.167 -0 -1.2 0
-1.405 -8.711 -29.039 -0 -1.2 0
-1.389 -9.217 -28.903 -0 -1.2 0
-1.372 -9.72 -28.757 -0 -1.2 0
-1.354 -10.22 -28.604 -0 -1.2 0
-1.337 -10.717 -28.44 -0 -1.2 0
-1.319 -11.212 -28.269 -0 -1.2 0
-1.301 -11.703 -28.089 -0 -1.2 0
-1.281 -12.191 -27.901 -0 -1.2 0
-1.262 -12.676 -27.703 -0 -1.2 0
-1.242 -13.156 -27.498 -0 -1.2 0
-1.222 -13.635 -27.285 -0 -1.2 0
-1.202 -14.108 -27.062 -0 -1.2 0
-1.181 -14.578 -26.832 -0 -1.2 0
-1.16 -15.043 -26.593 -0 -1.2 0
-1.138 -15.505 -26.347 -0 -1.2 0
-1.116 -15.962 -26.092 -0 -1.2 0
-1.094 -16.415 -25.83 -0 -1.2 0
-1.071 -16.862 -25.56 -0 -1.2 0
-1.049 -17.305 -25.281 -0 -1.2 0
-1.025 -17.744 -24.996 -0 -1.2 0
-1.001 -18.176 -24.702 -0 -1.2 0
-0.977 -18.604 -24.401 -0 -1.2 0
-0.953 -19.026 -24.092 -0 -1.2 0
-0.93 -19.444 -23.777 -0 -1.2 0
-0.905 -19.855 -23.454 -0 -1.2 0
-0.879 -20.261 -23.124 -0 -1.2 0
-0.854 -20.66 -22.787 -0 -1.2 0
-0.828 -21.054 -22.443 -0 -1.2 0
-0.803 -21.442 -22.092 -0 -1.2 0
-0.777 -21.824 -21.735 -0 -1.2 0
-0.75 -22.199 -21.371 -0 -1.2 0
-0.724 -22.569 -21 -0 -1.2 0
-2.424 -7.178 -29.315 -0 -1.2 0
-2.406 -7.69 -29.206 -0 -1.2 0
-2.386 -8.199 -29.088 -0 -1.2 0
-2.366 -8.706 -28.961 -0 -1.2 0
-2.346 -9.212 -28.825 -0 -1.2 0
-2.325 -9.715 -28.681 -0 -1.2 0
-2.302 -10.215 -28.528 -0 -1.2 0
-2.28 -10.712 -28.365 -0 -1.2 0
-2.256 -11.207 -28.194 -0 -1.2 0
-2.232 -11.698 -28.015 -0 -1.2 0
-2.208 -12.187 -27.827 -0 -1.2 0
-2.182 -12.671 -27.631 -0 -1.2 0
-2.156 -13.152 -27.427 -0 -1.2 0
-2.13 -13.63 -27.214 -0 -1.2 0
-2.102 -14.103 -26.992 -0 -1.2 0
-2.074 -14.574 -26.763 -0 -1.2 0
-2.045 -15.039 -26.525 -0 -1.2 0
-2.016 -15.501 -26.28 -0 -1.2 0
-1.986 -15.958 -26.026 -0 -1.2 0
-1.955 -16.41 -25.764 -0 -1.2 0
-1.924 -16.858 -25.494 -0 -1.2 0
-1.892 -17.301 -25.218 -0 -1.2 0
-1.86 -17.739 -24.933 -0 -1.2 0
-1.827 -18.172 -24.641 -0 -1.2 0
-1.794 -18.6 -24.34 -0 -1.2 0
-1.759 -19.022 -24.033 -0 -1.2 0
-1.725 -19.44 -23.719 -0 -1.2 0
-1.69 -19.851 -23.396 -0 -1.2 0
-1.654 -20.257 -23.068 -0 -1.2 0
-1.618 -20.657 -22.732 -0 -1.2 0
-1.581 -21.051 -22.389 -0 -1.2 0
-1.544 -21.438 -22.04 -0 -1.2 0
-1.507 -21.82 -21.683 -0 -1.2 0
-1.469 -22.196 -21.32 -0 -1.2 0
-1.43 -22.565 -20.95 -0 -1.2 0
-3.468 -7.171 -29.195 -0 -1.2 0
-3.445 -7.683 -29.086 -0 -1.2 0
-3.423 -8.193 -28.97 -0 -1.2 0
-3.399 -8.7 -28.843 -0 -1.2 0
-3.374 -9.205 -28.708 -0 -1.2 0
-3.348 -9.709 -28.564 -0 -1.2 0
-3.321 -10.209 -28.412 -0 -1.2 0
-3.293 -10.706 -28.251 -0 -1.2 0
-3.264 -11.201 -28.082 -0 -1.2 0
-3.233 -11.692 -27.903 -0 -1.2 0
-3.202 -12.18 -27.716 -0 -1.2 0
-3.171 -12.665 -27.521 -0 -1.2 0
-3.137 -13.146 -27.318 -0 -1.2 0
-3.103 -13.624 -27.106 -0 -1.2 0
-3.069 -14.097 -26.886 -0 -1.2 0
-3.032 -14.568 -26.657 -0 -1.2 0
-2.996 -15.033 -26.421 -0 -1.2 0
-2.958 -15.495 -26.176 -0 -1.2 0
-2.919 -15.952 -25.924 -0 -1.2 0
-2.88 -16.405 -25.664 -0 -1.2 0
-2.84 -16.853 -25.396 -0 -1.2 0
-2.799 -17.295 -25.12 -0 -1.2 0
-2.757 -17.734 -24.837 -0 -1.2 0
-2.713 -18.166 -24.546 -0 -1.2 0
-2.669 -18.595 -24.247 -0 -1.2 0
-2.625 -19.017 -23.941 -0 -1.2 0
-2.58 -19.434 -23.628 -0 -1.2 0
-2.533 -19.846 -23.307 -0 -1.2 0
-2.486 -20.252 -22.98 -0 -1.2 0
-2.438 -20.652 -22.646 -0 -1.2 0
-2.39 -21.046 -22.305 -0 -1.2 0
-2.341 -21.434 -21.956 -0 -1.2 0
-2.291 -21.815 -21.601 -0 -1.2 0
-2.24 -22.191 -21.24 -0 -1.2 0
-2.188 -22.561 -20.872 -0 -1.2 0
-4.639 0.643 -29.593 -0 -1.2 0
-4.451 -6.651 -29.149 -0 -1.2 0
-4.427 -7.164 -29.051 -0 -1.2 0
-4.402 -7.676 -28.943 -0 -1.2 0
-4.376 -8.186 -28.827 -0 -1.2 0
-4.348 -8.693 -28.701 -0 -1.2 0
-4.319 -9.199 -28.568 -0 -1.2 0
-4.288 -9.702 -28.424 -0 -1.2 0
-4.257 -10.202 -28.273 -0 -1.2 0
-4.224 -10.699 -28.113 -0 -1.2 0
-4.19 -11.194 -27.945 -0 -1.2 0
-4.154 -11.685 -27.767 -0 -1.2 0
-4.117 -12.174 -27.582 -0 -1.2 0
-4.079 -12.659 -27.388 -0 -1.2 0
-4.039 -13.139 -27.186 -0 -1.2 0
-3.999 -13.618 -26.975 -0 -1.2 0
-3.957 -14.091 -26.756 -0 -1.2 0
-3.914 -14.561 -26.53 -0 -1.2 0
-3.869 -15.027 -26.295 -0 -1.2 0
-3.824 -15.489 -26.052 -0 -1.2 0
-3.778 -15.946 -25.801 -0 -1.2 0
-3.73 -16.399 -25.542 -0 -1.2 0
-3.681 -16.847 -25.276 -0 -1.2 0
-3.631 -17.289 -25.001 -0 -1.2 0
-3.58 -17.728 -24.719 -0 -1.2 0
-3.528 -18.161 -24.43 -0 -1.2 0
-3.475 -18.589 -24.133 -0 -1.2 0
-3.42 -19.012 -23.828 -0 -1.2 0
-3.365 -19.429 -23.518 -0 -1.2 0
-3.308 -19.84 -23.199 -0 -1.2 0
-3.251 -20.246 -22.873 -0 -1.2 0
-3.193 -20.647 -22.54 -0 -1.2 0
-3.134 -21.041 -22.2 -0 -1.2 0
-3.073 -21.428 -21.855 -0 -1.2 0
-3.012 -21.81 -21.502 -0 -1.2 0
-2.95 -22.186 -21.142 -0 -1.2 0
-2.886 -22.556 -20.776 -0 -1.2 0
-5.431 -6.128 -29.063 -0 -1.2 0
-5.406 -6.643 -28.973 -0 -1.2 0
-5.379 -7.157 -28.875 -0 -1.2 0
-5.351 -7.669 -28.768 -0 -1.2 0
-5.321 -8.178 -28.653 -0 -1.2 0
-5.29 -8.686 -28.529 -0 -1.2 0
-5.256 -9.191 -28.396 -0 -1.2 0
-5.221 -9.694 -28.254 -0 -1.2 0
-5.185 -10.195 -28.103 -0 -1.2 0
-5.147 -10.692 -27.945 -0 -1.2 0
-5.107 -11.187 -27.777 -0 -1.2 0
-5.067 -11.678 -27.602 -0 -1.2 0
-5.024 -12.167 -27.418 -0 -1.2 0
-4.98 -12.651 -27.225 -0 -1.2 0
-4.934 -13.132 -27.024 -0 -1.2 0
-4.887 -13.611 -26.816 -0 -1.2 0
-4.838 -14.084 -26.599 -0 -1.2 0
-4.788 -14.554 -26.373 -0 -1.2 0
-4.737 -15.02 -26.14 -0 -1.2 0
-4.684 -15.482 -25.898 -0 -1.2 0
-4.629 -15.939 -25.65 -0 -1.2 0
-4.573 -16.392 -25.392 -0 -1.2 0
-4.516 -16.84 -25.127 -0 -1.2 0
-4.457 -17.283 -24.855 -0 -1.2 0
-4.397 -17.722 -24.575 -0 -1.2 0
-4.336 -18.154 -24.288 -0 -1.2 0
-4.273 -18.583 -23.992 -0 -1.2 0
-4.21 -19.005 -23.691 -0 -1.2 0
-4.144 -19.423 -23.381 -0 -1.2 0
-4.077 -19.834 -23.065 -0 -1.2 0
-4.01 -20.24 -22.741 -0 -1.2 0
-3.941 -20.641 -22.41 -0 -1.2 0
-3.871 -21.035 -22.073 -0 -1.2 0
-3.799 -21.423 -21.729 -0 -1.2 0
-3.727 -21.805 -21.378 -0 -1.2 0
-3.653 -22.181 -21.021 -0 -1.2 0
-3.578 -22.55 -20.658 -0 -1.2 0
-6.479 -5.648 -28.909 -0 -1.2 0
-6.453 -6.165 -28.828 -0 -1.2 0
-6.425 -6.679 -28.74 -0 -1.2 0
-6.395 -7.193 -28.642 -0 -1.2 0
-6.363 -7.705 -28.535 -0 -1.2 0
-6.329 -8.214 -28.42 -0 -1.2 0
-6.293 -8.722 -28.296 -0 -1.2 0
-6.256 -9.227 -28.164 -0 -1.2 0
-6.216 -9.73 -28.023 -0 -1.2 0
-6.174 -10.23 -27.874 -0 -1.2 0
-6.131 -10.727 -27.716 -0 -1.2 0
-6.086 -11.222 -27.549 -0 -1.2 0
-6.039 -11.713 -27.374 -0 -1.2 0
-5.99 -12.201 -27.191 -0 -1.2 0
-5.939 -12.686 -26.999 -0 -1.2 0
-5.887 -13.166 -26.8 -0 -1.2 0
-5.832 -13.644 -26.592 -0 -1.2 0
-5.776 -14.118 -26.376 -0 -1.2 0
-5.719 -14.588 -26.152 -0 -1.2 0
-5.659 -15.053 -25.92 -0 -1.2 0
-5.598 -15.515 -25.68 -0 -1.2 0
-5.535 -15.971 -25.432 -0 -1.2 0
-5.47 -16.424 -25.177 -0 -1.2 0
-5.404 -16.872 -24.913 -0 -1.2 0
-5.335 -17.314 -24.643 -0 -1.2 0
-5.265 -17.753 -24.364 -0 -1.2 0
-5.195 -18.185 -24.078 -0 -1.2 0
-5.122 -18.613 -23.786 -0 -1.2 0
-5.048 -19.035 -23.485 -0 -1.2 0
-4.971 -19.452 -23.178 -0 -1.2 0
-4.894 -19.863 -22.863 -0 -1.2 0
-4.815 -20.269 -22.542 -0 -1.2 0
-4.735 -20.669 -22.213 -0 -1.2 0
-4.653 -21.062 -21.878 -0 -1.2 0
-4.57 -21.45 -21.536 -0 -1.2 0
-4.485 -21.832 -21.188 -0 -1.2 0
-4.398 -22.207 -20.833 -0 -1.2 0
-4.312 -22.576 -20.471 -0 -1.2 0
-7.414 -5.676 -28.661 -0 -1.2 0
-7.386 -6.193 -28.582 -0 -1.2 0
-7.355 -6.707 -28.493 -0 -1.2 0
-7.323 -7.221 -28.396 -0 -1.2 0
-7.288 -7.732 -28.29 -0 -1.2 0
-7.25 -8.242 -28.175 -0 -1.2 0
-7.211 -8.749 -28.052 -0 -1.2 0
-7.169 -9.254 -27.92 -0 -1.2 0
-7.126 -9.757 -27.781 -0 -1.2 0
-7.08 -10.257 -27.632 -0 -1.2 0
-7.032 -10.754 -27.474 -0 -1.2 0
-6.981 -11.249 -27.308 -0 -1.2 0
-6.929 -11.739 -27.135 -0 -1.2 0
-6.875 -12.228 -26.953 -0 -1.2 0
-6.819 -12.712 -26.763 -0 -1.2 0
-6.759 -13.192 -26.564 -0 -1.2 0
-6.699 -13.67 -26.357 -0 -1.2 0
-6.636 -14.143 -26.143 -0 -1.2 0
-6.571 -14.613 -25.921 -0 -1.2 0
-6.504 -15.078 -25.69 -0 -1.2 0
-6.436 -15.54 -25.452 -0 -1.2 0
-6.366 -15.996 -25.205 -0 -1.2 0
-6.293 -16.449 -24.951 -0 -1.2 0
-6.218 -16.896 -24.69 -0 -1.2 0
-6.142 -17.338 -24.422 -0 -1.2 0
-6.063 -17.776 -24.144 -0 -1.2 0
-5.983 -18.208 -23.861 -0 -1.2 0
-5.902 -18.636 -23.57 -0 -1.2 0
-5.818 -19.058 -23.271 -0 -1.2 0
-5.732 -19.475 -22.966 -0 -1.2 0
-5.644 -19.885 -22.653 -0 -1.2 0
-5.556 -20.291 -22.335 -0 -1.2 0
-5.466 -20.691 -22.009 -0 -1.2 0
-5.373 -21.084 -21.676 -0 -1.2 0
-5.279 -21.471 -21.336 -0 -1.2 0
-5.184 -21.852 -20.99 -0 -1.2 0
-5.086 -22.227 -20.638 -0 -1.2 0
-4.987 -22.596 -20.279 -0 -1.2 0
-8.348 -5.178 -28.462 -0 -1.2 0
-8.32 -5.696 -28.391 -0 -1.2 0
-8.29 -6.213 -28.312 -0 -1.2 0
-8.258 -6.727 -28.224 -0 -1.2 0
-8.222 -7.241 -28.127 -0 -1.2 0
-8.184 -7.752 -28.022 -0 -1.2 0
-8.144 -8.262 -27.908 -0 -1.2 0
-8.101 -8.769 -27.786 -0 -1.2 0
-8.056 -9.274 -27.655 -0 -1.2 0
-8.008 -9.777 -27.516 -0 -1.2 0
-7.958 -10.277 -27.368 -0 -1.2 0
-7.906 -10.773 -27.212 -0 -1.2 0
-7.851 -11.268 -27.048 -0 -1.2 0
-7.793 -11.758 -26.875 -0 -1.2 0
-7.734 -12.247 -26.695 -0 -1.2 0
-7.671 -12.731 -26.506 -0 -1.2 0
-7.607 -13.211 -26.309 -0 -1.2 0
-7.541 -13.689 -26.104 -0 -1.2 0
-7.471 -14.162 -25.89 -0 -1.2 0
-7.4 -14.632 -25.67 -0 -1.2 0
-7.327 -15.096 -25.441 -0 -1.2 0
-7.25 -15.558 -25.205 -0 -1.2 0
-7.173 -16.014 -24.96 -0 -1.2 0
-7.093 -16.466 -24.708 -0 -1.2 0
-7.01 -16.914 -24.449 -0 -1.2 0
-6.926 -17.356 -24.183 -0 -1.2 0
-6.839 -17.794 -23.908 -0 -1.2 0
-6.751 -18.225 -23.627 -0 -1.2 0
-6.66 -18.653 -23.338 -0 -1.2 0
-6.567 -19.075 -23.041 -0 -1.2 0
-6.473 -19.491 -22.739 -0 -1.2 0
-6.376 -19.902 -22.429 -0 -1.2 0
-6.278 -20.307 -22.112 -0 -1.2 0
-6.177 -20.706 -21.789 -0 -1.2 0
-6.075 -21.099 -21.459 -0 -1.2 0
-5.971 -21.486 -21.122 -0 -1.2 0
-5.864 -21.867 -20.778 -0 -1.2 0
-5.756 -22.242 -20.429 -0 -1.2 0
-5.646 -22.611 -20.074 -0 -1.2 0
-9.282 -5.716 -28.071 -0 -1.2 0
-9.25 -6.233 -27.991 -0 -1.2 0
-9.215 -6.747 -27.904 -0 -1.2 0
-9.177 -7.261 -27.809 -0 -1.2 0
-9.136 -7.772 -27.704 -0 -1.2 0
-9.092 -8.281 -27.591 -0 -1.2 0
-9.046 -8.788 -27.47 -0 -1.2 0
-8.996 -9.293 -27.341 -0 -1.2 0
-8.944 -9.796 -27.202 -0 -1.2 0
-8.889 -10.296 -27.056 -0 -1.2 0
-8.833 -10.793 -26.901 -0 -1.2 0
-8.772 -11.287 -26.739 -0 -1.2 0
-8.71 -11.777 -26.567 -0 -1.2 0
-8.644 -12.266 -26.388 -0 -1.2 0
-8.577 -12.75 -26.201 -0 -1.2 0
-8.506 -13.23 -26.006 -0 -1.2 0
-8.433 -13.707 -25.803 -0 -1.2 0
-8.358 -14.18 -25.591 -0 -1.2 0
-8.279 -14.65 -25.373 -0 -1.2 0
-8.198 -15.114 -25.146 -0 -1.2 0
-8.115 -15.576 -24.912 -0 -1.2 0
-8.029 -16.032 -24.67 -0 -1.2 0
-7.941 -16.484 -24.421 -0 -1.2 0
-7.85 -16.931 -24.163 -0 -1.2 0
-7.758 -17.373 -23.9 -0 -1.2 0
-7.662 -17.811 -23.628 -0 -1.2 0
-7.564 -18.242 -23.348 -0 -1.2 0
-7.465 -18.67 -23.063 -0 -1.2 0
-7.363 -19.091 -22.769 -0 -1.2 0
-7.258 -19.507 -22.47 -0 -1.2 0
-7.151 -19.918 -22.163 -0 -1.2 0
-7.042 -20.323 -21.849 -0 -1.2 0
-6.931 -20.722 -21.529 -0 -1.2 0
-6.818 -21.115 -21.202 -0 -1.2 0
-6.703 -21.502 -20.869 -0 -1.2 0
-6.586 -21.882 -20.529 -0 -1.2 0
-6.467 -22.257 -20.183 -0 -1.2 0
-6.345 -22.625 -19.831 -0 -1.2 0
-10.13 -6.249 -27.667 -0 -1.2 0
-10.093 -6.764 -27.58 -0 -1.2 0
-10.052 -7.277 -27.485 -0 -1.2 0
-10.009 -7.789 -27.381 -0 -1.2 0
-9.962 -8.298 -27.27 -0 -1.2 0
-9.912 -8.805 -27.149 -0 -1.2 0
-9.86 -9.31 -27.021 -0 -1.2 0
-9.804 -9.812 -26.884 -0 -1.2 0
-9.745 -10.312 -26.739 -0 -1.2 0
-9.684 -10.809 -26.585 -0 -1.2 0
-9.619 -11.303 -26.424 -0 -1.2 0
-9.551 -11.793 -26.254 -0 -1.2 0
-9.481 -12.281 -26.077 -0 -1.2 0
-9.407 -12.765 -25.892 -0 -1.2 0
-9.331 -13.245 -25.699 -0 -1.2 0
-9.252 -13.723 -25.497 -0 -1.2 0
-9.17 -14.195 -25.288 -0 -1.2 0
-9.085 -14.665 -25.072 -0 -1.2 0
-8.999 -15.129 -24.848 -0 -1.2 0
-8.908 -15.59 -24.616 -0 -1.2 0
-8.815 -16.047 -24.376 -0 -1.2 0
-8.72 -16.499 -24.129 -0 -1.2 0
-8.621 -16.945 -23.875 -0 -1.2 0
-8.521 -17.387 -23.613 -0 -1.2 0
-8.418 -17.825 -23.344 -0 -1.2 0
-8.311 -18.256 -23.068 -0 -1.2 0
-8.203 -18.684 -22.784 -0 -1.2 0
-8.092 -19.105 -22.495 -0 -1.2 0
-7.978 -19.521 -22.198 -0 -1.2 0
-7.862 -19.931 -21.894 -0 -1.2 0
-7.745 -20.336 -21.584 -0 -1.2 0
-7.624 -20.735 -21.266 -0 -1.2 0
-7.502 -21.128 -20.943 -0 -1.2 0
-7.376 -21.514 -20.613 -0 -1.2 0
-7.249 -21.895 -20.276 -0 -1.2 0
-7.118 -22.269 -19.934 -0 -1.2 0
-6.987 -22.637 -19.586 -0 -1.2 0
-10.961 -6.779 -27.227 -0 -1.2 0
-10.918 -7.292 -27.133 -0 -1.2 0
-10.872 -7.803 -27.031 -0 -1.2 0
-10.823 -8.312 -26.92 -0 -1.2 0
-10.769 -8.819 -26.8 -0 -1.2 0
-10.713 -9.324 -26.673 -0 -1.2 0
-10.653 -9.827 -26.538 -0 -1.2 0
-10.59 -10.326 -26.394 -0 -1.2 0
-10.524 -10.823 -26.242 -0 -1.2 0
-10.455 -11.317 -26.082 -0 -1.2 0
-10.383 -11.807 -25.915 -0 -1.2 0
-10.308 -12.295 -25.739 -0 -1.2 0
-10.229 -12.779 -25.556 -0 -1.2 0
-10.147 -13.259 -25.365 -0 -1.2 0
-10.063 -13.737 -25.166 -0 -1.2 0
-9.974 -14.209 -24.959 -0 -1.2 0
-9.884 -14.678 -24.745 -0 -1.2 0
-9.789 -15.143 -24.522 -0 -1.2 0
-9.693 -15.604 -24.293 -0 -1.2 0
-9.593 -16.06 -24.056 -0 -1.2 0
-9.489 -16.512 -23.811 -0 -1.2 0
-9.384 -16.958 -23.56 -0 -1.2 0
-9.275 -17.4 -23.301 -0 -1.2 0
-9.164 -17.837 -23.035 -0 -1.2 0
-9.051 -18.269 -22.762 -0 -1.2 0
-8.934 -18.696 -22.482 -0 -1.2 0
-8.814 -19.117 -22.196 -0 -1.2 0
-8.692 -19.533 -21.902 -0 -1.2 0
-8.566 -19.943 -21.601 -0 -1.2 0
-8.439 -20.348 -21.294 -0 -1.2 0
-8.309 -20.746 -20.981 -0 -1.2 0
-8.176 -21.139 -20.661 -0 -1.2 0
-8.041 -21.525 -20.335 -0 -1.2 0
-7.903 -21.906 -20.002 -0 -1.2 0
-7.763 -22.28 -19.664 -0 -1.2 0
-7.622 -22.648 -19.319 -0 -1.2 0
-11.821 -7.817 -26.609 -0 -1.2 0
-11.767 -8.327 -26.5 -0 -1.2 0
-11.711 -8.833 -26.382 -0 -1.2 0
-11.65 -9.338 -26.256 -0 -1.2 0
-11.587 -9.841 -26.123 -0 -1.2 0
-11.52 -10.34 -25.981 -0 -1.2 0
-11.449 -10.837 -25.831 -0 -1.2 0
-11.375 -11.331 -25.673 -0 -1.2 0
-11.297 -11.821 -25.509 -0 -1.2 0
-11.216 -12.309 -25.335 -0 -1.2 0
-11.132 -12.793 -25.154 -0 -1.2 0
-11.043 -13.272 -24.965 -0 -1.2 0
-10.952 -13.75 -24.768 -0 -1.2 0
-10.858 -14.222 -24.565 -0 -1.2 0
-10.76 -14.692 -24.353 -0 -1.2 0
-10.659 -15.156 -24.134 -0 -1.2 0
-10.554 -15.617 -23.908 -0 -1.2 0
-10.447 -16.073 -23.674 -0 -1.2 0
-10.336 -16.524 -23.432 -0 -1.2 0
-10.222 -16.971 -23.185 -0 -1.2 0
-10.105 -17.412 -22.93 -0 -1.2 0
-9.985 -17.85 -22.667 -0 -1.2 0
-9.862 -18.281 -22.398 -0 -1.2 0
-9.736 -18.708 -22.122 -0 -1.2 0
-9.606 -19.129 -21.838 -0 -1.2 0
-9.474 -19.545 -21.549 -0 -1.2 0
-9.34 -19.955 -21.253 -0 -1.2 0
-9.202 -20.359 -20.95 -0 -1.2 0
-9.061 -20.758 -20.641 -0 -1.2 0
-8.918 -21.15 -20.325 -0 -1.2 0
-8.772 -21.536 -20.003 -0 -1.2 0
-8.623 -21.916 -19.675 -0 -1.2 0
-8.473 -22.291 -19.342 -0 -1.2 0
-8.318 -22.659 -19.002 -0 -1.2 0
-13.054 0.488 -26.814 -0 -1.2 0
-12.634 -8.338 -26.081 -0 -1.2 0
-12.575 -8.845 -25.965 -0 -1.2 0
-12.51 -9.349 -25.84 -0 -1.2 0
-12.443 -9.852 -25.708 -0 -1.2 0
-12.371 -10.351 -25.569 -0 -1.2 0
-12.296 -10.848 -25.421 -0 -1.2 0
-12.218 -11.342 -25.264 -0 -1.2 0
-12.135 -11.832 -25.101 -0 -1.2 0
-12.049 -12.32 -24.93 -0 -1.2 0
-11.959 -12.803 -24.752 -0 -1.2 0
-11.866 -13.283 -24.566 -0 -1.2 0
-11.768 -13.76 -24.372 -0 -1.2 0
-11.668 -14.233 -24.17 -0 -1.2 0
-11.564 -14.702 -23.962 -0 -1.2 0
-11.456 -15.166 -23.746 -0 -1.2 0
-11.344 -15.627 -23.522 -0 -1.2 0
-11.23 -16.083 -23.291 -0 -1.2 0
-11.112 -16.534 -23.054 -0 -1.2 0
-10.99 -16.981 -22.809 -0 -1.2 0
-10.866 -17.422 -22.557 -0 -1.2 0
-10.738 -17.859 -22.299 -0 -1.2 0
-10.607 -18.29 -22.033 -0 -1.2 0
-10.472 -18.717 -21.761 -0 -1.2 0
-10.334 -19.138 -21.482 -0 -1.2 0
-10.193 -19.554 -21.197 -0 -1.2 0
-10.049 -19.964 -20.904 -0 -1.2 0
-9.902 -20.368 -20.606 -0 -1.2 0
-9.752 -20.767 -20.302 -0 -1.2 0
-9.599 -21.159 -19.99 -0 -1.2 0
-9.442 -21.545 -19.673 -0 -1.2 0
-9.284 -21.925 -19.35 -0 -1.2 0
-9.122 -22.299 -19.02 -0 -1.2 0
-8.958 -22.667 -18.685 -0 -1.2 0
