# .PCD v.7 - Point Cloud Data file format
FIELDS x y z vp_x vp_y vp_z
SIZE 4 4 4 4 4 4
TYPE F F F F F F
COUNT 1 1 1 1 1 1
WIDTH 1525
HEIGHT 1
VIEWPOINT 0 -1.20013 0 1 0 0 0
POINTS 1525
DATA ascii
-17.771 -20.13 14.991 -0 -1.2 0
-17.51 -20.532 14.781 -0 -1.2 0
-17.244 -20.928 14.564 -0 -1.2 0
-16.973 -21.318 14.344 -0 -1.2 0
-16.696 -21.701 14.119 -0 -1.2 0
-16.415 -22.079 13.89 -0 -1.2 0
-16.129 -22.451 13.658 -0 -1.2 0
-21.696 -8.531 19.429 -0 -1.2 0
-21.592 -9.037 19.344 -0 -1.2 0
-21.482 -9.541 19.252 -0 -1.2 0
-21.366 -10.042 19.156 -0 -1.2 0
-21.242 -10.54 19.053 -0 -1.2 0
-21.112 -11.036 18.944 -0 -1.2 0
-20.976 -11.528 18.83 -0 -1.2 0
-20.834 -12.018 18.71 -0 -1.2 0
-20.684 -12.504 18.584 -0 -1.2 0
-20.529 -12.986 18.453 -0 -1.2 0
-20.368 -13.465 18.316 -0 -1.2 0
-20.201 -13.94 18.173 -0 -1.2 0
-20.028 -14.412 18.024 -0 -1.2 0
-19.848 -14.878 17.872 -0 -1.2 0
-19.662 -15.342 17.712 -0 -1.2 0
-19.471 -15.8 17.548 -0 -1.2 0
-19.272 -16.255 17.378 -0 -1.2 0
-19.068 -16.704 17.203 -0 -1.2 0
-18.86 -17.149 17.023 -0 -1.2 0
-18.645 -17.589 16.837 -0 -1.2 0
-18.423 -18.023 16.647 -0 -1.2 0
-18.197 -18.453 16.45 -0 -1.2 0
-17.966 -18.877 16.25 -0 -1.2 0
-17.728 -19.297 16.044 -0 -1.2 0
-17.486 -19.71 15.834 -0 -1.2 0
-17.238 -20.118 15.618 -0 -1.2 0
-16.984 -20.52 15.398 -0 -1.2 0
-16.727 -20.916 15.174 -0 -1.2 0
-16.463 -21.305 14.944 -0 -1.2 0
-16.195 -21.689 14.71 -0 -1.2 0
-15.921 -22.067 14.472 -0 -1.2 0
-15.643 -22.439 14.228 -0 -1.2 0
-21.772 0.305 20.677 -0 -1.2 0
-21.787 -0.741 20.707 -0 -1.2 0
-21.784 -1.264 20.713 -0 -1.2 0
-21.055 -8.516 20.129 -0 -1.2 0
-20.954 -9.022 20.041 -0 -1.2 0
-20.847 -9.526 19.947 -0 -1.2 0
-20.733 -10.027 19.847 -0 -1.2 0
-20.613 -10.525 19.739 -0 -1.2 0
-20.488 -11.021 19.627 -0 -1.2 0
-20.356 -11.513 19.508 -0 -1.2 0
-20.216 -12.003 19.384 -0 -1.2 0
-20.072 -12.489 19.254 -0 -1.2 0
-19.921 -12.971 19.118 -0 -1.2 0
-19.764 -13.451 18.976 -0 -1.2 0
-19.601 -13.926 18.829 -0 -1.2 0
-19.434 -14.398 18.675 -0 -1.2 0
-19.259 -14.864 18.516 -0 -1.2 0
-19.078 -15.328 18.352 -0 -1.2 0
-18.7 -16.241 18.005 -0 -1.2 0
-18.503 -16.691 17.823 -0 -1.2 0
-18.299 -17.135 17.637 -0 -1.2 0
-18.09 -17.576 17.444 -0 -1.2 0
-17.876 -18.01 17.247 -0 -1.2 0
-17.656 -18.44 17.044 -0 -1.2 0
-17.43 -18.865 16.837 -0 -1.2 0
-17.2 -19.284 16.624 -0 -1.2 0
-16.964 -19.697 16.406 -0 -1.2 0
-16.724 -20.105 16.183 -0 -1.2 0
-16.478 -20.507 15.956 -0 -1.2 0
-16.227 -20.904 15.722 -0 -1.2 0
-15.972 -21.294 15.485 -0 -1.2 0
-15.711 -21.678 15.243 -0 -1.2 0
-15.446 -22.056 14.995 -0 -1.2 0
-15.175 -22.428 14.744 -0 -1.2 0
-21.086 0.321 21.378 -0 -1.2 0
-21.096 -0.202 21.396 -0 -1.2 0
-21.099 -0.725 21.409 -0 -1.2 0
-20.479 -7.991 20.896 -0 -1.2 0
-20.388 -8.5 20.811 -0 -1.2 0
-20.29 -9.006 20.72 -0 -1.2 0
-20.186 -9.51 20.623 -0 -1.2 0
-20.075 -10.012 20.519 -0 -1.2 0
-19.96 -10.51 20.41 -0 -1.2 0
-19.838 -11.006 20.294 -0 -1.2 0
-19.709 -11.498 20.171 -0 -1.2 0
-19.574 -11.988 20.042 -0 -1.2 0
-19.434 -12.474 19.908 -0 -1.2 0
-19.288 -12.956 19.767 -0 -1.2 0
-19.136 -13.436 19.621 -0 -1.2 0
-18.979 -13.911 19.467 -0 -1.2 0
-18.646 -14.85 19.145 -0 -1.2 0
-18.471 -15.313 18.975 -0 -1.2 0
-17.913 -16.677 18.43 -0 -1.2 0
-17.093 -18.427 17.624 -0 -1.2 0
-16.189 -20.093 16.734 -0 -1.2 0
-15.951 -20.495 16.498 -0 -1.2 0
-15.708 -20.891 16.258 -0 -1.2 0
-15.46 -21.282 16.013 -0 -1.2 0
-15.208 -21.666 15.762 -0 -1.2 0
-14.95 -22.044 15.507 -0 -1.2 0
-14.688 -22.416 15.247 -0 -1.2 0
-19.536 -8.987 21.442 -0 -1.2 0
-19.436 -9.492 21.341 -0 -1.2 0
-19.33 -9.993 21.234 -0 -1.2 0
-19.218 -10.491 21.12 -0 -1.2 0
-19.1 -10.988 21 -0 -1.2 0
-18.976 -11.48 20.873 -0 -1.2 0
-18.847 -11.97 20.741 -0 -1.2 0
-18.712 -12.456 20.602 -0 -1.2 0
-18.571 -12.938 20.456 -0 -1.2 0
-18.424 -13.418 20.304 -0 -1.2 0
-17.608 -15.755 19.454 -0 -1.2 0
-15.119 -20.877 16.827 -0 -1.2 0
-14.88 -21.267 16.573 -0 -1.2 0
-14.637 -21.652 16.314 -0 -1.2 0
-14.389 -22.03 16.05 -0 -1.2 0
-14.136 -22.402 15.782 -0 -1.2 0
-18.718 -9.478 21.979 -0 -1.2 0
-18.508 -10.478 21.752 -0 -1.2 0
-18.394 -10.975 21.628 -0 -1.2 0
-18.15 -11.957 21.361 -0 -1.2 0
-15.003 -20.067 17.838 -0 -1.2 0
-14.781 -20.469 17.586 -0 -1.2 0
-14.555 -20.866 17.33 -0 -1.2 0
-14.325 -21.257 17.069 -0 -1.2 0
-14.09 -21.641 16.802 -0 -1.2 0
-13.851 -22.02 16.53 -0 -1.2 0
-13.608 -22.393 16.253 -0 -1.2 0
-17.669 -10.964 22.23 -0 -1.2 0
-14.406 -20.058 18.332 -0 -1.2 0
-14.193 -20.461 18.074 -0 -1.2 0
-13.976 -20.858 17.811 -0 -1.2 0
-13.755 -21.249 17.542 -0 -1.2 0
-13.528 -21.634 17.268 -0 -1.2 0
-13.299 -22.012 16.988 -0 -1.2 0
-13.065 -22.385 16.704 -0 -1.2 0
-13.542 -20.452 18.578 -0 -1.2 0
-13.335 -20.849 18.307 -0 -1.2 0
-13.122 -21.24 18.03 -0 -1.2 0
-12.907 -21.625 17.748 -0 -1.2 0
-12.688 -22.004 17.462 -0 -1.2 0
-12.465 -22.377 17.168 -0 -1.2 0
-13.855 -18.372 20.324 -0 -1.2 0
-12.315 -21.617 18.175 -0 -1.2 0
-12.105 -21.996 17.881 -0 -1.2 0
-11.892 -22.369 17.581 -0 -1.2 0
-11.906 -21.224 18.877 -0 -1.2 0
-11.509 -21.988 18.281 -0 -1.2 0
-11.306 -22.361 17.975 -0 -1.2 0
-15.115 -6.366 25.455 -0 -1.2 0
-15.06 -6.881 25.376 -0 -1.2 0
-15 -7.394 25.289 -0 -1.2 0
-14.936 -7.904 25.194 -0 -1.2 0
-14.867 -8.413 25.091 -0 -1.2 0
-14.795 -8.92 24.981 -0 -1.2 0
-14.219 -6.87 25.861 -0 -1.2 0
-14.162 -7.383 25.772 -0 -1.2 0
-14.036 -8.403 25.57 -0 -1.2 0
-13.902 -8.873 25.339 -0 -1.2 0
-13.894 -9.414 25.338 -0 -1.2 0
-13.365 -12.381 24.457 -0 -1.2 0
-13.312 -7.372 26.225 -0 -1.2 0
-13.255 -7.883 26.128 -0 -1.2 0
-13.193 -8.392 26.021 -0 -1.2 0
-13.128 -8.899 25.906 -0 -1.2 0
-13.058 -9.403 25.784 -0 -1.2 0
-12.985 -9.905 25.654 -0 -1.2 0
-12.559 -12.371 24.887 -0 -1.2 0
-11.803 -15.675 23.498 -0 -1.2 0
-12.208 -8.886 26.358 -0 -1.2 0
-11.394 -13.798 24.761 -0 -1.2 0
-11.292 -14.271 24.559 -0 -1.2 0
-11.279 -9.378 26.623 -0 -1.2 0
-10.578 -13.787 25.129 -0 -1.2 0
-10.647 -6.821 27.545 -0 -1.2 0
-10.603 -7.334 27.449 -0 -1.2 0
-10.555 -7.845 27.347 -0 -1.2 0
-10.451 -8.861 27.115 -0 -1.2 0
-10.334 -9.868 26.851 -0 -1.2 0
-9.566 -14.716 25.049 -0 -1.2 0
-9.472 -15.181 24.826 -0 -1.2 0
-9.277 -16.097 24.358 -0 -1.2 0
-9.07 -16.994 23.859 -0 -1.2 0
-8.963 -17.436 23.599 -0 -1.2 0
-9.917 -0.037 28.382 -0 -1.2 0
-9.915 -0.56 28.396 -0 -1.2 0
-9.911 -1.083 28.404 -0 -1.2 0
-9.903 -1.606 28.401 -0 -1.2 0
-9.892 -2.129 28.392 -0 -1.2 0
-9.878 -2.653 28.372 -0 -1.2 0
-9.861 -3.175 28.345 -0 -1.2 0
-9.842 -3.697 28.308 -0 -1.2 0
-9.819 -4.218 28.264 -0 -1.2 0
-9.765 -5.258 28.148 -0 -1.2 0
-9.733 -5.776 28.077 -0 -1.2 0
-9.698 -6.292 27.998 -0 -1.2 0
-9.66 -6.807 27.911 -0 -1.2 0
-9.62 -7.32 27.814 -0 -1.2 0
-9.576 -7.831 27.711 -0 -1.2 0
-9.53 -8.34 27.597 -0 -1.2 0
-9.481 -8.847 27.476 -0 -1.2 0
-9.316 -10.353 27.062 -0 -1.2 0
-8.496 -15.628 24.923 -0 -1.2 0
-8.312 -16.536 24.433 -0 -1.2 0
-8.216 -16.982 24.176 -0 -1.2 0
2.931 1.193 29.884 -0 -1.2 0
7.945 -19.789 22.217 -0 -1.2 0
8.453 -20.59 21.321 -0 -1.2 0
10.337 -19.356 21.59 -0 -1.2 0
10.202 -19.769 21.298 -0 -1.2 0
9.923 -20.577 20.693 -0 -1.2 0
11.058 -19.35 21.237 -0 -1.2 0
13.797 -11.587 24.643 -0 -1.2 0
13.709 -12.076 24.478 -0 -1.2 0
13.617 -12.561 24.305 -0 -1.2 0
12.334 -17.641 21.932 -0 -1.2 0
12.05 -18.504 21.413 -0 -1.2 0
11.904 -18.928 21.142 -0 -1.2 0
11.753 -19.346 20.866 -0 -1.2 0
10.601 -22.113 18.759 -0 -1.2 0
12.776 -17.229 20.962 -0 -1.2 0
12.871 -17.971 21.111 -0 -1.2 0
12.796 -18.501 20.979 -0 -1.2 0
12.64 -18.925 20.715 -0 -1.2 0
12.48 -19.343 20.444 -0 -1.2 0
11.254 -22.11 18.379 -0 -1.2 0
13.309 -18.922 20.296 -0 -1.2 0
13.14 -19.34 20.03 -0 -1.2 0
12.609 -20.562 19.198 -0 -1.2 0
12.424 -20.957 18.908 -0 -1.2 0
12.236 -21.346 18.613 -0 -1.2 0
11.848 -22.107 18.006 -0 -1.2 0
14.139 -18.495 20.108 -0 -1.2 0
13.965 -18.919 19.855 -0 -1.2 0
13.42 -20.157 19.058 -0 -1.2 0
13.036 -20.954 18.497 -0 -1.2 0
12.838 -21.343 18.208 -0 -1.2 0
12.636 -21.727 17.915 -0 -1.2 0
12.43 -22.104 17.615 -0 -1.2 0
13.894 -20.555 18.3 -0 -1.2 0
13.69 -20.95 18.024 -0 -1.2 0
13.482 -21.34 17.742 -0 -1.2 0
13.27 -21.723 17.456 -0 -1.2 0
13.054 -22.101 17.164 -0 -1.2 0
18.879 -0.274 23.483 -0 -1.2 0
14.287 -20.946 17.56 -0 -1.2 0
13.848 -21.72 17.006 -0 -1.2 0
13.622 -22.097 16.722 -0 -1.2 0
19.666 -1.315 22.843 -0 -1.2 0
19.663 -1.838 22.835 -0 -1.2 0
19.654 -2.362 22.819 -0 -1.2 0
19.64 -2.885 22.797 -0 -1.2 0
19.619 -3.407 22.767 -0 -1.2 0
19.592 -3.929 22.731 -0 -1.2 0
19.559 -4.45 22.688 -0 -1.2 0
19.521 -4.97 22.638 -0 -1.2 0
19.477 -5.489 22.581 -0 -1.2 0
19.37 -6.521 22.446 -0 -1.2 0
19.086 -8.566 22.097 -0 -1.2 0
14.41 -21.716 16.539 -0 -1.2 0
14.176 -22.094 16.262 -0 -1.2 0
20.47 -0.783 22.125 -0 -1.2 0
20.473 -1.306 22.123 -0 -1.2 0
20.47 -1.829 22.115 -0 -1.2 0
20.461 -2.353 22.1 -0 -1.2 0
20.445 -2.876 22.078 -0 -1.2 0
20.424 -3.398 22.05 -0 -1.2 0
20.396 -3.92 22.015 -0 -1.2 0
20.362 -4.441 21.973 -0 -1.2 0
20.322 -4.961 21.924 -0 -1.2 0
20.275 -5.48 21.87 -0 -1.2 0
20.223 -5.997 21.807 -0 -1.2 0
20.164 -6.513 21.74 -0 -1.2 0
20.099 -7.027 21.665 -0 -1.2 0
19.779 -9.064 21.3 -0 -1.2 0
14.752 -22.087 15.749 -0 -1.2 0
21.182 -0.248 21.432 -0 -1.2 0
21.192 -0.771 21.437 -0 -1.2 0
21.194 -1.294 21.436 -0 -1.2 0
21.191 -1.817 21.427 -0 -1.2 0
21.182 -2.341 21.412 -0 -1.2 0
21.166 -2.863 21.392 -0 -1.2 0
21.144 -3.386 21.364 -0 -1.2 0
21.115 -3.907 21.33 -0 -1.2 0
21.079 -4.429 21.289 -0 -1.2 0
21.037 -4.949 21.243 -0 -1.2 0
20.989 -5.468 21.19 -0 -1.2 0
20.935 -5.984 21.13 -0 -1.2 0
20.807 -7.015 20.991 -0 -1.2 0
20.653 -8.037 20.827 -0 -1.2 0
20.567 -8.545 20.736 -0 -1.2 0
20.161 -10.555 20.307 -0 -1.2 0
15.523 -21.7 15.521 -0 -1.2 0
15.27 -22.078 15.262 -0 -1.2 0
21.89 -0.758 20.726 -0 -1.2 0
21.893 -1.281 20.725 -0 -1.2 0
21.89 -1.805 20.717 -0 -1.2 0
21.88 -2.329 20.702 -0 -1.2 0
21.863 -2.851 20.682 -0 -1.2 0
21.839 -3.373 20.655 -0 -1.2 0
21.81 -3.895 20.623 -0 -1.2 0
21.773 -4.417 20.584 -0 -1.2 0
21.73 -4.936 20.539 -0 -1.2 0
21.68 -5.455 20.487 -0 -1.2 0
21.624 -5.972 20.429 -0 -1.2 0
21.561 -6.488 20.365 -0 -1.2 0
21.416 -7.515 20.219 -0 -1.2 0
21.334 -8.025 20.138 -0 -1.2 0
21.15 -9.04 19.954 -0 -1.2 0
20.939 -10.044 19.747 -0 -1.2 0
20.825 -10.543 19.634 -0 -1.2 0
20.704 -11.038 19.516 -0 -1.2 0
18.97 -16.257 17.833 -0 -1.2 0
16.29 -21.307 15.256 -0 -1.2 0
16.034 -21.691 15.01 -0 -1.2 0
15.771 -22.069 14.759 -0 -1.2 0
22.604 -2.315 19.911 -0 -1.2 0
22.587 -2.838 19.891 -0 -1.2 0
22.563 -3.36 19.866 -0 -1.2 0
22.531 -3.882 19.835 -0 -1.2 0
22.494 -4.403 19.798 -0 -1.2 0
22.45 -4.923 19.754 -0 -1.2 0
22.398 -5.442 19.704 -0 -1.2 0
22.34 -5.959 19.649 -0 -1.2 0
22.275 -6.475 19.587 -0 -1.2 0
21.389 -11.025 18.772 -0 -1.2 0
21.258 -11.518 18.652 -0 -1.2 0
16.563 -21.681 14.44 -0 -1.2 0
16.292 -22.06 14.198 -0 -1.2 0
23.248 -2.303 19.158 -0 -1.2 0
23.231 -2.825 19.139 -0 -1.2 0
23.206 -3.347 19.115 -0 -1.2 0
23.174 -3.869 19.085 -0 -1.2 0
23.135 -4.391 19.048 -0 -1.2 0
23.089 -4.91 19.006 -0 -1.2 0
23.036 -5.429 18.959 -0 -1.2 0
22.976 -5.946 18.906 -0 -1.2 0
22.909 -6.463 18.847 -0 -1.2 0
22.836 -6.977 18.783 -0 -1.2 0
22.667 -8 18.636 -0 -1.2 0
22.363 -9.519 18.373 -0 -1.2 0
16.755 -22.051 13.664 -0 -1.2 0
23.873 -1.243 18.415 -0 -1.2 0
23.868 -1.766 18.408 -0 -1.2 0
23.857 -2.29 18.396 -0 -1.2 0
23.839 -2.812 18.378 -0 -1.2 0
23.814 -3.335 18.354 -0 -1.2 0
23.781 -3.857 18.326 -0 -1.2 0
23.741 -4.378 18.291 -0 -1.2 0
23.694 -4.898 18.251 -0 -1.2 0
23.64 -5.417 18.205 -0 -1.2 0
23.35 -7.477 17.968 -0 -1.2 0
23.059 -9.003 17.733 -0 -1.2 0
22.949 -9.506 17.644 -0 -1.2 0
20.559 -17.547 14.641 -0 -1.2 0
17.938 -21.653 12.739 -0 -1.2 0
17.645 -22.032 12.527 -0 -1.2 0
25.035 -0.17 16.776 -0 -1.2 0
25.046 -0.693 16.78 -0 -1.2 0
25.05 -1.216 16.78 -0 -1.2 0
25.045 -1.739 16.774 -0 -1.2 0
25.034 -2.263 16.763 -0 -1.2 0
25.015 -2.785 16.747 -0 -1.2 0
24.988 -3.308 16.726 -0 -1.2 0
24.953 -3.829 16.699 -0 -1.2 0
24.912 -4.351 16.668 -0 -1.2 0
24.862 -4.871 16.632 -0 -1.2 0
24.805 -5.39 16.591 -0 -1.2 0
24.741 -5.907 16.544 -0 -1.2 0
24.668 -6.423 16.493 -0 -1.2 0
24.589 -6.938 16.436 -0 -1.2 0
24.502 -7.45 16.375 -0 -1.2 0
24.408 -7.961 16.309 -0 -1.2 0
23.229 -12.445 15.494 -0 -1.2 0
21.019 -17.535 13.986 -0 -1.2 0
25.526 0.369 15.982 -0 -1.2 0
25.556 -0.676 15.996 -0 -1.2 0
25.56 -1.199 15.994 -0 -1.2 0
25.556 -1.722 15.99 -0 -1.2 0
25.543 -2.246 15.979 -0 -1.2 0
25.523 -2.769 15.964 -0 -1.2 0
25.497 -3.291 15.945 -0 -1.2 0
25.461 -3.813 15.919 -0 -1.2 0
25.419 -4.335 15.89 -0 -1.2 0
23.53 -12.913 14.668 -0 -1.2 0
23.353 -13.392 14.554 -0 -1.2 0
22.977 -14.34 14.315 -0 -1.2 0
26.058 0.386 15.099 -0 -1.2 0
26.089 -0.659 15.112 -0 -1.2 0
26.093 -1.182 15.112 -0 -1.2 0
26.088 -1.705 15.108 -0 -1.2 0
26.076 -2.229 15.099 -0 -1.2 0
26.056 -2.752 15.085 -0 -1.2 0
26.028 -3.274 15.067 -0 -1.2 0
25.992 -3.796 15.044 -0 -1.2 0
25.759 -4.294 14.907 -0 -1.2 0
25.744 -5.87 14.892 -0 -1.2 0
25.695 -6.39 14.861 -0 -1.2 0
25.611 -6.905 14.811 -0 -1.2 0
25.521 -7.418 14.757 -0 -1.2 0
25.422 -7.928 14.698 -0 -1.2 0
25.081 -9.448 14.495 -0 -1.2 0
24.194 -12.414 13.97 -0 -1.2 0
24.02 -12.898 13.867 -0 -1.2 0
18.788 -21.999 10.81 -0 -1.2 0
26.525 0.4 14.263 -0 -1.2 0
26.545 -0.122 14.272 -0 -1.2 0
26.318 -0.649 14.149 -0 -1.2 0
26.304 -1.167 14.14 -0 -1.2 0
26.3 -1.685 14.136 -0 -1.2 0
26.296 -2.204 14.132 -0 -1.2 0
26.457 -3.782 14.213 -0 -1.2 0
25.639 -5.752 13.769 -0 -1.2 0
26.033 -6.351 13.978 -0 -1.2 0
26.036 -6.883 13.978 -0 -1.2 0
19.122 -21.988 10.229 -0 -1.2 0
26.965 0.413 13.412 -0 -1.2 0
26.983 -2.202 13.416 -0 -1.2 0
26.896 -3.768 13.369 -0 -1.2 0
26.502 -6.878 13.168 -0 -1.2 0
20.079 -21.213 9.957 -0 -1.2 0
19.762 -21.599 9.798 -0 -1.2 0
19.438 -21.979 9.638 -0 -1.2 0
27.402 0.426 12.496 -0 -1.2 0
27.331 -3.755 12.459 -0 -1.2 0
26.93 -6.865 12.275 -0 -1.2 0
24.849 -11.566 11.325 -0 -1.2 0
23.016 -17.473 10.487 -0 -1.2 0
20.719 -20.812 9.441 -0 -1.2 0
20.403 -21.204 9.297 -0 -1.2 0
20.08 -21.59 9.15 -0 -1.2 0
19.752 -21.969 9 -0 -1.2 0
27.775 0.437 11.642 -0 -1.2 0
27.605 -0.611 11.571 -0 -1.2 0
27.608 -1.13 11.572 -0 -1.2 0
27.595 -1.649 11.566 -0 -1.2 0
27.609 -2.17 11.572 -0 -1.2 0
27.597 -2.69 11.566 -0 -1.2 0
27.65 -3.215 11.589 -0 -1.2 0
27.704 -3.745 11.61 -0 -1.2 0
27.298 -6.854 11.44 -0 -1.2 0
27.201 -7.367 11.4 -0 -1.2 0
25.102 -11.52 10.525 -0 -1.2 0
21.315 -20.406 8.946 -0 -1.2 0
21.002 -20.804 8.815 -0 -1.2 0
20.681 -21.196 8.681 -0 -1.2 0
20.353 -21.582 8.545 -0 -1.2 0
20.021 -21.962 8.406 -0 -1.2 0
28.121 0.447 10.776 -0 -1.2 0
27.638 -6.845 10.597 -0 -1.2 0
27.54 -7.358 10.56 -0 -1.2 0
26.622 -10.887 10.213 -0 -1.2 0
21.581 -20.399 8.301 -0 -1.2 0
21.263 -20.797 8.181 -0 -1.2 0
20.938 -21.189 8.058 -0 -1.2 0
20.607 -21.575 7.932 -0 -1.2 0
20.27 -21.955 7.804 -0 -1.2 0
28.401 -3.741 9.781 -0 -1.2 0
24.178 -17.021 8.354 -0 -1.2 0
23.356 -18.329 8.075 -0 -1.2 0
23.068 -18.755 7.977 -0 -1.2 0
22.471 -19.591 7.774 -0 -1.2 0
22.162 -20 7.669 -0 -1.2 0
21.846 -20.404 7.561 -0 -1.2 0
21.523 -20.801 7.452 -0 -1.2 0
21.195 -21.193 7.34 -0 -1.2 0
20.86 -21.579 7.226 -0 -1.2 0
20.518 -21.959 7.11 -0 -1.2 0
28.795 -1.656 8.929 -0 -1.2 0
28.687 -3.747 8.899 -0 -1.2 0
27.382 -10.402 8.509 -0 -1.2 0
24.149 -17.466 7.526 -0 -1.2 0
23.872 -17.903 7.442 -0 -1.2 0
23.589 -18.334 7.355 -0 -1.2 0
23.297 -18.76 7.266 -0 -1.2 0
22.999 -19.18 7.176 -0 -1.2 0
22.693 -19.595 7.082 -0 -1.2 0
22.382 -20.005 6.987 -0 -1.2 0
22.062 -20.408 6.889 -0 -1.2 0
21.736 -20.806 6.79 -0 -1.2 0
21.405 -21.198 6.689 -0 -1.2 0
21.066 -21.583 6.585 -0 -1.2 0
20.72 -21.963 6.48 -0 -1.2 0
29.057 -0.616 8.036 -0 -1.2 0
29.061 -1.139 8.038 -0 -1.2 0
29.055 -1.662 8.038 -0 -1.2 0
29.041 -2.186 8.035 -0 -1.2 0
28.946 -3.753 8.012 -0 -1.2 0
28.418 -7.375 7.874 -0 -1.2 0
28.307 -7.886 7.845 -0 -1.2 0
27.466 -10.904 7.621 -0 -1.2 0
25.179 -14.381 7.001 -0 -1.2 0
25.173 -14.954 7 -0 -1.2 0
24.489 -15.149 6.813 -0 -1.2 0
25.124 -16.113 6.989 -0 -1.2 0
24.901 -16.584 6.929 -0 -1.2 0
24.364 -17.471 6.784 -0 -1.2 0
24.084 -17.908 6.708 -0 -1.2 0
23.798 -18.339 6.631 -0 -1.2 0
23.503 -18.765 6.551 -0 -1.2 0
23.202 -19.185 6.469 -0 -1.2 0
22.894 -19.6 6.385 -0 -1.2 0
22.579 -20.009 6.3 -0 -1.2 0
22.257 -20.413 6.212 -0 -1.2 0
21.929 -20.81 6.123 -0 -1.2 0
21.594 -21.202 6.032 -0 -1.2 0
21.251 -21.588 5.939 -0 -1.2 0
20.903 -21.968 5.845 -0 -1.2 0
29.306 -0.622 7.068 -0 -1.2 0
29.308 -1.145 7.069 -0 -1.2 0
29.303 -1.669 7.07 -0 -1.2 0
29.193 -3.76 7.048 -0 -1.2 0
25.149 -14.259 6.108 -0 -1.2 0
25.1 -14.805 6.098 -0 -1.2 0
25.091 -15.974 6.098 -0 -1.2 0
25.109 -16.59 6.104 -0 -1.2 0
24.843 -17.036 6.042 -0 -1.2 0
24.568 -17.477 5.977 -0 -1.2 0
24.286 -17.913 5.911 -0 -1.2 0
23.996 -18.344 5.843 -0 -1.2 0
23.7 -18.77 5.773 -0 -1.2 0
23.396 -19.19 5.702 -0 -1.2 0
23.085 -19.605 5.628 -0 -1.2 0
22.767 -20.015 5.554 -0 -1.2 0
22.443 -20.418 5.477 -0 -1.2 0
22.111 -20.815 5.399 -0 -1.2 0
21.772 -21.207 5.32 -0 -1.2 0
21.427 -21.593 5.238 -0 -1.2 0
21.077 -21.972 5.156 -0 -1.2 0
29.508 -0.629 6.16 -0 -1.2 0
29.511 -1.152 6.162 -0 -1.2 0
29.506 -1.675 6.162 -0 -1.2 0
27.889 -10.916 5.853 -0 -1.2 0
27.716 -11.41 5.819 -0 -1.2 0
26.73 -13.826 5.622 -0 -1.2 0
26.508 -14.297 5.578 -0 -1.2 0
26.279 -14.766 5.532 -0 -1.2 0
25.038 -14.683 5.276 -0 -1.2 0
25.279 -16.595 5.331 -0 -1.2 0
25.011 -17.042 5.277 -0 -1.2 0
24.735 -17.482 5.222 -0 -1.2 0
24.45 -17.919 5.164 -0 -1.2 0
24.159 -18.349 5.105 -0 -1.2 0
23.86 -18.775 5.044 -0 -1.2 0
23.554 -19.195 4.983 -0 -1.2 0
23.241 -19.61 4.92 -0 -1.2 0
22.921 -20.019 4.855 -0 -1.2 0
22.594 -20.423 4.788 -0 -1.2 0
22.259 -20.82 4.72 -0 -1.2 0
21.919 -21.212 4.652 -0 -1.2 0
21.572 -21.597 4.581 -0 -1.2 0
21.217 -21.977 4.51 -0 -1.2 0
29.685 -0.635 5.232 -0 -1.2 0
29.689 -1.158 5.235 -0 -1.2 0
29.683 -1.681 5.235 -0 -1.2 0
29.643 -2.728 5.232 -0 -1.2 0
29.612 -3.251 5.227 -0 -1.2 0
29.57 -3.772 5.222 -0 -1.2 0
29.131 -6.882 5.155 -0 -1.2 0
29.027 -7.394 5.138 -0 -1.2 0
28.914 -7.905 5.121 -0 -1.2 0
28.219 -10.426 5.007 -0 -1.2 0
28.054 -10.922 4.98 -0 -1.2 0
27.88 -11.416 4.952 -0 -1.2 0
27.103 -13.355 4.823 -0 -1.2 0
26.887 -13.832 4.786 -0 -1.2 0
26.664 -14.303 4.749 -0 -1.2 0
25.776 -14.43 4.596 -0 -1.2 0
25.759 -14.999 4.594 -0 -1.2 0
25.428 -16.601 4.542 -0 -1.2 0
25.157 -17.047 4.497 -0 -1.2 0
24.879 -17.488 4.45 -0 -1.2 0
24.593 -17.924 4.401 -0 -1.2 0
24.301 -18.355 4.352 -0 -1.2 0
24 -18.781 4.301 -0 -1.2 0
23.692 -19.2 4.248 -0 -1.2 0
23.377 -19.615 4.196 -0 -1.2 0
23.055 -20.024 4.141 -0 -1.2 0
22.725 -20.428 4.085 -0 -1.2 0
22.389 -20.825 4.027 -0 -1.2 0
22.046 -21.216 3.97 -0 -1.2 0
21.697 -21.602 3.91 -0 -1.2 0
21.341 -21.982 3.85 -0 -1.2 0
29.843 -0.643 4.229 -0 -1.2 0
29.846 -1.166 4.23 -0 -1.2 0
29.84 -1.689 4.231 -0 -1.2 0
29.801 -2.735 4.23 -0 -1.2 0
29.768 -3.258 4.227 -0 -1.2 0
29.726 -3.78 4.222 -0 -1.2 0
29.675 -4.301 4.217 -0 -1.2 0
29.467 -5.858 4.194 -0 -1.2 0
29.381 -6.374 4.183 -0 -1.2 0
29.285 -6.889 4.171 -0 -1.2 0
29.18 -7.401 4.158 -0 -1.2 0
29.067 -7.912 4.144 -0 -1.2 0
28.502 -8.309 4.068 -0 -1.2 0
28.673 -9.432 4.094 -0 -1.2 0
28.524 -9.934 4.076 -0 -1.2 0
28.367 -10.433 4.055 -0 -1.2 0
28.201 -10.929 4.035 -0 -1.2 0
28.027 -11.423 4.012 -0 -1.2 0
26.956 -11.566 3.864 -0 -1.2 0
27.653 -12.398 3.963 -0 -1.2 0
27.452 -12.883 3.937 -0 -1.2 0
27.245 -13.362 3.91 -0 -1.2 0
27.028 -13.838 3.881 -0 -1.2 0
26.804 -14.31 3.851 -0 -1.2 0
26.57 -14.778 3.821 -0 -1.2 0
26.33 -15.242 3.789 -0 -1.2 0
26.082 -15.702 3.756 -0 -1.2 0
25.825 -16.157 3.722 -0 -1.2 0
25.561 -16.607 3.687 -0 -1.2 0
25.288 -17.053 3.651 -0 -1.2 0
25.009 -17.494 3.613 -0 -1.2 0
24.721 -17.93 3.575 -0 -1.2 0
24.427 -18.361 3.535 -0 -1.2 0
24.124 -18.786 3.495 -0 -1.2 0
23.814 -19.206 3.453 -0 -1.2 0
23.498 -19.621 3.411 -0 -1.2 0
23.173 -20.03 3.368 -0 -1.2 0
22.842 -20.433 3.322 -0 -1.2 0
22.505 -20.83 3.277 -0 -1.2 0
22.16 -21.222 3.231 -0 -1.2 0
21.809 -21.607 3.183 -0 -1.2 0
21.45 -21.987 3.134 -0 -1.2 0
29.95 -0.124 3.241 -0 -1.2 0
29.962 -0.647 3.244 -0 -1.2 0
29.965 -1.17 3.247 -0 -1.2 0
29.959 -1.693 3.247 -0 -1.2 0
29.92 -2.739 3.247 -0 -1.2 0
29.887 -3.262 3.246 -0 -1.2 0
29.845 -3.784 3.243 -0 -1.2 0
29.793 -4.306 3.239 -0 -1.2 0
29.733 -4.825 3.235 -0 -1.2 0
29.664 -5.345 3.23 -0 -1.2 0
29.585 -5.862 3.223 -0 -1.2 0
29.498 -6.378 3.216 -0 -1.2 0
29.402 -6.893 3.208 -0 -1.2 0
29.296 -7.405 3.199 -0 -1.2 0
29.182 -7.916 3.188 -0 -1.2 0
29.059 -8.425 3.178 -0 -1.2 0
28.927 -8.932 3.166 -0 -1.2 0
28.787 -9.436 3.153 -0 -1.2 0
28.637 -9.938 3.139 -0 -1.2 0
28.479 -10.437 3.124 -0 -1.2 0
28.314 -10.933 3.109 -0 -1.2 0
28.138 -11.426 3.092 -0 -1.2 0
27.955 -11.916 3.074 -0 -1.2 0
27.762 -12.402 3.056 -0 -1.2 0
27.562 -12.886 3.037 -0 -1.2 0
27.353 -13.365 3.016 -0 -1.2 0
27.135 -13.842 2.995 -0 -1.2 0
26.91 -14.313 2.974 -0 -1.2 0
26.676 -14.782 2.95 -0 -1.2 0
26.435 -15.246 2.927 -0 -1.2 0
26.185 -15.705 2.902 -0 -1.2 0
25.927 -16.16 2.877 -0 -1.2 0
25.662 -16.61 2.85 -0 -1.2 0
25.389 -17.057 2.824 -0 -1.2 0
25.107 -17.497 2.796 -0 -1.2 0
24.819 -17.933 2.767 -0 -1.2 0
24.523 -18.364 2.737 -0 -1.2 0
24.219 -18.79 2.707 -0 -1.2 0
23.908 -19.209 2.676 -0 -1.2 0
23.59 -19.624 2.643 -0 -1.2 0
23.265 -20.033 2.611 -0 -1.2 0
22.932 -20.436 2.577 -0 -1.2 0
22.594 -20.833 2.543 -0 -1.2 0
22.247 -21.225 2.508 -0 -1.2 0
21.894 -21.61 2.473 -0 -1.2 0
21.535 -21.99 2.436 -0 -1.2 0
30.038 -0.128 2.254 -0 -1.2 0
30.049 -0.65 2.257 -0 -1.2 0
30.053 -1.173 2.259 -0 -1.2 0
30.047 -1.697 2.261 -0 -1.2 0
30.007 -2.743 2.262 -0 -1.2 0
29.974 -3.266 2.262 -0 -1.2 0
29.932 -3.788 2.261 -0 -1.2 0
29.881 -4.309 2.26 -0 -1.2 0
29.82 -4.829 2.257 -0 -1.2 0
29.75 -5.348 2.255 -0 -1.2 0
29.672 -5.866 2.251 -0 -1.2 0
29.584 -6.382 2.247 -0 -1.2 0
29.487 -6.897 2.242 -0 -1.2 0
29.382 -7.409 2.236 -0 -1.2 0
29.267 -7.92 2.23 -0 -1.2 0
29.144 -8.429 2.223 -0 -1.2 0
29.012 -8.936 2.216 -0 -1.2 0
28.871 -9.44 2.208 -0 -1.2 0
28.721 -9.941 2.199 -0 -1.2 0
28.563 -10.441 2.19 -0 -1.2 0
28.395 -10.936 2.179 -0 -1.2 0
28.22 -11.43 2.169 -0 -1.2 0
28.036 -11.92 2.158 -0 -1.2 0
27.843 -12.406 2.146 -0 -1.2 0
27.642 -12.89 2.134 -0 -1.2 0
27.433 -13.369 2.12 -0 -1.2 0
27.214 -13.845 2.106 -0 -1.2 0
26.988 -14.317 2.092 -0 -1.2 0
26.754 -14.785 2.077 -0 -1.2 0
26.511 -15.249 2.061 -0 -1.2 0
26.261 -15.709 2.045 -0 -1.2 0
26.003 -16.164 2.029 -0 -1.2 0
25.736 -16.614 2.012 -0 -1.2 0
25.463 -17.06 1.993 -0 -1.2 0
25.181 -17.5 1.975 -0 -1.2 0
24.891 -17.937 1.956 -0 -1.2 0
24.594 -18.367 1.937 -0 -1.2 0
24.29 -18.793 1.916 -0 -1.2 0
23.978 -19.212 1.896 -0 -1.2 0
23.659 -19.627 1.875 -0 -1.2 0
23.332 -20.036 1.852 -0 -1.2 0
22.999 -20.439 1.83 -0 -1.2 0
22.659 -20.836 1.808 -0 -1.2 0
22.311 -21.228 1.784 -0 -1.2 0
21.958 -21.613 1.76 -0 -1.2 0
21.597 -21.992 1.736 -0 -1.2 0
30.085 -0.192 -0.567 -0 -1.2 0
30.097 -0.715 -0.562 -0 -1.2 0
30.099 -1.238 -0.557 -0 -1.2 0
30.092 -1.761 -0.551 -0 -1.2 0
30.076 -2.285 -0.546 -0 -1.2 0
30.051 -2.808 -0.541 -0 -1.2 0
30.017 -3.33 -0.534 -0 -1.2 0
29.973 -3.852 -0.528 -0 -1.2 0
29.921 -4.373 -0.523 -0 -1.2 0
29.859 -4.893 -0.517 -0 -1.2 0
29.788 -5.412 -0.51 -0 -1.2 0
29.709 -5.929 -0.503 -0 -1.2 0
29.621 -6.445 -0.497 -0 -1.2 0
29.522 -6.96 -0.49 -0 -1.2 0
29.416 -7.472 -0.483 -0 -1.2 0
29.301 -7.983 -0.476 -0 -1.2 0
29.176 -8.491 -0.469 -0 -1.2 0
29.043 -8.998 -0.462 -0 -1.2 0
28.9 -9.502 -0.454 -0 -1.2 0
28.75 -10.003 -0.447 -0 -1.2 0
28.589 -10.502 -0.439 -0 -1.2 0
28.422 -10.997 -0.431 -0 -1.2 0
28.244 -11.49 -0.424 -0 -1.2 0
28.059 -11.98 -0.416 -0 -1.2 0
27.865 -12.465 -0.407 -0 -1.2 0
27.662 -12.949 -0.399 -0 -1.2 0
27.451 -13.428 -0.391 -0 -1.2 0
27.233 -13.903 -0.382 -0 -1.2 0
27.005 -14.374 -0.374 -0 -1.2 0
26.769 -14.842 -0.366 -0 -1.2 0
26.526 -15.306 -0.357 -0 -1.2 0
26.274 -15.765 -0.348 -0 -1.2 0
26.014 -16.219 -0.339 -0 -1.2 0
25.747 -16.669 -0.331 -0 -1.2 0
25.47 -17.114 -0.322 -0 -1.2 0
25.187 -17.554 -0.313 -0 -1.2 0
24.897 -17.99 -0.304 -0 -1.2 0
24.598 -18.419 -0.295 -0 -1.2 0
24.292 -18.844 -0.285 -0 -1.2 0
23.979 -19.263 -0.276 -0 -1.2 0
23.659 -19.678 -0.267 -0 -1.2 0
23.331 -20.086 -0.257 -0 -1.2 0
22.996 -20.488 -0.248 -0 -1.2 0
22.655 -20.885 -0.238 -0 -1.2 0
22.306 -21.275 -0.228 -0 -1.2 0
21.951 -21.66 -0.218 -0 -1.2 0
21.589 -22.038 -0.208 -0 -1.2 0
30.031 0.319 -1.57 -0 -1.2 0
30.052 -0.203 -1.566 -0 -1.2 0
30.059 -1.772 -1.551 -0 -1.2 0
30.043 -2.296 -1.545 -0 -1.2 0
30.018 -2.818 -1.539 -0 -1.2 0
29.984 -3.341 -1.533 -0 -1.2 0
29.94 -3.862 -1.525 -0 -1.2 0
29.888 -4.384 -1.517 -0 -1.2 0
29.826 -4.904 -1.509 -0 -1.2 0
29.756 -5.422 -1.501 -0 -1.2 0
29.676 -5.939 -1.492 -0 -1.2 0
29.587 -6.456 -1.482 -0 -1.2 0
29.49 -6.97 -1.472 -0 -1.2 0
29.384 -7.482 -1.462 -0 -1.2 0
29.267 -7.993 -1.452 -0 -1.2 0
29.144 -8.501 -1.441 -0 -1.2 0
29.011 -9.008 -1.43 -0 -1.2 0
28.868 -9.512 -1.418 -0 -1.2 0
28.718 -10.013 -1.405 -0 -1.2 0
28.558 -10.512 -1.393 -0 -1.2 0
28.39 -11.007 -1.379 -0 -1.2 0
28.213 -11.5 -1.366 -0 -1.2 0
28.028 -11.989 -1.352 -0 -1.2 0
27.834 -12.475 -1.337 -0 -1.2 0
27.632 -12.958 -1.323 -0 -1.2 0
27.421 -13.437 -1.308 -0 -1.2 0
27.202 -13.913 -1.292 -0 -1.2 0
26.975 -14.384 -1.276 -0 -1.2 0
26.74 -14.852 -1.26 -0 -1.2 0
26.496 -15.315 -1.243 -0 -1.2 0
26.245 -15.774 -1.227 -0 -1.2 0
25.985 -16.228 -1.21 -0 -1.2 0
25.717 -16.678 -1.192 -0 -1.2 0
25.442 -17.123 -1.174 -0 -1.2 0
25.159 -17.563 -1.155 -0 -1.2 0
24.869 -17.998 -1.136 -0 -1.2 0
24.57 -18.428 -1.118 -0 -1.2 0
24.265 -18.853 -1.099 -0 -1.2 0
23.952 -19.272 -1.079 -0 -1.2 0
23.632 -19.686 -1.059 -0 -1.2 0
23.305 -20.094 -1.039 -0 -1.2 0
22.97 -20.496 -1.018 -0 -1.2 0
22.628 -20.892 -0.998 -0 -1.2 0
22.28 -21.283 -0.976 -0 -1.2 0
21.925 -21.667 -0.955 -0 -1.2 0
21.563 -22.046 -0.933 -0 -1.2 0
29.959 0.309 -2.644 -0 -1.2 0
29.991 -0.735 -2.637 -0 -1.2 0
29.986 -1.781 -2.627 -0 -1.2 0
29.97 -2.306 -2.621 -0 -1.2 0
29.945 -2.828 -2.614 -0 -1.2 0
29.91 -3.35 -2.606 -0 -1.2 0
29.867 -3.872 -2.598 -0 -1.2 0
29.815 -4.393 -2.588 -0 -1.2 0
29.754 -4.913 -2.578 -0 -1.2 0
29.683 -5.432 -2.568 -0 -1.2 0
29.604 -5.949 -2.556 -0 -1.2 0
29.516 -6.465 -2.544 -0 -1.2 0
29.418 -6.979 -2.53 -0 -1.2 0
29.312 -7.492 -2.517 -0 -1.2 0
29.197 -8.002 -2.502 -0 -1.2 0
29.072 -8.511 -2.487 -0 -1.2 0
28.94 -9.017 -2.47 -0 -1.2 0
28.798 -9.521 -2.454 -0 -1.2 0
28.648 -10.022 -2.436 -0 -1.2 0
28.488 -10.521 -2.419 -0 -1.2 0
28.321 -11.016 -2.399 -0 -1.2 0
28.144 -11.509 -2.38 -0 -1.2 0
27.96 -11.998 -2.359 -0 -1.2 0
27.766 -12.484 -2.338 -0 -1.2 0
27.564 -12.967 -2.317 -0 -1.2 0
27.354 -13.446 -2.294 -0 -1.2 0
27.136 -13.922 -2.271 -0 -1.2 0
26.91 -14.392 -2.247 -0 -1.2 0
26.675 -14.86 -2.223 -0 -1.2 0
26.432 -15.323 -2.197 -0 -1.2 0
26.181 -15.782 -2.172 -0 -1.2 0
25.922 -16.237 -2.145 -0 -1.2 0
25.655 -16.686 -2.119 -0 -1.2 0
25.38 -17.131 -2.091 -0 -1.2 0
25.098 -17.571 -2.063 -0 -1.2 0
24.808 -18.006 -2.034 -0 -1.2 0
24.51 -18.436 -2.004 -0 -1.2 0
24.206 -18.861 -1.975 -0 -1.2 0
23.893 -19.28 -1.943 -0 -1.2 0
23.574 -19.693 -1.913 -0 -1.2 0
23.247 -20.101 -1.881 -0 -1.2 0
22.914 -20.504 -1.848 -0 -1.2 0
22.574 -20.9 -1.816 -0 -1.2 0
22.226 -21.29 -1.782 -0 -1.2 0
21.872 -21.674 -1.749 -0 -1.2 0
21.511 -22.053 -1.714 -0 -1.2 0
29.877 -0.22 -3.635 -0 -1.2 0
29.889 -0.743 -3.632 -0 -1.2 0
29.884 -1.789 -3.622 -0 -1.2 0
29.868 -2.313 -3.615 -0 -1.2 0
29.843 -2.836 -3.608 -0 -1.2 0
29.809 -3.358 -3.599 -0 -1.2 0
29.766 -3.88 -3.589 -0 -1.2 0
29.713 -4.401 -3.578 -0 -1.2 0
29.653 -4.921 -3.566 -0 -1.2 0
29.583 -5.44 -3.553 -0 -1.2 0
29.503 -5.957 -3.54 -0 -1.2 0
29.415 -6.473 -3.525 -0 -1.2 0
29.318 -6.987 -3.508 -0 -1.2 0
29.212 -7.499 -3.491 -0 -1.2 0
29.097 -8.01 -3.473 -0 -1.2 0
28.974 -8.518 -3.454 -0 -1.2 0
28.841 -9.025 -3.434 -0 -1.2 0
28.7 -9.529 -3.413 -0 -1.2 0
28.55 -10.029 -3.391 -0 -1.2 0
28.392 -10.528 -3.367 -0 -1.2 0
28.224 -11.023 -3.342 -0 -1.2 0
28.048 -11.517 -3.317 -0 -1.2 0
27.865 -12.006 -3.291 -0 -1.2 0
27.672 -12.491 -3.264 -0 -1.2 0
27.47 -12.975 -3.236 -0 -1.2 0
27.262 -13.453 -3.207 -0 -1.2 0
27.044 -13.929 -3.176 -0 -1.2 0
26.818 -14.399 -3.145 -0 -1.2 0
26.583 -14.867 -3.113 -0 -1.2 0
26.341 -15.33 -3.08 -0 -1.2 0
26.091 -15.789 -3.046 -0 -1.2 0
25.833 -16.243 -3.012 -0 -1.2 0
25.567 -16.693 -2.976 -0 -1.2 0
25.294 -17.138 -2.939 -0 -1.2 0
25.012 -17.577 -2.901 -0 -1.2 0
24.723 -18.013 -2.863 -0 -1.2 0
24.427 -18.442 -2.824 -0 -1.2 0
24.123 -18.867 -2.784 -0 -1.2 0
23.812 -19.286 -2.743 -0 -1.2 0
23.494 -19.7 -2.702 -0 -1.2 0
23.169 -20.107 -2.659 -0 -1.2 0
22.836 -20.509 -2.616 -0 -1.2 0
22.496 -20.906 -2.572 -0 -1.2 0
22.15 -21.296 -2.527 -0 -1.2 0
21.797 -21.68 -2.482 -0 -1.2 0
21.437 -22.058 -2.435 -0 -1.2 0
29.722 0.295 -4.63 -0 -1.2 0
29.755 -1.272 -4.622 -0 -1.2 0
29.749 -1.796 -4.617 -0 -1.2 0
29.733 -2.32 -4.609 -0 -1.2 0
29.707 -2.842 -4.602 -0 -1.2 0
29.674 -3.364 -4.592 -0 -1.2 0
29.631 -3.886 -4.581 -0 -1.2 0
29.579 -4.408 -4.568 -0 -1.2 0
29.518 -4.927 -4.555 -0 -1.2 0
29.448 -5.446 -4.54 -0 -1.2 0
29.369 -5.963 -4.523 -0 -1.2 0
29.282 -6.479 -4.506 -0 -1.2 0
29.185 -6.993 -4.486 -0 -1.2 0
29.079 -7.506 -4.466 -0 -1.2 0
28.965 -8.016 -4.444 -0 -1.2 0
28.843 -8.525 -4.421 -0 -1.2 0
28.71 -9.031 -4.396 -0 -1.2 0
28.57 -9.535 -4.371 -0 -1.2 0
28.421 -10.036 -4.344 -0 -1.2 0
28.263 -10.535 -4.315 -0 -1.2 0
28.096 -11.03 -4.285 -0 -1.2 0
27.921 -11.523 -4.255 -0 -1.2 0
27.738 -12.012 -4.223 -0 -1.2 0
27.546 -12.497 -4.189 -0 -1.2 0
27.346 -12.981 -4.154 -0 -1.2 0
27.138 -13.459 -4.119 -0 -1.2 0
26.921 -13.935 -4.081 -0 -1.2 0
26.696 -14.405 -4.043 -0 -1.2 0
26.463 -14.873 -4.003 -0 -1.2 0
26.222 -15.336 -3.962 -0 -1.2 0
25.973 -15.795 -3.92 -0 -1.2 0
25.716 -16.249 -3.877 -0 -1.2 0
25.452 -16.698 -3.832 -0 -1.2 0
25.179 -17.143 -3.787 -0 -1.2 0
24.899 -17.583 -3.741 -0 -1.2 0
24.611 -18.018 -3.693 -0 -1.2 0
24.317 -18.448 -3.644 -0 -1.2 0
24.014 -18.872 -3.594 -0 -1.2 0
23.704 -19.291 -3.543 -0 -1.2 0
23.387 -19.705 -3.491 -0 -1.2 0
23.064 -20.113 -3.438 -0 -1.2 0
22.732 -20.514 -3.383 -0 -1.2 0
22.394 -20.91 -3.329 -0 -1.2 0
22.049 -21.301 -3.272 -0 -1.2 0
21.698 -21.685 -3.215 -0 -1.2 0
21.34 -22.063 -3.157 -0 -1.2 0
29.558 -0.232 -5.701 -0 -1.2 0
29.568 -0.755 -5.699 -0 -1.2 0
29.571 -1.278 -5.695 -0 -1.2 0
29.564 -1.801 -5.69 -0 -1.2 0
29.548 -2.325 -5.683 -0 -1.2 0
29.524 -2.848 -5.674 -0 -1.2 0
29.49 -3.37 -5.663 -0 -1.2 0
29.447 -3.892 -5.651 -0 -1.2 0
29.396 -4.413 -5.637 -0 -1.2 0
29.335 -4.933 -5.621 -0 -1.2 0
29.265 -5.452 -5.604 -0 -1.2 0
29.187 -5.969 -5.585 -0 -1.2 0
29.101 -6.485 -5.565 -0 -1.2 0
29.004 -6.999 -5.543 -0 -1.2 0
28.9 -7.511 -5.518 -0 -1.2 0
28.785 -8.022 -5.492 -0 -1.2 0
28.664 -8.53 -5.465 -0 -1.2 0
28.533 -9.037 -5.436 -0 -1.2 0
28.393 -9.54 -5.405 -0 -1.2 0
28.245 -10.041 -5.373 -0 -1.2 0
28.088 -10.54 -5.34 -0 -1.2 0
27.922 -11.035 -5.303 -0 -1.2 0
27.749 -11.528 -5.267 -0 -1.2 0
27.566 -12.017 -5.228 -0 -1.2 0
27.375 -12.502 -5.188 -0 -1.2 0
27.177 -12.986 -5.146 -0 -1.2 0
26.97 -13.464 -5.103 -0 -1.2 0
26.754 -13.94 -5.058 -0 -1.2 0
26.53 -14.41 -5.012 -0 -1.2 0
26.299 -14.878 -4.963 -0 -1.2 0
26.059 -15.341 -4.914 -0 -1.2 0
25.812 -15.8 -4.864 -0 -1.2 0
25.294 -16.703 -4.758 -0 -1.2 0
25.023 -17.148 -4.702 -0 -1.2 0
24.745 -17.587 -4.646 -0 -1.2 0
24.459 -18.023 -4.588 -0 -1.2 0
24.166 -18.452 -4.529 -0 -1.2 0
23.865 -18.877 -4.468 -0 -1.2 0
23.557 -19.295 -4.406 -0 -1.2 0
23.243 -19.709 -4.343 -0 -1.2 0
22.92 -20.117 -4.279 -0 -1.2 0
22.592 -20.519 -4.212 -0 -1.2 0
22.256 -20.915 -4.145 -0 -1.2 0
21.913 -21.305 -4.077 -0 -1.2 0
21.564 -21.689 -4.007 -0 -1.2 0
21.208 -22.067 -3.936 -0 -1.2 0
29.302 0.809 -6.687 -0 -1.2 0
29.332 0.286 -6.689 -0 -1.2 0
29.351 -0.236 -6.69 -0 -1.2 0
29.362 -0.759 -6.689 -0 -1.2 0
29.365 -1.282 -6.685 -0 -1.2 0
29.358 -1.805 -6.68 -0 -1.2 0
29.342 -2.329 -6.672 -0 -1.2 0
29.318 -2.852 -6.663 -0 -1.2 0
29.284 -3.374 -6.651 -0 -1.2 0
29.242 -3.896 -6.637 -0 -1.2 0
29.191 -4.417 -6.622 -0 -1.2 0
29.13 -4.937 -6.605 -0 -1.2 0
29.062 -5.456 -6.585 -0 -1.2 0
28.984 -5.973 -6.564 -0 -1.2 0
28.897 -6.489 -6.54 -0 -1.2 0
28.802 -7.003 -6.515 -0 -1.2 0
28.699 -7.515 -6.487 -0 -1.2 0
28.585 -8.025 -6.459 -0 -1.2 0
28.464 -8.534 -6.427 -0 -1.2 0
28.334 -9.04 -6.394 -0 -1.2 0
28.196 -9.544 -6.359 -0 -1.2 0
28.048 -10.045 -6.322 -0 -1.2 0
27.893 -10.544 -6.283 -0 -1.2 0
27.555 -11.532 -6.199 -0 -1.2 0
27.375 -12.021 -6.154 -0 -1.2 0
26.987 -12.989 -6.06 -0 -1.2 0
26.782 -13.468 -6.01 -0 -1.2 0
26.568 -13.943 -5.958 -0 -1.2 0
26.346 -14.414 -5.904 -0 -1.2 0
26.116 -14.882 -5.849 -0 -1.2 0
25.878 -15.344 -5.792 -0 -1.2 0
25.633 -15.803 -5.733 -0 -1.2 0
25.379 -16.257 -5.672 -0 -1.2 0
23.394 -19.299 -5.202 -0 -1.2 0
23.082 -19.712 -5.128 -0 -1.2 0
22.762 -20.12 -5.053 -0 -1.2 0
22.435 -20.522 -4.976 -0 -1.2 0
22.102 -20.918 -4.897 -0 -1.2 0
21.762 -21.308 -4.817 -0 -1.2 0
21.415 -21.692 -4.736 -0 -1.2 0
21.061 -22.07 -4.654 -0 -1.2 0
29.093 0.283 -7.671 -0 -1.2 0
29.112 -0.239 -7.672 -0 -1.2 0
29.123 -0.762 -7.671 -0 -1.2 0
29.125 -1.285 -7.668 -0 -1.2 0
29.119 -1.808 -7.663 -0 -1.2 0
29.104 -2.332 -7.655 -0 -1.2 0
29.079 -2.854 -7.644 -0 -1.2 0
29.046 -3.377 -7.632 -0 -1.2 0
29.004 -3.898 -7.617 -0 -1.2 0
28.953 -4.42 -7.6 -0 -1.2 0
28.894 -4.94 -7.58 -0 -1.2 0
28.826 -5.458 -7.559 -0 -1.2 0
28.748 -5.975 -7.536 -0 -1.2 0
28.663 -6.491 -7.509 -0 -1.2 0
28.568 -7.006 -7.481 -0 -1.2 0
28.465 -7.518 -7.451 -0 -1.2 0
28.353 -8.028 -7.417 -0 -1.2 0
28.233 -8.537 -7.382 -0 -1.2 0
28.104 -9.043 -7.345 -0 -1.2 0
27.966 -9.547 -7.305 -0 -1.2 0
27.821 -10.047 -7.263 -0 -1.2 0
27.666 -10.546 -7.22 -0 -1.2 0
27.503 -11.041 -7.173 -0 -1.2 0
27.332 -11.534 -7.124 -0 -1.2 0
26.564 -13.47 -6.911 -0 -1.2 0
26.352 -13.946 -6.851 -0 -1.2 0
26.133 -14.416 -6.791 -0 -1.2 0
25.669 -15.347 -6.663 -0 -1.2 0
25.425 -15.806 -6.595 -0 -1.2 0
24.915 -16.709 -6.456 -0 -1.2 0
24.648 -17.154 -6.383 -0 -1.2 0
22.895 -19.714 -5.907 -0 -1.2 0
22.577 -20.122 -5.821 -0 -1.2 0
22.253 -20.524 -5.733 -0 -1.2 0
21.923 -20.92 -5.643 -0 -1.2 0
21.586 -21.31 -5.552 -0 -1.2 0
21.241 -21.694 -5.46 -0 -1.2 0
20.891 -22.072 -5.366 -0 -1.2 0
28.774 0.803 -8.698 -0 -1.2 0
28.803 0.279 -8.702 -0 -1.2 0
28.822 -0.243 -8.704 -0 -1.2 0
28.833 -0.766 -8.703 -0 -1.2 0
28.836 -1.289 -8.701 -0 -1.2 0
28.829 -1.812 -8.695 -0 -1.2 0
28.814 -2.336 -8.687 -0 -1.2 0
28.79 -2.858 -8.676 -0 -1.2 0
28.757 -3.381 -8.662 -0 -1.2 0
28.716 -3.902 -8.646 -0 -1.2 0
28.665 -4.424 -8.627 -0 -1.2 0
28.606 -4.943 -8.606 -0 -1.2 0
28.539 -5.462 -8.582 -0 -1.2 0
28.462 -5.979 -8.555 -0 -1.2 0
28.378 -6.495 -8.526 -0 -1.2 0
28.285 -7.009 -8.495 -0 -1.2 0
28.182 -7.522 -8.46 -0 -1.2 0
28.072 -8.032 -8.424 -0 -1.2 0
27.952 -8.54 -8.384 -0 -1.2 0
27.688 -9.55 -8.298 -0 -1.2 0
27.544 -10.051 -8.251 -0 -1.2 0
27.391 -10.55 -8.201 -0 -1.2 0
27.23 -11.045 -8.149 -0 -1.2 0
27.061 -11.538 -8.095 -0 -1.2 0
25.648 -14.887 -7.648 -0 -1.2 0
24.924 -16.263 -7.42 -0 -1.2 0
24.668 -16.712 -7.341 -0 -1.2 0
24.404 -17.157 -7.258 -0 -1.2 0
22.034 -20.527 -6.524 -0 -1.2 0
21.707 -20.923 -6.423 -0 -1.2 0
21.373 -21.312 -6.32 -0 -1.2 0
20.685 -22.075 -6.108 -0 -1.2 0
28.479 0.793 -9.627 -0 -1.2 0
28.507 0.269 -9.633 -0 -1.2 0
28.526 -0.253 -9.635 -0 -1.2 0
28.538 -0.776 -9.635 -0 -1.2 0
28.539 -1.299 -9.632 -0 -1.2 0
28.533 -1.822 -9.626 -0 -1.2 0
28.518 -2.346 -9.617 -0 -1.2 0
28.494 -2.868 -9.605 -0 -1.2 0
28.461 -3.391 -9.59 -0 -1.2 0
28.421 -3.912 -9.573 -0 -1.2 0
28.37 -4.434 -9.552 -0 -1.2 0
28.312 -4.954 -9.529 -0 -1.2 0
28.246 -5.472 -9.502 -0 -1.2 0
28.17 -5.989 -9.473 -0 -1.2 0
28.086 -6.505 -9.441 -0 -1.2 0
27.993 -7.019 -9.406 -0 -1.2 0
27.893 -7.532 -9.368 -0 -1.2 0
27.783 -8.042 -9.327 -0 -1.2 0
27.665 -8.55 -9.284 -0 -1.2 0
26.782 -11.547 -8.966 -0 -1.2 0
26.423 -12.522 -8.837 -0 -1.2 0
25.153 -15.359 -8.39 -0 -1.2 0
22.124 -20.133 -7.339 -0 -1.2 0
20.472 -22.082 -6.769 -0 -1.2 0
28.153 0.782 -10.547 -0 -1.2 0
28.18 0.259 -10.552 -0 -1.2 0
28.211 -0.786 -10.556 -0 -1.2 0
28.213 -1.309 -10.553 -0 -1.2 0
28.206 -1.832 -10.546 -0 -1.2 0
28.192 -2.357 -10.537 -0 -1.2 0
28.168 -2.879 -10.524 -0 -1.2 0
28.136 -3.401 -10.508 -0 -1.2 0
28.095 -3.923 -10.489 -0 -1.2 0
28.047 -4.444 -10.467 -0 -1.2 0
27.989 -4.964 -10.441 -0 -1.2 0
27.923 -5.483 -10.412 -0 -1.2 0
27.848 -6 -10.38 -0 -1.2 0
27.764 -6.516 -10.345 -0 -1.2 0
27.673 -7.03 -10.307 -0 -1.2 0
26.8 -10.569 -9.954 -0 -1.2 0
27.826 -0.797 -11.536 -0 -1.2 0
27.828 -1.32 -11.532 -0 -1.2 0
27.821 -1.844 -11.526 -0 -1.2 0
27.807 -2.368 -11.515 -0 -1.2 0
27.784 -2.89 -11.501 -0 -1.2 0
27.752 -3.412 -11.483 -0 -1.2 0
27.712 -3.934 -11.464 -0 -1.2 0
27.663 -4.455 -11.439 -0 -1.2 0
27.607 -4.975 -11.411 -0 -1.2 0
27.541 -5.494 -11.38 -0 -1.2 0
27.468 -6.011 -11.345 -0 -1.2 0
27.386 -6.527 -11.307 -0 -1.2 0
27.295 -7.041 -11.266 -0 -1.2 0
27.197 -7.553 -11.221 -0 -1.2 0
27.09 -8.063 -11.173 -0 -1.2 0
25.943 -12.057 -10.668 -0 -1.2 0
27.432 -1.331 -12.444 -0 -1.2 0
27.427 -1.854 -12.437 -0 -1.2 0
27.412 -2.378 -12.426 -0 -1.2 0
27.389 -2.901 -12.411 -0 -1.2 0
27.358 -3.423 -12.393 -0 -1.2 0
27.319 -3.944 -12.371 -0 -1.2 0
27.27 -4.466 -12.345 -0 -1.2 0
27.215 -4.985 -12.315 -0 -1.2 0
27.15 -5.504 -12.281 -0 -1.2 0
27.078 -6.021 -12.244 -0 -1.2 0
26.997 -6.537 -12.204 -0 -1.2 0
26.908 -7.051 -12.159 -0 -1.2 0
26.593 -8.581 -12.004 -0 -1.2 0
26.471 -9.088 -11.945 -0 -1.2 0
26.998 -1.865 -13.343 -0 -1.2 0
26.984 -2.389 -13.331 -0 -1.2 0
26.962 -2.911 -13.316 -0 -1.2 0
26.931 -3.433 -13.296 -0 -1.2 0
26.892 -3.955 -13.272 -0 -1.2 0
26.845 -4.476 -13.245 -0 -1.2 0
26.79 -4.996 -13.213 -0 -1.2 0
26.727 -5.515 -13.177 -0 -1.2 0
26.655 -6.031 -13.137 -0 -1.2 0
26.575 -6.547 -13.094 -0 -1.2 0
26.488 -7.061 -13.047 -0 -1.2 0
26.393 -7.573 -12.995 -0 -1.2 0
25.49 -8.395 -12.543 -0 -1.2 0
26.058 -9.098 -12.816 -0 -1.2 0
25.931 -9.601 -12.749 -0 -1.2 0
24.435 -13.997 -11.974 -0 -1.2 0
23.575 -15.855 -11.534 -0 -1.2 0
26.507 -0.83 -14.312 -0 -1.2 0
26.509 -1.353 -14.309 -0 -1.2 0
26.503 -1.876 -14.301 -0 -1.2 0
26.49 -2.4 -14.289 -0 -1.2 0
26.468 -2.922 -14.272 -0 -1.2 0
26.438 -3.445 -14.251 -0 -1.2 0
26.399 -3.966 -14.226 -0 -1.2 0
26.353 -4.488 -14.196 -0 -1.2 0
26.299 -5.007 -14.163 -0 -1.2 0
26.237 -5.526 -14.125 -0 -1.2 0
26.167 -6.043 -14.082 -0 -1.2 0
24.092 -12.581 -13.955 -0 -1.2 0
20.734 -19.363 -11.938 -0 -1.2 0
22.264 -15.885 -13.866 -0 -1.2 0
21.817 -16.786 -13.577 -0 -1.2 0
24.901 -0.867 -16.952 -0 -1.2 0
24.423 -1.385 -16.623 -0 -1.2 0
24.898 -1.913 -16.939 -0 -1.2 0
24.885 -2.437 -16.924 -0 -1.2 0
24.865 -2.96 -16.906 -0 -1.2 0
24.836 -3.482 -16.881 -0 -1.2 0
24.801 -4.003 -16.851 -0 -1.2 0
24.759 -4.525 -16.815 -0 -1.2 0
24.708 -5.044 -16.775 -0 -1.2 0
24.511 -6.595 -16.625 -0 -1.2 0
24.43 -7.109 -16.565 -0 -1.2 0
24.342 -7.621 -16.5 -0 -1.2 0
24.035 -9.145 -16.274 -0 -1.2 0
23.223 -12.121 -15.69 -0 -1.2 0
23.063 -12.606 -15.576 -0 -1.2 0
21.086 -17.243 -14.181 -0 -1.2 0
24.321 -0.881 -17.775 -0 -1.2 0
24.323 -1.404 -17.771 -0 -1.2 0
24.318 -1.927 -17.761 -0 -1.2 0
24.306 -2.451 -17.746 -0 -1.2 0
24.286 -2.974 -17.725 -0 -1.2 0
24.258 -3.496 -17.699 -0 -1.2 0
24.224 -4.017 -17.668 -0 -1.2 0
24.182 -4.539 -17.631 -0 -1.2 0
24.132 -5.058 -17.589 -0 -1.2 0
24.077 -5.577 -17.541 -0 -1.2 0
24.013 -6.093 -17.489 -0 -1.2 0
23.941 -6.609 -17.431 -0 -1.2 0
23.684 -8.144 -17.226 -0 -1.2 0
23.584 -8.652 -17.147 -0 -1.2 0
23.718 -1.419 -18.569 -0 -1.2 0
23.714 -1.942 -18.558 -0 -1.2 0
23.702 -2.466 -18.542 -0 -1.2 0
23.683 -2.988 -18.521 -0 -1.2 0
23.656 -3.51 -18.494 -0 -1.2 0
23.623 -4.032 -18.461 -0 -1.2 0
23.582 -4.553 -18.422 -0 -1.2 0
23.534 -5.073 -18.379 -0 -1.2 0
23.479 -5.591 -18.329 -0 -1.2 0
23.417 -6.108 -18.274 -0 -1.2 0
23.348 -6.623 -18.213 -0 -1.2 0
23.272 -7.137 -18.147 -0 -1.2 0
23.188 -7.649 -18.075 -0 -1.2 0
23.097 -8.158 -17.998 -0 -1.2 0
22.785 -9.675 -17.734 -0 -1.2 0
22.666 -10.175 -17.636 -0 -1.2 0
22.541 -10.673 -17.531 -0 -1.2 0
22.379 -11.154 -17.399 -0 -1.2 0
22.27 -11.66 -17.306 -0 -1.2 0
21.648 -13.592 -16.796 -0 -1.2 0
17.323 -21.791 -13.31 -0 -1.2 0
17.038 -22.167 -13.083 -0 -1.2 0
23.055 -0.912 -19.387 -0 -1.2 0
23.053 -1.958 -19.372 -0 -1.2 0
23.042 -2.482 -19.355 -0 -1.2 0
23.023 -3.004 -19.331 -0 -1.2 0
22.998 -3.527 -19.303 -0 -1.2 0
22.966 -4.048 -19.269 -0 -1.2 0
22.926 -4.569 -19.229 -0 -1.2 0
22.88 -5.089 -19.182 -0 -1.2 0
22.826 -5.607 -19.131 -0 -1.2 0
22.766 -6.124 -19.074 -0 -1.2 0
22.699 -6.639 -19.01 -0 -1.2 0
22.625 -7.153 -18.941 -0 -1.2 0
22.544 -7.664 -18.866 -0 -1.2 0
22.457 -8.174 -18.785 -0 -1.2 0
22.362 -8.682 -18.699 -0 -1.2 0
22.038 -10.191 -18.406 -0 -1.2 0
21.916 -10.689 -18.297 -0 -1.2 0
21.788 -11.183 -18.183 -0 -1.2 0
20.708 -14.551 -17.23 -0 -1.2 0
18.871 -18.58 -15.633 -0 -1.2 0
16.848 -21.802 -13.89 -0 -1.2 0
16.571 -22.179 -13.652 -0 -1.2 0
22.417 -0.928 -20.122 -0 -1.2 0
22.415 -1.974 -20.104 -0 -1.2 0
22.404 -2.498 -20.087 -0 -1.2 0
22.386 -3.02 -20.064 -0 -1.2 0
22.361 -3.542 -20.034 -0 -1.2 0
22.331 -4.063 -19.998 -0 -1.2 0
22.293 -4.585 -19.956 -0 -1.2 0
22.247 -5.104 -19.909 -0 -1.2 0
22.196 -5.622 -19.855 -0 -1.2 0
22.137 -6.139 -19.795 -0 -1.2 0
22.072 -6.654 -19.729 -0 -1.2 0
22.001 -7.168 -19.657 -0 -1.2 0
21.922 -7.68 -19.58 -0 -1.2 0
21.745 -8.697 -19.406 -0 -1.2 0
21.542 -9.706 -19.209 -0 -1.2 0
16.911 -21.043 -14.893 -0 -1.2 0
16.651 -21.431 -14.655 -0 -1.2 0
16.387 -21.813 -14.413 -0 -1.2 0
16.119 -22.19 -14.166 -0 -1.2 0
21.757 -1.467 -20.829 -0 -1.2 0
21.753 -1.99 -20.816 -0 -1.2 0
21.743 -2.514 -20.799 -0 -1.2 0
21.725 -3.036 -20.775 -0 -1.2 0
21.703 -3.558 -20.743 -0 -1.2 0
21.672 -4.079 -20.707 -0 -1.2 0
21.635 -4.601 -20.663 -0 -1.2 0
21.592 -5.12 -20.614 -0 -1.2 0
21.542 -5.638 -20.558 -0 -1.2 0
21.485 -6.155 -20.495 -0 -1.2 0
21.353 -7.184 -20.353 -0 -1.2 0
21.277 -7.695 -20.273 -0 -1.2 0
21.194 -8.205 -20.186 -0 -1.2 0
21.105 -8.713 -20.092 -0 -1.2 0
21.011 -9.218 -19.994 -0 -1.2 0
20.909 -9.721 -19.889 -0 -1.2 0
20.8 -10.221 -19.777 -0 -1.2 0
20.686 -10.719 -19.661 -0 -1.2 0
20.306 -12.192 -19.273 -0 -1.2 0
15.65 -22.201 -14.665 -0 -1.2 0
21.008 -0.963 -21.585 -0 -1.2 0
21.011 -1.486 -21.579 -0 -1.2 0
21.008 -2.009 -21.566 -0 -1.2 0
20.998 -2.533 -21.547 -0 -1.2 0
20.981 -3.055 -21.522 -0 -1.2 0
20.958 -3.577 -21.49 -0 -1.2 0
20.929 -4.098 -21.452 -0 -1.2 0
20.894 -4.62 -21.406 -0 -1.2 0
20.852 -5.139 -21.356 -0 -1.2 0
20.805 -5.657 -21.297 -0 -1.2 0
20.75 -6.174 -21.233 -0 -1.2 0
20.689 -6.689 -21.162 -0 -1.2 0
20.622 -7.202 -21.085 -0 -1.2 0
20.549 -7.714 -21.001 -0 -1.2 0
20.47 -8.223 -20.911 -0 -1.2 0
20.384 -8.731 -20.814 -0 -1.2 0
20.292 -9.237 -20.712 -0 -1.2 0
20.194 -9.739 -20.604 -0 -1.2 0
20.091 -10.239 -20.488 -0 -1.2 0
19.98 -10.737 -20.367 -0 -1.2 0
15.619 -21.457 -15.712 -0 -1.2 0
15.373 -21.839 -15.453 -0 -1.2 0
15.121 -22.214 -15.188 -0 -1.2 0
20.282 -0.976 -22.267 -0 -1.2 0
20.285 -1.499 -22.26 -0 -1.2 0
20.282 -2.022 -22.248 -0 -1.2 0
20.273 -2.547 -22.228 -0 -1.2 0
20.257 -3.069 -22.202 -0 -1.2 0
20.235 -3.591 -22.169 -0 -1.2 0
20.208 -4.112 -22.13 -0 -1.2 0
20.174 -4.633 -22.083 -0 -1.2 0
20.134 -5.152 -22.03 -0 -1.2 0
20.087 -5.671 -21.971 -0 -1.2 0
20.035 -6.187 -21.904 -0 -1.2 0
19.977 -6.702 -21.831 -0 -1.2 0
19.913 -7.216 -21.751 -0 -1.2 0
19.842 -7.727 -21.665 -0 -1.2 0
19.765 -8.237 -21.572 -0 -1.2 0
19.683 -8.744 -21.473 -0 -1.2 0
19.595 -9.25 -21.367 -0 -1.2 0
19.5 -9.752 -21.254 -0 -1.2 0
15.323 -21.08 -16.473 -0 -1.2 0
15.088 -21.467 -16.21 -0 -1.2 0
14.851 -21.849 -15.942 -0 -1.2 0
14.607 -22.224 -15.668 -0 -1.2 0
19.536 -0.987 -22.923 -0 -1.2 0
19.539 -1.51 -22.916 -0 -1.2 0
19.536 -2.033 -22.904 -0 -1.2 0
19.527 -2.557 -22.884 -0 -1.2 0
19.512 -3.079 -22.857 -0 -1.2 0
19.492 -3.601 -22.823 -0 -1.2 0
19.465 -4.123 -22.782 -0 -1.2 0
19.433 -4.644 -22.735 -0 -1.2 0
19.395 -5.163 -22.68 -0 -1.2 0
19.35 -5.681 -22.619 -0 -1.2 0
19.3 -6.197 -22.55 -0 -1.2 0
19.244 -6.713 -22.476 -0 -1.2 0
19.183 -7.226 -22.394 -0 -1.2 0
19.115 -7.738 -22.305 -0 -1.2 0
19.041 -8.247 -22.209 -0 -1.2 0
18.962 -8.754 -22.108 -0 -1.2 0
18.878 -9.26 -21.998 -0 -1.2 0
15.204 -20.295 -17.489 -0 -1.2 0
14.988 -20.694 -17.228 -0 -1.2 0
14.767 -21.088 -16.962 -0 -1.2 0
14.542 -21.475 -16.691 -0 -1.2 0
14.313 -21.856 -16.414 -0 -1.2 0
14.079 -22.232 -16.134 -0 -1.2 0
18.699 -0.476 -23.6 -0 -1.2 0
18.709 -2.045 -23.583 -0 -1.2 0
18.7 -2.569 -23.562 -0 -1.2 0
18.686 -3.091 -23.535 -0 -1.2 0
18.667 -3.613 -23.5 -0 -1.2 0
18.642 -4.134 -23.458 -0 -1.2 0
18.611 -4.655 -23.409 -0 -1.2 0
18.575 -5.174 -23.353 -0 -1.2 0
18.533 -5.693 -23.29 -0 -1.2 0
18.485 -6.209 -23.22 -0 -1.2 0
18.432 -6.724 -23.142 -0 -1.2 0
18.373 -7.237 -23.058 -0 -1.2 0
18.308 -7.749 -22.967 -0 -1.2 0
18.238 -8.258 -22.869 -0 -1.2 0
18.162 -8.766 -22.764 -0 -1.2 0
18.082 -9.271 -22.651 -0 -1.2 0
17.902 -10.273 -22.407 -0 -1.2 0
17.594 -11.756 -21.988 -0 -1.2 0
14.771 -19.899 -18.272 -0 -1.2 0
14.569 -20.304 -18.01 -0 -1.2 0
14.362 -20.703 -17.741 -0 -1.2 0
14.152 -21.096 -17.467 -0 -1.2 0
13.936 -21.483 -17.189 -0 -1.2 0
13.717 -21.865 -16.905 -0 -1.2 0
13.493 -22.24 -16.615 -0 -1.2 0
17.918 -1.009 -24.205 -0 -1.2 0
17.919 -2.055 -24.186 -0 -1.2 0
17.912 -2.579 -24.165 -0 -1.2 0
17.899 -3.102 -24.137 -0 -1.2 0
17.881 -3.624 -24.101 -0 -1.2 0
17.857 -4.145 -24.059 -0 -1.2 0
17.827 -4.666 -24.008 -0 -1.2 0
17.792 -5.185 -23.951 -0 -1.2 0
17.752 -5.703 -23.886 -0 -1.2 0
17.707 -6.219 -23.814 -0 -1.2 0
17.656 -6.735 -23.736 -0 -1.2 0
17.6 -7.248 -23.649 -0 -1.2 0
17.538 -7.759 -23.555 -0 -1.2 0
17.472 -8.269 -23.455 -0 -1.2 0
17.399 -8.776 -23.347 -0 -1.2 0
17.322 -9.281 -23.232 -0 -1.2 0
17.239 -9.784 -23.111 -0 -1.2 0
17.151 -10.283 -22.982 -0 -1.2 0
17.058 -10.781 -22.845 -0 -1.2 0
16.96 -11.274 -22.702 -0 -1.2 0
14.888 -18.232 -19.763 -0 -1.2 0
13.963 -20.312 -18.473 -0 -1.2 0
13.766 -20.711 -18.199 -0 -1.2 0
13.564 -21.104 -17.917 -0 -1.2 0
13.358 -21.491 -17.631 -0 -1.2 0
13.148 -21.872 -17.34 -0 -1.2 0
12.934 -22.248 -17.043 -0 -1.2 0
17.112 -1.543 -24.776 -0 -1.2 0
17.11 -2.066 -24.763 -0 -1.2 0
17.103 -2.59 -24.741 -0 -1.2 0
17.091 -3.112 -24.713 -0 -1.2 0
17.074 -3.634 -24.676 -0 -1.2 0
17.051 -4.155 -24.632 -0 -1.2 0
17.024 -4.677 -24.582 -0 -1.2 0
16.991 -5.196 -24.523 -0 -1.2 0
16.953 -5.714 -24.457 -0 -1.2 0
16.909 -6.23 -24.383 -0 -1.2 0
16.861 -6.745 -24.302 -0 -1.2 0
16.808 -7.259 -24.214 -0 -1.2 0
16.75 -7.77 -24.118 -0 -1.2 0
16.686 -8.279 -24.016 -0 -1.2 0
16.617 -8.786 -23.905 -0 -1.2 0
16.465 -9.794 -23.663 -0 -1.2 0
14.057 -18.667 -19.985 -0 -1.2 0
13.708 -19.505 -19.463 -0 -1.2 0
13.528 -19.916 -19.192 -0 -1.2 0
13.343 -20.321 -18.917 -0 -1.2 0
13.154 -20.719 -18.635 -0 -1.2 0
12.962 -21.112 -18.348 -0 -1.2 0
12.765 -21.499 -18.054 -0 -1.2 0
12.565 -21.88 -17.756 -0 -1.2 0
12.361 -22.255 -17.452 -0 -1.2 0
16.216 -1.032 -25.374 -0 -1.2 0
16.22 -1.555 -25.368 -0 -1.2 0
16.218 -2.078 -25.354 -0 -1.2 0
16.212 -2.602 -25.332 -0 -1.2 0
16.201 -3.124 -25.303 -0 -1.2 0
16.184 -3.646 -25.265 -0 -1.2 0
16.163 -4.167 -25.221 -0 -1.2 0
16.137 -4.688 -25.168 -0 -1.2 0
16.107 -5.207 -25.109 -0 -1.2 0
16.071 -5.725 -25.041 -0 -1.2 0
16.03 -6.242 -24.966 -0 -1.2 0
15.985 -6.757 -24.883 -0 -1.2 0
15.934 -7.27 -24.792 -0 -1.2 0
15.88 -7.781 -24.695 -0 -1.2 0
15.82 -8.29 -24.589 -0 -1.2 0
15.685 -9.303 -24.356 -0 -1.2 0
14.848 -13.715 -22.947 -0 -1.2 0
14.732 -14.189 -22.755 -0 -1.2 0
14.224 -16.04 -21.917 -0 -1.2 0
13.944 -16.938 -21.459 -0 -1.2 0
13.798 -17.381 -21.22 -0 -1.2 0
13.171 -19.098 -20.2 -0 -1.2 0
13.004 -19.514 -19.929 -0 -1.2 0
12.833 -19.925 -19.652 -0 -1.2 0
12.658 -20.33 -19.37 -0 -1.2 0
12.48 -20.728 -19.083 -0 -1.2 0
12.297 -21.121 -18.788 -0 -1.2 0
12.112 -21.508 -18.488 -0 -1.2 0
11.922 -21.889 -18.182 -0 -1.2 0
11.729 -22.263 -17.872 -0 -1.2 0
15.372 -1.566 -25.888 -0 -1.2 0
15.371 -2.089 -25.873 -0 -1.2 0
15.366 -2.613 -25.852 -0 -1.2 0
15.355 -3.135 -25.822 -0 -1.2 0
15.34 -3.657 -25.784 -0 -1.2 0
15.32 -4.178 -25.739 -0 -1.2 0
15.296 -4.699 -25.685 -0 -1.2 0
15.268 -5.218 -25.624 -0 -1.2 0
15.234 -5.736 -25.555 -0 -1.2 0
15.196 -6.252 -25.479 -0 -1.2 0
15.153 -6.767 -25.394 -0 -1.2 0
15.105 -7.281 -25.302 -0 -1.2 0
15.054 -7.792 -25.202 -0 -1.2 0
14.997 -8.301 -25.094 -0 -1.2 0
14.936 -8.808 -24.98 -0 -1.2 0
14.87 -9.313 -24.857 -0 -1.2 0
13.739 -15.133 -22.81 -0 -1.2 0
13.616 -15.593 -22.593 -0 -1.2 0
12.797 -18.259 -21.15 -0 -1.2 0
12.647 -18.686 -20.886 -0 -1.2 0
12.493 -19.107 -20.616 -0 -1.2 0
12.336 -19.523 -20.341 -0 -1.2 0
12.174 -19.933 -20.058 -0 -1.2 0
12.009 -20.338 -19.77 -0 -1.2 0
11.84 -20.737 -19.475 -0 -1.2 0
11.667 -21.129 -19.176 -0 -1.2 0
11.492 -21.516 -18.869 -0 -1.2 0
11.312 -21.896 -18.558 -0 -1.2 0
11.128 -22.271 -18.241 -0 -1.2 0
14.512 -1.054 -26.382 -0 -1.2 0
14.516 -1.577 -26.375 -0 -1.2 0
