# .PCD v.7 - Point Cloud Data file format
FIELDS x y z vp_x vp_y vp_z
SIZE 4 4 4 4 4 4
TYPE F F F F F F
COUNT 1 1 1 1 1 1
WIDTH 1600
HEIGHT 1
VIEWPOINT 0 -1.20012 0 1 0 0 0
POINTS 1600
DATA ascii
-4.101 -0.478 -0.396 -0 -1.2 0
-4.092 -0.552 -0.394 -0 -1.2 0
-4.091 -0.623 -0.391 -0 -1.2 0
-4.09 -0.695 -0.389 -0 -1.2 0
-4.097 -0.765 -0.386 -0 -1.2 0
-4.083 -0.837 -0.385 -0 -1.2 0
-4.097 -0.907 -0.381 -0 -1.2 0
-4.09 -0.978 -0.379 -0 -1.2 0
-4.082 -1.048 -0.377 -0 -1.2 0
-4.083 -1.118 -0.374 -0 -1.2 0
-4.093 -1.188 -0.371 -0 -1.2 0
-4.091 -1.258 -0.369 -0 -1.2 0
-4.088 -1.327 -0.366 -0 -1.2 0
-4.083 -1.397 -0.364 -0 -1.2 0
-4.078 -1.468 -0.361 -0 -1.2 0
-4.081 -1.539 -0.359 -0 -1.2 0
-4.084 -1.61 -0.356 -0 -1.2 0
-4.055 -1.678 -0.356 -0 -1.2 0
-4.025 -1.744 -0.355 -0 -1.2 0
-4.023 -1.814 -0.353 -0 -1.2 0
-4.158 -1.912 -0.339 -0 -1.2 0
-4.154 -1.985 -0.337 -0 -1.2 0
-4.148 -2.059 -0.335 -0 -1.2 0
-4.151 -2.135 -0.332 -0 -1.2 0
-4.151 -2.211 -0.329 -0 -1.2 0
-4.141 -2.285 -0.327 -0 -1.2 0
-4.149 -2.364 -0.324 -0 -1.2 0
-4.146 -2.442 -0.321 -0 -1.2 0
-4.142 -2.518 -0.319 -0 -1.2 0
-4.155 -2.604 -0.315 -0 -1.2 0
-4.146 -2.681 -0.312 -0 -1.2 0
-4.146 -2.763 -0.309 -0 -1.2 0
-4.145 -2.846 -0.306 -0 -1.2 0
-4.142 -2.929 -0.303 -0 -1.2 0
-4.136 -3.013 -0.301 -0 -1.2 0
-4.139 -3.101 -0.297 -0 -1.2 0
-4.14 -3.19 -0.294 -0 -1.2 0
-4.138 -3.279 -0.291 -0 -1.2 0
-4.144 -3.374 -0.287 -0 -1.2 0
-4.131 -3.46 -0.285 -0 -1.2 0
-4.123 -3.552 -0.282 -0 -1.2 0
-4.123 -3.648 -0.279 -0 -1.2 0
-4.112 -3.74 -0.276 -0 -1.2 0
-4.115 -3.843 -0.272 -0 -1.2 0
-4.116 -3.948 -0.268 -0 -1.2 0
-4.115 -4.053 -0.264 -0 -1.2 0
-4.111 -4.16 -0.261 -0 -1.2 0
-4.128 -4.285 -0.255 -0 -1.2 0
-4.136 -4.405 -0.25 -0 -1.2 0
-4.131 -4.521 -0.246 -0 -1.2 0
-4.124 -4.637 -0.243 -0 -1.2 0
-4.129 -4.768 -0.237 -0 -1.2 0
-4.131 -4.899 -0.233 -0 -1.2 0
-4.122 -5.025 -0.228 -0 -1.2 0
-4.124 -5.166 -0.223 -0 -1.2 0
-4.123 -5.308 -0.218 -0 -1.2 0
-1.2 -0.034 -0.574 -0 -1.2 0
-1.248 -0.027 -0.568 -0 -1.2 0
-1.282 -0.034 -0.564 -0 -1.2 0
-1.33 -0.029 -0.559 -0 -1.2 0
-1.372 -0.032 -0.553 -0 -1.2 0
-1.414 -0.036 -0.548 -0 -1.2 0
-1.456 -0.041 -0.543 -0 -1.2 0
-1.515 -0.035 -0.537 -0 -1.2 0
-1.566 -0.036 -0.53 -0 -1.2 0
-1.626 -0.034 -0.523 -0 -1.2 0
-1.677 -0.039 -0.517 -0 -1.2 0
-1.729 -0.045 -0.511 -0 -1.2 0
-1.789 -0.047 -0.503 -0 -1.2 0
-1.859 -0.047 -0.495 -0 -1.2 0
-1.929 -0.047 -0.487 -0 -1.2 0
-2.008 -0.046 -0.478 -0 -1.2 0
-2.098 -0.042 -0.467 -0 -1.2 0
-2.178 -0.045 -0.458 -0 -1.2 0
-2.268 -0.047 -0.447 -0 -1.2 0
-2.367 -0.047 -0.436 -0 -1.2 0
-2.476 -0.046 -0.423 -0 -1.2 0
-2.595 -0.045 -0.408 -0 -1.2 0
-3.037 0.085 -0.361 -0 -1.2 0
-3.224 0.098 -0.34 -0 -1.2 0
-3.384 0.095 -0.321 -0 -1.2 0
-3.536 0.084 -0.303 -0 -1.2 0
-3.897 0.136 -0.263 -0 -1.2 0
-4.079 0.12 -0.241 -0 -1.2 0
-4.081 0.043 -0.237 -0 -1.2 0
-4.071 -0.034 -0.235 -0 -1.2 0
-4.09 -0.104 -0.23 -0 -1.2 0
-4.078 -0.182 -0.228 -0 -1.2 0
-4.074 -0.257 -0.226 -0 -1.2 0
-4.069 -0.331 -0.224 -0 -1.2 0
-4.083 -0.401 -0.219 -0 -1.2 0
-4.065 -0.477 -0.218 -0 -1.2 0
-4.076 -0.547 -0.215 -0 -1.2 0
-4.074 -0.618 -0.212 -0 -1.2 0
-4.063 -0.691 -0.21 -0 -1.2 0
-4.07 -0.761 -0.206 -0 -1.2 0
-4.056 -0.832 -0.206 -0 -1.2 0
-4.07 -0.901 -0.201 -0 -1.2 0
-4.054 -0.973 -0.2 -0 -1.2 0
-4.056 -1.043 -0.197 -0 -1.2 0
-4.056 -1.113 -0.194 -0 -1.2 0
-4.056 -1.182 -0.192 -0 -1.2 0
-4.064 -1.252 -0.188 -0 -1.2 0
-4.052 -1.321 -0.186 -0 -1.2 0
-4.056 -1.392 -0.184 -0 -1.2 0
-4.051 -1.462 -0.181 -0 -1.2 0
-4.055 -1.533 -0.178 -0 -1.2 0
-4.057 -1.604 -0.175 -0 -1.2 0
-4.038 -1.673 -0.174 -0 -1.2 0
-3.989 -1.736 -0.178 -0 -1.2 0
-3.987 -1.806 -0.175 -0 -1.2 0
-4.121 -1.902 -0.156 -0 -1.2 0
-4.116 -1.975 -0.153 -0 -1.2 0
-4.12 -2.051 -0.15 -0 -1.2 0
-4.123 -2.126 -0.146 -0 -1.2 0
-4.124 -2.202 -0.143 -0 -1.2 0
-4.124 -2.279 -0.141 -0 -1.2 0
-4.113 -2.353 -0.139 -0 -1.2 0
-4.118 -2.433 -0.135 -0 -1.2 0
-4.114 -2.51 -0.133 -0 -1.2 0
-4.117 -2.591 -0.129 -0 -1.2 0
-4.11 -2.669 -0.127 -0 -1.2 0
-4.119 -2.755 -0.123 -0 -1.2 0
-4.117 -2.837 -0.12 -0 -1.2 0
-4.105 -2.916 -0.118 -0 -1.2 0
-4.11 -3.004 -0.113 -0 -1.2 0
-4.112 -3.091 -0.11 -0 -1.2 0
-4.113 -3.179 -0.107 -0 -1.2 0
-4.111 -3.269 -0.103 -0 -1.2 0
-4.099 -3.354 -0.101 -0 -1.2 0
-4.095 -3.445 -0.098 -0 -1.2 0
-4.096 -3.541 -0.094 -0 -1.2 0
-4.096 -3.637 -0.091 -0 -1.2 0
-4.093 -3.735 -0.087 -0 -1.2 0
-4.08 -3.827 -0.084 -0 -1.2 0
-4.081 -3.932 -0.08 -0 -1.2 0
-4.081 -4.037 -0.076 -0 -1.2 0
-4.085 -4.148 -0.071 -0 -1.2 0
-4.094 -4.268 -0.066 -0 -1.2 0
-4.093 -4.381 -0.062 -0 -1.2 0
-4.097 -4.502 -0.056 -0 -1.2 0
-4.098 -4.625 -0.051 -0 -1.2 0
-4.096 -4.748 -0.047 -0 -1.2 0
-4.09 -4.873 -0.042 -0 -1.2 0
-4.096 -5.012 -0.036 -0 -1.2 0
-4.091 -5.146 -0.031 -0 -1.2 0
-4.09 -5.288 -0.025 -0 -1.2 0
-1.202 -0.027 -0.512 -0 -1.2 0
-1.235 -0.033 -0.506 -0 -1.2 0
-1.283 -0.026 -0.499 -0 -1.2 0
-1.325 -0.028 -0.492 -0 -1.2 0
-1.366 -0.031 -0.486 -0 -1.2 0
-1.408 -0.035 -0.479 -0 -1.2 0
-1.458 -0.033 -0.471 -0 -1.2 0
-1.508 -0.034 -0.464 -0 -1.2 0
-1.551 -0.041 -0.457 -0 -1.2 0
-1.602 -0.044 -0.449 -0 -1.2 0
-1.661 -0.043 -0.44 -0 -1.2 0
-1.721 -0.044 -0.43 -0 -1.2 0
-1.782 -0.045 -0.421 -0 -1.2 0
-1.851 -0.045 -0.411 -0 -1.2 0
-1.92 -0.046 -0.4 -0 -1.2 0
-1.991 -0.049 -0.389 -0 -1.2 0
-2.079 -0.044 -0.375 -0 -1.2 0
-2.15 -0.053 -0.364 -0 -1.2 0
-2.248 -0.049 -0.348 -0 -1.2 0
-2.347 -0.049 -0.333 -0 -1.2 0
-2.455 -0.048 -0.317 -0 -1.2 0
-2.573 -0.046 -0.298 -0 -1.2 0
-3.068 0.107 -0.228 -0 -1.2 0
-3.245 0.116 -0.201 -0 -1.2 0
-3.424 0.12 -0.173 -0 -1.2 0
-3.548 0.097 -0.154 -0 -1.2 0
-3.888 0.143 -0.102 -0 -1.2 0
-4.051 0.12 -0.077 -0 -1.2 0
-4.061 0.047 -0.072 -0 -1.2 0
-4.052 -0.029 -0.07 -0 -1.2 0
-4.061 -0.103 -0.066 -0 -1.2 0
-4.049 -0.179 -0.064 -0 -1.2 0
-4.046 -0.254 -0.062 -0 -1.2 0
-4.049 -0.326 -0.058 -0 -1.2 0
-4.053 -0.398 -0.054 -0 -1.2 0
-4.045 -0.472 -0.052 -0 -1.2 0
-4.056 -0.542 -0.047 -0 -1.2 0
-4.036 -0.616 -0.047 -0 -1.2 0
-4.044 -0.686 -0.044 -0 -1.2 0
-4.041 -0.757 -0.041 -0 -1.2 0
-4.036 -0.828 -0.039 -0 -1.2 0
-4.05 -0.897 -0.033 -0 -1.2 0
-4.024 -0.968 -0.034 -0 -1.2 0
-4.035 -1.039 -0.03 -0 -1.2 0
-4.026 -1.108 -0.029 -0 -1.2 0
-4.026 -1.177 -0.025 -0 -1.2 0
-4.044 -1.247 -0.019 -0 -1.2 0
-4.031 -1.316 -0.019 -0 -1.2 0
-4.026 -1.386 -0.017 -0 -1.2 0
-4.031 -1.457 -0.013 -0 -1.2 0
-4.044 -1.529 -0.008 -0 -1.2 0
-4.027 -1.598 -0.007 -0 -1.2 0
-4.018 -1.668 -0.006 -0 -1.2 0
-3.959 -1.729 -0.013 -0 -1.2 0
-3.958 -1.8 -0.01 -0 -1.2 0
-4.08 -1.894 0.013 -0 -1.2 0
-4.095 -1.97 0.018 -0 -1.2 0
-4.1 -2.046 0.022 -0 -1.2 0
-4.083 -2.117 0.023 -0 -1.2 0
-4.094 -2.195 0.028 -0 -1.2 0
-4.093 -2.271 0.031 -0 -1.2 0
-4.082 -2.345 0.032 -0 -1.2 0
-4.088 -2.425 0.036 -0 -1.2 0
-4.084 -2.502 0.039 -0 -1.2 0
-4.087 -2.583 0.044 -0 -1.2 0
-4.089 -2.664 0.047 -0 -1.2 0
-4.089 -2.746 0.05 -0 -1.2 0
-4.079 -2.825 0.052 -0 -1.2 0
-4.084 -2.911 0.057 -0 -1.2 0
-4.079 -2.995 0.059 -0 -1.2 0
-4.073 -3.077 0.062 -0 -1.2 0
-4.073 -3.166 0.066 -0 -1.2 0
-4.073 -3.255 0.069 -0 -1.2 0
-4.069 -3.344 0.073 -0 -1.2 0
-4.073 -3.44 0.078 -0 -1.2 0
-4.066 -3.531 0.08 -0 -1.2 0
-4.066 -3.627 0.084 -0 -1.2 0
-4.063 -3.724 0.088 -0 -1.2 0
-4.067 -3.828 0.093 -0 -1.2 0
-4.052 -3.921 0.094 -0 -1.2 0
-4.058 -4.031 0.1 -0 -1.2 0
-4.055 -4.137 0.104 -0 -1.2 0
-4.065 -4.256 0.11 -0 -1.2 0
-4.064 -4.37 0.115 -0 -1.2 0
-4.067 -4.491 0.12 -0 -1.2 0
-4.061 -4.607 0.125 -0 -1.2 0
-4.058 -4.73 0.13 -0 -1.2 0
-4.061 -4.861 0.135 -0 -1.2 0
-4.059 -4.994 0.14 -0 -1.2 0
-4.055 -5.127 0.146 -0 -1.2 0
-4.054 -5.269 0.151 -0 -1.2 0
-1.196 -0.025 -0.451 -0 -1.2 0
-1.236 -0.024 -0.443 -0 -1.2 0
-1.261 -0.038 -0.437 -0 -1.2 0
-1.31 -0.032 -0.429 -0 -1.2 0
-1.343 -0.042 -0.421 -0 -1.2 0
-1.393 -0.038 -0.413 -0 -1.2 0
-1.45 -0.031 -0.401 -0 -1.2 0
-1.492 -0.037 -0.393 -0 -1.2 0
-1.542 -0.038 -0.384 -0 -1.2 0
-1.593 -0.042 -0.374 -0 -1.2 0
-1.643 -0.045 -0.364 -0 -1.2 0
-1.711 -0.041 -0.351 -0 -1.2 0
-1.771 -0.042 -0.339 -0 -1.2 0
-1.832 -0.047 -0.327 -0 -1.2 0
-1.901 -0.047 -0.314 -0 -1.2 0
-1.971 -0.051 -0.3 -0 -1.2 0
-2.058 -0.046 -0.284 -0 -1.2 0
-2.129 -0.053 -0.27 -0 -1.2 0
-2.217 -0.054 -0.253 -0 -1.2 0
-2.324 -0.049 -0.232 -0 -1.2 0
-2.423 -0.052 -0.213 -0 -1.2 0
-2.512 -0.061 -0.195 -0 -1.2 0
-2.612 -0.07 -0.176 -0 -1.2 0
-2.63 -0.115 -0.17 -0 -1.2 0
-2.656 -0.158 -0.163 -0 -1.2 0
-2.365 -0.314 -0.212 -0 -1.2 0
-2.389 -0.351 -0.206 -0 -1.2 0
-2.364 -0.404 -0.209 -0 -1.2 0
-2.338 -0.457 -0.211 -0 -1.2 0
-2.52 -0.448 -0.177 -0 -1.2 0
-4.026 -0.098 0.097 -0 -1.2 0
-4.024 -0.173 0.1 -0 -1.2 0
-4.02 -0.248 0.103 -0 -1.2 0
-4.025 -0.32 0.108 -0 -1.2 0
-4.018 -0.394 0.11 -0 -1.2 0
-4.01 -0.467 0.111 -0 -1.2 0
-4.03 -0.536 0.118 -0 -1.2 0
-4.01 -0.61 0.118 -0 -1.2 0
-4.009 -0.68 0.121 -0 -1.2 0
-4.015 -0.75 0.125 -0 -1.2 0
-4.01 -0.821 0.127 -0 -1.2 0
-4.015 -0.891 0.132 -0 -1.2 0
-3.998 -0.962 0.132 -0 -1.2 0
-4 -1.032 0.134 -0 -1.2 0
-4.001 -1.102 0.137 -0 -1.2 0
-4.001 -1.171 0.141 -0 -1.2 0
-3.999 -1.24 0.143 -0 -1.2 0
-3.995 -1.31 0.146 -0 -1.2 0
-4.001 -1.38 0.15 -0 -1.2 0
-3.996 -1.45 0.153 -0 -1.2 0
-3.999 -1.521 0.156 -0 -1.2 0
-4.001 -1.592 0.16 -0 -1.2 0
-4.002 -1.663 0.163 -0 -1.2 0
-3.934 -1.723 0.152 -0 -1.2 0
-3.932 -1.794 0.155 -0 -1.2 0
-4.016 -1.881 0.176 -0 -1.2 0
-4.06 -1.962 0.188 -0 -1.2 0
-4.063 -2.037 0.192 -0 -1.2 0
-4.056 -2.111 0.193 -0 -1.2 0
-4.058 -2.187 0.198 -0 -1.2 0
-4.067 -2.265 0.203 -0 -1.2 0
-4.056 -2.338 0.204 -0 -1.2 0
-4.052 -2.415 0.207 -0 -1.2 0
-4.057 -2.495 0.212 -0 -1.2 0
-4.051 -2.573 0.214 -0 -1.2 0
-4.053 -2.654 0.217 -0 -1.2 0
-4.053 -2.736 0.222 -0 -1.2 0
-4.052 -2.818 0.225 -0 -1.2 0
-4.048 -2.9 0.227 -0 -1.2 0
-4.044 -2.984 0.231 -0 -1.2 0
-4.046 -3.071 0.236 -0 -1.2 0
-4.047 -3.16 0.239 -0 -1.2 0
-4.046 -3.249 0.243 -0 -1.2 0
-4.034 -3.333 0.245 -0 -1.2 0
-4.038 -3.428 0.25 -0 -1.2 0
-4.031 -3.519 0.252 -0 -1.2 0
-4.038 -3.62 0.259 -0 -1.2 0
-4.036 -3.717 0.263 -0 -1.2 0
-4.023 -3.81 0.264 -0 -1.2 0
-4.025 -3.914 0.269 -0 -1.2 0
-4.024 -4.019 0.273 -0 -1.2 0
-4.02 -4.125 0.278 -0 -1.2 0
-4.029 -4.244 0.285 -0 -1.2 0
-4.028 -4.357 0.289 -0 -1.2 0
-4.032 -4.478 0.296 -0 -1.2 0
-4.025 -4.594 0.299 -0 -1.2 0
-4.023 -4.717 0.305 -0 -1.2 0
-4.025 -4.848 0.311 -0 -1.2 0
-4.017 -4.973 0.315 -0 -1.2 0
-4.02 -5.113 0.321 -0 -1.2 0
-4.019 -5.255 0.327 -0 -1.2 0
-1.178 -0.029 -0.389 -0 -1.2 0
-1.218 -0.029 -0.38 -0 -1.2 0
-1.251 -0.036 -0.372 -0 -1.2 0
-1.299 -0.03 -0.361 -0 -1.2 0
-1.339 -0.032 -0.352 -0 -1.2 0
-1.388 -0.03 -0.34 -0 -1.2 0
-1.422 -0.041 -0.332 -0 -1.2 0
-1.479 -0.034 -0.319 -0 -1.2 0
-1.529 -0.035 -0.307 -0 -1.2 0
-1.587 -0.033 -0.295 -0 -1.2 0
-1.638 -0.037 -0.282 -0 -1.2 0
-1.697 -0.038 -0.269 -0 -1.2 0
-1.748 -0.045 -0.256 -0 -1.2 0
-1.816 -0.043 -0.241 -0 -1.2 0
-1.876 -0.049 -0.226 -0 -1.2 0
-1.954 -0.047 -0.209 -0 -1.2 0
-2.032 -0.047 -0.191 -0 -1.2 0
-2.102 -0.054 -0.174 -0 -1.2 0
-2.19 -0.055 -0.154 -0 -1.2 0
-2.296 -0.049 -0.129 -0 -1.2 0
-2.402 -0.047 -0.104 -0 -1.2 0
-2.501 -0.053 -0.081 -0 -1.2 0
-2.654 -0.039 -0.047 -0 -1.2 0
-2.563 -0.129 -0.063 -0 -1.2 0
-3.412 0.147 0.12 -0 -1.2 0
-3.608 0.15 0.165 -0 -1.2 0
-3.805 0.148 0.21 -0 -1.2 0
-2.428 -0.373 -0.083 -0 -1.2 0
-2.384 -0.431 -0.091 -0 -1.2 0
-3.985 -0.018 0.26 -0 -1.2 0
-3.994 -0.09 0.265 -0 -1.2 0
-4.001 -0.163 0.271 -0 -1.2 0
-3.988 -0.24 0.272 -0 -1.2 0
-3.992 -0.312 0.276 -0 -1.2 0
-3.995 -0.384 0.28 -0 -1.2 0
-3.987 -0.458 0.281 -0 -1.2 0
-3.988 -0.528 0.285 -0 -1.2 0
-3.997 -0.598 0.29 -0 -1.2 0
-3.976 -0.672 0.289 -0 -1.2 0
-3.993 -0.741 0.297 -0 -1.2 0
-3.978 -0.813 0.297 -0 -1.2 0
-3.982 -0.883 0.301 -0 -1.2 0
-3.976 -0.954 0.303 -0 -1.2 0
-3.968 -1.024 0.304 -0 -1.2 0
-3.988 -1.093 0.312 -0 -1.2 0
-3.978 -1.163 0.313 -0 -1.2 0
-3.976 -1.232 0.316 -0 -1.2 0
-3.973 -1.302 0.318 -0 -1.2 0
-3.978 -1.373 0.322 -0 -1.2 0
-3.963 -1.441 0.322 -0 -1.2 0
-3.976 -1.513 0.328 -0 -1.2 0
-3.969 -1.583 0.329 -0 -1.2 0
-3.98 -1.655 0.335 -0 -1.2 0
-3.902 -1.715 0.32 -0 -1.2 0
-3.901 -1.786 0.323 -0 -1.2 0
-3.964 -1.868 0.341 -0 -1.2 0
-4.037 -1.955 0.363 -0 -1.2 0
-4.031 -2.028 0.364 -0 -1.2 0
-4.023 -2.102 0.366 -0 -1.2 0
-4.034 -2.18 0.373 -0 -1.2 0
-4.034 -2.256 0.376 -0 -1.2 0
-4.023 -2.33 0.377 -0 -1.2 0
-4.028 -2.41 0.382 -0 -1.2 0
-4.024 -2.487 0.385 -0 -1.2 0
-4.018 -2.565 0.387 -0 -1.2 0
-4.03 -2.649 0.393 -0 -1.2 0
-4.02 -2.727 0.396 -0 -1.2 0
-4.019 -2.809 0.399 -0 -1.2 0
-4.024 -2.895 0.404 -0 -1.2 0
-4.011 -2.975 0.404 -0 -1.2 0
-4.022 -3.067 0.411 -0 -1.2 0
-4.014 -3.151 0.414 -0 -1.2 0
-4.022 -3.244 0.42 -0 -1.2 0
-4.001 -3.325 0.419 -0 -1.2 0
-4.005 -3.42 0.424 -0 -1.2 0
-4.006 -3.516 0.429 -0 -1.2 0
-4.006 -3.612 0.434 -0 -1.2 0
-4.003 -3.708 0.438 -0 -1.2 0
-4.007 -3.812 0.443 -0 -1.2 0
-3.992 -3.905 0.445 -0 -1.2 0
-3.991 -4.01 0.449 -0 -1.2 0
-3.988 -4.116 0.453 -0 -1.2 0
-4.005 -4.241 0.463 -0 -1.2 0
-4.004 -4.355 0.468 -0 -1.2 0
-4 -4.47 0.472 -0 -1.2 0
-3.993 -4.586 0.476 -0 -1.2 0
-3.991 -4.708 0.481 -0 -1.2 0
-3.993 -4.839 0.488 -0 -1.2 0
-3.985 -4.964 0.492 -0 -1.2 0
-3.987 -5.104 0.499 -0 -1.2 0
-3.986 -5.246 0.506 -0 -1.2 0
-1.168 -0.026 -0.331 -0 -1.2 0
-1.207 -0.025 -0.321 -0 -1.2 0
-1.24 -0.033 -0.312 -0 -1.2 0
-1.28 -0.034 -0.301 -0 -1.2 0
-1.32 -0.036 -0.29 -0 -1.2 0
-1.377 -0.026 -0.276 -0 -1.2 0
-1.41 -0.037 -0.266 -0 -1.2 0
-1.467 -0.031 -0.252 -0 -1.2 0
-1.516 -0.032 -0.238 -0 -1.2 0
-1.566 -0.035 -0.225 -0 -1.2 0
-1.624 -0.033 -0.209 -0 -1.2 0
-1.683 -0.033 -0.193 -0 -1.2 0
-1.742 -0.035 -0.177 -0 -1.2 0
-1.793 -0.044 -0.163 -0 -1.2 0
-1.861 -0.044 -0.145 -0 -1.2 0
-1.929 -0.047 -0.126 -0 -1.2 0
-1.998 -0.052 -0.108 -0 -1.2 0
-2.085 -0.049 -0.084 -0 -1.2 0
-2.172 -0.049 -0.061 -0 -1.2 0
-2.277 -0.044 -0.033 -0 -1.2 0
-2.382 -0.041 -0.005 -0 -1.2 0
-2.471 -0.051 0.019 -0 -1.2 0
-2.712 0.001 0.081 -0 -1.2 0
-3.181 0.139 0.201 -0 -1.2 0
-3.328 0.133 0.24 -0 -1.2 0
-3.495 0.128 0.286 -0 -1.2 0
-3.699 0.13 0.339 -0 -1.2 0
-3.913 0.129 0.397 -0 -1.2 0
-2.447 -0.4 0.03 -0 -1.2 0
-3.971 -0.003 0.418 -0 -1.2 0
-3.969 -0.079 0.422 -0 -1.2 0
-3.976 -0.152 0.427 -0 -1.2 0
-3.963 -0.229 0.427 -0 -1.2 0
-3.968 -0.301 0.432 -0 -1.2 0
-3.971 -0.373 0.436 -0 -1.2 0
-3.963 -0.447 0.438 -0 -1.2 0
-3.964 -0.518 0.441 -0 -1.2 0
-3.963 -0.589 0.445 -0 -1.2 0
-3.961 -0.661 0.448 -0 -1.2 0
-3.949 -0.733 0.448 -0 -1.2 0
-3.964 -0.802 0.455 -0 -1.2 0
-3.959 -0.873 0.457 -0 -1.2 0
-3.951 -0.944 0.459 -0 -1.2 0
-3.944 -1.015 0.461 -0 -1.2 0
-3.954 -1.084 0.467 -0 -1.2 0
-3.954 -1.154 0.47 -0 -1.2 0
-3.952 -1.224 0.473 -0 -1.2 0
-3.959 -1.294 0.478 -0 -1.2 0
-3.945 -1.363 0.478 -0 -1.2 0
-3.939 -1.433 0.48 -0 -1.2 0
-3.942 -1.504 0.484 -0 -1.2 0
-3.935 -1.574 0.486 -0 -1.2 0
-3.945 -1.646 0.492 -0 -1.2 0
-3.878 -1.708 0.477 -0 -1.2 0
-3.877 -1.778 0.48 -0 -1.2 0
-3.968 -1.866 0.509 -0 -1.2 0
-4.22 -1.991 0.583 -0 -1.2 0
-4.25 -2.077 0.595 -0 -1.2 0
-4.261 -2.159 0.602 -0 -1.2 0
-4.271 -2.242 0.609 -0 -1.2 0
-4.269 -2.323 0.612 -0 -1.2 0
-4.238 -2.397 0.608 -0 -1.2 0
-4.297 -2.498 0.628 -0 -1.2 0
-4.31 -2.587 0.636 -0 -1.2 0
-4.33 -2.68 0.645 -0 -1.2 0
-4.338 -2.771 0.652 -0 -1.2 0
-4.264 -2.83 0.635 -0 -1.2 0
-4.385 -2.97 0.675 -0 -1.2 0
-4.458 -3.095 0.7 -0 -1.2 0
-4.485 -3.203 0.713 -0 -1.2 0
-4.231 -3.177 0.643 -0 -1.2 0
-4.204 -3.257 0.64 -0 -1.2 0
-4.226 -3.363 0.652 -0 -1.2 0
-4.305 -3.505 0.68 -0 -1.2 0
-4.33 -3.62 0.692 -0 -1.2 0
-4.635 -3.909 0.788 -0 -1.2 0
-4.611 -4.006 0.787 -0 -1.2 0
-4.48 -4.035 0.752 -0 -1.2 0
-4.237 -3.984 0.684 -0 -1.2 0
-4.076 -3.98 0.642 -0 -1.2 0
-3.965 -4.007 0.613 -0 -1.2 0
-3.961 -4.113 0.617 -0 -1.2 0
-3.978 -4.238 0.627 -0 -1.2 0
-3.969 -4.345 0.63 -0 -1.2 0
-3.973 -4.466 0.638 -0 -1.2 0
-3.967 -4.582 0.642 -0 -1.2 0
-3.965 -4.705 0.647 -0 -1.2 0
-3.966 -4.836 0.654 -0 -1.2 0
-3.958 -4.962 0.658 -0 -1.2 0
-3.96 -5.102 0.665 -0 -1.2 0
-3.959 -5.243 0.672 -0 -1.2 0
-1.149 -0.03 -0.276 -0 -1.2 0
-1.195 -0.022 -0.263 -0 -1.2 0
-1.234 -0.022 -0.251 -0 -1.2 0
-1.267 -0.03 -0.239 -0 -1.2 0
-1.307 -0.032 -0.227 -0 -1.2 0
-1.355 -0.028 -0.213 -0 -1.2 0
-1.388 -0.04 -0.202 -0 -1.2 0
-1.444 -0.033 -0.186 -0 -1.2 0
-1.485 -0.04 -0.173 -0 -1.2 0
-1.542 -0.036 -0.156 -0 -1.2 0
-1.599 -0.034 -0.138 -0 -1.2 0
-1.657 -0.034 -0.12 -0 -1.2 0
-1.715 -0.036 -0.102 -0 -1.2 0
-1.774 -0.039 -0.084 -0 -1.2 0
-1.841 -0.039 -0.064 -0 -1.2 0
-1.901 -0.048 -0.045 -0 -1.2 0
-1.977 -0.047 -0.022 -0 -1.2 0
-2.054 -0.049 0.001 -0 -1.2 0
-2.14 -0.048 0.028 -0 -1.2 0
-2.254 -0.038 0.062 -0 -1.2 0
-2.35 -0.039 0.091 -0 -1.2 0
-2.455 -0.041 0.124 -0 -1.2 0
-2.64 -0.01 0.179 -0 -1.2 0
-3.105 0.128 0.313 -0 -1.2 0
-3.268 0.13 0.363 -0 -1.2 0
-3.451 0.133 0.418 -0 -1.2 0
-3.707 0.156 0.495 -0 -1.2 0
-2.375 -0.364 0.115 -0 -1.2 0
-2.377 -0.409 0.118 -0 -1.2 0
-2.397 -0.448 0.127 -0 -1.2 0
-3.958 -0.062 0.583 -0 -1.2 0
-4.002 -0.126 0.599 -0 -1.2 0
-3.999 -0.202 0.602 -0 -1.2 0
-4.003 -0.274 0.607 -0 -1.2 0
-3.978 -0.354 0.604 -0 -1.2 0
-3.99 -0.425 0.611 -0 -1.2 0
-4.057 -0.487 0.635 -0 -1.2 0
-3.923 -0.58 0.598 -0 -1.2 0
-3.922 -0.652 0.602 -0 -1.2 0
-3.919 -0.723 0.604 -0 -1.2 0
-3.915 -0.794 0.606 -0 -1.2 0
-3.919 -0.864 0.612 -0 -1.2 0
-3.922 -0.935 0.616 -0 -1.2 0
-3.933 -1.004 0.623 -0 -1.2 0
-3.925 -1.074 0.624 -0 -1.2 0
-3.923 -1.144 0.627 -0 -1.2 0
-3.922 -1.214 0.631 -0 -1.2 0
-3.919 -1.284 0.633 -0 -1.2 0
-3.915 -1.354 0.635 -0 -1.2 0
-3.919 -1.425 0.64 -0 -1.2 0
-3.913 -1.496 0.642 -0 -1.2 0
-3.915 -1.567 0.646 -0 -1.2 0
-3.925 -1.64 0.653 -0 -1.2 0
-3.867 -1.703 0.638 -0 -1.2 0
-3.856 -1.771 0.638 -0 -1.2 0
-3.929 -1.856 0.665 -0 -1.2 0
-4.196 -1.985 0.753 -0 -1.2 0
-4.255 -2.077 0.776 -0 -1.2 0
-4.246 -2.156 0.777 -0 -1.2 0
-4.255 -2.239 0.785 -0 -1.2 0
-4.254 -2.321 0.788 -0 -1.2 0
-4.224 -2.394 0.782 -0 -1.2 0
-4.237 -2.482 0.791 -0 -1.2 0
-4.231 -2.564 0.794 -0 -1.2 0
-4.224 -2.647 0.796 -0 -1.2 0
-4.232 -2.736 0.803 -0 -1.2 0
-4.23 -2.823 0.807 -0 -1.2 0
-4.217 -2.907 0.807 -0 -1.2 0
-4.239 -3.006 0.818 -0 -1.2 0
-4.232 -3.095 0.821 -0 -1.2 0
-4.206 -3.174 0.817 -0 -1.2 0
-4.179 -3.254 0.813 -0 -1.2 0
-4.192 -3.357 0.822 -0 -1.2 0
-4.262 -3.494 0.851 -0 -1.2 0
-4.304 -3.619 0.869 -0 -1.2 0
-4.335 -3.742 0.885 -0 -1.2 0
-4.565 -3.995 0.969 -0 -1.2 0
-4.403 -4.003 0.92 -0 -1.2 0
-4.211 -3.985 0.859 -0 -1.2 0
-4.068 -3.992 0.816 -0 -1.2 0
-3.925 -3.997 0.773 -0 -1.2 0
-3.929 -4.109 0.78 -0 -1.2 0
-3.938 -4.228 0.789 -0 -1.2 0
-3.944 -4.348 0.797 -0 -1.2 0
-3.94 -4.462 0.802 -0 -1.2 0
-3.941 -4.585 0.808 -0 -1.2 0
-3.939 -4.708 0.813 -0 -1.2 0
-3.933 -4.833 0.818 -0 -1.2 0
-3.932 -4.966 0.824 -0 -1.2 0
-3.934 -5.106 0.833 -0 -1.2 0
-3.926 -5.241 0.837 -0 -1.2 0
-1.128 -0.035 -0.217 -0 -1.2 0
-1.174 -0.027 -0.201 -0 -1.2 0
-1.212 -0.027 -0.189 -0 -1.2 0
-1.26 -0.021 -0.173 -0 -1.2 0
-1.291 -0.029 -0.161 -0 -1.2 0
-1.339 -0.025 -0.145 -0 -1.2 0
-1.379 -0.03 -0.131 -0 -1.2 0
-1.427 -0.029 -0.114 -0 -1.2 0
-1.475 -0.03 -0.097 -0 -1.2 0
-1.531 -0.027 -0.078 -0 -1.2 0
-1.573 -0.036 -0.063 -0 -1.2 0
-1.638 -0.03 -0.041 -0 -1.2 0
-1.687 -0.037 -0.024 -0 -1.2 0
-1.753 -0.035 -0.001 -0 -1.2 0
-1.811 -0.04 0.02 -0 -1.2 0
-1.886 -0.038 0.046 -0 -1.2 0
-1.954 -0.042 0.069 -0 -1.2 0
-2.03 -0.044 0.096 -0 -1.2 0
-2.123 -0.039 0.128 -0 -1.2 0
-2.218 -0.037 0.161 -0 -1.2 0
-2.322 -0.034 0.196 -0 -1.2 0
-2.417 -0.039 0.229 -0 -1.2 0
-2.495 -0.055 0.258 -0 -1.2 0
-2.248 -0.212 0.18 -0 -1.2 0
-2.262 -0.252 0.187 -0 -1.2 0
-2.373 -0.255 0.225 -0 -1.2 0
-2.289 -0.333 0.2 -0 -1.2 0
-2.291 -0.377 0.204 -0 -1.2 0
-2.358 -0.4 0.228 -0 -1.2 0
-2.296 -0.464 0.21 -0 -1.2 0
-2.297 -0.508 0.213 -0 -1.2 0
-2.242 -0.566 0.197 -0 -1.2 0
-2.25 -0.606 0.202 -0 -1.2 0
-2.286 -0.64 0.216 -0 -1.2 0
-4.247 -0.28 0.876 -0 -1.2 0
-4.25 -0.358 0.88 -0 -1.2 0
-4.251 -0.436 0.885 -0 -1.2 0
-3.896 -0.568 0.768 -0 -1.2 0
-3.894 -0.639 0.772 -0 -1.2 0
-3.891 -0.711 0.775 -0 -1.2 0
-3.886 -0.783 0.777 -0 -1.2 0
-3.89 -0.853 0.782 -0 -1.2 0
-3.894 -0.924 0.787 -0 -1.2 0
-3.895 -0.994 0.792 -0 -1.2 0
-3.887 -1.065 0.792 -0 -1.2 0
-3.886 -1.135 0.795 -0 -1.2 0
-3.885 -1.205 0.799 -0 -1.2 0
-3.901 -1.275 0.808 -0 -1.2 0
-3.887 -1.345 0.807 -0 -1.2 0
-3.881 -1.416 0.809 -0 -1.2 0
-3.885 -1.487 0.814 -0 -1.2 0
-3.887 -1.559 0.818 -0 -1.2 0
-3.897 -1.632 0.826 -0 -1.2 0
-3.831 -1.694 0.806 -0 -1.2 0
-3.82 -1.764 0.806 -0 -1.2 0
-3.9 -1.851 0.838 -0 -1.2 0
-4.155 -1.976 0.933 -0 -1.2 0
-4.213 -2.068 0.959 -0 -1.2 0
-4.214 -2.149 0.963 -0 -1.2 0
-4.223 -2.233 0.97 -0 -1.2 0
-4.203 -2.31 0.968 -0 -1.2 0
-4.19 -2.389 0.968 -0 -1.2 0
-4.195 -2.474 0.974 -0 -1.2 0
-4.207 -2.563 0.982 -0 -1.2 0
-4.199 -2.646 0.984 -0 -1.2 0
-4.199 -2.732 0.989 -0 -1.2 0
-4.205 -2.823 0.995 -0 -1.2 0
-4.202 -2.911 1 -0 -1.2 0
-4.188 -2.995 0.999 -0 -1.2 0
-4.19 -3.088 1.004 -0 -1.2 0
-4.164 -3.169 1 -0 -1.2 0
-4.145 -3.253 0.998 -0 -1.2 0
-4.242 -3.401 1.039 -0 -1.2 0
-4.26 -3.511 1.052 -0 -1.2 0
-4.277 -3.622 1.063 -0 -1.2 0
-4.291 -3.736 1.073 -0 -1.2 0
-4.31 -3.855 1.087 -0 -1.2 0
-4.398 -4.024 1.126 -0 -1.2 0
-4.168 -3.979 1.044 -0 -1.2 0
-4.027 -3.988 0.995 -0 -1.2 0
-3.901 -4.004 0.952 -0 -1.2 0
-3.898 -4.111 0.958 -0 -1.2 0
-3.914 -4.236 0.969 -0 -1.2 0
-3.919 -4.357 0.978 -0 -1.2 0
-3.908 -4.465 0.979 -0 -1.2 0
-3.908 -4.588 0.986 -0 -1.2 0
-3.905 -4.712 0.992 -0 -1.2 0
-3.907 -4.843 0.999 -0 -1.2 0
-3.898 -4.969 1.003 -0 -1.2 0
-3.901 -5.11 1.011 -0 -1.2 0
-3.898 -5.251 1.019 -0 -1.2 0
-1.121 -0.024 -0.158 -0 -1.2 0
-1.159 -0.023 -0.145 -0 -1.2 0
-1.198 -0.023 -0.13 -0 -1.2 0
-1.237 -0.024 -0.115 -0 -1.2 0
-1.268 -0.032 -0.102 -0 -1.2 0
-1.315 -0.029 -0.084 -0 -1.2 0
-1.362 -0.026 -0.066 -0 -1.2 0
-1.401 -0.031 -0.05 -0 -1.2 0
-1.449 -0.032 -0.032 -0 -1.2 0
-1.504 -0.028 -0.011 -0 -1.2 0
-1.553 -0.032 0.008 -0 -1.2 0
-1.601 -0.037 0.026 -0 -1.2 0
-1.667 -0.033 0.052 -0 -1.2 0
-1.724 -0.036 0.074 -0 -1.2 0
-1.789 -0.035 0.099 -0 -1.2 0
-1.847 -0.043 0.122 -0 -1.2 0
-1.922 -0.042 0.151 -0 -1.2 0
-2.005 -0.038 0.183 -0 -1.2 0
-2.081 -0.042 0.212 -0 -1.2 0
-2.182 -0.036 0.25 -0 -1.2 0
-2.208 -0.071 0.263 -0 -1.2 0
-2.164 -0.139 0.249 -0 -1.2 0
-2.491 -0.036 0.368 -0 -1.2 0
-3.003 0.132 0.557 -0 -1.2 0
-3.233 0.164 0.644 -0 -1.2 0
-3.42 0.171 0.716 -0 -1.2 0
-3.6 0.167 0.785 -0 -1.2 0
-3.763 0.152 0.848 -0 -1.2 0
-2.337 -0.391 0.329 -0 -1.2 0
-2.385 -0.422 0.349 -0 -1.2 0
-4.197 0.054 1.021 -0 -1.2 0
-2.214 -0.56 0.292 -0 -1.2 0
-4.184 -0.111 1.026 -0 -1.2 0
-2.203 -0.646 0.292 -0 -1.2 0
-2.218 -0.684 0.301 -0 -1.2 0
-2.197 -0.729 0.295 -0 -1.2 0
-4.171 -0.43 1.038 -0 -1.2 0
-3.875 -0.553 0.931 -0 -1.2 0
-3.873 -0.626 0.934 -0 -1.2 0
-3.87 -0.698 0.937 -0 -1.2 0
-3.866 -0.77 0.94 -0 -1.2 0
-3.861 -0.842 0.941 -0 -1.2 0
-3.883 -0.911 0.954 -0 -1.2 0
-3.866 -0.982 0.951 -0 -1.2 0
-3.867 -1.053 0.955 -0 -1.2 0
-3.866 -1.124 0.959 -0 -1.2 0
-3.864 -1.195 0.962 -0 -1.2 0
-3.88 -1.266 0.972 -0 -1.2 0
-3.857 -1.337 0.968 -0 -1.2 0
-3.861 -1.408 0.973 -0 -1.2 0
-3.864 -1.48 0.978 -0 -1.2 0
-3.866 -1.552 0.982 -0 -1.2 0
-3.867 -1.624 0.987 -0 -1.2 0
-3.811 -1.689 0.969 -0 -1.2 0
-3.799 -1.759 0.968 -0 -1.2 0
-3.861 -1.841 0.996 -0 -1.2 0
-4.131 -1.971 1.108 -0 -1.2 0
-4.151 -2.055 1.12 -0 -1.2 0
-4.152 -2.136 1.125 -0 -1.2 0
-4.161 -2.22 1.133 -0 -1.2 0
-4.15 -2.299 1.134 -0 -1.2 0
-4.147 -2.381 1.137 -0 -1.2 0
-4.143 -2.463 1.14 -0 -1.2 0
-4.137 -2.546 1.142 -0 -1.2 0
-4.138 -2.631 1.147 -0 -1.2 0
-4.138 -2.718 1.151 -0 -1.2 0
-4.144 -2.808 1.158 -0 -1.2 0
-4.158 -2.904 1.169 -0 -1.2 0
-4.161 -2.996 1.175 -0 -1.2 0
-4.171 -3.093 1.185 -0 -1.2 0
-4.129 -3.166 1.173 -0 -1.2 0
-4.118 -3.255 1.173 -0 -1.2 0
-4.14 -3.362 1.187 -0 -1.2 0
-4.15 -3.467 1.198 -0 -1.2 0
-4.143 -3.563 1.199 -0 -1.2 0
-4.277 -3.749 1.262 -0 -1.2 0
-4.32 -3.884 1.285 -0 -1.2 0
-4.343 -4.012 1.301 -0 -1.2 0
-4.124 -3.973 1.214 -0 -1.2 0
-3.992 -3.988 1.165 -0 -1.2 0
-3.875 -4.01 1.121 -0 -1.2 0
-3.885 -4.129 1.132 -0 -1.2 0
-3.886 -4.243 1.138 -0 -1.2 0
-3.892 -4.364 1.147 -0 -1.2 0
-3.88 -4.474 1.149 -0 -1.2 0
-3.88 -4.596 1.156 -0 -1.2 0
-3.878 -4.72 1.161 -0 -1.2 0
-3.879 -4.852 1.168 -0 -1.2 0
-3.877 -4.985 1.175 -0 -1.2 0
-3.878 -5.127 1.184 -0 -1.2 0
-3.869 -5.262 1.187 -0 -1.2 0
-1.105 -0.021 -0.103 -0 -1.2 0
-1.143 -0.019 -0.086 -0 -1.2 0
-1.174 -0.026 -0.073 -0 -1.2 0
-1.212 -0.026 -0.057 -0 -1.2 0
-1.257 -0.022 -0.037 -0 -1.2 0
-1.296 -0.025 -0.021 -0 -1.2 0
-1.335 -0.028 -0.004 -0 -1.2 0
-1.381 -0.027 0.015 -0 -1.2 0
-1.428 -0.028 0.035 -0 -1.2 0
-1.475 -0.03 0.056 -0 -1.2 0
-1.53 -0.027 0.079 -0 -1.2 0
-1.586 -0.027 0.103 -0 -1.2 0
-1.634 -0.034 0.124 -0 -1.2 0
-1.698 -0.031 0.151 -0 -1.2 0
-1.755 -0.036 0.175 -0 -1.2 0
-1.82 -0.038 0.203 -0 -1.2 0
-1.894 -0.036 0.235 -0 -1.2 0
-1.976 -0.033 0.269 -0 -1.2 0
-2.051 -0.036 0.301 -0 -1.2 0
-2.085 -0.065 0.317 -0 -1.2 0
-2.134 -0.086 0.338 -0 -1.2 0
-2.353 -0.026 0.428 -0 -1.2 0
-2.464 -0.026 0.475 -0 -1.2 0
-2.969 0.145 0.681 -0 -1.2 0
-2.098 -0.283 0.334 -0 -1.2 0
-2.084 -0.332 0.332 -0 -1.2 0
-2.071 -0.38 0.328 -0 -1.2 0
-2.081 -0.418 0.335 -0 -1.2 0
-2.198 -0.42 0.385 -0 -1.2 0
-2.323 -0.423 0.438 -0 -1.2 0
-2.031 -0.556 0.321 -0 -1.2 0
-4.181 -0.003 1.206 -0 -1.2 0
-4.198 -0.081 1.217 -0 -1.2 0
-2.089 -0.659 0.352 -0 -1.2 0
-2.05 -0.707 0.339 -0 -1.2 0
-2.093 -0.737 0.358 -0 -1.2 0
-6.873 0.069 2.348 -0 -1.2 0
-3.847 -0.538 1.094 -0 -1.2 0
-3.837 -0.612 1.094 -0 -1.2 0
-3.834 -0.685 1.096 -0 -1.2 0
-3.83 -0.757 1.099 -0 -1.2 0
-3.834 -0.828 1.105 -0 -1.2 0
-3.847 -0.899 1.114 -0 -1.2 0
-3.838 -0.971 1.115 -0 -1.2 0
-3.839 -1.043 1.119 -0 -1.2 0
-3.839 -1.113 1.123 -0 -1.2 0
-3.837 -1.184 1.126 -0 -1.2 0
-3.843 -1.256 1.133 -0 -1.2 0
-3.83 -1.327 1.132 -0 -1.2 0
-3.825 -1.399 1.133 -0 -1.2 0
-3.828 -1.471 1.139 -0 -1.2 0
-3.83 -1.543 1.143 -0 -1.2 0
-3.848 -1.618 1.156 -0 -1.2 0
-3.793 -1.683 1.136 -0 -1.2 0
-3.773 -1.752 1.131 -0 -1.2 0
-3.816 -1.832 1.154 -0 -1.2 0
-4.099 -1.965 1.283 -0 -1.2 0
-4.156 -2.058 1.312 -0 -1.2 0
-4.166 -2.142 1.32 -0 -1.2 0
-4.164 -2.225 1.325 -0 -1.2 0
-4.145 -2.303 1.321 -0 -1.2 0
-4.133 -2.383 1.32 -0 -1.2 0
-4.146 -2.472 1.331 -0 -1.2 0
-4.148 -2.559 1.337 -0 -1.2 0
-4.149 -2.645 1.342 -0 -1.2 0
-5.11 -3.11 1.778 -0 -1.2 0
-4.154 -2.825 1.354 -0 -1.2 0
-4.176 -2.925 1.369 -0 -1.2 0
-6.648 -4.302 2.5 -0 -1.2 0
-4.104 -3.171 1.353 -0 -1.2 0
-4.085 -3.257 1.349 -0 -1.2 0
-4.106 -3.365 1.365 -0 -1.2 0
-5.558 -4.3 2.036 -0 -1.2 0
-5.344 -4.309 1.945 -0 -1.2 0
-5.077 -4.277 1.83 -0 -1.2 0
-4.922 -4.306 1.766 -0 -1.2 0
-4.374 -4.062 1.519 -0 -1.2 0
-4.081 -3.972 1.388 -0 -1.2 0
-3.935 -3.977 1.326 -0 -1.2 0
-3.842 -4.017 1.29 -0 -1.2 0
-3.853 -4.136 1.3 -0 -1.2 0
-3.86 -4.256 1.31 -0 -1.2 0
-3.852 -4.365 1.313 -0 -1.2 0
-3.854 -4.487 1.321 -0 -1.2 0
-3.853 -4.611 1.328 -0 -1.2 0
-3.85 -4.736 1.334 -0 -1.2 0
-3.851 -4.868 1.341 -0 -1.2 0
-3.848 -5.002 1.348 -0 -1.2 0
-3.842 -5.136 1.354 -0 -1.2 0
-3.84 -5.278 1.36 -0 -1.2 0
-1.08 -0.025 -0.045 -0 -1.2 0
-1.117 -0.024 -0.029 -0 -1.2 0
-1.154 -0.023 -0.011 -0 -1.2 0
-1.192 -0.023 0.006 -0 -1.2 0
-1.229 -0.025 0.024 -0 -1.2 0
-1.267 -0.027 0.042 -0 -1.2 0
-1.312 -0.025 0.063 -0 -1.2 0
-1.351 -0.031 0.082 -0 -1.2 0
-1.397 -0.03 0.103 -0 -1.2 0
-1.451 -0.026 0.129 -0 -1.2 0
-1.498 -0.029 0.151 -0 -1.2 0
-1.56 -0.023 0.179 -0 -1.2 0
-1.608 -0.029 0.202 -0 -1.2 0
-1.663 -0.032 0.228 -0 -1.2 0
-1.726 -0.031 0.259 -0 -1.2 0
-1.798 -0.028 0.292 -0 -1.2 0
-1.871 -0.026 0.325 -0 -1.2 0
-1.936 -0.031 0.356 -0 -1.2 0
-2.017 -0.031 0.395 -0 -1.2 0
-1.993 -0.09 0.386 -0 -1.2 0
-2.181 -0.037 0.472 -0 -1.2 0
-2.315 -0.019 0.534 -0 -1.2 0
-2.331 -0.063 0.544 -0 -1.2 0
-2.862 0.125 0.783 -0 -1.2 0
-3.042 0.142 0.866 -0 -1.2 0
-1.999 -0.347 0.404 -0 -1.2 0
-1.959 -0.404 0.389 -0 -1.2 0
-2.047 -0.412 0.431 -0 -1.2 0
-2.257 -0.381 0.528 -0 -1.2 0
-2.015 -0.505 0.421 -0 -1.2 0
-2.041 -0.537 0.436 -0 -1.2 0
-1.952 -0.602 0.397 -0 -1.2 0
-1.977 -0.634 0.411 -0 -1.2 0
-1.966 -0.675 0.408 -0 -1.2 0
-2.008 -0.704 0.429 -0 -1.2 0
-4.123 -0.313 1.402 -0 -1.2 0
-4.125 -0.393 1.408 -0 -1.2 0
-2.033 -0.814 0.448 -0 -1.2 0
-2 -0.857 0.435 -0 -1.2 0
-3.816 -0.669 1.278 -0 -1.2 0
-3.812 -0.742 1.28 -0 -1.2 0
-3.807 -0.815 1.283 -0 -1.2 0
-3.81 -0.887 1.288 -0 -1.2 0
-3.82 -0.958 1.297 -0 -1.2 0
-1.694 -1.09 0.306 -0 -1.2 0
-1.694 -1.121 0.307 -0 -1.2 0
-1.73 -1.152 0.325 -0 -1.2 0
-3.816 -1.246 1.312 -0 -1.2 0
-3.803 -1.318 1.31 -0 -1.2 0
-3.798 -1.39 1.313 -0 -1.2 0
-3.801 -1.463 1.317 -0 -1.2 0
-3.802 -1.536 1.323 -0 -1.2 0
-3.803 -1.609 1.327 -0 -1.2 0
-3.757 -1.676 1.31 -0 -1.2 0
-3.738 -1.746 1.304 -0 -1.2 0
-3.797 -1.83 1.337 -0 -1.2 0
-4.067 -1.961 1.473 -0 -1.2 0
-4.113 -2.052 1.499 -0 -1.2 0
-4.123 -2.137 1.509 -0 -1.2 0
-4.114 -2.218 1.509 -0 -1.2 0
-4.12 -2.304 1.517 -0 -1.2 0
-4.099 -2.382 1.513 -0 -1.2 0
-4.12 -2.474 1.527 -0 -1.2 0
-4.113 -2.558 1.53 -0 -1.2 0
-4.123 -2.649 1.539 -0 -1.2 0
-4.155 -2.752 1.56 -0 -1.2 0
-4.178 -2.852 1.577 -0 -1.2 0
-5.056 -3.331 2.019 -0 -1.2 0
-6.59 -4.155 2.789 -0 -1.2 0
-6.53 -4.278 2.768 -0 -1.2 0
-4.069 -3.176 1.545 -0 -1.2 0
-4.049 -3.262 1.541 -0 -1.2 0
-5.716 -4.289 2.386 -0 -1.2 0
-5.474 -4.289 2.271 -0 -1.2 0
-5.263 -4.298 2.173 -0 -1.2 0
-5.054 -4.301 2.075 -0 -1.2 0
-4.426 -4.017 1.762 -0 -1.2 0
-4.173 -3.96 1.64 -0 -1.2 0
-4.028 -3.971 1.573 -0 -1.2 0
-3.885 -3.976 1.506 -0 -1.2 0
-3.823 -4.039 1.48 -0 -1.2 0
-3.825 -4.153 1.488 -0 -1.2 0
-3.825 -4.268 1.494 -0 -1.2 0
-3.829 -4.39 1.503 -0 -1.2 0
-3.818 -4.501 1.505 -0 -1.2 0
-3.824 -4.632 1.515 -0 -1.2 0
-3.813 -4.75 1.517 -0 -1.2 0
-3.813 -4.883 1.525 -0 -1.2 0
-3.817 -5.024 1.535 -0 -1.2 0
-3.81 -5.159 1.54 -0 -1.2 0
-3.814 -5.309 1.551 -0 -1.2 0
-1.062 -0.022 0.008 -0 -1.2 0
-1.092 -0.027 0.023 -0 -1.2 0
-1.134 -0.02 0.046 -0 -1.2 0
-1.164 -0.027 0.061 -0 -1.2 0
-1.201 -0.028 0.081 -0 -1.2 0
-1.245 -0.024 0.102 -0 -1.2 0
-1.283 -0.027 0.122 -0 -1.2 0
-1.335 -0.02 0.149 -0 -1.2 0
-1.373 -0.026 0.169 -0 -1.2 0
-1.426 -0.022 0.195 -0 -1.2 0
-1.48 -0.019 0.223 -0 -1.2 0
-1.526 -0.024 0.247 -0 -1.2 0
-1.572 -0.03 0.271 -0 -1.2 0
-1.634 -0.027 0.303 -0 -1.2 0
-1.697 -0.027 0.333 -0 -1.2 0
-1.759 -0.028 0.366 -0 -1.2 0
-1.839 -0.021 0.406 -0 -1.2 0
-1.911 -0.022 0.443 -0 -1.2 0
-1.983 -0.026 0.48 -0 -1.2 0
-1.95 -0.09 0.467 -0 -1.2 0
-1.909 -0.156 0.45 -0 -1.2 0
-2.225 -0.039 0.605 -0 -1.2 0
-2.316 -0.045 0.652 -0 -1.2 0
-2.531 0.002 0.76 -0 -1.2 0
-2.973 0.142 0.978 -0 -1.2 0
-3.135 0.145 1.061 -0 -1.2 0
-1.891 -0.412 0.456 -0 -1.2 0
-2.182 -0.343 0.601 -0 -1.2 0
-2.21 -0.378 0.618 -0 -1.2 0
-2.281 -0.4 0.656 -0 -1.2 0
-2.188 -0.476 0.612 -0 -1.2 0
-1.953 -0.587 0.499 -0 -1.2 0
-1.899 -0.64 0.474 -0 -1.2 0
-1.924 -0.672 0.488 -0 -1.2 0
-1.948 -0.704 0.502 -0 -1.2 0
-1.9 -0.752 0.481 -0 -1.2 0
-1.914 -0.786 0.49 -0 -1.2 0
-3.809 -0.504 1.445 -0 -1.2 0
-3.78 -0.583 1.436 -0 -1.2 0
-3.778 -0.657 1.439 -0 -1.2 0
-3.774 -0.73 1.441 -0 -1.2 0
-3.778 -0.802 1.448 -0 -1.2 0
-1.797 -1.013 0.444 -0 -1.2 0
-3.801 -0.947 1.468 -0 -1.2 0
-3.782 -1.093 1.468 -0 -1.2 0
-3.772 -1.165 1.467 -0 -1.2 0
-3.787 -1.239 1.478 -0 -1.2 0
-3.765 -1.311 1.471 -0 -1.2 0
-3.769 -1.384 1.478 -0 -1.2 0
-3.772 -1.457 1.484 -0 -1.2 0
-3.774 -1.531 1.489 -0 -1.2 0
-3.783 -1.606 1.498 -0 -1.2 0
-3.728 -1.673 1.474 -0 -1.2 0
-3.709 -1.743 1.469 -0 -1.2 0
-3.732 -1.821 1.486 -0 -1.2 0
-3.963 -1.944 1.611 -0 -1.2 0
-3.957 -2.022 1.612 -0 -1.2 0
-3.949 -2.101 1.613 -0 -1.2 0
-3.94 -2.18 1.613 -0 -1.2 0
-3.93 -2.258 1.612 -0 -1.2 0
-3.919 -2.337 1.611 -0 -1.2 0
-3.914 -2.419 1.615 -0 -1.2 0
-3.9 -2.498 1.612 -0 -1.2 0
-3.894 -2.58 1.613 -0 -1.2 0
-3.886 -2.662 1.613 -0 -1.2 0
-3.867 -2.741 1.609 -0 -1.2 0
-3.865 -2.827 1.613 -0 -1.2 0
-3.852 -2.909 1.611 -0 -1.2 0
-3.846 -2.996 1.614 -0 -1.2 0
-3.831 -3.079 1.611 -0 -1.2 0
-3.83 -3.171 1.616 -0 -1.2 0
-3.819 -3.259 1.615 -0 -1.2 0
-3.815 -3.351 1.619 -0 -1.2 0
-3.809 -3.445 1.621 -0 -1.2 0
-3.809 -3.544 1.627 -0 -1.2 0
-3.799 -3.638 1.628 -0 -1.2 0
-3.796 -3.737 1.631 -0 -1.2 0
-3.789 -3.838 1.634 -0 -1.2 0
-3.803 -3.956 1.648 -0 -1.2 0
-3.801 -4.064 1.654 -0 -1.2 0
-3.802 -4.179 1.661 -0 -1.2 0
-3.801 -4.294 1.668 -0 -1.2 0
-3.798 -4.411 1.673 -0 -1.2 0
-3.786 -4.523 1.674 -0 -1.2 0
-3.792 -4.654 1.684 -0 -1.2 0
-3.787 -4.78 1.69 -0 -1.2 0
-3.787 -4.914 1.697 -0 -1.2 0
-3.784 -5.048 1.704 -0 -1.2 0
-3.776 -5.184 1.708 -0 -1.2 0
-3.779 -5.335 1.718 -0 -1.2 0
-1.036 -0.026 0.059 -0 -1.2 0
-1.079 -0.017 0.081 -0 -1.2 0
-1.121 -0.01 0.104 -0 -1.2 0
-1.15 -0.016 0.122 -0 -1.2 0
-1.18 -0.025 0.139 -0 -1.2 0
-1.223 -0.02 0.162 -0 -1.2 0
-1.26 -0.024 0.183 -0 -1.2 0
-1.297 -0.029 0.204 -0 -1.2 0
-1.348 -0.023 0.232 -0 -1.2 0
-1.393 -0.024 0.258 -0 -1.2 0
-1.446 -0.021 0.286 -0 -1.2 0
-1.484 -0.032 0.308 -0 -1.2 0
-1.544 -0.026 0.34 -0 -1.2 0
-1.605 -0.023 0.374 -0 -1.2 0
-1.659 -0.027 0.404 -0 -1.2 0
-1.729 -0.024 0.443 -0 -1.2 0
-1.798 -0.022 0.481 -0 -1.2 0
-1.869 -0.022 0.521 -0 -1.2 0
-1.931 -0.03 0.556 -0 -1.2 0
-2.027 -0.022 0.608 -0 -1.2 0
-1.994 -0.087 0.595 -0 -1.2 0
-1.864 -0.199 0.529 -0 -1.2 0
-1.828 -0.26 0.512 -0 -1.2 0
-1.825 -0.302 0.512 -0 -1.2 0
-1.828 -0.341 0.516 -0 -1.2 0
-1.83 -0.38 0.52 -0 -1.2 0
-1.816 -0.425 0.516 -0 -1.2 0
-1.817 -0.463 0.519 -0 -1.2 0
-1.827 -0.497 0.525 -0 -1.2 0
-1.86 -0.523 0.546 -0 -1.2 0
-1.852 -0.564 0.544 -0 -1.2 0
-3.792 -0.026 1.593 -0 -1.2 0
-3.773 -0.109 1.586 -0 -1.2 0
-3.759 -0.189 1.584 -0 -1.2 0
-3.754 -0.267 1.585 -0 -1.2 0
-1.849 -0.751 0.553 -0 -1.2 0
-1.836 -0.79 0.548 -0 -1.2 0
-1.866 -0.82 0.567 -0 -1.2 0
-1.844 -0.861 0.557 -0 -1.2 0
-1.856 -0.894 0.566 -0 -1.2 0
-3.784 -0.712 1.629 -0 -1.2 0
-3.771 -0.788 1.626 -0 -1.2 0
-1.852 -1.002 0.57 -0 -1.2 0
-3.776 -0.936 1.637 -0 -1.2 0
-3.75 -1.011 1.628 -0 -1.2 0
-1.967 -1.108 0.64 -0 -1.2 0
-1.992 -1.145 0.657 -0 -1.2 0
-3.753 -1.231 1.642 -0 -1.2 0
-3.75 -1.305 1.645 -0 -1.2 0
-3.745 -1.379 1.647 -0 -1.2 0
-3.739 -1.452 1.648 -0 -1.2 0
-3.74 -1.527 1.653 -0 -1.2 0
-3.758 -1.603 1.667 -0 -1.2 0
-3.696 -1.669 1.637 -0 -1.2 0
-3.676 -1.741 1.631 -0 -1.2 0
-3.699 -1.82 1.648 -0 -1.2 0
-3.815 -1.919 1.718 -0 -1.2 0
-3.809 -1.996 1.719 -0 -1.2 0
-3.802 -2.074 1.72 -0 -1.2 0
-3.811 -2.156 1.729 -0 -1.2 0
-3.8 -2.233 1.728 -0 -1.2 0
-3.806 -2.315 1.737 -0 -1.2 0
-3.794 -2.393 1.735 -0 -1.2 0
-3.806 -2.48 1.746 -0 -1.2 0
-3.798 -2.562 1.747 -0 -1.2 0
-3.791 -2.644 1.748 -0 -1.2 0
-3.79 -2.729 1.752 -0 -1.2 0
-3.786 -2.815 1.756 -0 -1.2 0
-3.798 -2.909 1.768 -0 -1.2 0
-3.785 -2.992 1.765 -0 -1.2 0
-3.777 -3.079 1.767 -0 -1.2 0
-3.776 -3.171 1.772 -0 -1.2 0
-3.781 -3.268 1.781 -0 -1.2 0
-3.777 -3.361 1.783 -0 -1.2 0
-3.771 -3.455 1.785 -0 -1.2 0
-3.77 -3.555 1.791 -0 -1.2 0
-3.761 -3.65 1.791 -0 -1.2 0
-3.763 -3.756 1.8 -0 -1.2 0
-3.779 -3.872 1.814 -0 -1.2 0
-3.778 -3.981 1.82 -0 -1.2 0
-3.767 -4.084 1.82 -0 -1.2 0
-3.775 -4.206 1.833 -0 -1.2 0
-3.767 -4.316 1.834 -0 -1.2 0
-3.77 -4.439 1.843 -0 -1.2 0
-3.764 -4.558 1.848 -0 -1.2 0
-3.762 -4.684 1.854 -0 -1.2 0
-3.764 -4.817 1.863 -0 -1.2 0
-3.757 -4.945 1.866 -0 -1.2 0
-3.759 -5.088 1.876 -0 -1.2 0
-3.751 -5.224 1.88 -0 -1.2 0
-3.753 -5.376 1.891 -0 -1.2 0
-1.021 -0.015 0.117 -0 -1.2 0
-1.043 -0.028 0.132 -0 -1.2 0
-1.084 -0.019 0.156 -0 -1.2 0
-1.113 -0.027 0.174 -0 -1.2 0
-1.156 -0.021 0.2 -0 -1.2 0
-1.198 -0.017 0.225 -0 -1.2 0
-1.234 -0.02 0.247 -0 -1.2 0
-1.277 -0.019 0.273 -0 -1.2 0
-1.314 -0.025 0.296 -0 -1.2 0
-1.364 -0.02 0.325 -0 -1.2 0
-1.408 -0.023 0.352 -0 -1.2 0
-1.453 -0.028 0.379 -0 -1.2 0
-1.512 -0.022 0.415 -0 -1.2 0
-1.564 -0.024 0.446 -0 -1.2 0
-1.617 -0.028 0.478 -0 -1.2 0
-1.684 -0.024 0.52 -0 -1.2 0
-1.753 -0.022 0.561 -0 -1.2 0
-1.829 -0.017 0.606 -0 -1.2 0
-1.891 -0.025 0.644 -0 -1.2 0
-1.969 -0.026 0.691 -0 -1.2 0
-2.062 -0.021 0.747 -0 -1.2 0
-2.163 -0.016 0.809 -0 -1.2 0
-2.258 -0.017 0.867 -0 -1.2 0
-2.377 -0.011 0.938 -0 -1.2 0
-2.81 0.133 1.192 -0 -1.2 0
-2.981 0.145 1.295 -0 -1.2 0
-3.145 0.146 1.394 -0 -1.2 0
-3.317 0.145 1.498 -0 -1.2 0
-2.248 -0.322 0.878 -0 -1.2 0
-2.25 -0.369 0.883 -0 -1.2 0
-2.269 -0.41 0.897 -0 -1.2 0
-2.245 -0.466 0.886 -0 -1.2 0
-1.776 -0.645 0.613 -0 -1.2 0
-1.782 -0.679 0.618 -0 -1.2 0
-1.804 -0.711 0.634 -0 -1.2 0
-1.785 -0.751 0.624 -0 -1.2 0
-1.747 -0.795 0.603 -0 -1.2 0
-3.737 -0.473 1.79 -0 -1.2 0
-3.711 -0.554 1.779 -0 -1.2 0
-3.717 -0.627 1.787 -0 -1.2 0
-3.714 -0.702 1.79 -0 -1.2 0
-3.718 -0.777 1.797 -0 -1.2 0
-3.721 -0.852 1.803 -0 -1.2 0
-1.968 -1.025 0.752 -0 -1.2 0
-2.02 -1.062 0.784 -0 -1.2 0
-3.722 -1.075 1.817 -0 -1.2 0
-3.703 -1.149 1.81 -0 -1.2 0
-3.718 -1.223 1.823 -0 -1.2 0
-3.714 -1.297 1.825 -0 -1.2 0
-3.709 -1.372 1.827 -0 -1.2 0
-3.71 -1.447 1.833 -0 -1.2 0
-3.712 -1.523 1.838 -0 -1.2 0
-3.712 -1.599 1.843 -0 -1.2 0
-3.669 -1.668 1.82 -0 -1.2 0
-3.642 -1.739 1.808 -0 -1.2 0
-3.681 -1.822 1.837 -0 -1.2 0
-3.777 -1.919 1.9 -0 -1.2 0
-3.77 -1.997 1.901 -0 -1.2 0
-3.771 -2.077 1.907 -0 -1.2 0
-3.771 -2.158 1.912 -0 -1.2 0
-3.77 -2.239 1.916 -0 -1.2 0
-3.766 -2.32 1.919 -0 -1.2 0
-3.771 -2.405 1.926 -0 -1.2 0
-3.765 -2.487 1.928 -0 -1.2 0
-3.767 -2.571 1.934 -0 -1.2 0
-3.75 -2.652 1.929 -0 -1.2 0
-3.765 -2.744 1.943 -0 -1.2 0
-3.754 -2.827 1.942 -0 -1.2 0
-3.757 -2.919 1.949 -0 -1.2 0
-3.751 -3.007 1.951 -0 -1.2 0
-3.752 -3.099 1.956 -0 -1.2 0
-3.742 -3.188 1.956 -0 -1.2 0
-3.747 -3.286 1.965 -0 -1.2 0
-3.749 -3.384 1.972 -0 -1.2 0
-3.743 -3.479 1.974 -0 -1.2 0
-3.734 -3.575 1.975 -0 -1.2 0
-3.732 -3.676 1.979 -0 -1.2 0
-3.741 -3.788 1.991 -0 -1.2 0
-3.741 -3.896 1.998 -0 -1.2 0
-3.74 -4.005 2.003 -0 -1.2 0
-3.742 -4.12 2.012 -0 -1.2 0
-3.736 -4.231 2.015 -0 -1.2 0
-3.74 -4.354 2.025 -0 -1.2 0
-3.73 -4.467 2.026 -0 -1.2 0
-3.73 -4.593 2.033 -0 -1.2 0
-3.734 -4.725 2.043 -0 -1.2 0
-3.728 -4.853 2.048 -0 -1.2 0
-3.727 -4.989 2.055 -0 -1.2 0
-3.728 -5.132 2.064 -0 -1.2 0
-3.719 -5.27 2.068 -0 -1.2 0
-3.72 -5.422 2.078 -0 -1.2 0
-0.999 -0.012 0.168 -0 -1.2 0
-1.026 -0.018 0.187 -0 -1.2 0
-1.061 -0.016 0.209 -0 -1.2 0
-1.102 -0.01 0.235 -0 -1.2 0
-1.137 -0.011 0.258 -0 -1.2 0
-1.166 -0.02 0.277 -0 -1.2 0
-1.201 -0.024 0.301 -0 -1.2 0
-1.243 -0.022 0.327 -0 -1.2 0
-1.292 -0.015 0.359 -0 -1.2 0
-1.335 -0.016 0.387 -0 -1.2 0
-1.372 -0.025 0.411 -0 -1.2 0
-1.429 -0.018 0.449 -0 -1.2 0
-1.479 -0.018 0.481 -0 -1.2 0
-1.53 -0.02 0.515 -0 -1.2 0
-1.583 -0.024 0.549 -0 -1.2 0
-1.641 -0.025 0.588 -0 -1.2 0
-1.715 -0.018 0.636 -0 -1.2 0
-1.783 -0.017 0.68 -0 -1.2 0
-1.851 -0.02 0.724 -0 -1.2 0
-1.926 -0.021 0.773 -0 -1.2 0
-2.018 -0.016 0.834 -0 -1.2 0
-2.11 -0.015 0.893 -0 -1.2 0
-2.21 -0.012 0.958 -0 -1.2 0
-2.326 -0.006 1.034 -0 -1.2 0
-2.538 0.039 1.169 -0 -1.2 0
-2.902 0.144 1.401 -0 -1.2 0
-3.07 0.15 1.51 -0 -1.2 0
-3.238 0.149 1.621 -0 -1.2 0
-2.16 -0.331 0.946 -0 -1.2 0
-1.742 -0.528 0.683 -0 -1.2 0
-1.709 -0.577 0.665 -0 -1.2 0
-1.756 -0.598 0.698 -0 -1.2 0
-3.696 -0.069 1.934 -0 -1.2 0
-1.719 -0.682 0.678 -0 -1.2 0
-1.774 -0.704 0.716 -0 -1.2 0
-3.691 -0.305 1.943 -0 -1.2 0
-3.691 -0.382 1.949 -0 -1.2 0
-3.7 -0.458 1.959 -0 -1.2 0
-3.69 -0.536 1.957 -0 -1.2 0
-3.688 -0.612 1.961 -0 -1.2 0
-3.685 -0.688 1.963 -0 -1.2 0
-3.681 -0.764 1.965 -0 -1.2 0
-3.682 -0.84 1.971 -0 -1.2 0
-3.684 -0.915 1.976 -0 -1.2 0
-3.685 -0.991 1.981 -0 -1.2 0
-3.684 -1.066 1.986 -0 -1.2 0
-3.683 -1.141 1.989 -0 -1.2 0
-3.68 -1.217 1.991 -0 -1.2 0
-3.676 -1.292 1.994 -0 -1.2 0
-3.671 -1.368 1.995 -0 -1.2 0
-3.673 -1.443 2.001 -0 -1.2 0
-3.683 -1.52 2.012 -0 -1.2 0
-3.691 -1.598 2.022 -0 -1.2 0
-3.632 -1.667 1.987 -0 -1.2 0
-3.622 -1.741 1.985 -0 -1.2 0
-3.667 -1.827 2.02 -0 -1.2 0
-3.744 -1.921 2.077 -0 -1.2 0
-3.746 -2.002 2.083 -0 -1.2 0
-3.739 -2.082 2.083 -0 -1.2 0
-3.747 -2.166 2.093 -0 -1.2 0
-3.737 -2.245 2.091 -0 -1.2 0
-3.734 -2.328 2.094 -0 -1.2 0
-3.73 -2.41 2.096 -0 -1.2 0
-3.74 -2.498 2.109 -0 -1.2 0
-3.733 -2.582 2.109 -0 -1.2 0
-3.725 -2.666 2.108 -0 -1.2 0
-3.731 -2.757 2.118 -0 -1.2 0
-3.727 -2.845 2.121 -0 -1.2 0
-3.722 -2.933 2.124 -0 -1.2 0
-3.724 -3.026 2.129 -0 -1.2 0
-3.723 -3.12 2.135 -0 -1.2 0
-3.722 -3.214 2.14 -0 -1.2 0
-3.71 -3.304 2.137 -0 -1.2 0
-3.705 -3.399 2.14 -0 -1.2 0
-3.713 -3.504 2.152 -0 -1.2 0
-3.726 -3.616 2.166 -0 -1.2 0
-3.715 -3.713 2.165 -0 -1.2 0
-3.717 -3.821 2.173 -0 -1.2 0
-3.716 -3.93 2.179 -0 -1.2 0
-3.713 -4.04 2.185 -0 -1.2 0
-3.716 -4.157 2.192 -0 -1.2 0
-3.709 -4.269 2.195 -0 -1.2 0
-3.706 -4.388 2.201 -0 -1.2 0
-3.708 -4.513 2.209 -0 -1.2 0
-3.701 -4.634 2.212 -0 -1.2 0
-3.703 -4.767 2.222 -0 -1.2 0
-3.697 -4.896 2.226 -0 -1.2 0
-3.701 -5.04 2.236 -0 -1.2 0
-3.695 -5.178 2.241 -0 -1.2 0
-3.693 -5.324 2.248 -0 -1.2 0
-3.692 -5.477 2.257 -0 -1.2 0
-0.97 -0.016 0.215 -0 -1.2 0
-1.015 -0.001 0.246 -0 -1.2 0
-1.037 -0.013 0.262 -0 -1.2 0
-1.07 -0.013 0.286 -0 -1.2 0
-1.105 -0.015 0.309 -0 -1.2 0
-1.146 -0.01 0.337 -0 -1.2 0
-1.18 -0.013 0.362 -0 -1.2 0
-1.215 -0.019 0.386 -0 -1.2 0
-1.256 -0.018 0.416 -0 -1.2 0
-1.305 -0.013 0.449 -0 -1.2 0
-1.347 -0.016 0.479 -0 -1.2 0
-1.396 -0.014 0.513 -0 -1.2 0
-1.439 -0.02 0.544 -0 -1.2 0
-1.497 -0.016 0.584 -0 -1.2 0
-1.547 -0.02 0.62 -0 -1.2 0
-1.604 -0.021 0.66 -0 -1.2 0
-1.669 -0.017 0.706 -0 -1.2 0
-1.735 -0.018 0.752 -0 -1.2 0
-1.801 -0.021 0.799 -0 -1.2 0
-1.875 -0.02 0.85 -0 -1.2 0
-1.965 -0.015 0.914 -0 -1.2 0
-2.062 -0.009 0.982 -0 -1.2 0
-2.153 -0.011 1.045 -0 -1.2 0
-2.252 -0.012 1.114 -0 -1.2 0
-2.38 -0.002 1.205 -0 -1.2 0
-2.837 0.151 1.516 -0 -1.2 0
-1.676 -0.421 0.736 -0 -1.2 0
-1.662 -0.465 0.728 -0 -1.2 0
-1.686 -0.492 0.746 -0 -1.2 0
-3.561 0.159 2.024 -0 -1.2 0
-2.226 -0.381 1.119 -0 -1.2 0
-1.677 -0.606 0.746 -0 -1.2 0
-1.675 -0.643 0.748 -0 -1.2 0
-3.674 -0.123 2.121 -0 -1.2 0
-3.669 -0.204 2.122 -0 -1.2 0
-3.664 -0.284 2.123 -0 -1.2 0
-3.664 -0.362 2.129 -0 -1.2 0
-3.657 -0.442 2.128 -0 -1.2 0
-3.664 -0.518 2.138 -0 -1.2 0
-3.662 -0.595 2.141 -0 -1.2 0
-3.659 -0.673 2.144 -0 -1.2 0
-3.655 -0.751 2.145 -0 -1.2 0
-3.656 -0.827 2.152 -0 -1.2 0
-3.658 -0.904 2.157 -0 -1.2 0
-3.651 -0.981 2.157 -0 -1.2 0
-3.65 -1.057 2.161 -0 -1.2 0
-3.649 -1.133 2.165 -0 -1.2 0
-3.654 -1.209 2.173 -0 -1.2 0
-3.649 -1.286 2.175 -0 -1.2 0
-3.645 -1.362 2.175 -0 -1.2 0
-3.655 -1.441 2.188 -0 -1.2 0
-3.648 -1.518 2.187 -0 -1.2 0
-3.656 -1.597 2.198 -0 -1.2 0
-3.598 -1.666 2.161 -0 -1.2 0
-3.587 -1.742 2.159 -0 -1.2 0
-3.64 -1.83 2.201 -0 -1.2 0
-3.715 -1.925 2.26 -0 -1.2 0
-3.717 -2.008 2.266 -0 -1.2 0
-3.71 -2.088 2.265 -0 -1.2 0
-3.702 -2.169 2.264 -0 -1.2 0
-3.707 -2.254 2.274 -0 -1.2 0
-3.712 -2.34 2.282 -0 -1.2 0
-3.7 -2.422 2.279 -0 -1.2 0
-3.709 -2.511 2.29 -0 -1.2 0
-3.702 -2.596 2.291 -0 -1.2 0
-3.701 -2.684 2.296 -0 -1.2 0
-3.698 -2.773 2.3 -0 -1.2 0
-3.695 -2.862 2.302 -0 -1.2 0
-3.698 -2.955 2.31 -0 -1.2 0
-3.698 -3.05 2.315 -0 -1.2 0
-3.69 -3.139 2.316 -0 -1.2 0
-3.687 -3.235 2.32 -0 -1.2 0
-3.684 -3.331 2.323 -0 -1.2 0
-3.677 -3.427 2.324 -0 -1.2 0
-3.692 -3.539 2.341 -0 -1.2 0
-3.696 -3.647 2.351 -0 -1.2 0
-3.693 -3.749 2.354 -0 -1.2 0
-3.686 -3.854 2.357 -0 -1.2 0
-3.685 -3.964 2.362 -0 -1.2 0
-3.683 -4.076 2.367 -0 -1.2 0
-3.684 -4.194 2.375 -0 -1.2 0
-3.683 -4.313 2.382 -0 -1.2 0
-3.679 -4.433 2.387 -0 -1.2 0
-3.68 -4.559 2.395 -0 -1.2 0
-3.673 -4.681 2.397 -0 -1.2 0
-3.668 -4.81 2.402 -0 -1.2 0
-3.674 -4.953 2.414 -0 -1.2 0
-3.669 -5.091 2.42 -0 -1.2 0
-3.663 -5.23 2.424 -0 -1.2 0
-3.66 -5.376 2.43 -0 -1.2 0
-3.659 -5.532 2.439 -0 -1.2 0
-0.957 0 0.277 -0 -1.2 0
-0.983 -0.006 0.297 -0 -1.2 0
-1.016 -0.005 0.321 -0 -1.2 0
-1.049 -0.004 0.345 -0 -1.2 0
-1.076 -0.012 0.366 -0 -1.2 0
-1.11 -0.015 0.392 -0 -1.2 0
-1.143 -0.018 0.418 -0 -1.2 0
-1.183 -0.016 0.448 -0 -1.2 0
-1.223 -0.015 0.478 -0 -1.2 0
-1.265 -0.016 0.51 -0 -1.2 0
-1.306 -0.018 0.541 -0 -1.2 0
-1.353 -0.017 0.578 -0 -1.2 0
-1.408 -0.011 0.619 -0 -1.2 0
-1.457 -0.013 0.656 -0 -1.2 0
-1.506 -0.017 0.693 -0 -1.2 0
-1.562 -0.017 0.736 -0 -1.2 0
-1.619 -0.019 0.779 -0 -1.2 0
-1.683 -0.019 0.827 -0 -1.2 0
-1.747 -0.021 0.876 -0 -1.2 0
-1.82 -0.022 0.93 -0 -1.2 0
-1.899 -0.02 0.991 -0 -1.2 0
-1.979 -0.022 1.052 -0 -1.2 0
-2.015 -0.051 1.081 -0 -1.2 0
-1.611 -0.313 0.791 -0 -1.2 0
-1.624 -0.383 0.805 -0 -1.2 0
-1.648 -0.411 0.825 -0 -1.2 0
-1.656 -0.446 0.834 -0 -1.2 0
-3.245 0.156 2.001 -0 -1.2 0
-1.665 -0.517 0.844 -0 -1.2 0
-1.58 -0.586 0.783 -0 -1.2 0
-2.207 -0.411 1.249 -0 -1.2 0
-3.644 -0.015 2.314 -0 -1.2 0
-3.648 -0.095 2.323 -0 -1.2 0
-3.636 -0.179 2.319 -0 -1.2 0
-3.639 -0.259 2.326 -0 -1.2 0
-3.633 -0.341 2.326 -0 -1.2 0
-3.624 -0.422 2.325 -0 -1.2 0
-3.632 -0.5 2.335 -0 -1.2 0
-3.63 -0.579 2.338 -0 -1.2 0
-3.619 -0.659 2.335 -0 -1.2 0
-3.623 -0.736 2.342 -0 -1.2 0
-3.618 -0.815 2.343 -0 -1.2 0
-3.626 -0.892 2.354 -0 -1.2 0
-3.611 -0.971 2.347 -0 -1.2 0
-3.611 -1.048 2.352 -0 -1.2 0
-3.609 -1.125 2.355 -0 -1.2 0
-3.606 -1.203 2.358 -0 -1.2 0
-3.611 -1.281 2.366 -0 -1.2 0
-3.613 -1.36 2.373 -0 -1.2 0
-3.607 -1.438 2.373 -0 -1.2 0
-3.616 -1.517 2.384 -0 -1.2 0
-3.616 -1.596 2.389 -0 -1.2 0
-3.566 -1.668 2.356 -0 -1.2 0
-3.556 -1.745 2.353 -0 -1.2 0
-3.615 -1.837 2.404 -0 -1.2 0
-3.688 -1.934 2.466 -0 -1.2 0
-3.682 -2.015 2.466 -0 -1.2 0
-3.667 -2.095 2.459 -0 -1.2 0
-3.673 -2.182 2.469 -0 -1.2 0
-3.671 -2.266 2.472 -0 -1.2 0
-3.668 -2.351 2.475 -0 -1.2 0
-3.671 -2.438 2.483 -0 -1.2 0
-3.664 -2.524 2.483 -0 -1.2 0
-3.665 -2.613 2.488 -0 -1.2 0
-3.664 -2.702 2.493 -0 -1.2 0
-3.66 -2.792 2.496 -0 -1.2 0
-3.664 -2.887 2.505 -0 -1.2 0
-3.658 -2.978 2.507 -0 -1.2 0
-3.659 -3.073 2.512 -0 -1.2 0
-3.651 -3.165 2.512 -0 -1.2 0
-3.647 -3.262 2.515 -0 -1.2 0
-3.664 -3.371 2.534 -0 -1.2 0
-3.658 -3.47 2.536 -0 -1.2 0
-3.657 -3.573 2.541 -0 -1.2 0
-3.654 -3.678 2.545 -0 -1.2 0
-3.656 -3.788 2.554 -0 -1.2 0
-3.65 -3.893 2.555 -0 -1.2 0
-3.648 -4.004 2.561 -0 -1.2 0
-3.644 -4.117 2.565 -0 -1.2 0
-3.645 -4.236 2.572 -0 -1.2 0
-3.643 -4.357 2.579 -0 -1.2 0
-3.639 -4.478 2.583 -0 -1.2 0
-3.633 -4.6 2.586 -0 -1.2 0
-3.636 -4.735 2.597 -0 -1.2 0
-3.631 -4.865 2.601 -0 -1.2 0
-3.63 -5.003 2.608 -0 -1.2 0
-3.631 -5.149 2.619 -0 -1.2 0
-3.624 -5.289 2.622 -0 -1.2 0
-3.624 -5.444 2.631 -0 -1.2 0
-3.622 -5.6 2.639 -0 -1.2 0
-0.92 -0.012 0.317 -0 -1.2 0
-0.957 -0.003 0.346 -0 -1.2 0
-0.989 -0.002 0.371 -0 -1.2 0
-1.015 -0.008 0.394 -0 -1.2 0
-1.048 -0.009 0.419 -0 -1.2 0
-1.086 -0.004 0.451 -0 -1.2 0
-1.113 -0.015 0.473 -0 -1.2 0
-1.158 -0.007 0.509 -0 -1.2 0
-1.191 -0.012 0.536 -0 -1.2 0
-1.237 -0.007 0.574 -0 -1.2 0
-1.283 -0.003 0.611 -0 -1.2 0
-1.317 -0.014 0.639 -0 -1.2 0
-1.365 -0.013 0.678 -0 -1.2 0
-1.412 -0.014 0.717 -0 -1.2 0
-1.466 -0.013 0.76 -0 -1.2 0
-1.515 -0.019 0.8 -0 -1.2 0
-1.569 -0.02 0.845 -0 -1.2 0
-1.624 -0.025 0.89 -0 -1.2 0
-1.695 -0.022 0.946 -0 -1.2 0
-1.757 -0.026 0.998 -0 -1.2 0
-1.835 -0.024 1.061 -0 -1.2 0
-1.884 -0.042 1.101 -0 -1.2 0
-1.573 -0.267 0.863 -0 -1.2 0
-1.612 -0.285 0.895 -0 -1.2 0
-1.543 -0.36 0.844 -0 -1.2 0
-1.596 -0.372 0.888 -0 -1.2 0
-1.589 -0.413 0.885 -0 -1.2 0
-1.598 -0.448 0.895 -0 -1.2 0
-1.562 -0.501 0.867 -0 -1.2 0
-1.553 -0.54 0.863 -0 -1.2 0
-1.53 -0.584 0.847 -0 -1.2 0
-1.536 -0.617 0.854 -0 -1.2 0
-2.066 -0.482 1.277 -0 -1.2 0
-3.614 -0.07 2.509 -0 -1.2 0
-3.61 -0.153 2.511 -0 -1.2 0
-3.605 -0.237 2.512 -0 -1.2 0
-3.599 -0.319 2.513 -0 -1.2 0
-3.599 -0.399 2.518 -0 -1.2 0
-3.606 -0.479 2.528 -0 -1.2 0
-3.605 -0.56 2.531 -0 -1.2 0
-3.593 -0.641 2.527 -0 -1.2 0
-3.597 -0.721 2.535 -0 -1.2 0
-3.592 -0.801 2.536 -0 -1.2 0
-3.617 -0.878 2.561 -0 -1.2 0
-3.587 -0.96 2.541 -0 -1.2 0
-3.585 -1.039 2.546 -0 -1.2 0
-3.584 -1.118 2.549 -0 -1.2 0
-3.589 -1.197 2.558 -0 -1.2 0
-3.585 -1.276 2.56 -0 -1.2 0
-3.58 -1.356 2.561 -0 -1.2 0
-3.581 -1.436 2.567 -0 -1.2 0
-3.59 -1.517 2.579 -0 -1.2 0
-3.589 -1.598 2.584 -0 -1.2 0
-3.534 -1.67 2.543 -0 -1.2 0
-3.523 -1.749 2.54 -0 -1.2 0
-3.65 -1.855 2.648 -0 -1.2 0
-3.766 -1.966 2.749 -0 -1.2 0
-3.721 -2.042 2.717 -0 -1.2 0
-3.721 -2.128 2.723 -0 -1.2 0
-3.742 -2.223 2.745 -0 -1.2 0
-3.881 -2.356 2.867 -0 -1.2 0
-3.83 -2.432 2.831 -0 -1.2 0
-4.924 -2.931 3.75 -0 -1.2 0
-3.884 -2.642 2.886 -0 -1.2 0
-3.881 -2.737 2.891 -0 -1.2 0
-3.895 -3.144 2.926 -0 -1.2 0
-3.836 -3.217 2.883 -0 -1.2 0
-3.846 -3.327 2.899 -0 -1.2 0
-3.862 -3.443 2.918 -0 -1.2 0
-3.903 -3.577 2.96 -0 -1.2 0
-4.688 -4.212 3.636 -0 -1.2 0
-4.541 -4.247 3.52 -0 -1.2 0
-3.91 -3.926 2.987 -0 -1.2 0
-3.802 -3.963 2.902 -0 -1.2 0
-3.656 -3.967 2.784 -0 -1.2 0
-3.615 -4.05 2.755 -0 -1.2 0
-3.611 -4.164 2.758 -0 -1.2 0
-3.604 -4.279 2.761 -0 -1.2 0
-3.608 -4.405 2.771 -0 -1.2 0
-3.604 -4.528 2.775 -0 -1.2 0
-3.603 -4.658 2.782 -0 -1.2 0
-3.599 -4.789 2.788 -0 -1.2 0
-3.599 -4.927 2.796 -0 -1.2 0
-3.597 -5.066 2.802 -0 -1.2 0
-3.597 -5.213 2.812 -0 -1.2 0
-3.588 -5.354 2.814 -0 -1.2 0
-3.588 -5.511 2.824 -0 -1.2 0
-3.564 -5.641 2.811 -0 -1.2 0
-0.905 0.004 0.373 -0 -1.2 0
-0.931 0 0.395 -0 -1.2 0
-0.961 0 0.422 -0 -1.2 0
