# .PCD v.7 - Point Cloud Data file format
FIELDS x y z vp_x vp_y vp_z
SIZE 4 4 4 4 4 4
TYPE F F F F F F
COUNT 1 1 1 1 1 1
WIDTH 1574
HEIGHT 1
VIEWPOINT 0 -1.20009 0 1 0 0 0
POINTS 1574
DATA ascii
-3.552 -0.206 -2.191 -0 -1.2 0
-3.808 -0.227 -2.383 -0 -1.2 0
-3.828 -0.307 -2.397 -0 -1.2 0
-3.823 -0.394 -2.392 -0 -1.2 0
-3.826 -0.477 -2.392 -0 -1.2 0
-3.818 -0.563 -2.386 -0 -1.2 0
-3.818 -0.646 -2.384 -0 -1.2 0
-3.816 -0.73 -2.382 -0 -1.2 0
-3.821 -0.812 -2.384 -0 -1.2 0
-3.816 -0.895 -2.38 -0 -1.2 0
-3.812 -0.977 -2.376 -0 -1.2 0
-3.806 -1.06 -2.37 -0 -1.2 0
-3.806 -1.142 -2.369 -0 -1.2 0
-3.813 -1.225 -2.374 -0 -1.2 0
-3.796 -1.306 -2.359 -0 -1.2 0
-3.8 -1.388 -2.362 -0 -1.2 0
-3.797 -1.47 -2.357 -0 -1.2 0
-3.807 -1.553 -2.364 -0 -1.2 0
-3.801 -1.635 -2.359 -0 -1.2 0
-3.801 -1.719 -2.358 -0 -1.2 0
-3.8 -1.802 -2.356 -0 -1.2 0
-3.791 -1.884 -2.348 -0 -1.2 0
-3.787 -1.968 -2.344 -0 -1.2 0
-3.735 -2.039 -2.304 -0 -1.2 0
-3.738 -2.124 -2.305 -0 -1.2 0
-3.856 -2.244 -2.392 -0 -1.2 0
-3.848 -2.329 -2.385 -0 -1.2 0
-3.854 -2.421 -2.388 -0 -1.2 0
-3.851 -2.508 -2.385 -0 -1.2 0
-3.846 -2.597 -2.38 -0 -1.2 0
-3.849 -2.689 -2.381 -0 -1.2 0
-3.841 -2.779 -2.374 -0 -1.2 0
-3.84 -2.872 -2.371 -0 -1.2 0
-3.86 -2.976 -2.386 -0 -1.2 0
-3.856 -3.071 -2.381 -0 -1.2 0
-3.851 -3.166 -2.376 -0 -1.2 0
-3.851 -3.265 -2.375 -0 -1.2 0
-3.849 -3.365 -2.372 -0 -1.2 0
-3.846 -3.465 -2.369 -0 -1.2 0
-3.842 -3.566 -2.364 -0 -1.2 0
-3.842 -3.672 -2.363 -0 -1.2 0
-3.841 -3.779 -2.361 -0 -1.2 0
-3.846 -3.892 -2.363 -0 -1.2 0
-3.848 -4.005 -2.363 -0 -1.2 0
-3.841 -4.115 -2.356 -0 -1.2 0
-3.839 -4.23 -2.353 -0 -1.2 0
-3.842 -4.351 -2.354 -0 -1.2 0
-3.842 -4.474 -2.352 -0 -1.2 0
-3.84 -4.598 -2.349 -0 -1.2 0
-3.848 -4.735 -2.353 -0 -1.2 0
-3.842 -4.86 -2.347 -0 -1.2 0
-3.839 -4.993 -2.343 -0 -1.2 0
-3.84 -5.133 -2.341 -0 -1.2 0
-3.831 -5.268 -2.333 -0 -1.2 0
-3.827 -5.41 -2.328 -0 -1.2 0
-3.83 -5.567 -2.329 -0 -1.2 0
-3.826 -5.719 -2.324 -0 -1.2 0
-3.823 -5.879 -2.319 -0 -1.2 0
-3.812 -6.032 -2.309 -0 -1.2 0
-3.82 -6.217 -2.312 -0 -1.2 0
-0.985 -0.038 -0.192 -0 -1.2 0
-1.018 -0.038 -0.215 -0 -1.2 0
-1.052 -0.04 -0.239 -0 -1.2 0
-1.092 -0.036 -0.267 -0 -1.2 0
-1.126 -0.04 -0.291 -0 -1.2 0
-1.161 -0.045 -0.315 -0 -1.2 0
-1.202 -0.046 -0.344 -0 -1.2 0
-1.237 -0.053 -0.368 -0 -1.2 0
-1.286 -0.051 -0.402 -0 -1.2 0
-1.328 -0.056 -0.432 -0 -1.2 0
-1.377 -0.057 -0.466 -0 -1.2 0
-1.434 -0.054 -0.506 -0 -1.2 0
-1.483 -0.058 -0.541 -0 -1.2 0
-1.534 -0.065 -0.576 -0 -1.2 0
-1.598 -0.063 -0.621 -0 -1.2 0
-1.65 -0.074 -0.657 -0 -1.2 0
-1.715 -0.077 -0.703 -0 -1.2 0
-1.796 -0.074 -0.759 -0 -1.2 0
-1.856 -0.087 -0.801 -0 -1.2 0
-1.945 -0.086 -0.863 -0 -1.2 0
-2.019 -0.096 -0.916 -0 -1.2 0
-2.117 -0.098 -0.984 -0 -1.2 0
-2.216 -0.104 -1.053 -0 -1.2 0
-2.322 -0.111 -1.128 -0 -1.2 0
-2.437 -0.118 -1.208 -0 -1.2 0
-2.561 -0.128 -1.294 -0 -1.2 0
-2.676 -0.145 -1.376 -0 -1.2 0
-2.831 -0.153 -1.484 -0 -1.2 0
-3.003 -0.162 -1.604 -0 -1.2 0
-3.191 -0.174 -1.736 -0 -1.2 0
-3.412 -0.185 -1.891 -0 -1.2 0
-3.649 -0.202 -2.057 -0 -1.2 0
-3.823 -0.242 -2.178 -0 -1.2 0
-3.811 -0.328 -2.168 -0 -1.2 0
-3.813 -0.41 -2.169 -0 -1.2 0
-3.799 -0.495 -2.158 -0 -1.2 0
-3.702 -0.59 -2.088 -0 -1.2 0
-3.677 -0.671 -2.07 -0 -1.2 0
-3.765 -0.741 -2.129 -0 -1.2 0
-3.745 -0.822 -2.114 -0 -1.2 0
-3.667 -0.905 -2.059 -0 -1.2 0
-3.662 -0.983 -2.054 -0 -1.2 0
-3.68 -1.06 -2.065 -0 -1.2 0
-3.68 -1.138 -2.064 -0 -1.2 0
-3.671 -1.214 -2.058 -0 -1.2 0
-3.67 -1.291 -2.055 -0 -1.2 0
-3.676 -1.369 -2.058 -0 -1.2 0
-3.663 -1.445 -2.049 -0 -1.2 0
-3.666 -1.523 -2.049 -0 -1.2 0
-3.669 -1.601 -2.049 -0 -1.2 0
-3.67 -1.68 -2.05 -0 -1.2 0
-3.652 -1.756 -2.037 -0 -1.2 0
-3.676 -1.839 -2.051 -0 -1.2 0
-3.665 -1.915 -2.043 -0 -1.2 0
-3.661 -1.994 -2.04 -0 -1.2 0
-3.656 -2.074 -2.035 -0 -1.2 0
-3.683 -2.163 -2.052 -0 -1.2 0
-3.81 -2.284 -2.139 -0 -1.2 0
-3.832 -2.378 -2.154 -0 -1.2 0
-3.799 -2.452 -2.129 -0 -1.2 0
-3.842 -2.556 -2.157 -0 -1.2 0
-3.806 -2.63 -2.131 -0 -1.2 0
-3.853 -2.74 -2.163 -0 -1.2 0
-3.845 -2.828 -2.156 -0 -1.2 0
-3.844 -2.919 -2.153 -0 -1.2 0
-3.848 -3.015 -2.155 -0 -1.2 0
-3.843 -3.108 -2.15 -0 -1.2 0
-3.859 -3.212 -2.16 -0 -1.2 0
-3.851 -3.306 -2.153 -0 -1.2 0
-3.857 -3.408 -2.155 -0 -1.2 0
-3.853 -3.508 -2.151 -0 -1.2 0
-3.854 -3.612 -2.151 -0 -1.2 0
-3.854 -3.717 -2.149 -0 -1.2 0
-3.852 -3.823 -2.146 -0 -1.2 0
-3.847 -3.929 -2.142 -0 -1.2 0
-3.842 -4.037 -2.136 -0 -1.2 0
-3.848 -4.155 -2.139 -0 -1.2 0
-3.846 -4.269 -2.135 -0 -1.2 0
-3.84 -4.384 -2.13 -0 -1.2 0
-3.833 -4.5 -2.123 -0 -1.2 0
-3.85 -4.641 -2.133 -0 -1.2 0
-3.837 -4.758 -2.123 -0 -1.2 0
-3.836 -4.888 -2.119 -0 -1.2 0
-3.839 -5.026 -2.12 -0 -1.2 0
-3.832 -5.159 -2.113 -0 -1.2 0
-3.835 -5.306 -2.112 -0 -1.2 0
-3.834 -5.454 -2.11 -0 -1.2 0
-3.831 -5.604 -2.106 -0 -1.2 0
-3.829 -5.762 -2.102 -0 -1.2 0
-3.826 -5.921 -2.098 -0 -1.2 0
-3.824 -6.089 -2.094 -0 -1.2 0
-1.016 -0.029 -0.144 -0 -1.2 0
-1.045 -0.037 -0.162 -0 -1.2 0
-1.086 -0.032 -0.188 -0 -1.2 0
-1.12 -0.035 -0.211 -0 -1.2 0
-1.156 -0.038 -0.233 -0 -1.2 0
-1.198 -0.038 -0.261 -0 -1.2 0
-1.233 -0.044 -0.284 -0 -1.2 0
-1.283 -0.04 -0.315 -0 -1.2 0
-1.318 -0.049 -0.339 -0 -1.2 0
-1.368 -0.048 -0.371 -0 -1.2 0
-1.412 -0.055 -0.399 -0 -1.2 0
-1.463 -0.057 -0.432 -0 -1.2 0
-1.514 -0.061 -0.465 -0 -1.2 0
-1.573 -0.063 -0.503 -0 -1.2 0
-1.64 -0.061 -0.546 -0 -1.2 0
-1.707 -0.063 -0.59 -0 -1.2 0
-1.767 -0.07 -0.628 -0 -1.2 0
-1.834 -0.076 -0.672 -0 -1.2 0
-1.91 -0.08 -0.721 -0 -1.2 0
-1.994 -0.083 -0.776 -0 -1.2 0
-2.086 -0.086 -0.835 -0 -1.2 0
-2.179 -0.092 -0.895 -0 -1.2 0
-2.28 -0.098 -0.96 -0 -1.2 0
-2.373 -0.111 -1.021 -0 -1.2 0
-2.499 -0.115 -1.102 -0 -1.2 0
-2.625 -0.125 -1.183 -0 -1.2 0
-2.759 -0.136 -1.27 -0 -1.2 0
-2.911 -0.146 -1.368 -0 -1.2 0
-3.087 -0.156 -1.482 -0 -1.2 0
-3.287 -0.166 -1.612 -0 -1.2 0
-3.506 -0.18 -1.753 -0 -1.2 0
-3.774 -0.19 -1.927 -0 -1.2 0
-3.821 -0.26 -1.955 -0 -1.2 0
-3.816 -0.342 -1.952 -0 -1.2 0
-3.802 -0.425 -1.942 -0 -1.2 0
-3.821 -0.502 -1.952 -0 -1.2 0
-3.812 -0.583 -1.945 -0 -1.2 0
-3.811 -0.663 -1.943 -0 -1.2 0
-3.81 -0.742 -1.941 -0 -1.2 0
-3.814 -0.82 -1.943 -0 -1.2 0
-3.81 -0.899 -1.939 -0 -1.2 0
-3.813 -0.977 -1.94 -0 -1.2 0
-3.815 -1.056 -1.94 -0 -1.2 0
-3.815 -1.134 -1.939 -0 -1.2 0
-3.823 -1.213 -1.943 -0 -1.2 0
-3.822 -1.291 -1.941 -0 -1.2 0
-3.819 -1.369 -1.937 -0 -1.2 0
-3.815 -1.447 -1.933 -0 -1.2 0
-3.81 -1.525 -1.929 -0 -1.2 0
-3.804 -1.603 -1.924 -0 -1.2 0
-3.804 -1.683 -1.923 -0 -1.2 0
-3.812 -1.763 -1.927 -0 -1.2 0
-3.811 -1.843 -1.925 -0 -1.2 0
-3.808 -1.923 -1.922 -0 -1.2 0
-3.739 -1.987 -1.876 -0 -1.2 0
-3.742 -2.068 -1.876 -0 -1.2 0
-3.842 -2.177 -1.939 -0 -1.2 0
-3.867 -2.269 -1.954 -0 -1.2 0
-3.858 -2.35 -1.947 -0 -1.2 0
-3.856 -2.434 -1.945 -0 -1.2 0
-3.86 -2.522 -1.946 -0 -1.2 0
-3.856 -2.607 -1.942 -0 -1.2 0
-3.857 -2.696 -1.941 -0 -1.2 0
-3.85 -2.782 -1.935 -0 -1.2 0
-3.848 -2.872 -1.932 -0 -1.2 0
-3.853 -2.965 -1.934 -0 -1.2 0
-3.841 -3.052 -1.925 -0 -1.2 0
-3.843 -3.147 -1.925 -0 -1.2 0
-3.843 -3.242 -1.924 -0 -1.2 0
-3.842 -3.338 -1.921 -0 -1.2 0
-3.84 -3.435 -1.918 -0 -1.2 0
-3.85 -3.541 -1.923 -0 -1.2 0
-3.851 -3.644 -1.922 -0 -1.2 0
-3.85 -3.748 -1.919 -0 -1.2 0
-3.853 -3.858 -1.921 -0 -1.2 0
-3.849 -3.963 -1.916 -0 -1.2 0
-3.849 -4.074 -1.914 -0 -1.2 0
-3.847 -4.186 -1.911 -0 -1.2 0
-3.844 -4.299 -1.907 -0 -1.2 0
-3.851 -4.425 -1.91 -0 -1.2 0
-3.843 -4.539 -1.902 -0 -1.2 0
-3.852 -4.673 -1.906 -0 -1.2 0
-3.844 -4.796 -1.9 -0 -1.2 0
-3.841 -4.925 -1.896 -0 -1.2 0
-3.842 -5.063 -1.895 -0 -1.2 0
-3.84 -5.202 -1.891 -0 -1.2 0
-3.836 -5.34 -1.885 -0 -1.2 0
-3.834 -5.488 -1.882 -0 -1.2 0
-3.829 -5.637 -1.877 -0 -1.2 0
-3.833 -5.801 -1.877 -0 -1.2 0
-3.826 -5.959 -1.87 -0 -1.2 0
-1.038 -0.027 -0.092 -0 -1.2 0
-1.067 -0.035 -0.109 -0 -1.2 0
-1.108 -0.03 -0.134 -0 -1.2 0
-1.144 -0.033 -0.155 -0 -1.2 0
-1.18 -0.036 -0.177 -0 -1.2 0
-1.223 -0.036 -0.202 -0 -1.2 0
-1.266 -0.036 -0.229 -0 -1.2 0
-1.31 -0.038 -0.255 -0 -1.2 0
-1.347 -0.047 -0.277 -0 -1.2 0
-1.398 -0.046 -0.307 -0 -1.2 0
-1.45 -0.047 -0.339 -0 -1.2 0
-1.502 -0.049 -0.37 -0 -1.2 0
-1.555 -0.054 -0.402 -0 -1.2 0
-1.614 -0.055 -0.437 -0 -1.2 0
-1.674 -0.059 -0.474 -0 -1.2 0
-1.743 -0.06 -0.515 -0 -1.2 0
-1.812 -0.064 -0.556 -0 -1.2 0
-1.882 -0.069 -0.597 -0 -1.2 0
-1.952 -0.078 -0.639 -0 -1.2 0
-2.053 -0.073 -0.7 -0 -1.2 0
-2.139 -0.08 -0.751 -0 -1.2 0
-2.226 -0.089 -0.803 -0 -1.2 0
-2.337 -0.092 -0.87 -0 -1.2 0
-2.449 -0.098 -0.938 -0 -1.2 0
-2.561 -0.11 -1.004 -0 -1.2 0
-2.689 -0.118 -1.081 -0 -1.2 0
-2.827 -0.13 -1.163 -0 -1.2 0
-2.982 -0.141 -1.256 -0 -1.2 0
-3.153 -0.153 -1.359 -0 -1.2 0
-3.367 -0.161 -1.487 -0 -1.2 0
-3.598 -0.172 -1.626 -0 -1.2 0
-3.839 -0.19 -1.769 -0 -1.2 0
-3.835 -0.271 -1.766 -0 -1.2 0
-3.831 -0.352 -1.762 -0 -1.2 0
-3.834 -0.431 -1.763 -0 -1.2 0
-3.826 -0.511 -1.757 -0 -1.2 0
-3.827 -0.589 -1.755 -0 -1.2 0
-3.817 -0.667 -1.749 -0 -1.2 0
-3.824 -0.745 -1.751 -0 -1.2 0
-3.829 -0.821 -1.753 -0 -1.2 0
-3.824 -0.899 -1.749 -0 -1.2 0
-3.828 -0.976 -1.749 -0 -1.2 0
-3.821 -1.053 -1.745 -0 -1.2 0
-3.821 -1.13 -1.743 -0 -1.2 0
-3.821 -1.207 -1.741 -0 -1.2 0
-3.819 -1.283 -1.74 -0 -1.2 0
-3.817 -1.359 -1.736 -0 -1.2 0
-3.813 -1.435 -1.732 -0 -1.2 0
-3.816 -1.513 -1.734 -0 -1.2 0
-3.818 -1.591 -1.733 -0 -1.2 0
-3.811 -1.667 -1.727 -0 -1.2 0
-3.811 -1.745 -1.727 -0 -1.2 0
-3.809 -1.823 -1.724 -0 -1.2 0
-3.815 -1.903 -1.726 -0 -1.2 0
-3.744 -1.965 -1.683 -0 -1.2 0
-3.74 -2.043 -1.678 -0 -1.2 0
-3.792 -2.136 -1.709 -0 -1.2 0
-3.877 -2.242 -1.758 -0 -1.2 0
-3.868 -2.323 -1.751 -0 -1.2 0
-3.858 -2.402 -1.744 -0 -1.2 0
-3.863 -2.488 -1.746 -0 -1.2 0
-3.859 -2.572 -1.741 -0 -1.2 0
-3.86 -2.659 -1.741 -0 -1.2 0
-3.854 -2.743 -1.735 -0 -1.2 0
-3.853 -2.831 -1.733 -0 -1.2 0
-3.851 -2.919 -1.731 -0 -1.2 0
-3.847 -3.008 -1.727 -0 -1.2 0
-3.849 -3.101 -1.727 -0 -1.2 0
-3.843 -3.191 -1.722 -0 -1.2 0
-3.842 -3.286 -1.719 -0 -1.2 0
-3.84 -3.381 -1.717 -0 -1.2 0
-3.844 -3.481 -1.718 -0 -1.2 0
-3.838 -3.577 -1.712 -0 -1.2 0
-3.853 -3.688 -1.72 -0 -1.2 0
-3.851 -3.791 -1.716 -0 -1.2 0
-3.854 -3.901 -1.716 -0 -1.2 0
-3.848 -4.004 -1.711 -0 -1.2 0
-3.848 -4.114 -1.709 -0 -1.2 0
-3.851 -4.232 -1.709 -0 -1.2 0
-3.846 -4.343 -1.704 -0 -1.2 0
-3.846 -4.462 -1.702 -0 -1.2 0
-3.849 -4.589 -1.702 -0 -1.2 0
-3.85 -4.716 -1.7 -0 -1.2 0
-3.849 -4.844 -1.697 -0 -1.2 0
-3.845 -4.973 -1.693 -0 -1.2 0
-3.844 -5.11 -1.69 -0 -1.2 0
-3.84 -5.247 -1.685 -0 -1.2 0
-3.84 -5.393 -1.682 -0 -1.2 0
-3.836 -5.54 -1.678 -0 -1.2 0
-3.823 -5.682 -1.667 -0 -1.2 0
-3.825 -5.845 -1.666 -0 -1.2 0
-1.053 -0.033 -0.034 -0 -1.2 0
-1.088 -0.034 -0.053 -0 -1.2 0
-1.131 -0.029 -0.078 -0 -1.2 0
-1.18 -0.019 -0.105 -0 -1.2 0
-1.211 -0.03 -0.122 -0 -1.2 0
-1.248 -0.035 -0.142 -0 -1.2 0
-1.292 -0.035 -0.166 -0 -1.2 0
-1.336 -0.037 -0.191 -0 -1.2 0
-1.388 -0.034 -0.219 -0 -1.2 0
-1.434 -0.04 -0.244 -0 -1.2 0
-1.478 -0.046 -0.27 -0 -1.2 0
-1.532 -0.048 -0.299 -0 -1.2 0
-1.585 -0.053 -0.328 -0 -1.2 0
-1.647 -0.054 -0.362 -0 -1.2 0
-1.716 -0.053 -0.401 -0 -1.2 0
-1.786 -0.054 -0.44 -0 -1.2 0
-1.849 -0.062 -0.475 -0 -1.2 0
-1.928 -0.063 -0.518 -0 -1.2 0
-2.007 -0.068 -0.562 -0 -1.2 0
-2.103 -0.068 -0.614 -0 -1.2 0
-2.182 -0.078 -0.658 -0 -1.2 0
-2.287 -0.08 -0.716 -0 -1.2 0
-2.4 -0.083 -0.78 -0 -1.2 0
-2.507 -0.093 -0.838 -0 -1.2 0
-2.629 -0.101 -0.906 -0 -1.2 0
-2.752 -0.114 -0.974 -0 -1.2 0
-2.892 -0.125 -1.051 -0 -1.2 0
-3.059 -0.133 -1.143 -0 -1.2 0
-3.26 -0.138 -1.254 -0 -1.2 0
-3.469 -0.149 -1.37 -0 -1.2 0
-3.697 -0.163 -1.496 -0 -1.2 0
-3.84 -0.206 -1.574 -0 -1.2 0
-3.835 -0.284 -1.57 -0 -1.2 0
-3.848 -0.361 -1.576 -0 -1.2 0
-3.834 -0.441 -1.567 -0 -1.2 0
-3.826 -0.519 -1.561 -0 -1.2 0
-3.826 -0.596 -1.56 -0 -1.2 0
-3.816 -0.674 -1.553 -0 -1.2 0
-3.823 -0.749 -1.555 -0 -1.2 0
-3.82 -0.825 -1.552 -0 -1.2 0
-3.823 -0.9 -1.552 -0 -1.2 0
-3.826 -0.975 -1.553 -0 -1.2 0
-3.828 -1.05 -1.553 -0 -1.2 0
-3.829 -1.126 -1.552 -0 -1.2 0
-3.82 -1.201 -1.545 -0 -1.2 0
-3.818 -1.276 -1.544 -0 -1.2 0
-3.815 -1.351 -1.54 -0 -1.2 0
-3.812 -1.426 -1.536 -0 -1.2 0
-3.815 -1.502 -1.538 -0 -1.2 0
-3.809 -1.577 -1.532 -0 -1.2 0
-3.811 -1.653 -1.532 -0 -1.2 0
-3.81 -1.729 -1.531 -0 -1.2 0
-3.809 -1.806 -1.529 -0 -1.2 0
-3.816 -1.884 -1.531 -0 -1.2 0
-3.761 -1.949 -1.5 -0 -1.2 0
-3.739 -2.021 -1.486 -0 -1.2 0
-3.776 -2.107 -1.505 -0 -1.2 0
-3.871 -2.214 -1.556 -0 -1.2 0
-3.88 -2.298 -1.559 -0 -1.2 0
-3.869 -2.377 -1.551 -0 -1.2 0
-3.884 -2.465 -1.558 -0 -1.2 0
-3.88 -2.546 -1.554 -0 -1.2 0
-3.882 -2.633 -1.554 -0 -1.2 0
-3.883 -2.72 -1.553 -0 -1.2 0
-3.883 -2.806 -1.552 -0 -1.2 0
-3.881 -2.894 -1.549 -0 -1.2 0
-3.878 -2.982 -1.546 -0 -1.2 0
-3.889 -3.078 -1.55 -0 -1.2 0
-3.882 -3.167 -1.545 -0 -1.2 0
-3.883 -3.26 -1.544 -0 -1.2 0
-3.88 -3.355 -1.54 -0 -1.2 0
-3.885 -3.454 -1.541 -0 -1.2 0
-3.887 -3.554 -1.541 -0 -1.2 0
-3.887 -3.655 -1.539 -0 -1.2 0
-3.901 -3.768 -1.544 -0 -1.2 0
-3.897 -3.871 -1.54 -0 -1.2 0
-3.906 -3.984 -1.543 -0 -1.2 0
-3.906 -4.094 -1.541 -0 -1.2 0
-3.902 -4.205 -1.538 -0 -1.2 0
-3.848 -4.276 -1.506 -0 -1.2 0
-3.849 -4.393 -1.504 -0 -1.2 0
-3.846 -4.511 -1.501 -0 -1.2 0
-3.849 -4.637 -1.5 -0 -1.2 0
-3.848 -4.763 -1.498 -0 -1.2 0
-3.852 -4.897 -1.497 -0 -1.2 0
-3.84 -5.02 -1.488 -0 -1.2 0
-3.844 -5.162 -1.488 -0 -1.2 0
-3.838 -5.3 -1.482 -0 -1.2 0
-3.842 -5.452 -1.482 -0 -1.2 0
-3.83 -5.591 -1.472 -0 -1.2 0
-3.833 -5.754 -1.472 -0 -1.2 0
-1.079 -0.025 0.017 -0 -1.2 0
-1.115 -0.026 -0.002 -0 -1.2 0
-1.158 -0.021 -0.025 -0 -1.2 0
-1.196 -0.024 -0.044 -0 -1.2 0
-1.24 -0.022 -0.066 -0 -1.2 0
-1.278 -0.028 -0.085 -0 -1.2 0
-1.323 -0.028 -0.108 -0 -1.2 0
-1.368 -0.03 -0.131 -0 -1.2 0
-1.413 -0.033 -0.154 -0 -1.2 0
-1.46 -0.038 -0.178 -0 -1.2 0
-1.506 -0.044 -0.201 -0 -1.2 0
-1.56 -0.047 -0.228 -0 -1.2 0
-1.615 -0.051 -0.256 -0 -1.2 0
-1.685 -0.048 -0.292 -0 -1.2 0
-1.748 -0.052 -0.324 -0 -1.2 0
-1.811 -0.058 -0.357 -0 -1.2 0
-1.883 -0.061 -0.393 -0 -1.2 0
-1.971 -0.058 -0.437 -0 -1.2 0
-2.052 -0.063 -0.478 -0 -1.2 0
-2.141 -0.066 -0.524 -0 -1.2 0
-2.247 -0.065 -0.578 -0 -1.2 0
-2.33 -0.079 -0.62 -0 -1.2 0
-2.444 -0.081 -0.678 -0 -1.2 0
-2.561 -0.088 -0.737 -0 -1.2 0
-2.678 -0.099 -0.797 -0 -1.2 0
-2.811 -0.109 -0.864 -0 -1.2 0
-2.963 -0.117 -0.941 -0 -1.2 0
-3.133 -0.126 -1.028 -0 -1.2 0
-3.32 -0.136 -1.123 -0 -1.2 0
-3.525 -0.148 -1.227 -0 -1.2 0
-3.774 -0.158 -1.354 -0 -1.2 0
-3.84 -0.219 -1.387 -0 -1.2 0
-3.828 -0.3 -1.378 -0 -1.2 0
-3.841 -0.373 -1.384 -0 -1.2 0
-3.835 -0.451 -1.379 -0 -1.2 0
-3.826 -0.528 -1.373 -0 -1.2 0
-3.826 -0.604 -1.372 -0 -1.2 0
-3.834 -0.677 -1.374 -0 -1.2 0
-3.832 -0.752 -1.372 -0 -1.2 0
-3.829 -0.827 -1.368 -0 -1.2 0
-3.824 -0.902 -1.364 -0 -1.2 0
-3.826 -0.976 -1.365 -0 -1.2 0
-3.819 -1.049 -1.359 -0 -1.2 0
-3.82 -1.123 -1.359 -0 -1.2 0
-3.82 -1.197 -1.357 -0 -1.2 0
-3.819 -1.27 -1.355 -0 -1.2 0
-3.816 -1.343 -1.352 -0 -1.2 0
-3.812 -1.417 -1.349 -0 -1.2 0
-3.816 -1.491 -1.349 -0 -1.2 0
-3.818 -1.566 -1.348 -0 -1.2 0
-3.811 -1.64 -1.344 -0 -1.2 0
-3.82 -1.717 -1.346 -0 -1.2 0
-3.811 -1.79 -1.34 -0 -1.2 0
-3.809 -1.865 -1.338 -0 -1.2 0
-3.771 -1.932 -1.317 -0 -1.2 0
-3.74 -2.001 -1.3 -0 -1.2 0
-3.76 -2.082 -1.308 -0 -1.2 0
-4.17 -2.276 -1.513 -0 -1.2 0
-4.159 -2.36 -1.506 -0 -1.2 0
-4.157 -2.445 -1.503 -0 -1.2 0
-4.17 -2.537 -1.508 -0 -1.2 0
-4.122 -2.608 -1.483 -0 -1.2 0
-4.175 -2.716 -1.507 -0 -1.2 0
-4.183 -2.811 -1.51 -0 -1.2 0
-4.172 -2.898 -1.503 -0 -1.2 0
-4.178 -2.994 -1.503 -0 -1.2 0
-4.279 -3.138 -1.553 -0 -1.2 0
-4.288 -3.24 -1.555 -0 -1.2 0
-4.288 -3.34 -1.553 -0 -1.2 0
-4.293 -3.444 -1.553 -0 -1.2 0
-4.081 -3.425 -1.445 -0 -1.2 0
-4.084 -3.528 -1.446 -0 -1.2 0
-4.304 -3.768 -1.552 -0 -1.2 0
-4.301 -3.876 -1.548 -0 -1.2 0
-4.12 -3.864 -1.457 -0 -1.2 0
-4.304 -4.104 -1.546 -0 -1.2 0
-4.295 -4.214 -1.539 -0 -1.2 0
-4.091 -4.177 -1.435 -0 -1.2 0
-4.036 -4.25 -1.407 -0 -1.2 0
-3.893 -4.249 -1.333 -0 -1.2 0
-3.844 -4.324 -1.306 -0 -1.2 0
-3.85 -4.447 -1.307 -0 -1.2 0
-3.846 -4.564 -1.303 -0 -1.2 0
-3.854 -4.696 -1.305 -0 -1.2 0
-3.852 -4.822 -1.301 -0 -1.2 0
-3.847 -4.949 -1.296 -0 -1.2 0
-3.853 -5.091 -1.296 -0 -1.2 0
-3.841 -5.22 -1.289 -0 -1.2 0
-3.841 -5.364 -1.285 -0 -1.2 0
-3.843 -5.517 -1.282 -0 -1.2 0
-3.834 -5.664 -1.275 -0 -1.2 0
-1.105 -0.019 0.071 -0 -1.2 0
-1.142 -0.019 0.054 -0 -1.2 0
-1.172 -0.028 0.039 -0 -1.2 0
-1.217 -0.024 0.019 -0 -1.2 0
-1.248 -0.034 0.005 -0 -1.2 0
-1.293 -0.033 -0.016 -0 -1.2 0
-1.346 -0.028 -0.042 -0 -1.2 0
-1.378 -0.041 -0.055 -0 -1.2 0
-1.439 -0.033 -0.084 -0 -1.2 0
-1.486 -0.038 -0.106 -0 -1.2 0
-1.541 -0.039 -0.131 -0 -1.2 0
-1.597 -0.042 -0.156 -0 -1.2 0
-1.651 -0.047 -0.182 -0 -1.2 0
-1.715 -0.048 -0.211 -0 -1.2 0
-1.779 -0.052 -0.241 -0 -1.2 0
-1.852 -0.053 -0.275 -0 -1.2 0
-1.925 -0.056 -0.309 -0 -1.2 0
-2.007 -0.058 -0.346 -0 -1.2 0
-2.089 -0.063 -0.384 -0 -1.2 0
-2.18 -0.066 -0.427 -0 -1.2 0
-2.279 -0.068 -0.473 -0 -1.2 0
-2.38 -0.075 -0.519 -0 -1.2 0
-2.498 -0.077 -0.573 -0 -1.2 0
-2.599 -0.091 -0.62 -0 -1.2 0
-2.735 -0.096 -0.683 -0 -1.2 0
-2.872 -0.105 -0.746 -0 -1.2 0
-3.026 -0.114 -0.817 -0 -1.2 0
-3.19 -0.126 -0.892 -0 -1.2 0
-3.389 -0.134 -0.985 -0 -1.2 0
-3.589 -0.148 -1.077 -0 -1.2 0
-3.843 -0.157 -1.195 -0 -1.2 0
-3.84 -0.234 -1.191 -0 -1.2 0
-3.845 -0.31 -1.192 -0 -1.2 0
-3.857 -0.383 -1.196 -0 -1.2 0
-3.842 -0.46 -1.187 -0 -1.2 0
-3.834 -0.536 -1.182 -0 -1.2 0
-3.842 -0.61 -1.185 -0 -1.2 0
-3.832 -0.684 -1.178 -0 -1.2 0
-3.848 -0.757 -1.183 -0 -1.2 0
-3.835 -0.831 -1.176 -0 -1.2 0
-3.831 -0.904 -1.172 -0 -1.2 0
-3.834 -0.977 -1.171 -0 -1.2 0
-3.827 -1.05 -1.167 -0 -1.2 0
-3.837 -1.122 -1.17 -0 -1.2 0
-3.827 -1.195 -1.164 -0 -1.2 0
-3.825 -1.267 -1.161 -0 -1.2 0
-3.822 -1.339 -1.158 -0 -1.2 0
-3.819 -1.412 -1.155 -0 -1.2 0
-3.823 -1.485 -1.155 -0 -1.2 0
-3.826 -1.558 -1.156 -0 -1.2 0
-3.828 -1.632 -1.154 -0 -1.2 0
-3.828 -1.706 -1.153 -0 -1.2 0
-3.828 -1.78 -1.151 -0 -1.2 0
-3.817 -1.852 -1.144 -0 -1.2 0
-3.804 -1.924 -1.137 -0 -1.2 0
-3.756 -1.988 -1.113 -0 -1.2 0
-3.759 -2.063 -1.113 -0 -1.2 0
-4.15 -2.248 -1.289 -0 -1.2 0
-4.175 -2.34 -1.299 -0 -1.2 0
-4.173 -2.424 -1.297 -0 -1.2 0
-4.178 -2.512 -1.297 -0 -1.2 0
-4.165 -2.595 -1.289 -0 -1.2 0
-4.201 -2.696 -1.303 -0 -1.2 0
-4.21 -2.789 -1.305 -0 -1.2 0
-4.216 -2.883 -1.307 -0 -1.2 0
-4.18 -2.958 -1.288 -0 -1.2 0
-4.142 -3.034 -1.268 -0 -1.2 0
-7.225 -4.658 -2.66 -0 -1.2 0
-4.376 -3.343 -1.37 -0 -1.2 0
-4.348 -3.43 -1.356 -0 -1.2 0
-4.117 -3.402 -1.249 -0 -1.2 0
-4.081 -3.479 -1.23 -0 -1.2 0
-4.123 -3.605 -1.247 -0 -1.2 0
-4.13 -3.712 -1.248 -0 -1.2 0
-4.12 -3.811 -1.241 -0 -1.2 0
-4.123 -3.921 -1.24 -0 -1.2 0
-4.116 -4.026 -1.234 -0 -1.2 0
-4.115 -4.137 -1.231 -0 -1.2 0
-4.083 -4.225 -1.214 -0 -1.2 0
-3.967 -4.248 -1.16 -0 -1.2 0
-3.858 -4.274 -1.11 -0 -1.2 0
-3.858 -4.39 -1.106 -0 -1.2 0
-3.856 -4.506 -1.102 -0 -1.2 0
-3.857 -4.63 -1.101 -0 -1.2 0
-3.857 -4.755 -1.097 -0 -1.2 0
-3.853 -4.881 -1.093 -0 -1.2 0
-3.853 -5.015 -1.09 -0 -1.2 0
-3.856 -5.156 -1.088 -0 -1.2 0
-3.843 -5.285 -1.079 -0 -1.2 0
-3.847 -5.436 -1.078 -0 -1.2 0
-3.846 -5.589 -1.073 -0 -1.2 0
-1.114 -0.025 0.13 -0 -1.2 0
-1.152 -0.025 0.114 -0 -1.2 0
-1.19 -0.027 0.097 -0 -1.2 0
-1.235 -0.023 0.078 -0 -1.2 0
-1.281 -0.021 0.059 -0 -1.2 0
-1.32 -0.027 0.043 -0 -1.2 0
-1.367 -0.027 0.023 -0 -1.2 0
-1.407 -0.035 0.007 -0 -1.2 0
-1.454 -0.038 -0.013 -0 -1.2 0
-1.509 -0.037 -0.037 -0 -1.2 0
-1.564 -0.038 -0.06 -0 -1.2 0
-1.62 -0.041 -0.084 -0 -1.2 0
-1.676 -0.046 -0.107 -0 -1.2 0
-1.741 -0.047 -0.134 -0 -1.2 0
-1.814 -0.046 -0.166 -0 -1.2 0
-1.872 -0.056 -0.19 -0 -1.2 0
-1.955 -0.055 -0.224 -0 -1.2 0
-2.037 -0.057 -0.259 -0 -1.2 0
-2.12 -0.061 -0.294 -0 -1.2 0
-2.213 -0.065 -0.334 -0 -1.2 0
-2.306 -0.071 -0.373 -0 -1.2 0
-2.416 -0.074 -0.419 -0 -1.2 0
-2.527 -0.08 -0.466 -0 -1.2 0
-2.647 -0.087 -0.516 -0 -1.2 0
-2.768 -0.097 -0.567 -0 -1.2 0
-2.915 -0.104 -0.63 -0 -1.2 0
-3.072 -0.113 -0.695 -0 -1.2 0
-3.246 -0.122 -0.769 -0 -1.2 0
-3.449 -0.13 -0.854 -0 -1.2 0
-3.652 -0.145 -0.939 -0 -1.2 0
-3.865 -0.165 -1.03 -0 -1.2 0
-3.844 -0.245 -1.018 -0 -1.2 0
-3.848 -0.319 -1.019 -0 -1.2 0
-3.852 -0.393 -1.018 -0 -1.2 0
-3.836 -0.47 -1.009 -0 -1.2 0
-3.837 -0.543 -1.008 -0 -1.2 0
-3.837 -0.616 -1.006 -0 -1.2 0
-3.836 -0.689 -1.004 -0 -1.2 0
-3.852 -0.76 -1.008 -0 -1.2 0
-3.838 -0.833 -1.002 -0 -1.2 0
-3.833 -0.905 -0.997 -0 -1.2 0
-3.837 -0.977 -0.997 -0 -1.2 0
-3.829 -1.049 -0.991 -0 -1.2 0
-3.83 -1.12 -0.991 -0 -1.2 0
-3.83 -1.192 -0.988 -0 -1.2 0
-3.838 -1.263 -0.99 -0 -1.2 0
-3.826 -1.334 -0.983 -0 -1.2 0
-3.822 -1.405 -0.98 -0 -1.2 0
-3.817 -1.476 -0.976 -0 -1.2 0
-3.83 -1.55 -0.979 -0 -1.2 0
-3.823 -1.621 -0.974 -0 -1.2 0
-3.823 -1.693 -0.972 -0 -1.2 0
-3.823 -1.766 -0.971 -0 -1.2 0
-3.82 -1.839 -0.968 -0 -1.2 0
-3.809 -1.911 -0.961 -0 -1.2 0
-3.751 -1.97 -0.936 -0 -1.2 0
-3.755 -2.046 -0.935 -0 -1.2 0
-3.955 -2.174 -1.016 -0 -1.2 0
-4.195 -2.325 -1.115 -0 -1.2 0
-4.193 -2.408 -1.112 -0 -1.2 0
-4.189 -2.492 -1.107 -0 -1.2 0
-4.185 -2.577 -1.103 -0 -1.2 0
-4.17 -2.657 -1.095 -0 -1.2 0
-4.18 -2.749 -1.097 -0 -1.2 0
-4.178 -2.838 -1.094 -0 -1.2 0
-4.168 -2.923 -1.087 -0 -1.2 0
-4.13 -2.996 -1.07 -0 -1.2 0
-4.133 -3.09 -1.069 -0 -1.2 0
-4.127 -3.178 -1.064 -0 -1.2 0
-4.176 -3.299 -1.081 -0 -1.2 0
-4.149 -3.381 -1.068 -0 -1.2 0
-4.088 -3.444 -1.041 -0 -1.2 0
-4.082 -3.539 -1.036 -0 -1.2 0
-5.618 -4.61 -1.658 -0 -1.2 0
-5.395 -4.605 -1.564 -0 -1.2 0
-4.141 -3.887 -1.052 -0 -1.2 0
-4.352 -4.144 -1.135 -0 -1.2 0
-4.302 -4.225 -1.111 -0 -1.2 0
-4.094 -4.183 -1.025 -0 -1.2 0
-4.029 -4.246 -0.995 -0 -1.2 0
-3.882 -4.242 -0.934 -0 -1.2 0
-3.861 -4.339 -0.922 -0 -1.2 0
-3.859 -4.454 -0.919 -0 -1.2 0
-3.855 -4.57 -0.914 -0 -1.2 0
-3.855 -4.693 -0.911 -0 -1.2 0
-3.858 -4.826 -0.909 -0 -1.2 0
-3.853 -4.951 -0.903 -0 -1.2 0
-3.851 -5.084 -0.899 -0 -1.2 0
-3.852 -5.226 -0.896 -0 -1.2 0
-3.843 -5.362 -0.889 -0 -1.2 0
-3.845 -5.513 -0.885 -0 -1.2 0
-1.132 -0.023 0.188 -0 -1.2 0
-1.17 -0.024 0.173 -0 -1.2 0
-1.209 -0.026 0.159 -0 -1.2 0
-1.248 -0.028 0.144 -0 -1.2 0
-1.301 -0.02 0.123 -0 -1.2 0
-1.334 -0.031 0.111 -0 -1.2 0
-1.388 -0.026 0.091 -0 -1.2 0
-1.436 -0.028 0.073 -0 -1.2 0
-1.483 -0.031 0.055 -0 -1.2 0
-1.524 -0.041 0.039 -0 -1.2 0
-1.588 -0.036 0.014 -0 -1.2 0
-1.645 -0.04 -0.007 -0 -1.2 0
-1.702 -0.044 -0.029 -0 -1.2 0
-1.768 -0.045 -0.053 -0 -1.2 0
-1.842 -0.044 -0.082 -0 -1.2 0
-1.908 -0.05 -0.107 -0 -1.2 0
-1.984 -0.053 -0.135 -0 -1.2 0
-2.06 -0.059 -0.164 -0 -1.2 0
-2.144 -0.063 -0.197 -0 -1.2 0
-2.247 -0.063 -0.235 -0 -1.2 0
-2.349 -0.065 -0.273 -0 -1.2 0
-2.452 -0.072 -0.313 -0 -1.2 0
-2.556 -0.081 -0.352 -0 -1.2 0
-2.678 -0.087 -0.398 -0 -1.2 0
-2.818 -0.093 -0.452 -0 -1.2 0
-2.95 -0.105 -0.501 -0 -1.2 0
-3.109 -0.113 -0.561 -0 -1.2 0
-3.287 -0.122 -0.629 -0 -1.2 0
-3.51 -0.125 -0.714 -0 -1.2 0
-3.716 -0.139 -0.792 -0 -1.2 0
-3.859 -0.178 -0.845 -0 -1.2 0
-3.856 -0.252 -0.842 -0 -1.2 0
-3.852 -0.327 -0.838 -0 -1.2 0
-3.855 -0.4 -0.837 -0 -1.2 0
-3.847 -0.474 -0.832 -0 -1.2 0
-3.839 -0.548 -0.827 -0 -1.2 0
-3.839 -0.62 -0.826 -0 -1.2 0
-3.838 -0.692 -0.823 -0 -1.2 0
-3.854 -0.761 -0.827 -0 -1.2 0
-3.85 -0.833 -0.823 -0 -1.2 0
-3.845 -0.905 -0.82 -0 -1.2 0
-3.848 -0.975 -0.819 -0 -1.2 0
-3.841 -1.047 -0.814 -0 -1.2 0
-3.842 -1.117 -0.812 -0 -1.2 0
-3.841 -1.188 -0.81 -0 -1.2 0
-3.84 -1.258 -0.808 -0 -1.2 0
-3.837 -1.328 -0.804 -0 -1.2 0
-3.843 -1.399 -0.805 -0 -1.2 0
-3.829 -1.468 -0.798 -0 -1.2 0
-3.841 -1.541 -0.8 -0 -1.2 0
-3.834 -1.612 -0.795 -0 -1.2 0
-3.826 -1.682 -0.791 -0 -1.2 0
-3.826 -1.754 -0.789 -0 -1.2 0
-3.833 -1.828 -0.789 -0 -1.2 0
-3.821 -1.898 -0.782 -0 -1.2 0
-3.762 -1.958 -0.759 -0 -1.2 0
-3.757 -2.028 -0.755 -0 -1.2 0
-3.879 -2.135 -0.798 -0 -1.2 0
-4.241 -2.316 -0.931 -0 -1.2 0
-4.239 -2.399 -0.928 -0 -1.2 0
-4.235 -2.483 -0.924 -0 -1.2 0
-4.231 -2.567 -0.921 -0 -1.2 0
-4.145 -2.621 -0.886 -0 -1.2 0
-4.244 -2.746 -0.92 -0 -1.2 0
-4.217 -2.823 -0.908 -0 -1.2 0
-4.206 -2.908 -0.901 -0 -1.2 0
-4.194 -2.993 -0.894 -0 -1.2 0
-4.325 -3.148 -0.94 -0 -1.2 0
-4.325 -3.244 -0.937 -0 -1.2 0
-4.325 -3.341 -0.934 -0 -1.2 0
-4.338 -3.448 -0.936 -0 -1.2 0
-4.118 -3.422 -0.853 -0 -1.2 0
-4.087 -3.502 -0.84 -0 -1.2 0
-5.712 -4.611 -1.426 -0 -1.2 0
-5.494 -4.612 -1.343 -0 -1.2 0
-4.157 -3.852 -0.857 -0 -1.2 0
-4.395 -4.125 -0.939 -0 -1.2 0
-4.33 -4.193 -0.912 -0 -1.2 0
-4.126 -4.157 -0.836 -0 -1.2 0
-4.084 -4.238 -0.817 -0 -1.2 0
-3.943 -4.239 -0.764 -0 -1.2 0
-3.87 -4.291 -0.734 -0 -1.2 0
-3.869 -4.406 -0.731 -0 -1.2 0
-3.864 -4.522 -0.726 -0 -1.2 0
-3.866 -4.644 -0.724 -0 -1.2 0
-3.863 -4.768 -0.719 -0 -1.2 0
-3.865 -4.9 -0.716 -0 -1.2 0
-3.857 -5.026 -0.71 -0 -1.2 0
-3.86 -5.166 -0.706 -0 -1.2 0
-3.859 -5.308 -0.702 -0 -1.2 0
-3.854 -5.452 -0.696 -0 -1.2 0
-1.152 -0.016 0.241 -0 -1.2 0
-1.191 -0.017 0.228 -0 -1.2 0
-1.224 -0.025 0.217 -0 -1.2 0
-1.262 -0.028 0.204 -0 -1.2 0
-1.309 -0.026 0.188 -0 -1.2 0
-1.349 -0.031 0.174 -0 -1.2 0
-1.397 -0.031 0.157 -0 -1.2 0
-1.445 -0.033 0.141 -0 -1.2 0
-1.501 -0.03 0.122 -0 -1.2 0
-1.55 -0.035 0.106 -0 -1.2 0
-1.6 -0.041 0.089 -0 -1.2 0
-1.665 -0.039 0.066 -0 -1.2 0
-1.723 -0.044 0.046 -0 -1.2 0
-1.781 -0.049 0.027 -0 -1.2 0
-1.848 -0.053 0.004 -0 -1.2 0
-1.932 -0.049 -0.025 -0 -1.2 0
-2.008 -0.053 -0.051 -0 -1.2 0
-2.093 -0.054 -0.08 -0 -1.2 0
-2.161 -0.067 -0.102 -0 -1.2 0
-2.274 -0.062 -0.141 -0 -1.2 0
-2.369 -0.068 -0.174 -0 -1.2 0
-2.474 -0.074 -0.209 -0 -1.2 0
-2.579 -0.084 -0.245 -0 -1.2 0
-2.702 -0.09 -0.287 -0 -1.2 0
-2.826 -0.101 -0.329 -0 -1.2 0
-2.968 -0.109 -0.377 -0 -1.2 0
-3.12 -0.12 -0.429 -0 -1.2 0
-3.318 -0.123 -0.497 -0 -1.2 0
-3.534 -0.128 -0.571 -0 -1.2 0
-3.762 -0.138 -0.648 -0 -1.2 0
-3.86 -0.187 -0.68 -0 -1.2 0
-3.857 -0.261 -0.677 -0 -1.2 0
-3.852 -0.334 -0.673 -0 -1.2 0
-3.856 -0.406 -0.671 -0 -1.2 0
-3.848 -0.48 -0.667 -0 -1.2 0
-3.859 -0.55 -0.669 -0 -1.2 0
-3.849 -0.623 -0.663 -0 -1.2 0
-3.848 -0.694 -0.66 -0 -1.2 0
-3.864 -0.763 -0.664 -0 -1.2 0
-3.85 -0.834 -0.657 -0 -1.2 0
-3.855 -0.904 -0.656 -0 -1.2 0
-3.848 -0.975 -0.652 -0 -1.2 0
-3.851 -1.045 -0.651 -0 -1.2 0
-3.842 -1.115 -0.646 -0 -1.2 0
-3.851 -1.185 -0.646 -0 -1.2 0
-3.85 -1.254 -0.645 -0 -1.2 0
-3.847 -1.323 -0.641 -0 -1.2 0
-3.843 -1.393 -0.638 -0 -1.2 0
-3.839 -1.463 -0.634 -0 -1.2 0
-3.842 -1.534 -0.633 -0 -1.2 0
-3.835 -1.604 -0.629 -0 -1.2 0
-3.836 -1.675 -0.627 -0 -1.2 0
-3.836 -1.746 -0.625 -0 -1.2 0
-3.834 -1.817 -0.622 -0 -1.2 0
-3.841 -1.89 -0.622 -0 -1.2 0
-3.772 -1.947 -0.596 -0 -1.2 0
-3.758 -2.015 -0.59 -0 -1.2 0
-3.834 -2.108 -0.613 -0 -1.2 0
-4.285 -2.312 -0.761 -0 -1.2 0
-4.201 -2.369 -0.731 -0 -1.2 0
-4.198 -2.451 -0.727 -0 -1.2 0
-4.194 -2.534 -0.723 -0 -1.2 0
-4.17 -2.609 -0.712 -0 -1.2 0
-4.199 -2.705 -0.72 -0 -1.2 0
-4.199 -2.792 -0.717 -0 -1.2 0
-4.206 -2.883 -0.717 -0 -1.2 0
-4.202 -2.971 -0.713 -0 -1.2 0
-4.137 -3.03 -0.688 -0 -1.2 0
-7.2 -4.642 -1.687 -0 -1.2 0
-4.362 -3.33 -0.757 -0 -1.2 0
-4.367 -3.431 -0.756 -0 -1.2 0
-4.136 -3.4 -0.678 -0 -1.2 0
-4.089 -3.47 -0.659 -0 -1.2 0
-4.133 -3.594 -0.67 -0 -1.2 0
-5.572 -4.614 -1.131 -0 -1.2 0
-4.178 -3.828 -0.679 -0 -1.2 0
-4.284 -4.007 -0.709 -0 -1.2 0
-4.346 -4.163 -0.725 -0 -1.2 0
-4.295 -4.241 -0.706 -0 -1.2 0
-4.105 -4.211 -0.642 -0 -1.2 0
-4.008 -4.249 -0.608 -0 -1.2 0
-3.881 -4.259 -0.564 -0 -1.2 0
-3.873 -4.366 -0.558 -0 -1.2 0
-3.871 -4.481 -0.554 -0 -1.2 0
-3.864 -4.596 -0.548 -0 -1.2 0
-3.864 -4.719 -0.543 -0 -1.2 0
-3.859 -4.843 -0.539 -0 -1.2 0
-3.858 -4.975 -0.534 -0 -1.2 0
-3.861 -5.115 -0.532 -0 -1.2 0
-3.861 -5.256 -0.527 -0 -1.2 0
-3.857 -5.398 -0.521 -0 -1.2 0
-1.158 -0.022 0.301 -0 -1.2 0
-1.197 -0.022 0.289 -0 -1.2 0
-1.236 -0.024 0.276 -0 -1.2 0
-1.284 -0.02 0.262 -0 -1.2 0
-1.323 -0.025 0.25 -0 -1.2 0
-1.371 -0.023 0.236 -0 -1.2 0
-1.412 -0.029 0.224 -0 -1.2 0
-1.461 -0.031 0.208 -0 -1.2 0
-1.51 -0.034 0.193 -0 -1.2 0
-1.567 -0.034 0.176 -0 -1.2 0
-1.625 -0.034 0.158 -0 -1.2 0
-1.675 -0.042 0.143 -0 -1.2 0
-1.741 -0.042 0.123 -0 -1.2 0
-1.809 -0.042 0.103 -0 -1.2 0
-1.876 -0.046 0.082 -0 -1.2 0
-1.953 -0.047 0.059 -0 -1.2 0
-2.022 -0.055 0.039 -0 -1.2 0
-2.108 -0.056 0.012 -0 -1.2 0
-2.194 -0.06 -0.014 -0 -1.2 0
-2.298 -0.06 -0.046 -0 -1.2 0
-2.395 -0.065 -0.075 -0 -1.2 0
-2.492 -0.075 -0.104 -0 -1.2 0
-2.606 -0.081 -0.139 -0 -1.2 0
-2.723 -0.091 -0.174 -0 -1.2 0
-2.857 -0.098 -0.214 -0 -1.2 0
-3.009 -0.104 -0.261 -0 -1.2 0
-3.163 -0.115 -0.308 -0 -1.2 0
-3.345 -0.122 -0.362 -0 -1.2 0
-3.564 -0.126 -0.43 -0 -1.2 0
-3.803 -0.134 -0.502 -0 -1.2 0
-3.856 -0.194 -0.516 -0 -1.2 0
-3.853 -0.267 -0.513 -0 -1.2 0
-3.848 -0.341 -0.508 -0 -1.2 0
-3.861 -0.411 -0.51 -0 -1.2 0
-3.844 -0.484 -0.503 -0 -1.2 0
-3.854 -0.553 -0.504 -0 -1.2 0
-3.854 -0.624 -0.501 -0 -1.2 0
-3.852 -0.694 -0.498 -0 -1.2 0
-3.859 -0.763 -0.498 -0 -1.2 0
-3.845 -0.835 -0.491 -0 -1.2 0
-3.85 -0.903 -0.49 -0 -1.2 0
-3.853 -0.973 -0.489 -0 -1.2 0
-3.855 -1.042 -0.488 -0 -1.2 0
-3.846 -1.111 -0.483 -0 -1.2 0
-3.855 -1.18 -0.483 -0 -1.2 0
-3.844 -1.249 -0.478 -0 -1.2 0
-3.851 -1.318 -0.477 -0 -1.2 0
-3.848 -1.387 -0.474 -0 -1.2 0
-3.843 -1.456 -0.47 -0 -1.2 0
-3.846 -1.526 -0.47 -0 -1.2 0
-3.839 -1.595 -0.465 -0 -1.2 0
-3.831 -1.664 -0.46 -0 -1.2 0
-3.831 -1.734 -0.458 -0 -1.2 0
-3.839 -1.807 -0.458 -0 -1.2 0
-3.837 -1.876 -0.455 -0 -1.2 0
-3.776 -1.935 -0.434 -0 -1.2 0
-3.763 -2.002 -0.428 -0 -1.2 0
-3.784 -2.079 -0.432 -0 -1.2 0
-4.166 -2.26 -0.542 -0 -1.2 0
-4.193 -2.349 -0.548 -0 -1.2 0
-4.2 -2.432 -0.547 -0 -1.2 0
-4.204 -2.517 -0.546 -0 -1.2 0
-4.199 -2.599 -0.541 -0 -1.2 0
-4.21 -2.688 -0.542 -0 -1.2 0
-4.219 -2.777 -0.542 -0 -1.2 0
-4.218 -2.864 -0.539 -0 -1.2 0
-4.197 -2.943 -0.529 -0 -1.2 0
-4.131 -3.001 -0.507 -0 -1.2 0
-7.289 -4.64 -1.416 -0 -1.2 0
-4.437 -3.339 -0.589 -0 -1.2 0
-4.365 -3.399 -0.565 -0 -1.2 0
-4.259 -3.44 -0.532 -0 -1.2 0
-4.094 -3.442 -0.482 -0 -1.2 0
-4.071 -3.525 -0.472 -0 -1.2 0
-3.899 -3.515 -0.42 -0 -1.2 0
-3.875 -3.595 -0.41 -0 -1.2 0
-3.946 -3.74 -0.427 -0 -1.2 0
-3.933 -3.832 -0.42 -0 -1.2 0
-3.928 -3.931 -0.415 -0 -1.2 0
-3.966 -4.066 -0.422 -0 -1.2 0
-3.939 -4.154 -0.412 -0 -1.2 0
-3.88 -4.218 -0.392 -0 -1.2 0
-3.872 -4.325 -0.385 -0 -1.2 0
-3.87 -4.439 -0.381 -0 -1.2 0
-3.873 -4.56 -0.377 -0 -1.2 0
-3.872 -4.682 -0.373 -0 -1.2 0
-3.861 -4.798 -0.367 -0 -1.2 0
-3.861 -4.929 -0.362 -0 -1.2 0
-3.865 -5.068 -0.358 -0 -1.2 0
-3.866 -5.208 -0.355 -0 -1.2 0
-3.863 -5.35 -0.349 -0 -1.2 0
-1.177 -0.014 0.357 -0 -1.2 0
-1.217 -0.015 0.347 -0 -1.2 0
-1.264 -0.01 0.334 -0 -1.2 0
-1.296 -0.019 0.325 -0 -1.2 0
-1.344 -0.017 0.314 -0 -1.2 0
-1.386 -0.023 0.303 -0 -1.2 0
-1.435 -0.022 0.29 -0 -1.2 0
-1.484 -0.024 0.277 -0 -1.2 0
-1.534 -0.027 0.264 -0 -1.2 0
-1.584 -0.032 0.251 -0 -1.2 0
-1.642 -0.033 0.236 -0 -1.2 0
-1.701 -0.036 0.22 -0 -1.2 0
-1.759 -0.04 0.205 -0 -1.2 0
-1.827 -0.041 0.187 -0 -1.2 0
-1.896 -0.045 0.168 -0 -1.2 0
-1.965 -0.05 0.151 -0 -1.2 0
-2.043 -0.054 0.13 -0 -1.2 0
-2.12 -0.059 0.109 -0 -1.2 0
-2.217 -0.058 0.084 -0 -1.2 0
-2.313 -0.061 0.058 -0 -1.2 0
-2.42 -0.064 0.031 -0 -1.2 0
-2.518 -0.073 0.005 -0 -1.2 0
-2.634 -0.079 -0.026 -0 -1.2 0
-2.751 -0.089 -0.056 -0 -1.2 0
-2.896 -0.092 -0.094 -0 -1.2 0
-3.05 -0.098 -0.135 -0 -1.2 0
-3.215 -0.106 -0.179 -0 -1.2 0
-3.399 -0.114 -0.227 -0 -1.2 0
-3.62 -0.119 -0.286 -0 -1.2 0
-3.834 -0.133 -0.342 -0 -1.2 0
-3.859 -0.199 -0.346 -0 -1.2 0
-3.855 -0.272 -0.342 -0 -1.2 0
-3.869 -0.341 -0.343 -0 -1.2 0
-3.863 -0.414 -0.339 -0 -1.2 0
-3.856 -0.485 -0.335 -0 -1.2 0
-3.856 -0.555 -0.333 -0 -1.2 0
-3.856 -0.625 -0.33 -0 -1.2 0
-3.854 -0.695 -0.327 -0 -1.2 0
-3.861 -0.763 -0.326 -0 -1.2 0
-3.847 -0.834 -0.32 -0 -1.2 0
-3.851 -0.902 -0.319 -0 -1.2 0
-3.845 -0.971 -0.315 -0 -1.2 0
-3.847 -1.039 -0.313 -0 -1.2 0
-3.848 -1.108 -0.311 -0 -1.2 0
-3.848 -1.176 -0.308 -0 -1.2 0
-3.846 -1.244 -0.305 -0 -1.2 0
-3.844 -1.312 -0.303 -0 -1.2 0
-3.84 -1.38 -0.3 -0 -1.2 0
-3.845 -1.449 -0.298 -0 -1.2 0
-3.858 -1.519 -0.299 -0 -1.2 0
-3.842 -1.586 -0.292 -0 -1.2 0
-3.843 -1.656 -0.29 -0 -1.2 0
-3.853 -1.727 -0.29 -0 -1.2 0
-3.842 -1.795 -0.285 -0 -1.2 0
-3.849 -1.868 -0.284 -0 -1.2 0
-3.808 -1.929 -0.271 -0 -1.2 0
-3.774 -1.992 -0.26 -0 -1.2 0
-3.769 -2.062 -0.256 -0 -1.2 0
-3.902 -2.17 -0.287 -0 -1.2 0
-3.912 -2.247 -0.287 -0 -1.2 0
-3.911 -2.322 -0.285 -0 -1.2 0
-3.908 -2.398 -0.282 -0 -1.2 0
-3.905 -2.473 -0.277 -0 -1.2 0
-3.909 -2.553 -0.276 -0 -1.2 0
-3.903 -2.629 -0.272 -0 -1.2 0
-3.904 -2.709 -0.269 -0 -1.2 0
-3.895 -2.785 -0.264 -0 -1.2 0
-3.892 -2.867 -0.261 -0 -1.2 0
-3.889 -2.948 -0.257 -0 -1.2 0
-3.892 -3.034 -0.254 -0 -1.2 0
-3.885 -3.117 -0.25 -0 -1.2 0
-3.886 -3.204 -0.247 -0 -1.2 0
-3.884 -3.292 -0.243 -0 -1.2 0
-3.881 -3.381 -0.24 -0 -1.2 0
-3.883 -3.475 -0.237 -0 -1.2 0
-3.875 -3.564 -0.232 -0 -1.2 0
-3.875 -3.659 -0.228 -0 -1.2 0
-3.872 -3.755 -0.224 -0 -1.2 0
-3.874 -3.858 -0.221 -0 -1.2 0
-3.875 -3.961 -0.217 -0 -1.2 0
-3.865 -4.06 -0.212 -0 -1.2 0
-3.869 -4.171 -0.208 -0 -1.2 0
-3.862 -4.277 -0.202 -0 -1.2 0
-3.883 -4.409 -0.204 -0 -1.2 0
-3.878 -4.522 -0.198 -0 -1.2 0
-3.878 -4.644 -0.194 -0 -1.2 0
-3.875 -4.767 -0.188 -0 -1.2 0
-3.869 -4.89 -0.183 -0 -1.2 0
-3.874 -5.029 -0.179 -0 -1.2 0
-3.875 -5.168 -0.174 -0 -1.2 0
-3.872 -5.309 -0.169 -0 -1.2 0
-1.187 -0.012 0.414 -0 -1.2 0
-1.226 -0.013 0.405 -0 -1.2 0
-1.275 -0.008 0.394 -0 -1.2 0
-1.315 -0.011 0.385 -0 -1.2 0
-1.356 -0.015 0.376 -0 -1.2 0
-1.39 -0.026 0.368 -0 -1.2 0
-1.446 -0.02 0.356 -0 -1.2 0
-1.504 -0.017 0.342 -0 -1.2 0
-1.554 -0.02 0.331 -0 -1.2 0
-1.597 -0.03 0.321 -0 -1.2 0
-1.656 -0.03 0.309 -0 -1.2 0
-1.706 -0.038 0.298 -0 -1.2 0
-1.774 -0.038 0.282 -0 -1.2 0
-1.834 -0.043 0.269 -0 -1.2 0
-1.912 -0.042 0.25 -0 -1.2 0
-1.981 -0.048 0.235 -0 -1.2 0
-2.068 -0.046 0.215 -0 -1.2 0
-2.138 -0.056 0.199 -0 -1.2 0
-2.235 -0.056 0.178 -0 -1.2 0
-2.342 -0.055 0.153 -0 -1.2 0
-2.431 -0.065 0.133 -0 -1.2 0
-2.539 -0.07 0.108 -0 -1.2 0
-2.656 -0.076 0.081 -0 -1.2 0
-2.792 -0.078 0.051 -0 -1.2 0
-2.929 -0.085 0.02 -0 -1.2 0
-3.067 -0.097 -0.012 -0 -1.2 0
-3.241 -0.102 -0.052 -0 -1.2 0
-3.427 -0.11 -0.094 -0 -1.2 0
-3.641 -0.117 -0.142 -0 -1.2 0
-3.856 -0.131 -0.191 -0 -1.2 0
-3.863 -0.202 -0.19 -0 -1.2 0
-3.869 -0.272 -0.189 -0 -1.2 0
-3.873 -0.342 -0.187 -0 -1.2 0
-3.867 -0.414 -0.182 -0 -1.2 0
-3.859 -0.486 -0.178 -0 -1.2 0
-3.86 -0.555 -0.176 -0 -1.2 0
-3.849 -0.625 -0.171 -0 -1.2 0
-3.857 -0.693 -0.17 -0 -1.2 0
-3.864 -0.762 -0.169 -0 -1.2 0
-3.86 -0.83 -0.165 -0 -1.2 0
-3.855 -0.899 -0.162 -0 -1.2 0
-3.858 -0.966 -0.16 -0 -1.2 0
-3.86 -1.034 -0.158 -0 -1.2 0
-3.861 -1.102 -0.155 -0 -1.2 0
-3.861 -1.17 -0.153 -0 -1.2 0
-3.85 -1.238 -0.148 -0 -1.2 0
-3.848 -1.305 -0.145 -0 -1.2 0
-3.854 -1.374 -0.143 -0 -1.2 0
-3.849 -1.442 -0.14 -0 -1.2 0
-3.862 -1.511 -0.14 -0 -1.2 0
-3.855 -1.579 -0.136 -0 -1.2 0
-3.847 -1.647 -0.131 -0 -1.2 0
-3.847 -1.716 -0.129 -0 -1.2 0
-3.846 -1.786 -0.126 -0 -1.2 0
-3.863 -1.859 -0.127 -0 -1.2 0
-3.821 -1.921 -0.116 -0 -1.2 0
-3.788 -1.982 -0.106 -0 -1.2 0
-3.773 -2.05 -0.1 -0 -1.2 0
-3.917 -2.16 -0.128 -0 -1.2 0
-3.908 -2.231 -0.124 -0 -1.2 0
-3.907 -2.306 -0.12 -0 -1.2 0
-3.914 -2.383 -0.119 -0 -1.2 0
-3.901 -2.456 -0.114 -0 -1.2 0
-3.897 -2.53 -0.11 -0 -1.2 0
-3.9 -2.609 -0.107 -0 -1.2 0
-3.892 -2.685 -0.103 -0 -1.2 0
-3.9 -2.769 -0.101 -0 -1.2 0
-3.89 -2.846 -0.097 -0 -1.2 0
-3.896 -2.93 -0.094 -0 -1.2 0
-3.891 -3.012 -0.09 -0 -1.2 0
-3.893 -3.098 -0.088 -0 -1.2 0
-3.885 -3.18 -0.082 -0 -1.2 0
-3.883 -3.268 -0.079 -0 -1.2 0
-3.88 -3.356 -0.075 -0 -1.2 0
-3.875 -3.443 -0.07 -0 -1.2 0
-3.877 -3.538 -0.067 -0 -1.2 0
-3.876 -3.632 -0.063 -0 -1.2 0
-3.873 -3.728 -0.059 -0 -1.2 0
-3.876 -3.83 -0.056 -0 -1.2 0
-3.87 -3.927 -0.051 -0 -1.2 0
-3.876 -4.037 -0.048 -0 -1.2 0
-3.872 -4.141 -0.044 -0 -1.2 0
-3.874 -4.253 -0.04 -0 -1.2 0
-3.887 -4.377 -0.037 -0 -1.2 0
-3.883 -4.491 -0.032 -0 -1.2 0
-3.883 -4.612 -0.028 -0 -1.2 0
-3.873 -4.728 -0.022 -0 -1.2 0
-3.875 -4.857 -0.017 -0 -1.2 0
-3.874 -4.988 -0.011 -0 -1.2 0
-3.875 -5.128 -0.007 -0 -1.2 0
-3.88 -5.275 -0.003 -0 -1.2 0
-1.195 -0.01 0.474 -0 -1.2 0
-1.235 -0.011 0.466 -0 -1.2 0
-1.268 -0.019 0.46 -0 -1.2 0
-1.317 -0.015 0.451 -0 -1.2 0
-1.365 -0.013 0.441 -0 -1.2 0
-1.407 -0.018 0.433 -0 -1.2 0
-1.457 -0.018 0.424 -0 -1.2 0
-1.507 -0.02 0.414 -0 -1.2 0
-1.557 -0.023 0.404 -0 -1.2 0
-1.616 -0.022 0.393 -0 -1.2 0
-1.668 -0.028 0.383 -0 -1.2 0
-1.727 -0.031 0.372 -0 -1.2 0
-1.787 -0.035 0.361 -0 -1.2 0
-1.864 -0.031 0.345 -0 -1.2 0
-1.934 -0.035 0.332 -0 -1.2 0
-2.004 -0.04 0.319 -0 -1.2 0
-2.074 -0.048 0.306 -0 -1.2 0
-2.163 -0.048 0.289 -0 -1.2 0
-2.242 -0.057 0.274 -0 -1.2 0
-2.358 -0.051 0.251 -0 -1.2 0
-2.466 -0.053 0.23 -0 -1.2 0
-2.566 -0.063 0.212 -0 -1.2 0
-2.675 -0.072 0.192 -0 -1.2 0
-2.812 -0.074 0.165 -0 -1.2 0
-2.95 -0.081 0.139 -0 -1.2 0
-3.098 -0.091 0.11 -0 -1.2 0
-3.264 -0.098 0.078 -0 -1.2 0
-3.451 -0.106 0.042 -0 -1.2 0
-3.667 -0.113 0.001 -0 -1.2 0
-3.874 -0.128 -0.038 -0 -1.2 0
-3.862 -0.203 -0.033 -0 -1.2 0
-3.867 -0.273 -0.032 -0 -1.2 0
-3.872 -0.343 -0.03 -0 -1.2 0
-3.865 -0.414 -0.025 -0 -1.2 0
-3.857 -0.485 -0.021 -0 -1.2 0
-3.868 -0.553 -0.02 -0 -1.2 0
-3.857 -0.622 -0.016 -0 -1.2 0
-3.856 -0.691 -0.013 -0 -1.2 0
-3.872 -0.758 -0.013 -0 -1.2 0
-3.858 -0.827 -0.008 -0 -1.2 0
-3.863 -0.894 -0.006 -0 -1.2 0
-3.867 -0.963 -0.004 -0 -1.2 0
-3.869 -1.03 -0.001 -0 -1.2 0
-3.87 -1.098 0.002 -0 -1.2 0
-3.869 -1.166 0.004 -0 -1.2 0
-3.858 -1.232 0.009 -0 -1.2 0
-3.856 -1.299 0.012 -0 -1.2 0
-3.862 -1.367 0.014 -0 -1.2 0
-3.857 -1.435 0.017 -0 -1.2 0
-3.87 -1.505 0.017 -0 -1.2 0
-3.853 -1.571 0.023 -0 -1.2 0
-3.856 -1.639 0.026 -0 -1.2 0
-3.856 -1.708 0.028 -0 -1.2 0
-3.855 -1.777 0.031 -0 -1.2 0
-3.853 -1.846 0.035 -0 -1.2 0
-3.82 -1.908 0.044 -0 -1.2 0
-3.786 -1.971 0.053 -0 -1.2 0
-3.771 -2.037 0.058 -0 -1.2 0
-3.907 -2.145 0.036 -0 -1.2 0
-3.917 -2.221 0.037 -0 -1.2 0
-3.907 -2.292 0.041 -0 -1.2 0
-3.915 -2.369 0.044 -0 -1.2 0
-3.912 -2.444 0.047 -0 -1.2 0
-3.907 -2.518 0.051 -0 -1.2 0
-3.91 -2.598 0.053 -0 -1.2 0
-3.911 -2.677 0.057 -0 -1.2 0
-3.902 -2.752 0.061 -0 -1.2 0
-3.901 -2.832 0.065 -0 -1.2 0
-3.898 -2.913 0.069 -0 -1.2 0
-3.892 -2.994 0.073 -0 -1.2 0
-3.895 -3.079 0.076 -0 -1.2 0
-3.896 -3.166 0.079 -0 -1.2 0
-3.886 -3.247 0.084 -0 -1.2 0
-3.892 -3.34 0.087 -0 -1.2 0
-3.887 -3.428 0.091 -0 -1.2 0
-3.88 -3.517 0.096 -0 -1.2 0
-3.88 -3.611 0.1 -0 -1.2 0
-3.877 -3.706 0.105 -0 -1.2 0
-3.881 -3.808 0.107 -0 -1.2 0
-3.874 -3.904 0.113 -0 -1.2 0
-3.881 -4.013 0.116 -0 -1.2 0
-3.878 -4.118 0.12 -0 -1.2 0
-3.872 -4.223 0.126 -0 -1.2 0
-3.879 -4.341 0.129 -0 -1.2 0
-3.89 -4.466 0.132 -0 -1.2 0
-3.891 -4.587 0.137 -0 -1.2 0
-3.88 -4.702 0.144 -0 -1.2 0
-3.883 -4.831 0.149 -0 -1.2 0
-3.881 -4.962 0.153 -0 -1.2 0
-3.876 -5.093 0.16 -0 -1.2 0
-3.875 -5.233 0.166 -0 -1.2 0
-1.203 -0.009 0.531 -0 -1.2 0
-1.235 -0.016 0.526 -0 -1.2 0
-1.276 -0.018 0.52 -0 -1.2 0
-1.332 -0.008 0.511 -0 -1.2 0
-1.374 -0.011 0.505 -0 -1.2 0
-1.416 -0.017 0.499 -0 -1.2 0
-1.466 -0.017 0.491 -0 -1.2 0
-1.508 -0.024 0.484 -0 -1.2 0
-1.567 -0.021 0.475 -0 -1.2 0
-1.618 -0.026 0.467 -0 -1.2 0
-1.669 -0.032 0.46 -0 -1.2 0
-1.738 -0.029 0.449 -0 -1.2 0
-1.798 -0.033 0.439 -0 -1.2 0
-1.867 -0.034 0.428 -0 -1.2 0
-1.954 -0.027 0.415 -0 -1.2 0
-2.025 -0.034 0.403 -0 -1.2 0
-2.087 -0.046 0.394 -0 -1.2 0
-2.185 -0.042 0.379 -0 -1.2 0
-2.265 -0.05 0.366 -0 -1.2 0
-2.373 -0.049 0.349 -0 -1.2 0
-2.473 -0.054 0.333 -0 -1.2 0
-2.591 -0.057 0.316 -0 -1.2 0
-2.701 -0.065 0.3 -0 -1.2 0
-2.829 -0.071 0.28 -0 -1.2 0
-2.968 -0.078 0.258 -0 -1.2 0
-3.127 -0.084 0.233 -0 -1.2 0
-3.285 -0.094 0.208 -0 -1.2 0
-3.482 -0.099 0.177 -0 -1.2 0
-3.709 -0.103 0.142 -0 -1.2 0
-3.889 -0.127 0.114 -0 -1.2 0
-3.867 -0.204 0.121 -0 -1.2 0
-3.872 -0.273 0.123 -0 -1.2 0
-3.877 -0.342 0.125 -0 -1.2 0
-3.87 -0.413 0.13 -0 -1.2 0
-3.872 -0.482 0.132 -0 -1.2 0
-3.872 -0.551 0.135 -0 -1.2 0
-3.862 -0.622 0.139 -0 -1.2 0
-3.87 -0.689 0.141 -0 -1.2 0
-3.877 -0.756 0.143 -0 -1.2 0
-3.872 -0.824 0.146 -0 -1.2 0
-3.867 -0.892 0.149 -0 -1.2 0
-3.86 -0.959 0.153 -0 -1.2 0
-3.872 -1.026 0.154 -0 -1.2 0
-3.873 -1.094 0.157 -0 -1.2 0
-3.863 -1.16 0.161 -0 -1.2 0
-3.862 -1.227 0.164 -0 -1.2 0
-3.86 -1.294 0.168 -0 -1.2 0
-3.856 -1.361 0.171 -0 -1.2 0
-3.861 -1.429 0.173 -0 -1.2 0
-3.865 -1.496 0.175 -0 -1.2 0
-3.858 -1.564 0.179 -0 -1.2 0
-3.859 -1.632 0.182 -0 -1.2 0
-3.859 -1.701 0.184 -0 -1.2 0
-3.858 -1.769 0.187 -0 -1.2 0
-3.856 -1.838 0.19 -0 -1.2 0
-3.843 -1.904 0.195 -0 -1.2 0
-3.781 -1.96 0.207 -0 -1.2 0
-3.776 -2.028 0.211 -0 -1.2 0
-3.874 -2.124 0.199 -0 -1.2 0
-3.912 -2.208 0.196 -0 -1.2 0
-3.912 -2.282 0.2 -0 -1.2 0
-3.91 -2.356 0.203 -0 -1.2 0
-3.917 -2.433 0.205 -0 -1.2 0
-3.912 -2.508 0.209 -0 -1.2 0
-3.915 -2.586 0.211 -0 -1.2 0
-3.916 -2.665 0.215 -0 -1.2 0
-3.917 -2.744 0.218 -0 -1.2 0
-3.906 -2.82 0.223 -0 -1.2 0
-3.912 -2.904 0.225 -0 -1.2 0
-3.898 -2.981 0.23 -0 -1.2 0
-3.892 -3.062 0.235 -0 -1.2 0
-3.893 -3.148 0.238 -0 -1.2 0
-3.892 -3.234 0.242 -0 -1.2 0
-3.89 -3.32 0.246 -0 -1.2 0
-3.893 -3.413 0.249 -0 -1.2 0
-3.878 -3.497 0.255 -0 -1.2 0
-3.878 -3.591 0.258 -0 -1.2 0
-3.884 -3.691 0.262 -0 -1.2 0
-3.88 -3.786 0.266 -0 -1.2 0
-3.882 -3.888 0.271 -0 -1.2 0
-3.881 -3.991 0.274 -0 -1.2 0
-3.886 -4.101 0.278 -0 -1.2 0
-3.88 -4.205 0.284 -0 -1.2 0
-3.886 -4.323 0.287 -0 -1.2 0
-3.898 -4.449 0.291 -0 -1.2 0
-3.891 -4.563 0.296 -0 -1.2 0
-3.89 -4.684 0.302 -0 -1.2 0
-3.885 -4.806 0.307 -0 -1.2 0
-3.884 -4.937 0.313 -0 -1.2 0
-3.879 -5.067 0.319 -0 -1.2 0
-3.878 -5.207 0.325 -0 -1.2 0
-1.207 -0.007 0.587 -0 -1.2 0
-1.241 -0.014 0.583 -0 -1.2 0
-1.289 -0.009 0.578 -0 -1.2 0
-1.338 -0.006 0.572 -0 -1.2 0
-1.371 -0.016 0.568 -0 -1.2 0
-1.414 -0.02 0.562 -0 -1.2 0
-1.48 -0.008 0.554 -0 -1.2 0
-1.514 -0.022 0.55 -0 -1.2 0
-1.565 -0.024 0.544 -0 -1.2 0
-1.625 -0.023 0.536 -0 -1.2 0
-1.685 -0.023 0.529 -0 -1.2 0
-1.745 -0.027 0.522 -0 -1.2 0
-1.814 -0.025 0.513 -0 -1.2 0
-1.876 -0.031 0.505 -0 -1.2 0
-1.945 -0.034 0.496 -0 -1.2 0
-2.024 -0.035 0.487 -0 -1.2 0
-2.096 -0.043 0.479 -0 -1.2 0
-2.185 -0.043 0.468 -0 -1.2 0
-2.275 -0.047 0.456 -0 -1.2 0
-2.384 -0.046 0.442 -0 -1.2 0
-2.483 -0.051 0.43 -0 -1.2 0
-2.593 -0.057 0.417 -0 -1.2 0
-2.703 -0.066 0.403 -0 -1.2 0
-2.833 -0.071 0.388 -0 -1.2 0
-2.981 -0.074 0.369 -0 -1.2 0
-3.121 -0.086 0.353 -0 -1.2 0
-3.28 -0.096 0.334 -0 -1.2 0
-3.488 -0.098 0.309 -0 -1.2 0
-3.715 -0.101 0.28 -0 -1.2 0
-3.886 -0.126 0.26 -0 -1.2 0
-3.874 -0.201 0.265 -0 -1.2 0
-3.87 -0.273 0.268 -0 -1.2 0
-3.874 -0.342 0.271 -0 -1.2 0
-3.867 -0.412 0.275 -0 -1.2 0
-3.869 -0.48 0.278 -0 -1.2 0
-3.869 -0.549 0.28 -0 -1.2 0
-3.869 -0.617 0.283 -0 -1.2 0
-3.867 -0.685 0.286 -0 -1.2 0
-3.883 -0.752 0.287 -0 -1.2 0
-3.869 -0.82 0.291 -0 -1.2 0
-3.864 -0.888 0.295 -0 -1.2 0
-3.857 -0.955 0.298 -0 -1.2 0
-3.859 -1.022 0.301 -0 -1.2 0
-3.86 -1.089 0.304 -0 -1.2 0
-3.87 -1.155 0.305 -0 -1.2 0
-3.858 -1.222 0.309 -0 -1.2 0
-3.857 -1.288 0.312 -0 -1.2 0
-3.853 -1.354 0.316 -0 -1.2 0
-3.858 -1.422 0.318 -0 -1.2 0
-3.862 -1.49 0.32 -0 -1.2 0
-3.864 -1.558 0.322 -0 -1.2 0
-3.866 -1.626 0.324 -0 -1.2 0
-3.856 -1.692 0.329 -0 -1.2 0
-3.855 -1.76 0.332 -0 -1.2 0
-3.853 -1.829 0.335 -0 -1.2 0
-3.84 -1.896 0.339 -0 -1.2 0
-3.787 -1.953 0.348 -0 -1.2 0
-3.782 -2.021 0.351 -0 -1.2 0
-3.852 -2.109 0.347 -0 -1.2 0
-3.91 -2.197 0.343 -0 -1.2 0
-3.919 -2.273 0.345 -0 -1.2 0
-3.918 -2.347 0.348 -0 -1.2 0
-3.905 -2.418 0.353 -0 -1.2 0
-3.91 -2.496 0.356 -0 -1.2 0
-3.913 -2.574 0.359 -0 -1.2 0
-3.905 -2.649 0.363 -0 -1.2 0
-3.906 -2.728 0.366 -0 -1.2 0
-3.905 -2.807 0.369 -0 -1.2 0
-3.893 -2.882 0.374 -0 -1.2 0
-3.888 -2.962 0.378 -0 -1.2 0
-3.9 -3.051 0.381 -0 -1.2 0
-3.9 -3.137 0.384 -0 -1.2 0
-3.891 -3.219 0.388 -0 -1.2 0
-3.888 -3.306 0.392 -0 -1.2 0
-3.893 -3.398 0.396 -0 -1.2 0
-3.886 -3.487 0.4 -0 -1.2 0
-3.886 -3.58 0.405 -0 -1.2 0
-3.884 -3.674 0.409 -0 -1.2 0
-3.88 -3.769 0.413 -0 -1.2 0
-3.881 -3.871 0.417 -0 -1.2 0
-3.88 -3.974 0.422 -0 -1.2 0
-3.869 -4.071 0.427 -0 -1.2 0
-3.872 -4.181 0.431 -0 -1.2 0
-3.88 -4.299 0.435 -0 -1.2 0
-3.877 -4.411 0.44 -0 -1.2 0
-3.885 -4.537 0.445 -0 -1.2 0
-3.883 -4.658 0.451 -0 -1.2 0
-3.879 -4.78 0.456 -0 -1.2 0
-3.878 -4.91 0.461 -0 -1.2 0
-3.874 -5.041 0.467 -0 -1.2 0
-3.88 -5.187 0.473 -0 -1.2 0
-1.21 -0.005 0.644 -0 -1.2 0
-1.251 -0.005 0.641 -0 -1.2 0
-1.292 -0.007 0.637 -0 -1.2 0
-1.341 -0.003 0.632 -0 -1.2 0
-1.376 -0.013 0.629 -0 -1.2 0
-1.426 -0.012 0.625 -0 -1.2 0
-1.468 -0.017 0.621 -0 -1.2 0
-1.527 -0.013 0.616 -0 -1.2 0
-1.578 -0.016 0.611 -0 -1.2 0
-1.63 -0.021 0.607 -0 -1.2 0
-1.689 -0.021 0.601 -0 -1.2 0
-1.75 -0.024 0.596 -0 -1.2 0
-1.811 -0.028 0.59 -0 -1.2 0
-1.881 -0.028 0.583 -0 -1.2 0
-1.951 -0.032 0.577 -0 -1.2 0
-2.022 -0.037 0.572 -0 -1.2 0
-2.103 -0.04 0.563 -0 -1.2 0
-2.192 -0.04 0.555 -0 -1.2 0
-2.282 -0.044 0.548 -0 -1.2 0
-2.39 -0.042 0.537 -0 -1.2 0
-2.5 -0.044 0.528 -0 -1.2 0
-2.601 -0.053 0.519 -0 -1.2 0
-2.712 -0.062 0.508 -0 -1.2 0
-2.841 -0.067 0.497 -0 -1.2 0
-2.99 -0.07 0.483 -0 -1.2 0
-3.131 -0.082 0.471 -0 -1.2 0
-3.3 -0.088 0.456 -0 -1.2 0
-3.499 -0.093 0.438 -0 -1.2 0
-3.728 -0.097 0.417 -0 -1.2 0
-3.88 -0.127 0.404 -0 -1.2 0
-3.877 -0.199 0.407 -0 -1.2 0
-3.873 -0.269 0.411 -0 -1.2 0
-3.877 -0.339 0.413 -0 -1.2 0
-3.87 -0.409 0.417 -0 -1.2 0
-3.872 -0.477 0.42 -0 -1.2 0
-3.872 -0.545 0.423 -0 -1.2 0
-3.871 -0.614 0.426 -0 -1.2 0
-3.87 -0.682 0.429 -0 -1.2 0
-3.886 -0.748 0.43 -0 -1.2 0
-3.862 -0.817 0.435 -0 -1.2 0
-3.856 -0.885 0.438 -0 -1.2 0
-3.86 -0.951 0.441 -0 -1.2 0
-3.862 -1.018 0.444 -0 -1.2 0
-3.863 -1.084 0.447 -0 -1.2 0
-3.872 -1.151 0.449 -0 -1.2 0
-3.861 -1.217 0.452 -0 -1.2 0
-3.858 -1.282 0.455 -0 -1.2 0
-3.855 -1.349 0.459 -0 -1.2 0
-3.86 -1.416 0.461 -0 -1.2 0
-3.864 -1.484 0.464 -0 -1.2 0
-3.856 -1.55 0.467 -0 -1.2 0
-3.858 -1.618 0.471 -0 -1.2 0
-3.858 -1.686 0.473 -0 -1.2 0
-3.857 -1.754 0.476 -0 -1.2 0
-3.855 -1.822 0.479 -0 -1.2 0
-3.852 -1.891 0.482 -0 -1.2 0
-3.79 -1.946 0.49 -0 -1.2 0
-3.784 -2.014 0.494 -0 -1.2 0
-3.835 -2.096 0.493 -0 -1.2 0
-3.923 -2.192 0.489 -0 -1.2 0
-3.912 -2.263 0.493 -0 -1.2 0
-3.91 -2.337 0.496 -0 -1.2 0
-3.917 -2.413 0.499 -0 -1.2 0
-3.913 -2.488 0.503 -0 -1.2 0
-3.916 -2.565 0.506 -0 -1.2 0
-3.908 -2.639 0.509 -0 -1.2 0
-3.908 -2.718 0.513 -0 -1.2 0
-3.917 -2.802 0.516 -0 -1.2 0
-3.905 -2.877 0.52 -0 -1.2 0
-3.909 -2.961 0.524 -0 -1.2 0
-3.894 -3.038 0.528 -0 -1.2 0
-3.894 -3.123 0.531 -0 -1.2 0
-3.894 -3.21 0.535 -0 -1.2 0
-3.891 -3.296 0.539 -0 -1.2 0
-3.887 -3.383 0.543 -0 -1.2 0
-3.88 -3.471 0.548 -0 -1.2 0
-3.873 -3.559 0.552 -0 -1.2 0
-3.879 -3.658 0.556 -0 -1.2 0
-3.875 -3.754 0.561 -0 -1.2 0
-3.877 -3.855 0.565 -0 -1.2 0
-3.876 -3.957 0.569 -0 -1.2 0
-3.881 -4.066 0.573 -0 -1.2 0
-3.868 -4.163 0.579 -0 -1.2 0
-3.876 -4.281 0.583 -0 -1.2 0
-3.866 -4.386 0.589 -0 -1.2 0
-3.882 -4.519 0.593 -0 -1.2 0
-3.88 -4.64 0.598 -0 -1.2 0
-3.876 -4.761 0.604 -0 -1.2 0
-3.876 -4.89 0.609 -0 -1.2 0
-3.879 -5.028 0.615 -0 -1.2 0
-3.871 -5.16 0.622 -0 -1.2 0
-1.214 -0.003 0.703 -0 -1.2 0
-1.262 0.002 0.701 -0 -1.2 0
-1.296 -0.005 0.699 -0 -1.2 0
-1.338 -0.007 0.697 -0 -1.2 0
-1.372 -0.017 0.695 -0 -1.2 0
-1.422 -0.016 0.692 -0 -1.2 0
-1.48 -0.01 0.689 -0 -1.2 0
-1.531 -0.012 0.686 -0 -1.2 0
-1.583 -0.014 0.683 -0 -1.2 0
-1.643 -0.013 0.679 -0 -1.2 0
-1.694 -0.019 0.677 -0 -1.2 0
-1.746 -0.027 0.674 -0 -1.2 0
-1.816 -0.026 0.671 -0 -1.2 0
-1.886 -0.026 0.667 -0 -1.2 0
-1.957 -0.029 0.663 -0 -1.2 0
-2.036 -0.03 0.658 -0 -1.2 0
-2.126 -0.028 0.653 -0 -1.2 0
-2.198 -0.037 0.649 -0 -1.2 0
-2.288 -0.041 0.644 -0 -1.2 0
-2.398 -0.039 0.638 -0 -1.2 0
-2.488 -0.049 0.633 -0 -1.2 0
-2.608 -0.05 0.626 -0 -1.2 0
-2.719 -0.059 0.621 -0 -1.2 0
-2.84 -0.068 0.614 -0 -1.2 0
-2.989 -0.07 0.606 -0 -1.2 0
-3.139 -0.078 0.597 -0 -1.2 0
-3.3 -0.088 0.589 -0 -1.2 0
-3.47 -0.1 0.579 -0 -1.2 0
-3.738 -0.092 0.564 -0 -1.2 0
-3.88 -0.125 0.557 -0 -1.2 0
-3.877 -0.196 0.561 -0 -1.2 0
-3.882 -0.265 0.564 -0 -1.2 0
-3.877 -0.336 0.567 -0 -1.2 0
-3.87 -0.406 0.57 -0 -1.2 0
-3.871 -0.474 0.573 -0 -1.2 0
-3.872 -0.542 0.577 -0 -1.2 0
-3.871 -0.61 0.58 -0 -1.2 0
-3.869 -0.678 0.583 -0 -1.2 0
-3.876 -0.745 0.585 -0 -1.2 0
-3.862 -0.813 0.589 -0 -1.2 0
-3.866 -0.88 0.592 -0 -1.2 0
-3.869 -0.946 0.594 -0 -1.2 0
-3.871 -1.013 0.597 -0 -1.2 0
-3.872 -1.079 0.6 -0 -1.2 0
-3.872 -1.146 0.603 -0 -1.2 0
-3.861 -1.212 0.606 -0 -1.2 0
-3.859 -1.278 0.609 -0 -1.2 0
-3.855 -1.343 0.612 -0 -1.2 0
-3.86 -1.411 0.615 -0 -1.2 0
-3.854 -1.477 0.618 -0 -1.2 0
-3.857 -1.544 0.621 -0 -1.2 0
-3.858 -1.612 0.624 -0 -1.2 0
-3.859 -1.68 0.627 -0 -1.2 0
-3.858 -1.748 0.63 -0 -1.2 0
-3.856 -1.816 0.634 -0 -1.2 0
-3.853 -1.884 0.637 -0 -1.2 0
-3.779 -1.937 0.643 -0 -1.2 0
-3.774 -2.004 0.646 -0 -1.2 0
