# .PCD v.7 - Point Cloud Data file format
FIELDS x y z vp_x vp_y vp_z
SIZE 4 4 4 4 4 4
TYPE F F F F F F
COUNT 1 1 1 1 1 1
WIDTH 1610
HEIGHT 1
VIEWPOINT 0 -1.20013 0 1 0 0 0
POINTS 1610
DATA ascii
-7.202 -0.157 3.675 -0 -1.2 0
-8.236 -0.182 4.201 -0 -1.2 0
-9.67 -0.209 4.931 -0 -1.2 0
-11.683 -0.249 5.955 -0 -1.2 0
-11.906 -0.465 6.074 -0 -1.2 0
-11.752 -0.702 6.001 -0 -1.2 0
-13.35 -0.907 6.818 -0 -1.2 0
-13.349 -1.167 6.824 -0 -1.2 0
-13.362 -1.427 6.836 -0 -1.2 0
-13.343 -1.686 6.832 -0 -1.2 0
-13.169 -1.936 6.749 -0 -1.2 0
-13.391 -2.213 6.869 -0 -1.2 0
-13.397 -2.476 6.878 -0 -1.2 0
-13.389 -2.74 6.88 -0 -1.2 0
-13.394 -3.005 6.889 -0 -1.2 0
-13.104 -3.224 6.747 -0 -1.2 0
-13.366 -3.534 6.887 -0 -1.2 0
-13.087 -3.747 6.75 -0 -1.2 0
-13.443 -4.092 6.939 -0 -1.2 0
-13.444 -4.366 6.945 -0 -1.2 0
-13.441 -4.641 6.95 -0 -1.2 0
-13.433 -4.918 6.953 -0 -1.2 0
-13.429 -5.198 6.957 -0 -1.2 0
-13.429 -5.482 6.964 -0 -1.2 0
-13.424 -5.767 6.969 -0 -1.2 0
-13.423 -6.057 6.974 -0 -1.2 0
-13.417 -6.349 6.978 -0 -1.2 0
-13.415 -6.645 6.983 -0 -1.2 0
-13.407 -6.942 6.986 -0 -1.2 0
-13.402 -7.245 6.991 -0 -1.2 0
-13.4 -7.554 6.997 -0 -1.2 0
-13.384 -7.86 6.996 -0 -1.2 0
-13.314 -8.142 6.967 -0 -1.2 0
-13.288 -8.45 6.961 -0 -1.2 0
-12.885 -8.544 6.758 -0 -1.2 0
-12.538 -8.659 6.584 -0 -1.2 0
-12.2 -8.766 6.415 -0 -1.2 0
-1.045 -0.006 0.589 -0 -1.2 0
-1.08 -0.005 0.609 -0 -1.2 0
-1.116 -0.005 0.628 -0 -1.2 0
-1.146 -0.012 0.645 -0 -1.2 0
-1.182 -0.014 0.665 -0 -1.2 0
-1.226 -0.01 0.689 -0 -1.2 0
-1.256 -0.022 0.706 -0 -1.2 0
-1.3 -0.021 0.73 -0 -1.2 0
-1.344 -0.021 0.755 -0 -1.2 0
-1.396 -0.017 0.783 -0 -1.2 0
-1.441 -0.021 0.808 -0 -1.2 0
-1.487 -0.026 0.834 -0 -1.2 0
-1.547 -0.022 0.867 -0 -1.2 0
-1.601 -0.025 0.897 -0 -1.2 0
-1.655 -0.03 0.926 -0 -1.2 0
-1.732 -0.022 0.969 -0 -1.2 0
-1.794 -0.027 1.004 -0 -1.2 0
-1.856 -0.033 1.038 -0 -1.2 0
-1.935 -0.032 1.082 -0 -1.2 0
-2.014 -0.034 1.126 -0 -1.2 0
-2.118 -0.027 1.183 -0 -1.2 0
-2.206 -0.032 1.232 -0 -1.2 0
-2.319 -0.028 1.294 -0 -1.2 0
-2.432 -0.028 1.357 -0 -1.2 0
-2.555 -0.03 1.425 -0 -1.2 0
-2.678 -0.035 1.493 -0 -1.2 0
-2.81 -0.042 1.566 -0 -1.2 0
-2.975 -0.041 1.658 -0 -1.2 0
-3.134 -0.05 1.746 -0 -1.2 0
-3.343 -0.049 1.862 -0 -1.2 0
-3.545 -0.057 1.974 -0 -1.2 0
-3.781 -0.065 2.105 -0 -1.2 0
-4.061 -0.07 2.26 -0 -1.2 0
-4.358 -0.083 2.425 -0 -1.2 0
-4.725 -0.091 2.628 -0 -1.2 0
-5.162 -0.101 2.871 -0 -1.2 0
-5.661 -0.117 3.147 -0 -1.2 0
-6.273 -0.134 3.486 -0 -1.2 0
-7.068 -0.151 3.927 -0 -1.2 0
-8.074 -0.176 4.485 -0 -1.2 0
-8.757 -0.271 4.866 -0 -1.2 0
-8.548 -0.461 4.755 -0 -1.2 0
-8.459 -0.636 4.709 -0 -1.2 0
-10.711 -0.722 5.958 -0 -1.2 0
-12.043 -0.914 6.7 -0 -1.2 0
-12.042 -1.151 6.705 -0 -1.2 0
-12.045 -1.39 6.713 -0 -1.2 0
-12.02 -1.628 6.704 -0 -1.2 0
-11.92 -1.861 6.655 -0 -1.2 0
-12.68 -2.163 7.083 -0 -1.2 0
-12.712 -2.42 7.106 -0 -1.2 0
-12.687 -2.672 7.098 -0 -1.2 0
-12.693 -2.929 7.109 -0 -1.2 0
-12.679 -3.184 7.106 -0 -1.2 0
-12.659 -3.439 7.101 -0 -1.2 0
-12.662 -3.698 7.109 -0 -1.2 0
-12.66 -3.959 7.115 -0 -1.2 0
-12.323 -4.139 6.932 -0 -1.2 0
-12.127 -4.345 6.829 -0 -1.2 0
-12.133 -4.603 6.838 -0 -1.2 0
-12.126 -4.859 6.84 -0 -1.2 0
-12.131 -5.122 6.849 -0 -1.2 0
-12.133 -5.387 6.856 -0 -1.2 0
-12.129 -5.653 6.861 -0 -1.2 0
-11.99 -5.867 6.788 -0 -1.2 0
-12.608 -6.399 7.143 -0 -1.2 0
-12.603 -6.686 7.148 -0 -1.2 0
-12.594 -6.974 7.149 -0 -1.2 0
-12.596 -7.271 7.157 -0 -1.2 0
-12.6 -7.575 7.167 -0 -1.2 0
-12.6 -7.881 7.174 -0 -1.2 0
-12.445 -8.104 7.094 -0 -1.2 0
-12.009 -8.159 6.853 -0 -1.2 0
-11.981 -8.45 6.845 -0 -1.2 0
-11.607 -8.522 6.639 -0 -1.2 0
-11.317 -8.637 6.482 -0 -1.2 0
-11.012 -8.732 6.315 -0 -1.2 0
-1.019 -0.012 0.619 -0 -1.2 0
-1.06 -0.004 0.644 -0 -1.2 0
-1.089 -0.01 0.661 -0 -1.2 0
-1.125 -0.011 0.682 -0 -1.2 0
-1.154 -0.019 0.7 -0 -1.2 0
-1.196 -0.016 0.725 -0 -1.2 0
-1.233 -0.021 0.747 -0 -1.2 0
-1.276 -0.02 0.773 -0 -1.2 0
-1.319 -0.02 0.799 -0 -1.2 0
-1.363 -0.022 0.825 -0 -1.2 0
-1.414 -0.02 0.855 -0 -1.2 0
-1.459 -0.025 0.882 -0 -1.2 0
-1.518 -0.02 0.917 -0 -1.2 0
-1.571 -0.024 0.949 -0 -1.2 0
-1.631 -0.024 0.985 -0 -1.2 0
-1.692 -0.026 1.021 -0 -1.2 0
-1.768 -0.02 1.066 -0 -1.2 0
-1.829 -0.026 1.103 -0 -1.2 0
-1.906 -0.026 1.149 -0 -1.2 0
-1.976 -0.033 1.191 -0 -1.2 0
-2.078 -0.025 1.252 -0 -1.2 0
-2.164 -0.031 1.303 -0 -1.2 0
-2.275 -0.026 1.37 -0 -1.2 0
-2.387 -0.026 1.436 -0 -1.2 0
-2.499 -0.031 1.503 -0 -1.2 0
-2.628 -0.033 1.58 -0 -1.2 0
-2.757 -0.039 1.657 -0 -1.2 0
-2.911 -0.042 1.75 -0 -1.2 0
-3.075 -0.047 1.847 -0 -1.2 0
-3.264 -0.052 1.961 -0 -1.2 0
-3.462 -0.061 2.079 -0 -1.2 0
-3.693 -0.067 2.218 -0 -1.2 0
-3.959 -0.074 2.377 -0 -1.2 0
-4.301 -0.073 2.582 -0 -1.2 0
-4.619 -0.091 2.772 -0 -1.2 0
-5.048 -0.1 3.029 -0 -1.2 0
-5.546 -0.113 3.326 -0 -1.2 0
-6.164 -0.128 3.696 -0 -1.2 0
-6.876 -0.155 4.122 -0 -1.2 0
-7.863 -0.177 4.712 -0 -1.2 0
-9.115 -0.213 5.462 -0 -1.2 0
-8.8 -0.423 5.278 -0 -1.2 0
-9.262 -0.573 5.558 -0 -1.2 0
-8.94 -0.773 5.37 -0 -1.2 0
-8.976 -0.952 5.396 -0 -1.2 0
-10.94 -1.139 6.574 -0 -1.2 0
-10.944 -1.36 6.582 -0 -1.2 0
-10.945 -1.581 6.587 -0 -1.2 0
-10.917 -1.802 6.576 -0 -1.2 0
-10.92 -2.024 6.584 -0 -1.2 0
-11.099 -2.266 6.696 -0 -1.2 0
-11.103 -2.493 6.703 -0 -1.2 0
-11.095 -2.719 6.704 -0 -1.2 0
-11.092 -2.948 6.709 -0 -1.2 0
-11.085 -3.177 6.711 -0 -1.2 0
-11.076 -3.406 6.71 -0 -1.2 0
-11.071 -3.638 6.712 -0 -1.2 0
-11.071 -3.873 6.718 -0 -1.2 0
-11.058 -4.106 6.716 -0 -1.2 0
-11.042 -4.339 6.713 -0 -1.2 0
-11.03 -4.576 6.712 -0 -1.2 0
-11.032 -4.818 6.719 -0 -1.2 0
-11.021 -5.059 6.718 -0 -1.2 0
-11.023 -5.307 6.725 -0 -1.2 0
-11.013 -5.553 6.725 -0 -1.2 0
-11.006 -5.804 6.727 -0 -1.2 0
-10.924 -6.022 6.683 -0 -1.2 0
-11.02 -6.327 6.748 -0 -1.2 0
-11.008 -6.585 6.747 -0 -1.2 0
-11.008 -6.852 6.753 -0 -1.2 0
-11.002 -7.122 6.757 -0 -1.2 0
-11.008 -7.402 6.766 -0 -1.2 0
-11.001 -7.68 6.769 -0 -1.2 0
-11.003 -7.968 6.778 -0 -1.2 0
-10.911 -8.201 6.729 -0 -1.2 0
-10.875 -8.473 6.713 -0 -1.2 0
-10.483 -8.496 6.479 -0 -1.2 0
-10.281 -8.644 6.363 -0 -1.2 0
-9.994 -8.721 6.193 -0 -1.2 0
-0.998 -0.011 0.653 -0 -1.2 0
-1.032 -0.01 0.675 -0 -1.2 0
-1.067 -0.009 0.697 -0 -1.2 0
-1.102 -0.01 0.719 -0 -1.2 0
-1.137 -0.012 0.742 -0 -1.2 0
-1.172 -0.015 0.765 -0 -1.2 0
-1.214 -0.013 0.792 -0 -1.2 0
-1.25 -0.019 0.815 -0 -1.2 0
-1.292 -0.019 0.842 -0 -1.2 0
-1.328 -0.027 0.865 -0 -1.2 0
-1.379 -0.024 0.898 -0 -1.2 0
-1.429 -0.024 0.93 -0 -1.2 0
-1.487 -0.019 0.968 -0 -1.2 0
-1.546 -0.017 1.005 -0 -1.2 0
-1.598 -0.022 1.039 -0 -1.2 0
-1.664 -0.02 1.082 -0 -1.2 0
-1.724 -0.024 1.12 -0 -1.2 0
-1.792 -0.025 1.164 -0 -1.2 0
-1.867 -0.024 1.212 -0 -1.2 0
-1.936 -0.031 1.256 -0 -1.2 0
-2.035 -0.024 1.32 -0 -1.2 0
-2.12 -0.029 1.375 -0 -1.2 0
-2.229 -0.024 1.445 -0 -1.2 0
-2.33 -0.028 1.51 -0 -1.2 0
-2.44 -0.033 1.581 -0 -1.2 0
-2.558 -0.038 1.657 -0 -1.2 0
-2.708 -0.034 1.754 -0 -1.2 0
-2.852 -0.04 1.846 -0 -1.2 0
-3.012 -0.045 1.949 -0 -1.2 0
-3.189 -0.051 2.064 -0 -1.2 0
-3.383 -0.06 2.188 -0 -1.2 0
-3.626 -0.061 2.345 -0 -1.2 0
-3.886 -0.068 2.513 -0 -1.2 0
-4.188 -0.076 2.708 -0 -1.2 0
-4.517 -0.09 2.919 -0 -1.2 0
-4.937 -0.098 3.19 -0 -1.2 0
-5.424 -0.111 3.504 -0 -1.2 0
-6.03 -0.124 3.894 -0 -1.2 0
-6.718 -0.151 4.339 -0 -1.2 0
-7.677 -0.173 4.955 -0 -1.2 0
-8.928 -0.205 5.763 -0 -1.2 0
-8.628 -0.414 5.574 -0 -1.2 0
-8.668 -0.591 5.604 -0 -1.2 0
-10.026 -0.716 6.481 -0 -1.2 0
-10.011 -0.923 6.477 -0 -1.2 0
-10.009 -1.129 6.481 -0 -1.2 0
-10.023 -1.335 6.494 -0 -1.2 0
-10.015 -1.542 6.495 -0 -1.2 0
-10.013 -1.749 6.499 -0 -1.2 0
-9.925 -1.949 6.446 -0 -1.2 0
-10.527 -2.22 6.842 -0 -1.2 0
-10.523 -2.439 6.845 -0 -1.2 0
-10.558 -2.665 6.872 -0 -1.2 0
-10.547 -2.886 6.871 -0 -1.2 0
-10.55 -3.11 6.879 -0 -1.2 0
-10.543 -3.333 6.878 -0 -1.2 0
-10.53 -3.556 6.876 -0 -1.2 0
-10.523 -3.781 6.878 -0 -1.2 0
-10.537 -4.015 6.893 -0 -1.2 0
-10.116 -4.12 6.624 -0 -1.2 0
-10.076 -4.332 6.604 -0 -1.2 0
-10.089 -4.562 6.618 -0 -1.2 0
-10.091 -4.791 6.624 -0 -1.2 0
-10.088 -5.021 6.628 -0 -1.2 0
-10.074 -5.249 6.625 -0 -1.2 0
-10.072 -5.485 6.63 -0 -1.2 0
-10.066 -5.722 6.632 -0 -1.2 0
-9.933 -5.9 6.551 -0 -1.2 0
-10.481 -6.423 6.916 -0 -1.2 0
-10.476 -6.68 6.92 -0 -1.2 0
-10.45 -6.931 6.909 -0 -1.2 0
-10.465 -7.209 6.926 -0 -1.2 0
-10.409 -7.447 6.895 -0 -1.2 0
-10.444 -7.747 6.926 -0 -1.2 0
-10.437 -8.026 6.929 -0 -1.2 0
-10.058 -8.052 6.684 -0 -1.2 0
-9.959 -8.265 6.627 -0 -1.2 0
-9.864 -8.482 6.57 -0 -1.2 0
-9.473 -8.467 6.318 -0 -1.2 0
-9.361 -8.663 6.251 -0 -1.2 0
-9.09 -8.724 6.078 -0 -1.2 0
-0.974 -0.01 0.689 -0 -1.2 0
-1.008 -0.009 0.712 -0 -1.2 0
-1.047 -0.002 0.739 -0 -1.2 0
-1.069 -0.016 0.755 -0 -1.2 0
-1.116 -0.004 0.787 -0 -1.2 0
-1.15 -0.007 0.811 -0 -1.2 0
-1.178 -0.018 0.831 -0 -1.2 0
-1.22 -0.018 0.859 -0 -1.2 0
-1.261 -0.018 0.888 -0 -1.2 0
-1.303 -0.02 0.918 -0 -1.2 0
-1.346 -0.023 0.947 -0 -1.2 0
-1.395 -0.023 0.981 -0 -1.2 0
-1.445 -0.024 1.016 -0 -1.2 0
-1.502 -0.021 1.056 -0 -1.2 0
-1.559 -0.021 1.096 -0 -1.2 0
-1.624 -0.018 1.141 -0 -1.2 0
-1.69 -0.017 1.187 -0 -1.2 0
-1.749 -0.023 1.228 -0 -1.2 0
-1.815 -0.027 1.274 -0 -1.2 0
-1.89 -0.03 1.326 -0 -1.2 0
-1.979 -0.027 1.388 -0 -1.2 0
-2.077 -0.023 1.456 -0 -1.2 0
-2.175 -0.022 1.524 -0 -1.2 0
-2.274 -0.026 1.593 -0 -1.2 0
-2.397 -0.023 1.678 -0 -1.2 0
-2.497 -0.036 1.748 -0 -1.2 0
-2.636 -0.035 1.845 -0 -1.2 0
-2.776 -0.04 1.942 -0 -1.2 0
-2.94 -0.042 2.056 -0 -1.2 0
-3.113 -0.048 2.177 -0 -1.2 0
-3.318 -0.052 2.32 -0 -1.2 0
-3.523 -0.063 2.463 -0 -1.2 0
-3.777 -0.07 2.64 -0 -1.2 0
-4.088 -0.072 2.857 -0 -1.2 0
-4.401 -0.087 3.075 -0 -1.2 0
-4.803 -0.097 3.355 -0 -1.2 0
-5.262 -0.112 3.675 -0 -1.2 0
-5.877 -0.121 4.103 -0 -1.2 0
-6.55 -0.147 4.573 -0 -1.2 0
-7.452 -0.172 5.201 -0 -1.2 0
-8.568 -0.213 5.979 -0 -1.2 0
-9.183 -0.343 6.41 -0 -1.2 0
-9.183 -0.538 6.414 -0 -1.2 0
-9.187 -0.731 6.422 -0 -1.2 0
-9.181 -0.926 6.424 -0 -1.2 0
-9.171 -1.119 6.422 -0 -1.2 0
-9.176 -1.312 6.43 -0 -1.2 0
-9.169 -1.506 6.43 -0 -1.2 0
-9.16 -1.7 6.428 -0 -1.2 0
-9.065 -1.886 6.367 -0 -1.2 0
-9.288 -2.103 6.527 -0 -1.2 0
-9.277 -2.301 6.525 -0 -1.2 0
-9.281 -2.5 6.534 -0 -1.2 0
-9.274 -2.7 6.533 -0 -1.2 0
-9.263 -2.899 6.531 -0 -1.2 0
-9.258 -3.099 6.532 -0 -1.2 0
-9.258 -3.302 6.538 -0 -1.2 0
-9.246 -3.504 6.535 -0 -1.2 0
-9.248 -3.711 6.542 -0 -1.2 0
-9.239 -3.917 6.54 -0 -1.2 0
-9.226 -4.122 6.536 -0 -1.2 0
-9.226 -4.334 6.542 -0 -1.2 0
-9.223 -4.547 6.545 -0 -1.2 0
-9.232 -4.767 6.557 -0 -1.2 0
-9.222 -4.982 6.556 -0 -1.2 0
-9.224 -5.205 6.563 -0 -1.2 0
-9.215 -5.425 6.562 -0 -1.2 0
-9.217 -5.654 6.57 -0 -1.2 0
-9.208 -5.881 6.569 -0 -1.2 0
-9.203 -6.112 6.571 -0 -1.2 0
-9.202 -6.35 6.576 -0 -1.2 0
-9.189 -6.584 6.573 -0 -1.2 0
-9.186 -6.829 6.578 -0 -1.2 0
-9.194 -7.084 6.59 -0 -1.2 0
-9.182 -7.332 6.588 -0 -1.2 0
-9.174 -7.587 6.589 -0 -1.2 0
-9.169 -7.848 6.592 -0 -1.2 0
-9.11 -8.074 6.556 -0 -1.2 0
-9.101 -8.344 6.557 -0 -1.2 0
-8.919 -8.475 6.434 -0 -1.2 0
-8.59 -8.474 6.206 -0 -1.2 0
-8.554 -8.721 6.186 -0 -1.2 0
-8.273 -8.747 5.992 -0 -1.2 0
-0.957 -0.002 0.725 -0 -1.2 0
-0.984 -0.008 0.745 -0 -1.2 0
-1.016 -0.007 0.77 -0 -1.2 0
-1.05 -0.008 0.794 -0 -1.2 0
-1.083 -0.01 0.819 -0 -1.2 0
-1.123 -0.006 0.849 -0 -1.2 0
-1.15 -0.017 0.87 -0 -1.2 0
-1.191 -0.016 0.9 -0 -1.2 0
-1.225 -0.023 0.925 -0 -1.2 0
-1.272 -0.019 0.961 -0 -1.2 0
-1.313 -0.022 0.992 -0 -1.2 0
-1.362 -0.022 1.028 -0 -1.2 0
-1.41 -0.023 1.064 -0 -1.2 0
-1.466 -0.02 1.105 -0 -1.2 0
-1.529 -0.015 1.152 -0 -1.2 0
-1.593 -0.012 1.2 -0 -1.2 0
-1.65 -0.016 1.243 -0 -1.2 0
-1.714 -0.017 1.291 -0 -1.2 0
-1.779 -0.021 1.339 -0 -1.2 0
-1.845 -0.028 1.388 -0 -1.2 0
-1.932 -0.025 1.453 -0 -1.2 0
-2.02 -0.025 1.519 -0 -1.2 0
-2.123 -0.02 1.596 -0 -1.2 0
-2.22 -0.024 1.668 -0 -1.2 0
-2.339 -0.021 1.758 -0 -1.2 0
-2.445 -0.029 1.836 -0 -1.2 0
-2.565 -0.035 1.926 -0 -1.2 0
-2.694 -0.044 2.023 -0 -1.2 0
-2.862 -0.043 2.148 -0 -1.2 0
-3.031 -0.049 2.275 -0 -1.2 0
-3.231 -0.052 2.424 -0 -1.2 0
-3.447 -0.058 2.586 -0 -1.2 0
-3.687 -0.066 2.766 -0 -1.2 0
-3.967 -0.074 2.975 -0 -1.2 0
-4.272 -0.09 3.203 -0 -1.2 0
-4.656 -0.1 3.491 -0 -1.2 0
-5.105 -0.114 3.826 -0 -1.2 0
-5.705 -0.121 4.274 -0 -1.2 0
-6.385 -0.142 4.783 -0 -1.2 0
-7.251 -0.169 5.43 -0 -1.2 0
-8.459 -0.195 6.334 -0 -1.2 0
-7.508 -0.461 5.63 -0 -1.2 0
-8.459 -0.562 6.343 -0 -1.2 0
-6.164 -0.844 4.636 -0 -1.2 0
-8.457 -0.929 6.351 -0 -1.2 0
-8.463 -1.11 6.361 -0 -1.2 0
-8.444 -1.292 6.351 -0 -1.2 0
-8.454 -1.476 6.363 -0 -1.2 0
-8.452 -1.659 6.367 -0 -1.2 0
-8.362 -1.835 6.304 -0 -1.2 0
-8.491 -2.032 6.406 -0 -1.2 0
-8.538 -2.224 6.446 -0 -1.2 0
-8.542 -2.412 6.454 -0 -1.2 0
-8.529 -2.599 6.448 -0 -1.2 0
-8.528 -2.788 6.452 -0 -1.2 0
-8.516 -2.976 6.449 -0 -1.2 0
-8.518 -3.168 6.456 -0 -1.2 0
-8.517 -3.361 6.46 -0 -1.2 0
-8.513 -3.555 6.462 -0 -1.2 0
-8.506 -3.749 6.461 -0 -1.2 0
-8.503 -3.946 6.465 -0 -1.2 0
-8.499 -4.144 6.467 -0 -1.2 0
-8.49 -4.343 6.466 -0 -1.2 0
-8.488 -4.546 6.468 -0 -1.2 0
-8.481 -4.749 6.469 -0 -1.2 0
-8.486 -4.961 6.478 -0 -1.2 0
-8.48 -5.17 6.48 -0 -1.2 0
-8.472 -5.38 6.479 -0 -1.2 0
-8.467 -5.595 6.481 -0 -1.2 0
-8.429 -5.794 6.458 -0 -1.2 0
-8.404 -6.002 6.444 -0 -1.2 0
-8.46 -6.264 6.494 -0 -1.2 0
-8.455 -6.493 6.495 -0 -1.2 0
-8.453 -6.728 6.5 -0 -1.2 0
-8.447 -6.965 6.502 -0 -1.2 0
-8.444 -7.209 6.506 -0 -1.2 0
-8.444 -7.459 6.512 -0 -1.2 0
-8.438 -7.711 6.516 -0 -1.2 0
-8.429 -7.966 6.515 -0 -1.2 0
-8.355 -8.171 6.465 -0 -1.2 0
-8.331 -8.422 6.454 -0 -1.2 0
-8.072 -8.462 6.261 -0 -1.2 0
-7.889 -8.564 6.128 -0 -1.2 0
-7.713 -8.668 5.998 -0 -1.2 0
-7.537 -8.766 5.869 -0 -1.2 0
-0.927 -0.008 0.752 -0 -1.2 0
-0.958 -0.007 0.778 -0 -1.2 0
-0.99 -0.006 0.803 -0 -1.2 0
-1.023 -0.007 0.829 -0 -1.2 0
-1.061 -0.002 0.86 -0 -1.2 0
-1.088 -0.012 0.881 -0 -1.2 0
-1.121 -0.016 0.908 -0 -1.2 0
-1.16 -0.015 0.939 -0 -1.2 0
-1.193 -0.021 0.966 -0 -1.2 0
-1.233 -0.023 0.998 -0 -1.2 0
-1.28 -0.02 1.035 -0 -1.2 0
-1.327 -0.02 1.073 -0 -1.2 0
-1.368 -0.026 1.105 -0 -1.2 0
-1.422 -0.023 1.149 -0 -1.2 0
-1.483 -0.018 1.198 -0 -1.2 0
-1.545 -0.015 1.247 -0 -1.2 0
-1.601 -0.019 1.292 -0 -1.2 0
-1.67 -0.015 1.348 -0 -1.2 0
-1.734 -0.019 1.398 -0 -1.2 0
-1.797 -0.026 1.449 -0 -1.2 0
-1.883 -0.023 1.517 -0 -1.2 0
-1.961 -0.027 1.58 -0 -1.2 0
-2.062 -0.022 1.661 -0 -1.2 0
-2.163 -0.022 1.742 -0 -1.2 0
-2.272 -0.022 1.829 -0 -1.2 0
-2.375 -0.031 1.911 -0 -1.2 0
-2.5 -0.033 2.011 -0 -1.2 0
-2.625 -0.041 2.112 -0 -1.2 0
-2.766 -0.049 2.226 -0 -1.2 0
-2.953 -0.046 2.375 -0 -1.2 0
-3.133 -0.054 2.519 -0 -1.2 0
-3.343 -0.059 2.688 -0 -1.2 0
-3.585 -0.065 2.881 -0 -1.2 0
-3.843 -0.077 3.088 -0 -1.2 0
-4.163 -0.086 3.344 -0 -1.2 0
-4.53 -0.097 3.639 -0 -1.2 0
-4.974 -0.11 3.995 -0 -1.2 0
-5.536 -0.121 4.444 -0 -1.2 0
-6.106 -0.155 4.902 -0 -1.2 0
-6.319 -0.263 5.074 -0 -1.2 0
-6.28 -0.408 5.048 -0 -1.2 0
-6.326 -0.543 5.088 -0 -1.2 0
-6.354 -0.681 5.114 -0 -1.2 0
-6.396 -0.82 5.152 -0 -1.2 0
-7.811 -0.93 6.288 -0 -1.2 0
-7.809 -1.103 6.291 -0 -1.2 0
-7.821 -1.276 6.305 -0 -1.2 0
-7.824 -1.45 6.311 -0 -1.2 0
-7.816 -1.624 6.31 -0 -1.2 0
-7.765 -1.794 6.275 -0 -1.2 0
-7.776 -1.969 6.288 -0 -1.2 0
-8.443 -2.233 6.829 -0 -1.2 0
-8.447 -2.425 6.837 -0 -1.2 0
-8.395 -2.607 6.8 -0 -1.2 0
-8.424 -2.805 6.829 -0 -1.2 0
-8.351 -2.981 6.776 -0 -1.2 0
-8.421 -3.192 6.837 -0 -1.2 0
-8.184 -3.323 6.65 -0 -1.2 0
-8.407 -3.58 6.836 -0 -1.2 0
-8.408 -3.78 6.842 -0 -1.2 0
-8.405 -3.98 6.845 -0 -1.2 0
-8.123 -4.078 6.623 -0 -1.2 0
-7.834 -4.163 6.393 -0 -1.2 0
-7.84 -4.359 6.403 -0 -1.2 0
-7.836 -4.553 6.405 -0 -1.2 0
-7.83 -4.747 6.406 -0 -1.2 0
-7.827 -4.947 6.409 -0 -1.2 0
-7.815 -5.144 6.404 -0 -1.2 0
-7.813 -5.349 6.409 -0 -1.2 0
-7.801 -5.551 6.405 -0 -1.2 0
-7.801 -5.763 6.409 -0 -1.2 0
-7.733 -5.937 6.36 -0 -1.2 0
-8.354 -6.563 6.874 -0 -1.2 0
-8.248 -6.73 6.794 -0 -1.2 0
-8.344 -7.04 6.878 -0 -1.2 0
-8.34 -7.287 6.883 -0 -1.2 0
-8.086 -7.344 6.68 -0 -1.2 0
-8.318 -7.784 6.879 -0 -1.2 0
-8.295 -8.028 6.867 -0 -1.2 0
-7.986 -8.03 6.619 -0 -1.2 0
-7.717 -8.053 6.404 -0 -1.2 0
-7.707 -8.308 6.402 -0 -1.2 0
-7.587 -8.462 6.311 -0 -1.2 0
-7.301 -8.446 6.082 -0 -1.2 0
-7.245 -8.66 6.043 -0 -1.2 0
-7.026 -8.699 5.869 -0 -1.2 0
-0.9 -0.008 0.785 -0 -1.2 0
-0.931 -0.007 0.811 -0 -1.2 0
-0.956 -0.013 0.833 -0 -1.2 0
-0.987 -0.013 0.86 -0 -1.2 0
-1.019 -0.014 0.887 -0 -1.2 0
-1.05 -0.017 0.915 -0 -1.2 0
-1.082 -0.021 0.942 -0 -1.2 0
-1.126 -0.014 0.98 -0 -1.2 0
-1.165 -0.014 1.013 -0 -1.2 0
-1.191 -0.028 1.036 -0 -1.2 0
-1.249 -0.014 1.085 -0 -1.2 0
-1.282 -0.024 1.114 -0 -1.2 0
-1.334 -0.02 1.159 -0 -1.2 0
-1.374 -0.028 1.193 -0 -1.2 0
-1.427 -0.027 1.239 -0 -1.2 0
-1.494 -0.019 1.296 -0 -1.2 0
-1.547 -0.022 1.342 -0 -1.2 0
-1.615 -0.019 1.4 -0 -1.2 0
-1.683 -0.018 1.459 -0 -1.2 0
-1.759 -0.016 1.524 -0 -1.2 0
-1.828 -0.022 1.583 -0 -1.2 0
-1.904 -0.025 1.649 -0 -1.2 0
-1.988 -0.028 1.721 -0 -1.2 0
-2.093 -0.024 1.812 -0 -1.2 0
-2.199 -0.024 1.903 -0 -1.2 0
-2.306 -0.029 1.995 -0 -1.2 0
-2.413 -0.038 2.087 -0 -1.2 0
-2.556 -0.036 2.21 -0 -1.2 0
-2.693 -0.044 2.328 -0 -1.2 0
-2.867 -0.043 2.479 -0 -1.2 0
-3.042 -0.051 2.629 -0 -1.2 0
-3.254 -0.054 2.811 -0 -1.2 0
-3.458 -0.069 2.988 -0 -1.2 0
-3.716 -0.078 3.21 -0 -1.2 0
-4.034 -0.083 3.484 -0 -1.2 0
-4.383 -0.097 3.785 -0 -1.2 0
-4.83 -0.105 4.169 -0 -1.2 0
-5.352 -0.119 4.619 -0 -1.2 0
-5.988 -0.139 5.167 -0 -1.2 0
-6.799 -0.164 5.865 -0 -1.2 0
-6.952 -0.303 6.001 -0 -1.2 0
-6.641 -0.491 5.739 -0 -1.2 0
-6.6 -0.645 5.708 -0 -1.2 0
-7.226 -0.766 6.249 -0 -1.2 0
-7.227 -0.931 6.255 -0 -1.2 0
-7.234 -1.096 6.265 -0 -1.2 0
-7.23 -1.261 6.267 -0 -1.2 0
-7.224 -1.426 6.267 -0 -1.2 0
-7.224 -1.592 6.272 -0 -1.2 0
-7.2 -1.755 6.254 -0 -1.2 0
-7.127 -1.913 6.197 -0 -1.2 0
-7.293 -2.101 6.345 -0 -1.2 0
-7.277 -2.268 6.336 -0 -1.2 0
-7.281 -2.439 6.344 -0 -1.2 0
-7.282 -2.61 6.349 -0 -1.2 0
-7.274 -2.78 6.346 -0 -1.2 0
-7.27 -2.952 6.349 -0 -1.2 0
-7.265 -3.125 6.349 -0 -1.2 0
-7.264 -3.299 6.353 -0 -1.2 0
-7.262 -3.475 6.355 -0 -1.2 0
-7.255 -3.652 6.355 -0 -1.2 0
-7.255 -3.832 6.36 -0 -1.2 0
-7.252 -4.012 6.361 -0 -1.2 0
-7.238 -4.191 6.354 -0 -1.2 0
-7.237 -4.376 6.358 -0 -1.2 0
-7.232 -4.563 6.361 -0 -1.2 0
-7.225 -4.75 6.36 -0 -1.2 0
-7.215 -4.938 6.357 -0 -1.2 0
-7.217 -5.135 6.363 -0 -1.2 0
-7.215 -5.333 6.367 -0 -1.2 0
-7.204 -5.528 6.362 -0 -1.2 0
-7.196 -5.728 6.361 -0 -1.2 0
-7.185 -5.929 6.357 -0 -1.2 0
-7.197 -6.151 6.374 -0 -1.2 0
-7.193 -6.364 6.376 -0 -1.2 0
-7.191 -6.585 6.381 -0 -1.2 0
-7.186 -6.806 6.383 -0 -1.2 0
-7.183 -7.035 6.386 -0 -1.2 0
-7.171 -7.26 6.382 -0 -1.2 0
-7.173 -7.503 6.391 -0 -1.2 0
-7.171 -7.748 6.396 -0 -1.2 0
-7.153 -7.983 6.386 -0 -1.2 0
-7.106 -8.196 6.351 -0 -1.2 0
-7.079 -8.432 6.335 -0 -1.2 0
-6.852 -8.458 6.14 -0 -1.2 0
-6.705 -8.564 6.017 -0 -1.2 0
-6.541 -8.646 5.879 -0 -1.2 0
-6.405 -8.756 5.765 -0 -1.2 0
-0.874 -0.007 0.814 -0 -1.2 0
-0.898 -0.013 0.837 -0 -1.2 0
-0.934 -0.005 0.869 -0 -1.2 0
-0.959 -0.013 0.892 -0 -1.2 0
-0.995 -0.007 0.926 -0 -1.2 0
-1.026 -0.01 0.954 -0 -1.2 0
-1.051 -0.02 0.977 -0 -1.2 0
-1.088 -0.019 1.011 -0 -1.2 0
-1.119 -0.025 1.04 -0 -1.2 0
-1.163 -0.021 1.08 -0 -1.2 0
-1.213 -0.013 1.126 -0 -1.2 0
-1.251 -0.018 1.161 -0 -1.2 0
-1.302 -0.013 1.208 -0 -1.2 0
-1.347 -0.016 1.249 -0 -1.2 0
-1.386 -0.026 1.285 -0 -1.2 0
-1.444 -0.023 1.339 -0 -1.2 0
-1.503 -0.02 1.393 -0 -1.2 0
-1.568 -0.017 1.453 -0 -1.2 0
-1.635 -0.016 1.514 -0 -1.2 0
-1.708 -0.014 1.581 -0 -1.2 0
-1.782 -0.015 1.649 -0 -1.2 0
-1.856 -0.02 1.717 -0 -1.2 0
-1.937 -0.022 1.792 -0 -1.2 0
-2.026 -0.025 1.874 -0 -1.2 0
-2.129 -0.025 1.968 -0 -1.2 0
-2.239 -0.027 2.07 -0 -1.2 0
-2.35 -0.033 2.172 -0 -1.2 0
-2.461 -0.043 2.274 -0 -1.2 0
-2.608 -0.044 2.41 -0 -1.2 0
-2.791 -0.038 2.577 -0 -1.2 0
-2.954 -0.048 2.728 -0 -1.2 0
-3.137 -0.058 2.898 -0 -1.2 0
-3.365 -0.063 3.107 -0 -1.2 0
-3.601 -0.077 3.324 -0 -1.2 0
-3.925 -0.078 3.621 -0 -1.2 0
-4.263 -0.091 3.933 -0 -1.2 0
-4.69 -0.101 4.326 -0 -1.2 0
-5.175 -0.119 4.773 -0 -1.2 0
-5.793 -0.137 5.342 -0 -1.2 0
-6.595 -0.159 6.08 -0 -1.2 0
-6.714 -0.3 6.193 -0 -1.2 0
-6.707 -0.459 6.191 -0 -1.2 0
-6.719 -0.616 6.206 -0 -1.2 0
-5.051 -0.858 4.68 -0 -1.2 0
-6.701 -0.933 6.2 -0 -1.2 0
-5.876 -1.092 5.444 -0 -1.2 0
-6.697 -1.247 6.205 -0 -1.2 0
-6.698 -1.405 6.211 -0 -1.2 0
-6.691 -1.563 6.209 -0 -1.2 0
-6.697 -1.721 6.219 -0 -1.2 0
-6.612 -1.87 6.145 -0 -1.2 0
-6.76 -2.049 6.286 -0 -1.2 0
-6.752 -2.209 6.283 -0 -1.2 0
-6.757 -2.373 6.291 -0 -1.2 0
-6.752 -2.535 6.292 -0 -1.2 0
-6.752 -2.699 6.297 -0 -1.2 0
-6.742 -2.862 6.293 -0 -1.2 0
-6.745 -3.029 6.3 -0 -1.2 0
-6.731 -3.193 6.292 -0 -1.2 0
-6.723 -3.358 6.289 -0 -1.2 0
-6.719 -3.527 6.289 -0 -1.2 0
-6.72 -3.699 6.295 -0 -1.2 0
-6.71 -3.869 6.292 -0 -1.2 0
-6.707 -4.043 6.294 -0 -1.2 0
-6.708 -4.22 6.299 -0 -1.2 0
-6.705 -4.399 6.302 -0 -1.2 0
-6.694 -4.575 6.297 -0 -1.2 0
-6.694 -4.76 6.302 -0 -1.2 0
-6.69 -4.945 6.304 -0 -1.2 0
-6.684 -5.131 6.304 -0 -1.2 0
-6.682 -5.323 6.307 -0 -1.2 0
-6.677 -5.516 6.308 -0 -1.2 0
-6.669 -5.71 6.306 -0 -1.2 0
-6.671 -5.915 6.314 -0 -1.2 0
-6.663 -6.116 6.312 -0 -1.2 0
-6.665 -6.329 6.321 -0 -1.2 0
-6.658 -6.538 6.319 -0 -1.2 0
-6.652 -6.753 6.321 -0 -1.2 0
-6.65 -6.976 6.324 -0 -1.2 0
-6.643 -7.2 6.325 -0 -1.2 0
-6.639 -7.432 6.328 -0 -1.2 0
-6.631 -7.666 6.327 -0 -1.2 0
-6.625 -7.907 6.328 -0 -1.2 0
-6.574 -8.107 6.287 -0 -1.2 0
-6.571 -8.363 6.291 -0 -1.2 0
-6.408 -8.442 6.144 -0 -1.2 0
-6.2 -8.463 5.954 -0 -1.2 0
-6.168 -8.69 5.931 -0 -1.2 0
-5.972 -8.714 5.751 -0 -1.2 0
-0.847 -0.006 0.843 -0 -1.2 0
-0.871 -0.012 0.866 -0 -1.2 0
-0.9 -0.011 0.895 -0 -1.2 0
-0.929 -0.012 0.924 -0 -1.2 0
-0.953 -0.02 0.947 -0 -1.2 0
-0.994 -0.009 0.987 -0 -1.2 0
-1.018 -0.019 1.011 -0 -1.2 0
-1.054 -0.018 1.047 -0 -1.2 0
-1.096 -0.012 1.088 -0 -1.2 0
-1.127 -0.02 1.118 -0 -1.2 0
-1.169 -0.017 1.16 -0 -1.2 0
-1.212 -0.017 1.202 -0 -1.2 0
-1.261 -0.012 1.25 -0 -1.2 0
-1.299 -0.019 1.287 -0 -1.2 0
-1.343 -0.024 1.33 -0 -1.2 0
-1.399 -0.021 1.386 -0 -1.2 0
-1.456 -0.019 1.441 -0 -1.2 0
-1.52 -0.016 1.504 -0 -1.2 0
-1.578 -0.02 1.561 -0 -1.2 0
-1.655 -0.012 1.637 -0 -1.2 0
-1.72 -0.018 1.701 -0 -1.2 0
-1.792 -0.022 1.771 -0 -1.2 0
-1.877 -0.021 1.855 -0 -1.2 0
-1.963 -0.023 1.939 -0 -1.2 0
-2.063 -0.023 2.037 -0 -1.2 0
-2.163 -0.028 2.136 -0 -1.2 0
-2.277 -0.03 2.248 -0 -1.2 0
-2.392 -0.038 2.361 -0 -1.2 0
-2.528 -0.042 2.494 -0 -1.2 0
-2.691 -0.041 2.656 -0 -1.2 0
-2.862 -0.046 2.824 -0 -1.2 0
-3.033 -0.058 2.993 -0 -1.2 0
-3.254 -0.062 3.21 -0 -1.2 0
-3.497 -0.072 3.448 -0 -1.2 0
-3.789 -0.078 3.735 -0 -1.2 0
-4.16 -0.079 4.099 -0 -1.2 0
-4.538 -0.097 4.472 -0 -1.2 0
-5.008 -0.115 4.934 -0 -1.2 0
-5.287 -0.189 5.211 -0 -1.2 0
-5.097 -0.346 5.029 -0 -1.2 0
-5.055 -0.477 4.99 -0 -1.2 0
-5.038 -0.601 4.978 -0 -1.2 0
-5.027 -0.724 4.971 -0 -1.2 0
-5.629 -0.815 5.565 -0 -1.2 0
-5.736 -1.086 5.678 -0 -1.2 0
-6.162 -1.234 6.1 -0 -1.2 0
-6.214 -1.386 6.156 -0 -1.2 0
-6.207 -1.537 6.154 -0 -1.2 0
-6.213 -1.689 6.164 -0 -1.2 0
-6.131 -1.831 6.088 -0 -1.2 0
-6.303 -2.006 6.262 -0 -1.2 0
-6.387 -2.177 6.35 -0 -1.2 0
-6.385 -2.335 6.352 -0 -1.2 0
-6.387 -2.495 6.359 -0 -1.2 0
-6.381 -2.653 6.358 -0 -1.2 0
-6.379 -2.814 6.361 -0 -1.2 0
-6.376 -2.975 6.361 -0 -1.2 0
-6.37 -3.137 6.361 -0 -1.2 0
-6.369 -3.302 6.365 -0 -1.2 0
-6.373 -3.47 6.374 -0 -1.2 0
-6.36 -3.633 6.366 -0 -1.2 0
-6.359 -3.802 6.37 -0 -1.2 0
-6.363 -3.975 6.379 -0 -1.2 0
-6.243 -4.092 6.265 -0 -1.2 0
-6.216 -4.251 6.243 -0 -1.2 0
-6.214 -4.423 6.245 -0 -1.2 0
-6.209 -4.597 6.245 -0 -1.2 0
-6.202 -4.772 6.243 -0 -1.2 0
-6.204 -4.956 6.251 -0 -1.2 0
-6.198 -5.136 6.251 -0 -1.2 0
-6.195 -5.323 6.253 -0 -1.2 0
-6.19 -5.51 6.254 -0 -1.2 0
-6.188 -5.703 6.257 -0 -1.2 0
-6.11 -5.839 6.184 -0 -1.2 0
-6.292 -6.188 6.373 -0 -1.2 0
-6.279 -6.387 6.368 -0 -1.2 0
-6.283 -6.604 6.376 -0 -1.2 0
-6.27 -6.812 6.371 -0 -1.2 0
-6.265 -7.032 6.372 -0 -1.2 0
-6.258 -7.254 6.371 -0 -1.2 0
-6.258 -7.489 6.378 -0 -1.2 0
-6.248 -7.721 6.376 -0 -1.2 0
-6.246 -7.966 6.381 -0 -1.2 0
-6.091 -8.043 6.231 -0 -1.2 0
-6.094 -8.301 6.24 -0 -1.2 0
-5.99 -8.437 6.143 -0 -1.2 0
-5.776 -8.431 5.932 -0 -1.2 0
-5.717 -8.62 5.88 -0 -1.2 0
-5.561 -8.677 5.728 -0 -1.2 0
-0.816 -0.005 0.872 -0 -1.2 0
-0.844 -0.004 0.902 -0 -1.2 0
-0.873 -0.003 0.932 -0 -1.2 0
-0.896 -0.011 0.956 -0 -1.2 0
-0.924 -0.012 0.986 -0 -1.2 0
-0.953 -0.014 1.017 -0 -1.2 0
-0.987 -0.012 1.053 -0 -1.2 0
-1.022 -0.011 1.089 -0 -1.2 0
-1.057 -0.011 1.126 -0 -1.2 0
-1.092 -0.013 1.163 -0 -1.2 0
-1.128 -0.016 1.201 -0 -1.2 0
-1.169 -0.016 1.244 -0 -1.2 0
-1.216 -0.01 1.294 -0 -1.2 0
-1.258 -0.013 1.339 -0 -1.2 0
-1.307 -0.013 1.39 -0 -1.2 0
-1.349 -0.02 1.435 -0 -1.2 0
-1.398 -0.023 1.486 -0 -1.2 0
-1.466 -0.014 1.557 -0 -1.2 0
-1.521 -0.018 1.616 -0 -1.2 0
-1.596 -0.011 1.695 -0 -1.2 0
-1.665 -0.011 1.767 -0 -1.2 0
-1.734 -0.016 1.841 -0 -1.2 0
-1.81 -0.019 1.921 -0 -1.2 0
-1.893 -0.021 2.008 -0 -1.2 0
-1.989 -0.021 2.11 -0 -1.2 0
-2.092 -0.022 2.218 -0 -1.2 0
-2.196 -0.028 2.328 -0 -1.2 0
-2.313 -0.032 2.451 -0 -1.2 0
-2.444 -0.036 2.589 -0 -1.2 0
-2.602 -0.035 2.756 -0 -1.2 0
-2.754 -0.045 2.917 -0 -1.2 0
-2.925 -0.055 3.099 -0 -1.2 0
-3.138 -0.059 3.324 -0 -1.2 0
-3.352 -0.074 3.549 -0 -1.2 0
-3.654 -0.074 3.868 -0 -1.2 0
-4.011 -0.075 4.245 -0 -1.2 0
-4.349 -0.099 4.602 -0 -1.2 0
-4.822 -0.112 5.103 -0 -1.2 0
-5.38 -0.132 5.691 -0 -1.2 0
-6.197 -0.141 6.554 -0 -1.2 0
-5.128 -0.438 5.434 -0 -1.2 0
-6.082 -0.466 6.442 -0 -1.2 0
-5.762 -0.645 6.111 -0 -1.2 0
-5.751 -0.79 6.103 -0 -1.2 0
-5.746 -0.935 6.101 -0 -1.2 0
-5.745 -1.079 6.104 -0 -1.2 0
-5.749 -1.223 6.113 -0 -1.2 0
-5.758 -1.369 6.127 -0 -1.2 0
-5.745 -1.513 6.118 -0 -1.2 0
-5.75 -1.659 6.129 -0 -1.2 0
-5.672 -1.795 6.05 -0 -1.2 0
-5.722 -1.947 6.107 -0 -1.2 0
-6.112 -2.161 6.524 -0 -1.2 0
-6.051 -2.464 6.469 -0 -1.2 0
-6.347 -2.696 6.791 -0 -1.2 0
-8.909 -3.577 9.52 -0 -1.2 0
-6.086 -2.95 6.522 -0 -1.2 0
-8.903 -4.05 9.529 -0 -1.2 0
-6.047 -3.261 6.49 -0 -1.2 0
-6.005 -3.408 6.45 -0 -1.2 0
-8.881 -4.766 9.525 -0 -1.2 0
-7.118 -4.232 7.65 -0 -1.2 0
-6.297 -4.045 6.777 -0 -1.2 0
-5.981 -4.065 6.444 -0 -1.2 0
-5.749 -4.115 6.201 -0 -1.2 0
-5.748 -4.281 6.205 -0 -1.2 0
-5.751 -4.453 6.214 -0 -1.2 0
-5.745 -4.621 6.213 -0 -1.2 0
-5.744 -4.795 6.216 -0 -1.2 0
-5.74 -4.97 6.217 -0 -1.2 0
-5.74 -5.15 6.222 -0 -1.2 0
-5.73 -5.327 6.218 -0 -1.2 0
-5.737 -5.519 6.23 -0 -1.2 0
-5.728 -5.703 6.227 -0 -1.2 0
-5.658 -5.838 6.158 -0 -1.2 0
-6.356 -6.647 6.918 -0 -1.2 0
-6.176 -6.709 6.731 -0 -1.2 0
-6.333 -7.082 6.908 -0 -1.2 0
-6.314 -7.298 6.895 -0 -1.2 0
-6.12 -7.339 6.69 -0 -1.2 0
-5.899 -7.342 6.457 -0 -1.2 0
-6.005 -7.695 6.58 -0 -1.2 0
-6.045 -7.989 6.632 -0 -1.2 0
-5.838 -7.999 6.413 -0 -1.2 0
-5.644 -8.013 6.208 -0 -1.2 0
-5.634 -8.255 6.205 -0 -1.2 0
-5.571 -8.431 6.143 -0 -1.2 0
-5.371 -8.424 5.933 -0 -1.2 0
-5.3 -8.588 5.863 -0 -1.2 0
-5.164 -8.66 5.721 -0 -1.2 0
-0.787 -0.004 0.899 -0 -1.2 0
-0.814 -0.003 0.93 -0 -1.2 0
-0.836 -0.009 0.955 -0 -1.2 0
-0.864 -0.01 0.986 -0 -1.2 0
-0.896 -0.005 1.022 -0 -1.2 0
-0.924 -0.007 1.054 -0 -1.2 0
-0.957 -0.004 1.091 -0 -1.2 0
-0.985 -0.01 1.123 -0 -1.2 0
-1.024 -0.004 1.167 -0 -1.2 0
-1.064 0 1.211 -0 -1.2 0
-1.092 -0.01 1.244 -0 -1.2 0
-1.132 -0.008 1.289 -0 -1.2 0
-1.173 -0.009 1.334 -0 -1.2 0
-1.208 -0.017 1.374 -0 -1.2 0
-1.254 -0.017 1.426 -0 -1.2 0
-1.301 -0.018 1.479 -0 -1.2 0
-1.348 -0.021 1.532 -0 -1.2 0
-1.407 -0.018 1.599 -0 -1.2 0
-1.467 -0.016 1.666 -0 -1.2 0
-1.539 -0.009 1.747 -0 -1.2 0
-1.605 -0.01 1.822 -0 -1.2 0
-1.678 -0.01 1.905 -0 -1.2 0
-1.751 -0.013 1.987 -0 -1.2 0
-1.825 -0.019 2.071 -0 -1.2 0
-1.912 -0.023 2.168 -0 -1.2 0
-2.011 -0.023 2.28 -0 -1.2 0
-2.117 -0.026 2.4 -0 -1.2 0
-2.224 -0.033 2.52 -0 -1.2 0
-2.35 -0.037 2.663 -0 -1.2 0
-2.508 -0.033 2.842 -0 -1.2 0
-2.655 -0.042 3.008 -0 -1.2 0
-2.814 -0.054 3.188 -0 -1.2 0
-3.013 -0.06 3.413 -0 -1.2 0
-3.245 -0.067 3.674 -0 -1.2 0
-3.516 -0.072 3.981 -0 -1.2 0
-3.841 -0.078 4.348 -0 -1.2 0
-4.167 -0.101 4.716 -0 -1.2 0
-4.629 -0.111 5.239 -0 -1.2 0
-5.193 -0.126 5.875 -0 -1.2 0
-4.771 -0.331 5.407 -0 -1.2 0
-4.758 -0.458 5.395 -0 -1.2 0
-4.763 -0.582 5.405 -0 -1.2 0
-5.343 -0.657 6.062 -0 -1.2 0
-5.332 -0.797 6.053 -0 -1.2 0
-5.333 -0.936 6.059 -0 -1.2 0
-5.332 -1.075 6.062 -0 -1.2 0
-5.336 -1.214 6.07 -0 -1.2 0
-5.338 -1.352 6.078 -0 -1.2 0
-5.332 -1.492 6.076 -0 -1.2 0
-5.331 -1.632 6.079 -0 -1.2 0
-5.29 -1.767 6.035 -0 -1.2 0
-5.266 -1.903 6.013 -0 -1.2 0
-5.621 -2.107 6.421 -0 -1.2 0
-5.764 -2.286 6.587 -0 -1.2 0
-5.76 -2.44 6.588 -0 -1.2 0
-5.748 -2.593 6.579 -0 -1.2 0
-5.747 -2.749 6.583 -0 -1.2 0
-5.64 -2.872 6.467 -0 -1.2 0
-5.746 -3.065 6.591 -0 -1.2 0
-5.739 -3.222 6.588 -0 -1.2 0
-5.571 -3.316 6.402 -0 -1.2 0
-5.738 -3.547 6.598 -0 -1.2 0
-5.739 -3.712 6.604 -0 -1.2 0
-5.737 -3.877 6.606 -0 -1.2 0
-5.701 -4.028 6.571 -0 -1.2 0
-5.473 -4.072 6.314 -0 -1.2 0
-5.331 -4.155 6.157 -0 -1.2 0
-5.329 -4.318 6.159 -0 -1.2 0
-5.325 -4.481 6.16 -0 -1.2 0
-5.325 -4.649 6.166 -0 -1.2 0
-5.323 -4.818 6.169 -0 -1.2 0
-5.313 -4.984 6.161 -0 -1.2 0
-5.323 -5.167 6.18 -0 -1.2 0
-5.313 -5.34 6.174 -0 -1.2 0
-5.313 -5.523 6.179 -0 -1.2 0
-5.31 -5.708 6.181 -0 -1.2 0
-5.249 -5.843 6.116 -0 -1.2 0
-5.674 -6.439 6.615 -0 -1.2 0
-5.664 -6.642 6.61 -0 -1.2 0
-5.548 -6.742 6.483 -0 -1.2 0
-5.655 -7.076 6.615 -0 -1.2 0
-5.637 -7.283 6.599 -0 -1.2 0
-5.473 -7.33 6.416 -0 -1.2 0
-5.639 -7.763 6.618 -0 -1.2 0
-5.625 -7.993 6.609 -0 -1.2 0
-5.432 -8.001 6.391 -0 -1.2 0
-5.241 -8 6.176 -0 -1.2 0
-5.221 -8.226 6.161 -0 -1.2 0
-5.174 -8.418 6.113 -0 -1.2 0
-4.993 -8.416 5.909 -0 -1.2 0
-4.915 -8.563 5.824 -0 -1.2 0
-0.752 -0.011 0.92 -0 -1.2 0
-0.778 -0.009 0.951 -0 -1.2 0
-0.804 -0.008 0.982 -0 -1.2 0
-0.84 0.004 1.026 -0 -1.2 0
-0.862 -0.004 1.052 -0 -1.2 0
-0.888 -0.006 1.084 -0 -1.2 0
-0.92 -0.003 1.123 -0 -1.2 0
-0.947 -0.009 1.155 -0 -1.2 0
-0.98 -0.009 1.194 -0 -1.2 0
-1.018 -0.005 1.24 -0 -1.2 0
-1.05 -0.008 1.28 -0 -1.2 0
-1.089 -0.007 1.326 -0 -1.2 0
-1.128 -0.008 1.373 -0 -1.2 0
-1.172 -0.006 1.427 -0 -1.2 0
-1.211 -0.01 1.474 -0 -1.2 0
-1.256 -0.012 1.529 -0 -1.2 0
-1.302 -0.015 1.583 -0 -1.2 0
-1.359 -0.011 1.652 -0 -1.2 0
-1.416 -0.01 1.721 -0 -1.2 0
-1.485 -0.003 1.805 -0 -1.2 0
-1.549 -0.004 1.882 -0 -1.2 0
-1.614 -0.009 1.96 -0 -1.2 0
-1.678 -0.015 2.038 -0 -1.2 0
-1.755 -0.018 2.131 -0 -1.2 0
-1.844 -0.017 2.238 -0 -1.2 0
-1.928 -0.024 2.339 -0 -1.2 0
-2.03 -0.027 2.462 -0 -1.2 0
-2.138 -0.031 2.594 -0 -1.2 0
-2.26 -0.034 2.74 -0 -1.2 0
-2.412 -0.03 2.924 -0 -1.2 0
-2.553 -0.039 3.095 -0 -1.2 0
-2.718 -0.046 3.296 -0 -1.2 0
-2.884 -0.062 3.497 -0 -1.2 0
-3.132 -0.058 3.796 -0 -1.2 0
-3.388 -0.066 4.104 -0 -1.2 0
-3.681 -0.078 4.459 -0 -1.2 0
-4.013 -0.095 4.86 -0 -1.2 0
-4.464 -0.103 5.407 -0 -1.2 0
-4.949 -0.129 5.992 -0 -1.2 0
-4.963 -0.261 6.015 -0 -1.2 0
-4.971 -0.396 6.027 -0 -1.2 0
-4.963 -0.532 6.022 -0 -1.2 0
-4.96 -0.667 6.022 -0 -1.2 0
-4.955 -0.802 6.022 -0 -1.2 0
-4.955 -0.936 6.027 -0 -1.2 0
-4.949 -1.07 6.022 -0 -1.2 0
-4.946 -1.204 6.023 -0 -1.2 0
-4.961 -1.339 6.045 -0 -1.2 0
-4.949 -1.473 6.036 -0 -1.2 0
-4.949 -1.608 6.04 -0 -1.2 0
-4.934 -1.741 6.026 -0 -1.2 0
-4.885 -1.869 5.972 -0 -1.2 0
-4.988 -2.024 6.101 -0 -1.2 0
-4.987 -2.162 6.104 -0 -1.2 0
-4.986 -2.301 6.106 -0 -1.2 0
-4.988 -2.441 6.114 -0 -1.2 0
-4.976 -2.579 6.104 -0 -1.2 0
-4.982 -2.722 6.115 -0 -1.2 0
-4.979 -2.864 6.118 -0 -1.2 0
-4.975 -3.006 6.117 -0 -1.2 0
-4.97 -3.149 6.115 -0 -1.2 0
-4.969 -3.296 6.118 -0 -1.2 0
-4.965 -3.443 6.119 -0 -1.2 0
-4.961 -3.59 6.118 -0 -1.2 0
-4.954 -3.738 6.115 -0 -1.2 0
-4.957 -3.894 6.124 -0 -1.2 0
-4.953 -4.047 6.123 -0 -1.2 0
-4.941 -4.196 6.113 -0 -1.2 0
-4.938 -4.355 6.116 -0 -1.2 0
-4.934 -4.514 6.116 -0 -1.2 0
-4.933 -4.678 6.119 -0 -1.2 0
-4.935 -4.847 6.128 -0 -1.2 0
-4.925 -5.009 6.121 -0 -1.2 0
-4.923 -5.181 6.124 -0 -1.2 0
-4.919 -5.354 6.125 -0 -1.2 0
-4.913 -5.529 6.122 -0 -1.2 0
-4.92 -5.719 6.138 -0 -1.2 0
-4.919 -5.907 6.143 -0 -1.2 0
-4.92 -6.101 6.151 -0 -1.2 0
-4.92 -6.297 6.155 -0 -1.2 0
-4.91 -6.489 6.15 -0 -1.2 0
-4.903 -6.688 6.149 -0 -1.2 0
-4.899 -6.894 6.149 -0 -1.2 0
-4.895 -7.108 6.153 -0 -1.2 0
-4.889 -7.324 6.152 -0 -1.2 0
-4.889 -7.554 6.159 -0 -1.2 0
-4.875 -7.773 6.15 -0 -1.2 0
-4.859 -7.994 6.137 -0 -1.2 0
-4.835 -8.209 6.115 -0 -1.2 0
-4.797 -8.411 6.076 -0 -1.2 0
-4.634 -8.416 5.879 -0 -1.2 0
-0.728 0.004 0.958 -0 -1.2 0
-0.748 -0.001 0.984 -0 -1.2 0
-0.769 -0.007 1.011 -0 -1.2 0
-0.794 -0.008 1.043 -0 -1.2 0
-0.819 -0.009 1.076 -0 -1.2 0
-0.844 -0.012 1.109 -0 -1.2 0
-0.875 -0.009 1.149 -0 -1.2 0
-0.905 -0.008 1.189 -0 -1.2 0
-0.936 -0.008 1.229 -0 -1.2 0
-0.973 -0.003 1.276 -0 -1.2 0
-0.999 -0.012 1.31 -0 -1.2 0
-1.051 0.004 1.378 -0 -1.2 0
-1.083 -0.001 1.42 -0 -1.2 0
-1.12 -0.004 1.468 -0 -1.2 0
-1.163 -0.004 1.524 -0 -1.2 0
-1.206 -0.005 1.58 -0 -1.2 0
-1.255 -0.004 1.643 -0 -1.2 0
-1.304 -0.005 1.707 -0 -1.2 0
-1.353 -0.008 1.771 -0 -1.2 0
-1.419 -0.002 1.857 -0 -1.2 0
-1.475 -0.006 1.93 -0 -1.2 0
-1.542 -0.007 2.017 -0 -1.2 0
-1.61 -0.009 2.104 -0 -1.2 0
-1.677 -0.015 2.193 -0 -1.2 0
-1.768 -0.012 2.311 -0 -1.2 0
-1.854 -0.016 2.422 -0 -1.2 0
-1.94 -0.024 2.534 -0 -1.2 0
-2.05 -0.024 2.677 -0 -1.2 0
-2.16 -0.031 2.82 -0 -1.2 0
-2.294 -0.033 2.994 -0 -1.2 0
-2.44 -0.036 3.184 -0 -1.2 0
-2.592 -0.046 3.384 -0 -1.2 0
-2.769 -0.053 3.614 -0 -1.2 0
-2.988 -0.057 3.899 -0 -1.2 0
-3.238 -0.062 4.224 -0 -1.2 0
-3.506 -0.077 4.573 -0 -1.2 0
-3.847 -0.087 5.018 -0 -1.2 0
-4.261 -0.099 5.557 -0 -1.2 0
-4.487 -0.174 5.853 -0 -1.2 0
-4.489 -0.302 5.859 -0 -1.2 0
-4.482 -0.431 5.855 -0 -1.2 0
-4.474 -0.56 5.849 -0 -1.2 0
-4.484 -0.686 5.866 -0 -1.2 0
-4.455 -0.815 5.833 -0 -1.2 0
-4.461 -0.941 5.845 -0 -1.2 0
-4.455 -1.067 5.84 -0 -1.2 0
-4.458 -1.193 5.849 -0 -1.2 0
-4.448 -1.319 5.841 -0 -1.2 0
-4.444 -1.445 5.839 -0 -1.2 0
-4.449 -1.573 5.85 -0 -1.2 0
-4.454 -1.701 5.86 -0 -1.2 0
-4.445 -1.827 5.853 -0 -1.2 0
-4.452 -1.957 5.868 -0 -1.2 0
-4.494 -2.095 5.927 -0 -1.2 0
-4.5 -2.228 5.938 -0 -1.2 0
-4.521 -2.366 5.969 -0 -1.2 0
-4.534 -2.504 5.992 -0 -1.2 0
-4.534 -2.639 5.997 -0 -1.2 0
-4.528 -2.773 5.992 -0 -1.2 0
-4.536 -2.913 6.008 -0 -1.2 0
-4.543 -3.055 6.022 -0 -1.2 0
-4.549 -3.198 6.034 -0 -1.2 0
-4.541 -3.336 6.028 -0 -1.2 0
-4.537 -3.478 6.029 -0 -1.2 0
-4.538 -3.623 6.034 -0 -1.2 0
-4.536 -3.77 6.037 -0 -1.2 0
-4.534 -3.917 6.039 -0 -1.2 0
-4.541 -4.073 6.052 -0 -1.2 0
-4.495 -4.194 5.997 -0 -1.2 0
-4.537 -4.379 6.057 -0 -1.2 0
-4.527 -4.53 6.049 -0 -1.2 0
-4.525 -4.69 6.053 -0 -1.2 0
-4.527 -4.855 6.061 -0 -1.2 0
-4.527 -5.022 6.067 -0 -1.2 0
-4.524 -5.19 6.069 -0 -1.2 0
-4.52 -5.36 6.069 -0 -1.2 0
-4.514 -5.53 6.065 -0 -1.2 0
-4.509 -5.707 6.066 -0 -1.2 0
-4.508 -5.89 6.071 -0 -1.2 0
-4.474 -6.041 6.032 -0 -1.2 0
-4.119 -5.822 5.562 -0 -1.2 0
-3.993 -5.853 5.401 -0 -1.2 0
-4.511 -6.678 6.1 -0 -1.2 0
-4.51 -6.888 6.107 -0 -1.2 0
-4.505 -7.099 6.108 -0 -1.2 0
-4.503 -7.318 6.113 -0 -1.2 0
-4.497 -7.539 6.113 -0 -1.2 0
-4.493 -7.768 6.114 -0 -1.2 0
-4.472 -7.979 6.094 -0 -1.2 0
-4.447 -8.191 6.069 -0 -1.2 0
-4.309 -8.221 5.892 -0 -1.2 0
-0.691 -0.002 0.976 -0 -1.2 0
-0.711 -0.008 1.003 -0 -1.2 0
-0.735 -0.006 1.036 -0 -1.2 0
-0.759 -0.007 1.069 -0 -1.2 0
-0.787 -0.002 1.109 -0 -1.2 0
-0.812 -0.005 1.143 -0 -1.2 0
-0.841 -0.001 1.184 -0 -1.2 0
-0.861 -0.013 1.212 -0 -1.2 0
-0.89 -0.013 1.253 -0 -1.2 0
-0.925 -0.008 1.301 -0 -1.2 0
-0.964 0 1.357 -0 -1.2 0
-1 0 1.406 -0 -1.2 0
-1.035 0 1.455 -0 -1.2 0
-1.076 0.001 1.512 -0 -1.2 0
-1.107 -0.008 1.555 -0 -1.2 0
-1.153 -0.004 1.619 -0 -1.2 0
-1.2 -0.003 1.684 -0 -1.2 0
-1.246 -0.003 1.75 -0 -1.2 0
-1.299 -0.003 1.823 -0 -1.2 0
-1.362 0.003 1.911 -0 -1.2 0
-1.415 -0.001 1.985 -0 -1.2 0
-1.469 -0.009 2.06 -0 -1.2 0
-1.533 -0.011 2.15 -0 -1.2 0
-1.603 -0.014 2.248 -0 -1.2 0
-1.674 -0.021 2.346 -0 -1.2 0
-1.761 -0.02 2.468 -0 -1.2 0
-1.855 -0.022 2.598 -0 -1.2 0
-1.954 -0.026 2.736 -0 -1.2 0
-2.059 -0.032 2.883 -0 -1.2 0
-2.193 -0.031 3.069 -0 -1.2 0
-2.327 -0.036 3.257 -0 -1.2 0
-2.484 -0.04 3.477 -0 -1.2 0
-2.664 -0.044 3.728 -0 -1.2 0
-2.851 -0.056 3.989 -0 -1.2 0
-3.095 -0.059 4.33 -0 -1.2 0
-3.357 -0.071 4.696 -0 -1.2 0
-3.655 -0.089 5.112 -0 -1.2 0
-4.067 -0.096 5.688 -0 -1.2 0
-4.255 -0.177 5.952 -0 -1.2 0
-4.256 -0.304 5.957 -0 -1.2 0
-4.25 -0.431 5.953 -0 -1.2 0
-4.248 -0.558 5.955 -0 -1.2 0
-4.246 -0.685 5.956 -0 -1.2 0
-4.241 -0.811 5.955 -0 -1.2 0
-4.247 -0.936 5.967 -0 -1.2 0
-4.24 -1.062 5.962 -0 -1.2 0
-4.238 -1.187 5.963 -0 -1.2 0
-4.247 -1.314 5.979 -0 -1.2 0
-4.241 -1.44 5.976 -0 -1.2 0
-4.235 -1.566 5.972 -0 -1.2 0
-4.234 -1.693 5.974 -0 -1.2 0
-4.178 -1.81 5.902 -0 -1.2 0
-4.22 -1.945 5.965 -0 -1.2 0
-4.244 -2.079 6.003 -0 -1.2 0
-4.243 -2.208 6.005 -0 -1.2 0
-4.24 -2.338 6.006 -0 -1.2 0
-4.242 -2.469 6.013 -0 -1.2 0
-4.248 -2.603 6.026 -0 -1.2 0
-4.236 -2.732 6.013 -0 -1.2 0
-4.233 -2.865 6.015 -0 -1.2 0
-4.23 -2.999 6.014 -0 -1.2 0
-4.224 -3.133 6.011 -0 -1.2 0
-4.223 -3.271 6.014 -0 -1.2 0
-4.22 -3.409 6.016 -0 -1.2 0
-4.221 -3.551 6.022 -0 -1.2 0
-4.22 -3.694 6.026 -0 -1.2 0
-4.214 -3.834 6.021 -0 -1.2 0
-4.221 -3.986 6.036 -0 -1.2 0
-4.21 -4.128 6.025 -0 -1.2 0
-4.208 -4.278 6.028 -0 -1.2 0
-4.204 -4.429 6.028 -0 -1.2 0
-4.199 -4.581 6.026 -0 -1.2 0
-4.207 -4.747 6.043 -0 -1.2 0
-4.198 -4.901 6.035 -0 -1.2 0
-4.197 -5.065 6.04 -0 -1.2 0
-4.188 -5.226 6.033 -0 -1.2 0
-4.183 -5.392 6.032 -0 -1.2 0
-4.185 -5.57 6.042 -0 -1.2 0
-4.186 -5.75 6.048 -0 -1.2 0
-3.931 -5.637 5.689 -0 -1.2 0
-3.854 -5.721 5.585 -0 -1.2 0
-3.846 -5.889 5.58 -0 -1.2 0
-4.175 -6.501 6.059 -0 -1.2 0
-4.167 -6.694 6.055 -0 -1.2 0
-4.166 -6.901 6.06 -0 -1.2 0
-4.156 -7.103 6.054 -0 -1.2 0
-4.153 -7.319 6.057 -0 -1.2 0
-4.15 -7.544 6.062 -0 -1.2 0
-4.149 -7.778 6.068 -0 -1.2 0
-4.14 -8.007 6.063 -0 -1.2 0
-4.131 -8.245 6.059 -0 -1.2 0
-0.659 -0.001 0.998 -0 -1.2 0
-0.677 -0.007 1.026 -0 -1.2 0
-0.7 -0.005 1.06 -0 -1.2 0
-0.723 -0.006 1.094 -0 -1.2 0
-0.746 -0.007 1.129 -0 -1.2 0
-0.769 -0.01 1.163 -0 -1.2 0
-0.797 -0.007 1.205 -0 -1.2 0
-0.825 -0.006 1.247 -0 -1.2 0
-0.857 0 1.296 -0 -1.2 0
-0.881 -0.007 1.331 -0 -1.2 0
-0.914 -0.005 1.381 -0 -1.2 0
-0.953 0.001 1.438 -0 -1.2 0
-0.991 0.006 1.496 -0 -1.2 0
-1.025 0.002 1.547 -0 -1.2 0
-1.059 -0.001 1.598 -0 -1.2 0
-1.103 0.001 1.664 -0 -1.2 0
-1.143 -0.001 1.723 -0 -1.2 0
-1.188 -0.002 1.79 -0 -1.2 0
-1.238 -0.001 1.865 -0 -1.2 0
-1.298 0.005 1.955 -0 -1.2 0
-1.349 0 2.031 -0 -1.2 0
-1.405 -0.003 2.115 -0 -1.2 0
-1.461 -0.01 2.2 -0 -1.2 0
-1.528 -0.012 2.3 -0 -1.2 0
-1.6 -0.015 2.408 -0 -1.2 0
-1.678 -0.018 2.525 -0 -1.2 0
-1.767 -0.02 2.658 -0 -1.2 0
-1.862 -0.024 2.8 -0 -1.2 0
-1.962 -0.03 2.95 -0 -1.2 0
-2.089 -0.028 3.141 -0 -1.2 0
-2.223 -0.031 3.34 -0 -1.2 0
-2.367 -0.037 3.558 -0 -1.2 0
-2.533 -0.043 3.807 -0 -1.2 0
-2.738 -0.044 4.114 -0 -1.2 0
-2.944 -0.057 4.423 -0 -1.2 0
-3.194 -0.069 4.797 -0 -1.2 0
-3.483 -0.085 5.231 -0 -1.2 0
-3.744 -0.126 5.623 -0 -1.2 0
-3.745 -0.244 5.629 -0 -1.2 0
-3.69 -0.372 5.551 -0 -1.2 0
-3.683 -0.488 5.546 -0 -1.2 0
-3.682 -0.603 5.547 -0 -1.2 0
-3.667 -0.72 5.53 -0 -1.2 0
-3.913 -0.816 5.902 -0 -1.2 0
-3.93 -0.936 5.932 -0 -1.2 0
-3.924 -1.058 5.926 -0 -1.2 0
-3.921 -1.18 5.927 -0 -1.2 0
-3.924 -1.302 5.935 -0 -1.2 0
-3.919 -1.424 5.932 -0 -1.2 0
-3.913 -1.546 5.928 -0 -1.2 0
-3.923 -1.671 5.947 -0 -1.2 0
-3.87 -1.786 5.873 -0 -1.2 0
-3.884 -1.912 5.897 -0 -1.2 0
-3.928 -2.046 5.968 -0 -1.2 0
-3.932 -2.173 5.979 -0 -1.2 0
-3.931 -2.299 5.981 -0 -1.2 0
-3.921 -2.424 5.972 -0 -1.2 0
-3.927 -2.554 5.986 -0 -1.2 0
-3.922 -2.682 5.982 -0 -1.2 0
-3.92 -2.811 5.984 -0 -1.2 0
-3.916 -2.942 5.984 -0 -1.2 0
-3.918 -3.075 5.989 -0 -1.2 0
-3.912 -3.206 5.985 -0 -1.2 0
-3.909 -3.341 5.987 -0 -1.2 0
-3.906 -3.476 5.987 -0 -1.2 0
-3.901 -3.612 5.984 -0 -1.2 0
-3.895 -3.749 5.979 -0 -1.2 0
-3.892 -3.89 5.98 -0 -1.2 0
-3.898 -4.039 5.995 -0 -1.2 0
-3.897 -4.185 5.998 -0 -1.2 0
-3.894 -4.333 6 -0 -1.2 0
-3.895 -4.486 6.006 -0 -1.2 0
-3.888 -4.635 6.003 -0 -1.2 0
-3.885 -4.79 6.003 -0 -1.2 0
-3.886 -4.95 6.009 -0 -1.2 0
-3.884 -5.112 6.013 -0 -1.2 0
-3.875 -5.27 6.005 -0 -1.2 0
-3.874 -5.439 6.009 -0 -1.2 0
-3.838 -5.573 5.961 -0 -1.2 0
-3.865 -5.782 6.009 -0 -1.2 0
-3.862 -5.961 6.01 -0 -1.2 0
-3.86 -6.147 6.015 -0 -1.2 0
-3.857 -6.334 6.016 -0 -1.2 0
-3.855 -6.53 6.021 -0 -1.2 0
-3.855 -6.733 6.027 -0 -1.2 0
-3.848 -6.932 6.024 -0 -1.2 0
-3.843 -7.138 6.023 -0 -1.2 0
-3.838 -7.353 6.024 -0 -1.2 0
-3.834 -7.576 6.026 -0 -1.2 0
-3.827 -7.802 6.024 -0 -1.2 0
-3.817 -8.029 6.018 -0 -1.2 0
-0.623 0 1.021 -0 -1.2 0
-0.644 0 1.056 -0 -1.2 0
-0.666 0.002 1.091 -0 -1.2 0
-0.683 -0.005 1.119 -0 -1.2 0
-0.705 -0.006 1.155 -0 -1.2 0
-0.731 -0.003 1.197 -0 -1.2 0
-0.757 0 1.239 -0 -1.2 0
-0.78 -0.005 1.276 -0 -1.2 0
-0.806 -0.005 1.319 -0 -1.2 0
-0.833 -0.006 1.362 -0 -1.2 0
-0.865 -0.004 1.413 -0 -1.2 0
-0.896 -0.002 1.464 -0 -1.2 0
-0.937 0.007 1.53 -0 -1.2 0
-0.969 0.004 1.583 -0 -1.2 0
-1.006 0.005 1.642 -0 -1.2 0
-1.043 0.003 1.703 -0 -1.2 0
-1.081 0 1.763 -0 -1.2 0
-1.123 0 1.832 -0 -1.2 0
-1.17 0 1.908 -0 -1.2 0
-1.227 0.006 2.001 -0 -1.2 0
-1.271 -0.001 2.071 -0 -1.2 0
-1.328 -0.001 2.164 -0 -1.2 0
-1.386 -0.004 2.259 -0 -1.2 0
-1.445 -0.01 2.353 -0 -1.2 0
-1.513 -0.013 2.464 -0 -1.2 0
-1.592 -0.013 2.592 -0 -1.2 0
-1.676 -0.015 2.728 -0 -1.2 0
-1.76 -0.021 2.865 -0 -1.2 0
-1.86 -0.024 3.027 -0 -1.2 0
-1.981 -0.022 3.222 -0 -1.2 0
-2.107 -0.026 3.426 -0 -1.2 0
-2.238 -0.034 3.64 -0 -1.2 0
-2.4 -0.038 3.904 -0 -1.2 0
-2.579 -0.044 4.193 -0 -1.2 0
-2.778 -0.056 4.517 -0 -1.2 0
-3.01 -0.068 4.892 -0 -1.2 0
-3.298 -0.079 5.361 -0 -1.2 0
-3.623 -0.098 5.889 -0 -1.2 0
-3.625 -0.218 5.896 -0 -1.2 0
-3.505 -0.363 5.706 -0 -1.2 0
-3.498 -0.481 5.7 -0 -1.2 0
-3.497 -0.596 5.702 -0 -1.2 0
-3.493 -0.712 5.701 -0 -1.2 0
-3.605 -0.818 5.886 -0 -1.2 0
-3.621 -0.936 5.916 -0 -1.2 0
-3.61 -1.055 5.902 -0 -1.2 0
-3.607 -1.173 5.903 -0 -1.2 0
-3.61 -1.293 5.911 -0 -1.2 0
-3.605 -1.411 5.909 -0 -1.2 0
-3.605 -1.531 5.913 -0 -1.2 0
-3.604 -1.651 5.914 -0 -1.2 0
-3.565 -1.763 5.856 -0 -1.2 0
-3.561 -1.882 5.855 -0 -1.2 0
-3.619 -2.017 5.954 -0 -1.2 0
-3.614 -2.138 5.95 -0 -1.2 0
-3.617 -2.262 5.96 -0 -1.2 0
-3.613 -2.385 5.96 -0 -1.2 0
-3.61 -2.509 5.958 -0 -1.2 0
-3.609 -2.635 5.962 -0 -1.2 0
-3.609 -2.761 5.964 -0 -1.2 0
-3.601 -2.886 5.957 -0 -1.2 0
-3.607 -3.019 5.971 -0 -1.2 0
-3.597 -3.144 5.96 -0 -1.2 0
-3.6 -3.278 5.97 -0 -1.2 0
-3.597 -3.411 5.971 -0 -1.2 0
-3.593 -3.543 5.969 -0 -1.2 0
-3.593 -3.68 5.973 -0 -1.2 0
-3.591 -3.818 5.975 -0 -1.2 0
-3.587 -3.957 5.975 -0 -1.2 0
-3.577 -4.092 5.964 -0 -1.2 0
-3.575 -4.236 5.966 -0 -1.2 0
-3.572 -4.381 5.967 -0 -1.2 0
-3.572 -4.531 5.972 -0 -1.2 0
-3.579 -4.692 5.99 -0 -1.2 0
-3.57 -4.84 5.982 -0 -1.2 0
-3.57 -4.999 5.987 -0 -1.2 0
-3.567 -5.158 5.987 -0 -1.2 0
-3.558 -5.314 5.979 -0 -1.2 0
-3.56 -5.487 5.989 -0 -1.2 0
-3.556 -5.656 5.989 -0 -1.2 0
-3.555 -5.831 5.992 -0 -1.2 0
-3.55 -6.009 5.992 -0 -1.2 0
-3.54 -6.181 5.981 -0 -1.2 0
-3.536 -6.367 5.981 -0 -1.2 0
-3.536 -6.566 5.991 -0 -1.2 0
-3.531 -6.761 5.99 -0 -1.2 0
-3.531 -6.97 5.997 -0 -1.2 0
-3.528 -7.182 6.001 -0 -1.2 0
-3.518 -7.388 5.993 -0 -1.2 0
-3.525 -7.631 6.012 -0 -1.2 0
-3.509 -7.841 5.996 -0 -1.2 0
-0.592 0.007 1.047 -0 -1.2 0
-0.609 0.001 1.077 -0 -1.2 0
-0.629 0.002 1.112 -0 -1.2 0
-0.646 -0.004 1.142 -0 -1.2 0
-0.667 -0.005 1.178 -0 -1.2 0
-0.695 0.004 1.227 -0 -1.2 0
-0.712 -0.005 1.257 -0 -1.2 0
-0.737 -0.004 1.301 -0 -1.2 0
-0.758 -0.01 1.338 -0 -1.2 0
-0.788 -0.005 1.389 -0 -1.2 0
-0.821 0.002 1.448 -0 -1.2 0
-0.847 -0.001 1.494 -0 -1.2 0
-0.877 -0.002 1.546 -0 -1.2 0
-0.916 0.005 1.614 -0 -1.2 0
-0.947 0 1.668 -0 -1.2 0
-0.978 -0.005 1.722 -0 -1.2 0
-1.026 0.006 1.806 -0 -1.2 0
-1.062 0 1.868 -0 -1.2 0
-1.106 0.001 1.946 -0 -1.2 0
-1.16 0.008 2.041 -0 -1.2 0
-1.201 0 2.112 -0 -1.2 0
-1.251 -0.004 2.2 -0 -1.2 0
-1.306 -0.006 2.296 -0 -1.2 0
-1.366 -0.008 2.4 -0 -1.2 0
-1.431 -0.011 2.513 -0 -1.2 0
-1.505 -0.011 2.643 -0 -1.2 0
-1.584 -0.013 2.782 -0 -1.2 0
-1.664 -0.019 2.922 -0 -1.2 0
-1.759 -0.022 3.087 -0 -1.2 0
-1.873 -0.02 3.286 -0 -1.2 0
-1.996 -0.02 3.503 -0 -1.2 0
-2.121 -0.029 3.72 -0 -1.2 0
-2.274 -0.032 3.99 -0 -1.2 0
-2.433 -0.044 4.269 -0 -1.2 0
-2.627 -0.052 4.607 -0 -1.2 0
-2.845 -0.065 4.99 -0 -1.2 0
-3.118 -0.075 5.467 -0 -1.2 0
-3.45 -0.086 6.049 -0 -1.2 0
-3.526 -0.188 6.185 -0 -1.2 0
-3.521 -0.313 6.181 -0 -1.2 0
-3.521 -0.436 6.185 -0 -1.2 0
-3.518 -0.559 6.188 -0 -1.2 0
-3.511 -0.683 6.179 -0 -1.2 0
-3.507 -0.805 6.177 -0 -1.2 0
-3.511 -0.927 6.19 -0 -1.2 0
-3.501 -1.049 6.176 -0 -1.2 0
-3.499 -1.17 6.177 -0 -1.2 0
-3.496 -1.292 6.176 -0 -1.2 0
-3.491 -1.414 6.174 -0 -1.2 0
-3.487 -1.536 6.169 -0 -1.2 0
-3.49 -1.659 6.18 -0 -1.2 0
-3.433 -1.772 6.086 -0 -1.2 0
-3.44 -1.894 6.102 -0 -1.2 0
-3.508 -2.036 6.227 -0 -1.2 0
-3.507 -2.161 6.231 -0 -1.2 0
-3.506 -2.287 6.232 -0 -1.2 0
-3.497 -2.412 6.223 -0 -1.2 0
-3.498 -2.54 6.229 -0 -1.2 0
-3.493 -2.667 6.224 -0 -1.2 0
-3.491 -2.797 6.226 -0 -1.2 0
-3.492 -2.929 6.235 -0 -1.2 0
-3.484 -3.057 6.224 -0 -1.2 0
-3.478 -3.188 6.22 -0 -1.2 0
-3.485 -3.328 6.238 -0 -1.2 0
-3.477 -3.46 6.229 -0 -1.2 0
-3.473 -3.596 6.227 -0 -1.2 0
-3.467 -3.732 6.222 -0 -1.2 0
-3.465 -3.872 6.223 -0 -1.2 0
-3.465 -4.017 6.23 -0 -1.2 0
-3.459 -4.159 6.226 -0 -1.2 0
-3.457 -4.306 6.227 -0 -1.2 0
-3.453 -4.454 6.226 -0 -1.2 0
-3.448 -4.602 6.222 -0 -1.2 0
-3.449 -4.761 6.232 -0 -1.2 0
-3.441 -4.911 6.222 -0 -1.2 0
-3.439 -5.073 6.226 -0 -1.2 0
-3.431 -5.23 6.219 -0 -1.2 0
-3.43 -5.398 6.223 -0 -1.2 0
-3.419 -5.557 6.21 -0 -1.2 0
-3.423 -5.739 6.223 -0 -1.2 0
-3.412 -5.906 6.211 -0 -1.2 0
-3.411 -6.091 6.217 -0 -1.2 0
-3.404 -6.271 6.212 -0 -1.2 0
-3.403 -6.465 6.217 -0 -1.2 0
-3.392 -6.648 6.204 -0 -1.2 0
-3.393 -6.858 6.214 -0 -1.2 0
-3.385 -7.057 6.208 -0 -1.2 0
-3.381 -7.27 6.21 -0 -1.2 0
-3.371 -7.479 6.201 -0 -1.2 0
-3.365 -7.702 6.199 -0 -1.2 0
-3.36 -7.935 6.2 -0 -1.2 0
-0.554 0 1.061 -0 -1.2 0
-0.57 -0.004 1.09 -0 -1.2 0
-0.589 -0.003 1.126 -0 -1.2 0
-0.608 -0.004 1.163 -0 -1.2 0
-0.631 0.001 1.206 -0 -1.2 0
-0.651 -0.001 1.243 -0 -1.2 0
-0.674 0.002 1.287 -0 -1.2 0
-0.694 -0.003 1.325 -0 -1.2 0
-0.718 -0.003 1.37 -0 -1.2 0
-0.741 -0.004 1.415 -0 -1.2 0
-0.769 -0.002 1.468 -0 -1.2 0
-0.798 0 1.521 -0 -1.2 0
-0.826 -0.001 1.575 -0 -1.2 0
-0.862 0.006 1.644 -0 -1.2 0
-0.895 0.008 1.706 -0 -1.2 0
-0.928 0.005 1.768 -0 -1.2 0
-0.958 -0.002 1.824 -0 -1.2 0
-1.003 0.006 1.91 -0 -1.2 0
-1.037 -0.001 1.974 -0 -1.2 0
-1.084 0.001 2.062 -0 -1.2 0
-1.135 0.005 2.159 -0 -1.2 0
-1.182 0.001 2.248 -0 -1.2 0
-1.229 -0.004 2.338 -0 -1.2 0
-1.286 -0.006 2.444 -0 -1.2 0
-1.347 -0.009 2.559 -0 -1.2 0
-1.408 -0.016 2.675 -0 -1.2 0
-1.487 -0.014 2.825 -0 -1.2 0
-1.567 -0.017 2.976 -0 -1.2 0
-1.651 -0.023 3.135 -0 -1.2 0
-1.758 -0.021 3.338 -0 -1.2 0
-1.852 -0.034 3.517 -0 -1.2 0
-1.992 -0.028 3.78 -0 -1.2 0
-2.136 -0.032 4.055 -0 -1.2 0
-2.29 -0.041 4.347 -0 -1.2 0
-2.473 -0.049 4.692 -0 -1.2 0
-2.683 -0.06 5.09 -0 -1.2 0
-2.945 -0.068 5.585 -0 -1.2 0
-3.243 -0.083 6.152 -0 -1.2 0
-3.491 -0.135 6.623 -0 -1.2 0
-3.487 -0.266 6.62 -0 -1.2 0
-3.486 -0.396 6.625 -0 -1.2 0
-3.485 -0.525 6.627 -0 -1.2 0
-3.478 -0.655 6.618 -0 -1.2 0
-3.478 -0.784 6.625 -0 -1.2 0
-3.479 -0.913 6.63 -0 -1.2 0
-3.468 -1.041 6.616 -0 -1.2 0
-3.461 -1.169 6.609 -0 -1.2 0
-3.467 -1.298 6.625 -0 -1.2 0
-3.458 -1.426 6.613 -0 -1.2 0
-3.453 -1.554 6.609 -0 -1.2 0
-3.455 -1.684 6.619 -0 -1.2 0
-3.393 -1.8 6.505 -0 -1.2 0
-3.444 -1.941 6.608 -0 -1.2 0
-3.476 -2.082 6.675 -0 -1.2 0
-3.471 -2.212 6.669 -0 -1.2 0
-3.463 -2.343 6.66 -0 -1.2 0
-3.464 -2.477 6.667 -0 -1.2 0
-3.463 -2.611 6.672 -0 -1.2 0
-3.453 -2.743 6.658 -0 -1.2 0
-3.455 -2.882 6.668 -0 -1.2 0
-3.456 -3.019 6.674 -0 -1.2 0
-3.455 -3.159 6.679 -0 -1.2 0
-3.453 -3.3 6.682 -0 -1.2 0
-3.446 -3.437 6.673 -0 -1.2 0
-3.442 -3.579 6.671 -0 -1.2 0
-3.432 -3.719 6.658 -0 -1.2 0
-3.434 -3.867 6.668 -0 -1.2 0
-3.434 -4.018 6.675 -0 -1.2 0
-3.424 -4.161 6.663 -0 -1.2 0
-3.422 -4.314 6.665 -0 -1.2 0
-3.418 -4.467 6.664 -0 -1.2 0
-3.409 -4.618 6.653 -0 -1.2 0
-3.406 -4.777 6.653 -0 -1.2 0
-3.402 -4.937 6.652 -0 -1.2 0
-3.405 -5.107 6.664 -0 -1.2 0
-3.393 -5.266 6.648 -0 -1.2 0
-3.392 -5.439 6.653 -0 -1.2 0
-3.389 -5.613 6.655 -0 -1.2 0
-3.384 -5.789 6.653 -0 -1.2 0
-3.374 -5.961 6.64 -0 -1.2 0
-3.368 -6.145 6.639 -0 -1.2 0
-3.37 -6.342 6.648 -0 -1.2 0
-3.364 -6.535 6.646 -0 -1.2 0
-3.361 -6.734 6.647 -0 -1.2 0
-3.351 -6.931 6.637 -0 -1.2 0
-3.342 -7.134 6.63 -0 -1.2 0
-3.336 -7.345 6.625 -0 -1.2 0
-3.333 -7.571 6.629 -0 -1.2 0
-3.324 -7.792 6.622 -0 -1.2 0
