# .PCD v.7 - Point Cloud Data file format
FIELDS x y z vp_x vp_y vp_z
SIZE 4 4 4 4 4 4
TYPE F F F F F F
COUNT 1 1 1 1 1 1
WIDTH 1542
HEIGHT 1
VIEWPOINT 0 -1.20014 0 1 0 0 0
POINTS 1542
DATA ascii
6.286 -14.005 26.558 -0 -1.2 0
6.24 -14.475 26.333 -0 -1.2 0
6.192 -14.942 26.101 -0 -1.2 0
6.142 -15.405 25.861 -0 -1.2 0
6.091 -15.863 25.612 -0 -1.2 0
6.037 -16.316 25.356 -0 -1.2 0
5.982 -16.765 25.092 -0 -1.2 0
5.924 -17.209 24.821 -0 -1.2 0
5.865 -17.648 24.541 -0 -1.2 0
5.805 -18.082 24.255 -0 -1.2 0
5.742 -18.511 23.961 -0 -1.2 0
5.678 -18.935 23.661 -0 -1.2 0
5.611 -19.353 23.353 -0 -1.2 0
5.544 -19.766 23.038 -0 -1.2 0
5.474 -20.172 22.716 -0 -1.2 0
5.403 -20.574 22.387 -0 -1.2 0
5.331 -20.969 22.051 -0 -1.2 0
5.257 -21.358 21.708 -0 -1.2 0
5.181 -21.741 21.361 -0 -1.2 0
5.103 -22.118 21.005 -0 -1.2 0
7.881 0.694 29.124 -0 -1.2 0
7.894 0.17 29.148 -0 -1.2 0
7.906 -0.351 29.163 -0 -1.2 0
7.914 -0.874 29.169 -0 -1.2 0
7.921 -1.397 29.167 -0 -1.2 0
7.925 -1.92 29.156 -0 -1.2 0
7.926 -2.444 29.136 -0 -1.2 0
7.926 -2.967 29.107 -0 -1.2 0
7.923 -3.489 29.069 -0 -1.2 0
7.917 -4.01 29.023 -0 -1.2 0
7.909 -4.532 28.968 -0 -1.2 0
7.899 -5.051 28.904 -0 -1.2 0
7.885 -5.57 28.831 -0 -1.2 0
7.87 -6.086 28.75 -0 -1.2 0
7.853 -6.602 28.66 -0 -1.2 0
7.833 -7.116 28.56 -0 -1.2 0
7.81 -7.627 28.453 -0 -1.2 0
7.786 -8.137 28.337 -0 -1.2 0
7.759 -8.645 28.213 -0 -1.2 0
7.729 -9.151 28.08 -0 -1.2 0
7.698 -9.654 27.939 -0 -1.2 0
7.664 -10.154 27.788 -0 -1.2 0
7.628 -10.652 27.63 -0 -1.2 0
7.588 -11.147 27.463 -0 -1.2 0
7.548 -11.639 27.288 -0 -1.2 0
7.504 -12.127 27.104 -0 -1.2 0
7.459 -12.612 26.913 -0 -1.2 0
7.411 -13.094 26.714 -0 -1.2 0
7.361 -13.572 26.505 -0 -1.2 0
7.309 -14.047 26.29 -0 -1.2 0
7.254 -14.516 26.067 -0 -1.2 0
7.197 -14.983 25.835 -0 -1.2 0
7.138 -15.445 25.596 -0 -1.2 0
7.077 -15.903 25.348 -0 -1.2 0
7.014 -16.356 25.094 -0 -1.2 0
6.949 -16.804 24.831 -0 -1.2 0
6.881 -17.248 24.562 -0 -1.2 0
6.812 -17.686 24.284 -0 -1.2 0
6.74 -18.12 24 -0 -1.2 0
6.666 -18.548 23.708 -0 -1.2 0
6.591 -18.972 23.41 -0 -1.2 0
6.513 -19.389 23.104 -0 -1.2 0
6.434 -19.801 22.79 -0 -1.2 0
6.352 -20.208 22.47 -0 -1.2 0
6.269 -20.608 22.144 -0 -1.2 0
6.183 -21.003 21.811 -0 -1.2 0
6.096 -21.391 21.471 -0 -1.2 0
6.007 -21.774 21.124 -0 -1.2 0
5.916 -22.151 20.771 -0 -1.2 0
8.913 0.654 28.841 -0 -1.2 0
8.928 0.13 28.864 -0 -1.2 0
8.94 -0.392 28.878 -0 -1.2 0
8.95 -0.915 28.883 -0 -1.2 0
8.956 -1.438 28.88 -0 -1.2 0
8.96 -1.961 28.868 -0 -1.2 0
8.961 -2.485 28.847 -0 -1.2 0
8.96 -3.007 28.817 -0 -1.2 0
8.955 -3.529 28.778 -0 -1.2 0
8.948 -4.05 28.732 -0 -1.2 0
8.938 -4.572 28.676 -0 -1.2 0
8.926 -5.091 28.612 -0 -1.2 0
8.912 -5.609 28.539 -0 -1.2 0
8.894 -6.126 28.457 -0 -1.2 0
8.873 -6.641 28.367 -0 -1.2 0
8.85 -7.155 28.268 -0 -1.2 0
8.824 -7.667 28.161 -0 -1.2 0
8.795 -8.176 28.044 -0 -1.2 0
8.764 -8.684 27.92 -0 -1.2 0
8.73 -9.19 27.788 -0 -1.2 0
8.693 -9.693 27.647 -0 -1.2 0
8.655 -10.193 27.497 -0 -1.2 0
8.613 -10.691 27.339 -0 -1.2 0
8.569 -11.185 27.173 -0 -1.2 0
8.522 -11.677 26.999 -0 -1.2 0
8.472 -12.165 26.816 -0 -1.2 0
8.42 -12.649 26.625 -0 -1.2 0
8.365 -13.131 26.427 -0 -1.2 0
8.308 -13.608 26.221 -0 -1.2 0
8.248 -14.083 26.006 -0 -1.2 0
8.186 -14.552 25.784 -0 -1.2 0
8.121 -15.019 25.554 -0 -1.2 0
8.054 -15.48 25.316 -0 -1.2 0
7.985 -15.938 25.07 -0 -1.2 0
7.912 -16.39 24.818 -0 -1.2 0
7.838 -16.838 24.557 -0 -1.2 0
7.762 -17.281 24.289 -0 -1.2 0
7.682 -17.719 24.014 -0 -1.2 0
7.601 -18.153 23.732 -0 -1.2 0
7.517 -18.581 23.442 -0 -1.2 0
7.431 -19.004 23.146 -0 -1.2 0
7.343 -19.42 22.842 -0 -1.2 0
7.252 -19.832 22.531 -0 -1.2 0
7.159 -20.238 22.214 -0 -1.2 0
7.064 -20.638 21.89 -0 -1.2 0
6.968 -21.033 21.559 -0 -1.2 0
6.869 -21.421 21.222 -0 -1.2 0
6.767 -21.803 20.878 -0 -1.2 0
6.663 -22.179 20.528 -0 -1.2 0
9.936 0.652 28.519 -0 -1.2 0
9.952 0.128 28.541 -0 -1.2 0
9.964 -0.394 28.555 -0 -1.2 0
9.974 -0.916 28.56 -0 -1.2 0
9.98 -1.439 28.556 -0 -1.2 0
9.984 -1.962 28.543 -0 -1.2 0
9.984 -2.487 28.523 -0 -1.2 0
9.982 -3.009 28.493 -0 -1.2 0
9.976 -3.531 28.455 -0 -1.2 0
9.967 -4.052 28.408 -0 -1.2 0
9.955 -4.573 28.353 -0 -1.2 0
9.94 -5.093 28.288 -0 -1.2 0
9.924 -5.611 28.217 -0 -1.2 0
9.903 -6.128 28.135 -0 -1.2 0
9.879 -6.643 28.045 -0 -1.2 0
9.852 -7.157 27.948 -0 -1.2 0
9.822 -7.668 27.841 -0 -1.2 0
9.789 -8.178 27.727 -0 -1.2 0
9.754 -8.686 27.603 -0 -1.2 0
9.715 -9.192 27.471 -0 -1.2 0
9.674 -9.694 27.332 -0 -1.2 0
9.629 -10.194 27.184 -0 -1.2 0
9.582 -10.692 27.027 -0 -1.2 0
9.531 -11.186 26.864 -0 -1.2 0
9.478 -11.678 26.691 -0 -1.2 0
9.423 -12.166 26.51 -0 -1.2 0
9.364 -12.65 26.322 -0 -1.2 0
9.302 -13.133 26.125 -0 -1.2 0
9.237 -13.61 25.921 -0 -1.2 0
9.17 -14.084 25.708 -0 -1.2 0
9.1 -14.554 25.488 -0 -1.2 0
9.027 -15.02 25.261 -0 -1.2 0
8.95 -15.481 25.026 -0 -1.2 0
8.872 -15.939 24.783 -0 -1.2 0
8.791 -16.391 24.532 -0 -1.2 0
8.708 -16.839 24.274 -0 -1.2 0
8.621 -17.283 24.009 -0 -1.2 0
8.532 -17.72 23.737 -0 -1.2 0
8.441 -18.154 23.458 -0 -1.2 0
8.346 -18.582 23.172 -0 -1.2 0
8.25 -19.005 22.878 -0 -1.2 0
8.151 -19.422 22.578 -0 -1.2 0
8.05 -19.834 22.271 -0 -1.2 0
7.945 -20.239 21.957 -0 -1.2 0
7.839 -20.639 21.636 -0 -1.2 0
7.73 -21.034 21.309 -0 -1.2 0
7.618 -21.422 20.976 -0 -1.2 0
7.505 -21.804 20.636 -0 -1.2 0
7.389 -22.18 20.291 -0 -1.2 0
11.027 0.66 28.131 -0 -1.2 0
11.042 0.137 28.154 -0 -1.2 0
11.055 -0.385 28.166 -0 -1.2 0
11.065 -0.908 28.172 -0 -1.2 0
11.071 -1.431 28.167 -0 -1.2 0
11.074 -1.954 28.156 -0 -1.2 0
11.074 -2.478 28.134 -0 -1.2 0
11.07 -3 28.105 -0 -1.2 0
11.062 -3.523 28.068 -0 -1.2 0
11.052 -4.044 28.021 -0 -1.2 0
11.038 -4.565 27.966 -0 -1.2 0
11.02 -5.085 27.903 -0 -1.2 0
11 -5.603 27.832 -0 -1.2 0
10.976 -6.119 27.751 -0 -1.2 0
10.948 -6.635 27.664 -0 -1.2 0
10.918 -7.149 27.567 -0 -1.2 0
10.885 -7.66 27.461 -0 -1.2 0
10.847 -8.17 27.348 -0 -1.2 0
10.807 -8.678 27.227 -0 -1.2 0
10.763 -9.184 27.097 -0 -1.2 0
10.716 -9.686 26.959 -0 -1.2 0
10.665 -10.186 26.813 -0 -1.2 0
10.612 -10.684 26.659 -0 -1.2 0
10.555 -11.178 26.497 -0 -1.2 0
10.495 -11.671 26.327 -0 -1.2 0
10.432 -12.159 26.149 -0 -1.2 0
10.365 -12.643 25.963 -0 -1.2 0
10.296 -13.125 25.769 -0 -1.2 0
10.223 -13.602 25.567 -0 -1.2 0
10.148 -14.077 25.358 -0 -1.2 0
10.069 -14.546 25.141 -0 -1.2 0
9.987 -15.013 24.916 -0 -1.2 0
9.903 -15.474 24.684 -0 -1.2 0
9.815 -15.932 24.445 -0 -1.2 0
9.725 -16.384 24.198 -0 -1.2 0
9.63 -16.832 23.944 -0 -1.2 0
9.534 -17.276 23.683 -0 -1.2 0
9.435 -17.714 23.414 -0 -1.2 0
9.332 -18.147 23.139 -0 -1.2 0
9.227 -18.575 22.857 -0 -1.2 0
9.119 -18.998 22.567 -0 -1.2 0
9.008 -19.415 22.271 -0 -1.2 0
8.894 -19.827 21.968 -0 -1.2 0
8.779 -20.233 21.658 -0 -1.2 0
8.66 -20.633 21.343 -0 -1.2 0
8.538 -21.027 21.02 -0 -1.2 0
8.414 -21.416 20.692 -0 -1.2 0
8.287 -21.798 20.357 -0 -1.2 0
8.158 -22.174 20.015 -0 -1.2 0
12.025 0.668 27.733 -0 -1.2 0
12.064 -0.901 27.771 -0 -1.2 0
12.07 -1.424 27.768 -0 -1.2 0
12.073 -1.947 27.756 -0 -1.2 0
12.072 -2.471 27.735 -0 -1.2 0
12.067 -2.993 27.705 -0 -1.2 0
12.058 -3.515 27.669 -0 -1.2 0
12.046 -4.037 27.623 -0 -1.2 0
12.03 -4.558 27.569 -0 -1.2 0
12.01 -5.077 27.506 -0 -1.2 0
11.987 -5.596 27.436 -0 -1.2 0
11.96 -6.112 27.357 -0 -1.2 0
11.929 -6.628 27.27 -0 -1.2 0
11.895 -7.142 27.175 -0 -1.2 0
11.857 -7.653 27.071 -0 -1.2 0
11.816 -8.163 26.959 -0 -1.2 0
11.771 -8.671 26.839 -0 -1.2 0
11.722 -9.177 26.711 -0 -1.2 0
11.67 -9.68 26.575 -0 -1.2 0
11.615 -10.179 26.432 -0 -1.2 0
11.555 -10.678 26.28 -0 -1.2 0
11.493 -11.172 26.121 -0 -1.2 0
11.427 -11.664 25.953 -0 -1.2 0
11.357 -12.152 25.777 -0 -1.2 0
11.284 -12.636 25.593 -0 -1.2 0
11.208 -13.119 25.402 -0 -1.2 0
11.128 -13.596 25.203 -0 -1.2 0
11.045 -14.07 24.997 -0 -1.2 0
10.958 -14.54 24.784 -0 -1.2 0
10.869 -15.006 24.563 -0 -1.2 0
10.776 -15.468 24.334 -0 -1.2 0
10.679 -15.926 24.098 -0 -1.2 0
10.579 -16.378 23.854 -0 -1.2 0
10.476 -16.826 23.604 -0 -1.2 0
10.37 -17.27 23.347 -0 -1.2 0
10.262 -17.708 23.082 -0 -1.2 0
10.149 -18.141 22.811 -0 -1.2 0
10.034 -18.569 22.532 -0 -1.2 0
9.915 -18.992 22.247 -0 -1.2 0
9.794 -19.409 21.956 -0 -1.2 0
9.669 -19.822 21.656 -0 -1.2 0
9.542 -20.228 21.352 -0 -1.2 0
9.412 -20.628 21.041 -0 -1.2 0
9.279 -21.022 20.722 -0 -1.2 0
9.143 -21.41 20.399 -0 -1.2 0
9.004 -21.793 20.069 -0 -1.2 0
8.863 -22.169 19.733 -0 -1.2 0
13.008 0.675 27.299 -0 -1.2 0
13.049 -0.894 27.336 -0 -1.2 0
13.054 -1.417 27.333 -0 -1.2 0
13.056 -1.94 27.32 -0 -1.2 0
13.054 -2.464 27.3 -0 -1.2 0
13.048 -2.986 27.271 -0 -1.2 0
13.038 -3.509 27.234 -0 -1.2 0
13.024 -4.03 27.189 -0 -1.2 0
13.006 -4.551 27.137 -0 -1.2 0
12.984 -5.071 27.075 -0 -1.2 0
12.928 -6.106 26.928 -0 -1.2 0
12.815 -7.646 26.646 -0 -1.2 0
12.769 -8.156 26.536 -0 -1.2 0
12.72 -8.664 26.418 -0 -1.2 0
12.668 -9.17 26.293 -0 -1.2 0
12.611 -9.673 26.158 -0 -1.2 0
12.55 -10.173 26.016 -0 -1.2 0
12.485 -10.671 25.867 -0 -1.2 0
12.417 -11.165 25.71 -0 -1.2 0
12.345 -11.657 25.545 -0 -1.2 0
12.269 -12.146 25.372 -0 -1.2 0
12.189 -12.63 25.192 -0 -1.2 0
12.106 -13.112 25.003 -0 -1.2 0
12.018 -13.59 24.808 -0 -1.2 0
11.927 -14.064 24.605 -0 -1.2 0
11.833 -14.534 24.395 -0 -1.2 0
11.735 -15 24.177 -0 -1.2 0
11.634 -15.462 23.952 -0 -1.2 0
11.529 -15.92 23.72 -0 -1.2 0
11.421 -16.372 23.48 -0 -1.2 0
11.309 -16.82 23.234 -0 -1.2 0
11.194 -17.264 22.981 -0 -1.2 0
11.075 -17.702 22.72 -0 -1.2 0
10.953 -18.136 22.453 -0 -1.2 0
10.828 -18.564 22.179 -0 -1.2 0
10.699 -18.987 21.899 -0 -1.2 0
10.567 -19.404 21.611 -0 -1.2 0
10.432 -19.816 21.318 -0 -1.2 0
10.294 -20.222 21.017 -0 -1.2 0
10.152 -20.623 20.712 -0 -1.2 0
10.008 -21.017 20.399 -0 -1.2 0
9.86 -21.405 20.081 -0 -1.2 0
9.709 -21.788 19.755 -0 -1.2 0
9.556 -22.164 19.425 -0 -1.2 0
14.048 0.681 26.792 -0 -1.2 0
14.08 -0.364 26.825 -0 -1.2 0
14.089 -0.887 26.829 -0 -1.2 0
14.095 -1.41 26.825 -0 -1.2 0
14.096 -1.933 26.813 -0 -1.2 0
14.059 -4.023 26.684 -0 -1.2 0
13.915 -6.614 26.343 -0 -1.2 0
13.828 -7.64 26.15 -0 -1.2 0
13.778 -8.15 26.042 -0 -1.2 0
13.725 -8.657 25.927 -0 -1.2 0
13.667 -9.163 25.804 -0 -1.2 0
13.604 -9.666 25.672 -0 -1.2 0
13.538 -10.166 25.533 -0 -1.2 0
13.468 -10.664 25.386 -0 -1.2 0
13.393 -11.159 25.232 -0 -1.2 0
13.315 -11.651 25.069 -0 -1.2 0
13.232 -12.139 24.9 -0 -1.2 0
13.145 -12.623 24.724 -0 -1.2 0
13.055 -13.106 24.539 -0 -1.2 0
12.96 -13.583 24.347 -0 -1.2 0
12.861 -14.058 24.147 -0 -1.2 0
12.759 -14.527 23.941 -0 -1.2 0
12.653 -14.994 23.727 -0 -1.2 0
12.543 -15.456 23.507 -0 -1.2 0
12.429 -15.914 23.279 -0 -1.2 0
12.31 -16.366 23.044 -0 -1.2 0
12.189 -16.814 22.802 -0 -1.2 0
12.065 -17.258 22.554 -0 -1.2 0
11.936 -17.696 22.299 -0 -1.2 0
11.803 -18.13 22.037 -0 -1.2 0
11.668 -18.558 21.768 -0 -1.2 0
11.528 -18.981 21.492 -0 -1.2 0
11.385 -19.399 21.211 -0 -1.2 0
11.238 -19.811 20.923 -0 -1.2 0
11.088 -20.217 20.629 -0 -1.2 0
10.936 -20.617 20.329 -0 -1.2 0
10.779 -21.012 20.022 -0 -1.2 0
10.619 -21.4 19.709 -0 -1.2 0
10.456 -21.783 19.39 -0 -1.2 0
10.29 -22.159 19.067 -0 -1.2 0
15.032 -0.358 26.315 -0 -1.2 0
15.042 -0.881 26.318 -0 -1.2 0
15.047 -1.404 26.315 -0 -1.2 0
14.983 -4.538 26.124 -0 -1.2 0
14.889 -6.093 25.924 -0 -1.2 0
14.756 -7.634 25.652 -0 -1.2 0
14.644 -8.651 25.432 -0 -1.2 0
14.58 -9.157 25.312 -0 -1.2 0
14.442 -10.16 25.046 -0 -1.2 0
14.367 -10.659 24.903 -0 -1.2 0
14.286 -11.153 24.751 -0 -1.2 0
14.202 -11.645 24.592 -0 -1.2 0
14.113 -12.133 24.426 -0 -1.2 0
14.02 -12.618 24.252 -0 -1.2 0
13.923 -13.1 24.071 -0 -1.2 0
13.822 -13.578 23.884 -0 -1.2 0
13.716 -14.052 23.688 -0 -1.2 0
13.606 -14.522 23.485 -0 -1.2 0
13.492 -14.989 23.276 -0 -1.2 0
13.374 -15.45 23.059 -0 -1.2 0
13.252 -15.908 22.836 -0 -1.2 0
13.125 -16.361 22.606 -0 -1.2 0
12.995 -16.809 22.369 -0 -1.2 0
12.861 -17.253 22.125 -0 -1.2 0
12.723 -17.691 21.874 -0 -1.2 0
12.581 -18.125 21.618 -0 -1.2 0
12.436 -18.553 21.354 -0 -1.2 0
12.286 -18.976 21.084 -0 -1.2 0
12.134 -19.394 20.808 -0 -1.2 0
11.976 -19.806 20.525 -0 -1.2 0
11.816 -20.212 20.237 -0 -1.2 0
11.652 -20.613 19.943 -0 -1.2 0
11.485 -21.007 19.642 -0 -1.2 0
11.313 -21.396 19.336 -0 -1.2 0
11.139 -21.778 19.024 -0 -1.2 0
10.961 -22.155 18.706 -0 -1.2 0
15.912 1.215 25.709 -0 -1.2 0
15.98 -0.875 25.771 -0 -1.2 0
15.986 -1.398 25.767 -0 -1.2 0
15.986 -1.921 25.755 -0 -1.2 0
15.981 -2.445 25.735 -0 -1.2 0
15.957 -3.49 25.673 -0 -1.2 0
15.722 -7.116 25.214 -0 -1.2 0
15.253 -10.653 24.383 -0 -1.2 0
15.077 -11.64 24.08 -0 -1.2 0
14.982 -12.128 23.916 -0 -1.2 0
14.883 -12.612 23.746 -0 -1.2 0
14.778 -13.095 23.57 -0 -1.2 0
14.67 -13.572 23.385 -0 -1.2 0
14.557 -14.047 23.194 -0 -1.2 0
14.44 -14.517 22.996 -0 -1.2 0
14.319 -14.983 22.79 -0 -1.2 0
14.192 -15.445 22.579 -0 -1.2 0
14.062 -15.903 22.361 -0 -1.2 0
13.928 -16.356 22.135 -0 -1.2 0
13.79 -16.804 21.903 -0 -1.2 0
13.646 -17.248 21.664 -0 -1.2 0
13.499 -17.686 21.419 -0 -1.2 0
13.348 -18.12 21.168 -0 -1.2 0
13.193 -18.548 20.91 -0 -1.2 0
13.033 -18.972 20.646 -0 -1.2 0
12.871 -19.389 20.376 -0 -1.2 0
12.703 -19.801 20.099 -0 -1.2 0
12.533 -20.208 19.817 -0 -1.2 0
12.358 -20.608 19.529 -0 -1.2 0
12.179 -21.003 19.235 -0 -1.2 0
11.997 -21.391 18.935 -0 -1.2 0
11.811 -21.774 18.628 -0 -1.2 0
11.623 -22.151 18.317 -0 -1.2 0
16.928 -0.35 25.16 -0 -1.2 0
16.942 -1.396 25.16 -0 -1.2 0
16.751 -6.085 24.786 -0 -1.2 0
16.705 -6.6 24.707 -0 -1.2 0
16.653 -7.114 24.62 -0 -1.2 0
16.534 -8.136 24.425 -0 -1.2 0
16.467 -8.644 24.317 -0 -1.2 0
16.395 -9.15 24.201 -0 -1.2 0
16.237 -10.153 23.948 -0 -1.2 0
16.149 -10.651 23.811 -0 -1.2 0
16.058 -11.145 23.666 -0 -1.2 0
15.962 -11.638 23.515 -0 -1.2 0
15.86 -12.126 23.356 -0 -1.2 0
15.754 -12.61 23.19 -0 -1.2 0
15.643 -13.093 23.017 -0 -1.2 0
15.527 -13.57 22.838 -0 -1.2 0
15.407 -14.045 22.651 -0 -1.2 0
15.282 -14.515 22.458 -0 -1.2 0
15.152 -14.982 22.258 -0 -1.2 0
15.018 -15.443 22.051 -0 -1.2 0
14.88 -15.901 21.838 -0 -1.2 0
14.736 -16.354 21.618 -0 -1.2 0
14.588 -16.802 21.392 -0 -1.2 0
14.435 -17.246 21.16 -0 -1.2 0
14.279 -17.684 20.921 -0 -1.2 0
14.118 -18.119 20.675 -0 -1.2 0
13.953 -18.547 20.424 -0 -1.2 0
13.783 -18.97 20.166 -0 -1.2 0
13.61 -19.387 19.902 -0 -1.2 0
13.432 -19.8 19.633 -0 -1.2 0
13.25 -20.206 19.358 -0 -1.2 0
13.064 -20.607 19.076 -0 -1.2 0
12.874 -21.001 18.789 -0 -1.2 0
12.681 -21.39 18.496 -0 -1.2 0
12.483 -21.773 18.199 -0 -1.2 0
12.282 -22.149 17.896 -0 -1.2 0
17.771 -0.358 24.581 -0 -1.2 0
17.78 -0.881 24.585 -0 -1.2 0
17.784 -1.404 24.581 -0 -1.2 0
17.783 -1.927 24.57 -0 -1.2 0
17.345 -8.144 23.863 -0 -1.2 0
17.274 -8.652 23.757 -0 -1.2 0
17.116 -9.661 23.524 -0 -1.2 0
16.938 -10.659 23.263 -0 -1.2 0
16.841 -11.153 23.122 -0 -1.2 0
16.739 -11.646 22.974 -0 -1.2 0
16.632 -12.134 22.819 -0 -1.2 0
16.519 -12.618 22.656 -0 -1.2 0
16.402 -13.101 22.488 -0 -1.2 0
16.28 -13.578 22.313 -0 -1.2 0
16.153 -14.053 22.13 -0 -1.2 0
16.021 -14.523 21.942 -0 -1.2 0
15.884 -14.989 21.746 -0 -1.2 0
15.742 -15.451 21.545 -0 -1.2 0
15.596 -15.909 21.336 -0 -1.2 0
15.445 -16.362 21.122 -0 -1.2 0
15.288 -16.81 20.901 -0 -1.2 0
15.128 -17.254 20.673 -0 -1.2 0
14.963 -17.692 20.441 -0 -1.2 0
14.793 -18.126 20.201 -0 -1.2 0
14.619 -18.554 19.955 -0 -1.2 0
14.441 -18.977 19.704 -0 -1.2 0
14.257 -19.394 19.446 -0 -1.2 0
14.07 -19.807 19.183 -0 -1.2 0
13.879 -20.213 18.914 -0 -1.2 0
13.683 -20.614 18.64 -0 -1.2 0
13.483 -21.008 18.359 -0 -1.2 0
13.279 -21.397 18.074 -0 -1.2 0
13.071 -21.779 17.783 -0 -1.2 0
12.859 -22.156 17.487 -0 -1.2 0
18.556 -0.377 24.004 -0 -1.2 0
18.565 -0.9 24.006 -0 -1.2 0
18.568 -1.423 24.003 -0 -1.2 0
18.567 -1.946 23.991 -0 -1.2 0
18.502 -4.036 23.873 -0 -1.2 0
18.395 -5.595 23.71 -0 -1.2 0
18.295 -6.627 23.565 -0 -1.2 0
18.237 -7.141 23.483 -0 -1.2 0
18.029 -8.67 23.192 -0 -1.2 0
17.95 -9.176 23.081 -0 -1.2 0
17.773 -10.179 22.839 -0 -1.2 0
17.677 -10.677 22.708 -0 -1.2 0
17.575 -11.171 22.569 -0 -1.2 0
17.468 -11.663 22.424 -0 -1.2 0
17.356 -12.152 22.273 -0 -1.2 0
17.238 -12.636 22.115 -0 -1.2 0
17.115 -13.118 21.95 -0 -1.2 0
16.987 -13.596 21.777 -0 -1.2 0
16.854 -14.07 21.6 -0 -1.2 0
16.715 -14.54 21.415 -0 -1.2 0
16.572 -15.006 21.224 -0 -1.2 0
16.424 -15.468 21.027 -0 -1.2 0
16.27 -15.925 20.823 -0 -1.2 0
16.112 -16.378 20.614 -0 -1.2 0
15.949 -16.826 20.397 -0 -1.2 0
15.781 -17.27 20.175 -0 -1.2 0
15.608 -17.707 19.948 -0 -1.2 0
15.431 -18.141 19.713 -0 -1.2 0
15.248 -18.569 19.473 -0 -1.2 0
15.062 -18.992 19.228 -0 -1.2 0
14.87 -19.409 18.976 -0 -1.2 0
14.674 -19.821 18.719 -0 -1.2 0
14.473 -20.228 18.456 -0 -1.2 0
14.27 -20.628 18.188 -0 -1.2 0
14.06 -21.022 17.914 -0 -1.2 0
13.847 -21.41 17.635 -0 -1.2 0
13.629 -21.793 17.351 -0 -1.2 0
13.408 -22.169 17.061 -0 -1.2 0
19.366 -0.397 23.365 -0 -1.2 0
19.375 -0.92 23.367 -0 -1.2 0
19.378 -1.443 23.362 -0 -1.2 0
19.376 -1.966 23.35 -0 -1.2 0
19.306 -4.056 23.234 -0 -1.2 0
19.193 -5.615 23.073 -0 -1.2 0
18.96 -7.672 22.763 -0 -1.2 0
18.887 -8.182 22.668 -0 -1.2 0
18.725 -9.195 22.459 -0 -1.2 0
18.635 -9.698 22.343 -0 -1.2 0
18.54 -10.198 22.221 -0 -1.2 0
18.438 -10.696 22.093 -0 -1.2 0
18.332 -11.19 21.959 -0 -1.2 0
18.22 -11.682 21.817 -0 -1.2 0
18.102 -12.17 21.669 -0 -1.2 0
17.979 -12.654 21.515 -0 -1.2 0
17.85 -13.136 21.353 -0 -1.2 0
17.716 -13.614 21.186 -0 -1.2 0
17.577 -14.088 21.013 -0 -1.2 0
17.432 -14.557 20.832 -0 -1.2 0
17.282 -15.024 20.646 -0 -1.2 0
17.127 -15.485 20.454 -0 -1.2 0
16.966 -15.943 20.256 -0 -1.2 0
16.8 -16.395 20.051 -0 -1.2 0
16.63 -16.843 19.841 -0 -1.2 0
16.454 -17.286 19.624 -0 -1.2 0
16.274 -17.724 19.402 -0 -1.2 0
16.088 -18.158 19.174 -0 -1.2 0
15.897 -18.585 18.94 -0 -1.2 0
15.702 -19.008 18.701 -0 -1.2 0
15.502 -19.425 18.456 -0 -1.2 0
15.297 -19.837 18.206 -0 -1.2 0
15.088 -20.243 17.949 -0 -1.2 0
14.873 -20.643 17.688 -0 -1.2 0
14.655 -21.037 17.422 -0 -1.2 0
14.433 -21.425 17.149 -0 -1.2 0
14.204 -21.807 16.873 -0 -1.2 0
13.973 -22.183 16.591 -0 -1.2 0
20.097 -0.415 22.746 -0 -1.2 0
20.106 -0.938 22.748 -0 -1.2 0
20.109 -1.461 22.743 -0 -1.2 0
20.096 -2.508 22.713 -0 -1.2 0
20.059 -3.553 22.654 -0 -1.2 0
20.032 -4.074 22.615 -0 -1.2 0
19.998 -4.595 22.57 -0 -1.2 0
19.913 -5.633 22.458 -0 -1.2 0
19.861 -6.149 22.392 -0 -1.2 0
19.669 -7.69 22.154 -0 -1.2 0
19.512 -8.707 21.962 -0 -1.2 0
19.425 -9.213 21.857 -0 -1.2 0
19.331 -9.715 21.744 -0 -1.2 0
19.232 -10.215 21.625 -0 -1.2 0
19.126 -10.713 21.5 -0 -1.2 0
19.015 -11.207 21.368 -0 -1.2 0
18.899 -11.699 21.229 -0 -1.2 0
18.777 -12.187 21.086 -0 -1.2 0
18.648 -12.671 20.934 -0 -1.2 0
18.514 -13.153 20.777 -0 -1.2 0
18.375 -13.63 20.614 -0 -1.2 0
18.23 -14.104 20.445 -0 -1.2 0
18.08 -14.573 20.27 -0 -1.2 0
17.923 -15.04 20.088 -0 -1.2 0
17.762 -15.501 19.901 -0 -1.2 0
17.594 -15.958 19.707 -0 -1.2 0
17.422 -16.411 19.508 -0 -1.2 0
17.245 -16.858 19.302 -0 -1.2 0
17.063 -17.301 19.092 -0 -1.2 0
16.875 -17.739 18.875 -0 -1.2 0
16.682 -18.172 18.653 -0 -1.2 0
16.484 -18.6 18.426 -0 -1.2 0
16.281 -19.023 18.192 -0 -1.2 0
16.073 -19.439 17.953 -0 -1.2 0
15.86 -19.851 17.709 -0 -1.2 0
15.642 -20.257 17.46 -0 -1.2 0
15.419 -20.656 17.205 -0 -1.2 0
15.192 -21.05 16.946 -0 -1.2 0
14.96 -21.438 16.681 -0 -1.2 0
14.724 -21.82 16.411 -0 -1.2 0
14.484 -22.196 16.138 -0 -1.2 0
20.806 -0.432 22.105 -0 -1.2 0
20.814 -0.955 22.107 -0 -1.2 0
20.817 -1.478 22.1 -0 -1.2 0
20.813 -2.001 22.089 -0 -1.2 0
20.788 -3.048 22.045 -0 -1.2 0
20.765 -3.57 22.013 -0 -1.2 0
20.736 -4.091 21.974 -0 -1.2 0
20.701 -4.612 21.929 -0 -1.2 0
20.612 -5.65 21.82 -0 -1.2 0
20.558 -6.166 21.755 -0 -1.2 0
20.497 -6.682 21.684 -0 -1.2 0
20.358 -7.707 21.522 -0 -1.2 0
20.28 -8.216 21.431 -0 -1.2 0
20.195 -8.724 21.335 -0 -1.2 0
20.104 -9.229 21.232 -0 -1.2 0
20.007 -9.732 21.122 -0 -1.2 0
19.904 -10.232 21.007 -0 -1.2 0
19.794 -10.729 20.884 -0 -1.2 0
19.679 -11.223 20.755 -0 -1.2 0
19.557 -11.715 20.621 -0 -1.2 0
19.43 -12.203 20.481 -0 -1.2 0
19.297 -12.687 20.334 -0 -1.2 0
19.158 -13.169 20.181 -0 -1.2 0
19.014 -13.646 20.022 -0 -1.2 0
18.863 -14.12 19.856 -0 -1.2 0
18.707 -14.589 19.686 -0 -1.2 0
18.545 -15.055 19.51 -0 -1.2 0
18.378 -15.516 19.327 -0 -1.2 0
18.204 -15.973 19.138 -0 -1.2 0
18.026 -16.425 18.944 -0 -1.2 0
17.842 -16.873 18.745 -0 -1.2 0
17.652 -17.316 18.54 -0 -1.2 0
17.457 -17.753 18.33 -0 -1.2 0
17.257 -18.187 18.113 -0 -1.2 0
17.052 -18.614 17.891 -0 -1.2 0
16.841 -19.036 17.665 -0 -1.2 0
16.625 -19.453 17.433 -0 -1.2 0
16.405 -19.864 17.195 -0 -1.2 0
16.179 -20.27 16.952 -0 -1.2 0
15.949 -20.669 16.706 -0 -1.2 0
15.713 -21.063 16.453 -0 -1.2 0
15.473 -21.451 16.195 -0 -1.2 0
15.228 -21.832 15.933 -0 -1.2 0
14.978 -22.208 15.667 -0 -1.2 0
21.483 -0.451 21.455 -0 -1.2 0
21.492 -0.974 21.455 -0 -1.2 0
21.494 -1.497 21.449 -0 -1.2 0
21.49 -2.02 21.436 -0 -1.2 0
21.48 -2.544 21.418 -0 -1.2 0
21.462 -3.066 21.393 -0 -1.2 0
21.438 -3.589 21.361 -0 -1.2 0
21.409 -4.11 21.324 -0 -1.2 0
21.371 -4.631 21.279 -0 -1.2 0
21.329 -5.15 21.228 -0 -1.2 0
21.279 -5.668 21.171 -0 -1.2 0
21.223 -6.185 21.108 -0 -1.2 0
21.16 -6.7 21.039 -0 -1.2 0
21.091 -7.213 20.963 -0 -1.2 0
21.016 -7.725 20.88 -0 -1.2 0
20.934 -8.234 20.793 -0 -1.2 0
20.846 -8.742 20.698 -0 -1.2 0
20.752 -9.247 20.598 -0 -1.2 0
20.651 -9.75 20.491 -0 -1.2 0
20.544 -10.25 20.378 -0 -1.2 0
20.431 -10.747 20.259 -0 -1.2 0
20.312 -11.241 20.134 -0 -1.2 0
20.186 -11.733 20.002 -0 -1.2 0
20.055 -12.22 19.866 -0 -1.2 0
19.916 -12.704 19.723 -0 -1.2 0
19.773 -13.186 19.574 -0 -1.2 0
19.622 -13.663 19.419 -0 -1.2 0
19.467 -14.137 19.259 -0 -1.2 0
19.305 -14.606 19.093 -0 -1.2 0
19.138 -15.071 18.921 -0 -1.2 0
18.964 -15.532 18.744 -0 -1.2 0
18.785 -15.989 18.561 -0 -1.2 0
18.601 -16.441 18.372 -0 -1.2 0
18.41 -16.889 18.178 -0 -1.2 0
18.215 -17.332 17.979 -0 -1.2 0
18.013 -17.769 17.774 -0 -1.2 0
17.806 -18.202 17.564 -0 -1.2 0
17.593 -18.629 17.349 -0 -1.2 0
17.376 -19.051 17.128 -0 -1.2 0
17.153 -19.468 16.903 -0 -1.2 0
16.925 -19.879 16.673 -0 -1.2 0
16.691 -20.284 16.437 -0 -1.2 0
16.453 -20.684 16.197 -0 -1.2 0
16.209 -21.077 15.952 -0 -1.2 0
15.961 -21.464 15.702 -0 -1.2 0
15.708 -21.846 15.448 -0 -1.2 0
15.451 -22.221 15.188 -0 -1.2 0
22.088 -0.468 20.836 -0 -1.2 0
22.097 -0.991 20.836 -0 -1.2 0
22.099 -1.514 20.829 -0 -1.2 0
22.095 -2.037 20.817 -0 -1.2 0
22.084 -2.561 20.798 -0 -1.2 0
22.066 -3.083 20.773 -0 -1.2 0
22.041 -3.605 20.742 -0 -1.2 0
22.009 -4.126 20.705 -0 -1.2 0
21.971 -4.648 20.662 -0 -1.2 0
21.926 -5.167 20.612 -0 -1.2 0
21.875 -5.685 20.556 -0 -1.2 0
21.817 -6.201 20.494 -0 -1.2 0
21.752 -6.717 20.426 -0 -1.2 0
21.681 -7.23 20.352 -0 -1.2 0
21.604 -7.741 20.272 -0 -1.2 0
21.519 -8.251 20.186 -0 -1.2 0
21.428 -8.758 20.093 -0 -1.2 0
21.331 -9.263 19.995 -0 -1.2 0
21.227 -9.766 19.891 -0 -1.2 0
21.117 -10.265 19.781 -0 -1.2 0
21 -10.763 19.665 -0 -1.2 0
20.877 -11.257 19.543 -0 -1.2 0
20.748 -11.748 19.416 -0 -1.2 0
20.612 -12.236 19.282 -0 -1.2 0
20.47 -12.719 19.143 -0 -1.2 0
20.322 -13.201 18.999 -0 -1.2 0
20.167 -13.678 18.847 -0 -1.2 0
20.007 -14.152 18.692 -0 -1.2 0
19.84 -14.62 18.531 -0 -1.2 0
19.668 -15.086 18.363 -0 -1.2 0
19.49 -15.547 18.19 -0 -1.2 0
19.305 -16.004 18.012 -0 -1.2 0
19.115 -16.456 17.829 -0 -1.2 0
18.918 -16.903 17.64 -0 -1.2 0
18.717 -17.346 17.446 -0 -1.2 0
18.51 -17.783 17.247 -0 -1.2 0
18.297 -18.216 17.043 -0 -1.2 0
18.078 -18.643 16.834 -0 -1.2 0
17.854 -19.065 16.62 -0 -1.2 0
17.625 -19.481 16.4 -0 -1.2 0
17.39 -19.892 16.176 -0 -1.2 0
17.149 -20.297 15.948 -0 -1.2 0
16.904 -20.696 15.714 -0 -1.2 0
16.654 -21.089 15.475 -0 -1.2 0
16.398 -21.476 15.233 -0 -1.2 0
16.137 -21.858 14.985 -0 -1.2 0
15.873 -22.233 14.734 -0 -1.2 0
22.613 1.096 20.159 -0 -1.2 0
22.68 -0.472 20.194 -0 -1.2 0
22.689 -0.995 20.193 -0 -1.2 0
22.691 -1.518 20.187 -0 -1.2 0
22.686 -2.041 20.174 -0 -1.2 0
22.675 -2.565 20.156 -0 -1.2 0
22.656 -3.087 20.13 -0 -1.2 0
22.63 -3.609 20.1 -0 -1.2 0
22.597 -4.13 20.063 -0 -1.2 0
22.559 -4.651 20.021 -0 -1.2 0
22.512 -5.171 19.972 -0 -1.2 0
22.459 -5.689 19.918 -0 -1.2 0
22.399 -6.205 19.858 -0 -1.2 0
22.333 -6.72 19.792 -0 -1.2 0
22.26 -7.234 19.719 -0 -1.2 0
22.179 -7.745 19.641 -0 -1.2 0
22.093 -8.254 19.558 -0 -1.2 0
21.999 -8.762 19.468 -0 -1.2 0
21.899 -9.267 19.372 -0 -1.2 0
21.792 -9.77 19.272 -0 -1.2 0
21.678 -10.269 19.165 -0 -1.2 0
21.559 -10.767 19.052 -0 -1.2 0
21.432 -11.26 18.933 -0 -1.2 0
21.3 -11.752 18.81 -0 -1.2 0
21.159 -12.239 18.68 -0 -1.2 0
21.014 -12.723 18.546 -0 -1.2 0
20.861 -13.205 18.405 -0 -1.2 0
20.703 -13.681 18.259 -0 -1.2 0
20.538 -14.155 18.107 -0 -1.2 0
20.366 -14.624 17.95 -0 -1.2 0
20.19 -15.09 17.788 -0 -1.2 0
20.006 -15.55 17.621 -0 -1.2 0
19.816 -16.007 17.448 -0 -1.2 0
19.621 -16.459 17.27 -0 -1.2 0
19.419 -16.906 17.088 -0 -1.2 0
19.212 -17.349 16.9 -0 -1.2 0
18.999 -17.786 16.706 -0 -1.2 0
18.78 -18.219 16.509 -0 -1.2 0
18.555 -18.646 16.306 -0 -1.2 0
18.325 -19.068 16.098 -0 -1.2 0
18.089 -19.484 15.885 -0 -1.2 0
17.847 -19.895 15.668 -0 -1.2 0
17.601 -20.3 15.447 -0 -1.2 0
17.349 -20.699 15.221 -0 -1.2 0
17.092 -21.092 14.989 -0 -1.2 0
16.83 -21.479 14.754 -0 -1.2 0
16.562 -21.86 14.514 -0 -1.2 0
16.289 -22.236 14.27 -0 -1.2 0
23.328 -0.406 19.444 -0 -1.2 0
23.337 -0.929 19.445 -0 -1.2 0
23.339 -1.452 19.439 -0 -1.2 0
23.335 -1.975 19.428 -0 -1.2 0
23.323 -2.499 19.411 -0 -1.2 0
23.305 -3.021 19.388 -0 -1.2 0
23.278 -3.543 19.36 -0 -1.2 0
23.246 -4.065 19.325 -0 -1.2 0
23.206 -4.586 19.285 -0 -1.2 0
23.158 -5.105 19.239 -0 -1.2 0
23.105 -5.624 19.187 -0 -1.2 0
23.043 -6.14 19.13 -0 -1.2 0
22.976 -6.656 19.067 -0 -1.2 0
22.901 -7.169 18.998 -0 -1.2 0
22.819 -7.681 18.924 -0 -1.2 0
22.73 -8.19 18.844 -0 -1.2 0
22.634 -8.698 18.758 -0 -1.2 0
22.531 -9.204 18.667 -0 -1.2 0
22.422 -9.707 18.57 -0 -1.2 0
22.306 -10.206 18.469 -0 -1.2 0
22.182 -10.704 18.36 -0 -1.2 0
22.053 -11.198 18.248 -0 -1.2 0
21.916 -11.69 18.129 -0 -1.2 0
21.773 -12.178 18.006 -0 -1.2 0
21.624 -12.662 17.877 -0 -1.2 0
21.467 -13.144 17.742 -0 -1.2 0
21.304 -13.622 17.602 -0 -1.2 0
21.135 -14.096 17.457 -0 -1.2 0
20.96 -14.565 17.307 -0 -1.2 0
20.778 -15.031 17.152 -0 -1.2 0
20.589 -15.493 16.991 -0 -1.2 0
20.394 -15.95 16.826 -0 -1.2 0
20.194 -16.402 16.655 -0 -1.2 0
19.987 -16.85 16.481 -0 -1.2 0
19.774 -17.293 16.3 -0 -1.2 0
19.555 -17.731 16.115 -0 -1.2 0
19.33 -18.165 15.925 -0 -1.2 0
19.099 -18.592 15.731 -0 -1.2 0
18.863 -19.015 15.531 -0 -1.2 0
18.621 -19.432 15.328 -0 -1.2 0
18.372 -19.844 15.12 -0 -1.2 0
18.119 -20.249 14.907 -0 -1.2 0
17.86 -20.649 14.69 -0 -1.2 0
17.596 -21.043 14.469 -0 -1.2 0
17.326 -21.431 14.243 -0 -1.2 0
17.052 -21.813 14.013 -0 -1.2 0
16.771 -22.189 13.779 -0 -1.2 0
23.875 -0.346 18.77 -0 -1.2 0
23.886 -0.869 18.771 -0 -1.2 0
23.888 -1.392 18.766 -0 -1.2 0
23.884 -1.915 18.756 -0 -1.2 0
23.872 -2.439 18.74 -0 -1.2 0
23.853 -2.962 18.718 -0 -1.2 0
23.827 -3.484 18.691 -0 -1.2 0
23.794 -4.005 18.659 -0 -1.2 0
23.753 -4.527 18.621 -0 -1.2 0
23.706 -5.046 18.577 -0 -1.2 0
23.651 -5.565 18.528 -0 -1.2 0
23.589 -6.081 18.474 -0 -1.2 0
23.443 -7.111 18.348 -0 -1.2 0
23.359 -7.623 18.277 -0 -1.2 0
23.269 -8.132 18.201 -0 -1.2 0
23.171 -8.64 18.118 -0 -1.2 0
23.067 -9.146 18.032 -0 -1.2 0
22.955 -9.649 17.94 -0 -1.2 0
22.836 -10.15 17.842 -0 -1.2 0
22.71 -10.648 17.738 -0 -1.2 0
22.578 -11.142 17.63 -0 -1.2 0
22.439 -11.634 17.516 -0 -1.2 0
22.292 -12.123 17.398 -0 -1.2 0
22.14 -12.607 17.274 -0 -1.2 0
21.98 -13.09 17.145 -0 -1.2 0
21.814 -13.567 17.011 -0 -1.2 0
21.641 -14.042 16.871 -0 -1.2 0
21.462 -14.512 16.727 -0 -1.2 0
21.276 -14.979 16.578 -0 -1.2 0
21.083 -15.44 16.424 -0 -1.2 0
20.885 -15.898 16.265 -0 -1.2 0
20.679 -16.351 16.102 -0 -1.2 0
20.468 -16.799 15.934 -0 -1.2 0
20.25 -17.243 15.761 -0 -1.2 0
20.026 -17.682 15.583 -0 -1.2 0
19.797 -18.116 15.4 -0 -1.2 0
19.561 -18.544 15.213 -0 -1.2 0
19.318 -18.967 15.022 -0 -1.2 0
19.071 -19.385 14.827 -0 -1.2 0
18.818 -19.797 14.627 -0 -1.2 0
18.559 -20.204 14.422 -0 -1.2 0
18.294 -20.604 14.213 -0 -1.2 0
18.024 -20.999 14 -0 -1.2 0
17.748 -21.387 13.783 -0 -1.2 0
17.467 -21.77 13.563 -0 -1.2 0
17.181 -22.147 13.338 -0 -1.2 0
24.402 -0.288 18.079 -0 -1.2 0
24.413 -1.857 18.068 -0 -1.2 0
24.401 -2.381 18.053 -0 -1.2 0
24.383 -2.903 18.033 -0 -1.2 0
24.356 -3.426 18.008 -0 -1.2 0
24.322 -3.947 17.977 -0 -1.2 0
24.281 -4.469 17.942 -0 -1.2 0
24.233 -4.988 17.9 -0 -1.2 0
24.177 -5.507 17.853 -0 -1.2 0
24.114 -6.024 17.802 -0 -1.2 0
24.043 -6.539 17.744 -0 -1.2 0
23.881 -7.565 17.614 -0 -1.2 0
23.789 -8.076 17.542 -0 -1.2 0
23.689 -8.584 17.463 -0 -1.2 0
23.582 -9.09 17.381 -0 -1.2 0
23.468 -9.593 17.293 -0 -1.2 0
23.348 -10.094 17.2 -0 -1.2 0
23.22 -10.592 17.101 -0 -1.2 0
23.084 -11.087 16.997 -0 -1.2 0
22.942 -11.58 16.889 -0 -1.2 0
22.793 -12.068 16.776 -0 -1.2 0
22.637 -12.553 16.656 -0 -1.2 0
22.475 -13.036 16.533 -0 -1.2 0
22.305 -13.514 16.405 -0 -1.2 0
22.129 -13.989 16.272 -0 -1.2 0
21.946 -14.46 16.134 -0 -1.2 0
21.756 -14.927 15.991 -0 -1.2 0
21.56 -15.389 15.843 -0 -1.2 0
21.357 -15.848 15.692 -0 -1.2 0
21.148 -16.301 15.535 -0 -1.2 0
20.931 -16.75 15.374 -0 -1.2 0
20.709 -17.194 15.208 -0 -1.2 0
20.482 -17.633 15.038 -0 -1.2 0
20.247 -18.068 14.863 -0 -1.2 0
20.006 -18.497 14.684 -0 -1.2 0
19.759 -18.92 14.501 -0 -1.2 0
19.506 -19.338 14.312 -0 -1.2 0
19.248 -19.752 14.121 -0 -1.2 0
18.983 -20.159 13.925 -0 -1.2 0
18.714 -20.56 13.725 -0 -1.2 0
18.437 -20.955 13.521 -0 -1.2 0
18.156 -21.344 13.313 -0 -1.2 0
17.868 -21.728 13.101 -0 -1.2 0
17.576 -22.105 12.885 -0 -1.2 0
24.901 0.819 17.298 -0 -1.2 0
24.928 0.295 17.311 -0 -1.2 0
24.946 -0.226 17.319 -0 -1.2 0
24.957 -0.749 17.32 -0 -1.2 0
24.961 -1.272 17.318 -0 -1.2 0
24.958 -1.795 17.309 -0 -1.2 0
24.947 -2.32 17.296 -0 -1.2 0
24.927 -2.842 17.278 -0 -1.2 0
24.901 -3.364 17.254 -0 -1.2 0
24.867 -3.886 17.225 -0 -1.2 0
24.825 -4.407 17.192 -0 -1.2 0
24.776 -4.927 17.153 -0 -1.2 0
24.72 -5.446 17.11 -0 -1.2 0
24.656 -5.963 17.061 -0 -1.2 0
24.584 -6.479 17.007 -0 -1.2 0
24.505 -6.993 16.949 -0 -1.2 0
24.419 -7.505 16.884 -0 -1.2 0
24.324 -8.016 16.816 -0 -1.2 0
24.223 -8.524 16.742 -0 -1.2 0
24.115 -9.031 16.664 -0 -1.2 0
23.998 -9.534 16.579 -0 -1.2 0
23.875 -10.035 16.491 -0 -1.2 0
23.745 -10.534 16.398 -0 -1.2 0
23.607 -11.029 16.3 -0 -1.2 0
23.462 -11.522 16.196 -0 -1.2 0
23.311 -12.011 16.089 -0 -1.2 0
23.151 -12.497 15.976 -0 -1.2 0
22.986 -12.98 15.859 -0 -1.2 0
22.812 -13.458 15.737 -0 -1.2 0
22.632 -13.934 15.611 -0 -1.2 0
22.446 -14.405 15.479 -0 -1.2 0
22.252 -14.872 15.343 -0 -1.2 0
22.052 -15.335 15.203 -0 -1.2 0
21.844 -15.794 15.059 -0 -1.2 0
21.631 -16.248 14.909 -0 -1.2 0
21.411 -16.697 14.756 -0 -1.2 0
21.184 -17.142 14.599 -0 -1.2 0
20.952 -17.582 14.436 -0 -1.2 0
20.712 -18.017 14.269 -0 -1.2 0
20.465 -18.447 14.099 -0 -1.2 0
20.214 -18.871 13.924 -0 -1.2 0
19.956 -19.29 13.746 -0 -1.2 0
19.691 -19.703 13.563 -0 -1.2 0
19.422 -20.111 13.376 -0 -1.2 0
19.146 -20.513 13.185 -0 -1.2 0
18.864 -20.909 12.991 -0 -1.2 0
18.576 -21.299 12.793 -0 -1.2 0
18.283 -21.683 12.591 -0 -1.2 0
17.984 -22.062 12.385 -0 -1.2 0
25.44 -0.171 16.581 -0 -1.2 0
25.452 -0.693 16.583 -0 -1.2 0
25.456 -1.216 16.582 -0 -1.2 0
25.452 -1.74 16.575 -0 -1.2 0
25.442 -2.264 16.562 -0 -1.2 0
25.422 -2.786 16.546 -0 -1.2 0
25.396 -3.309 16.524 -0 -1.2 0
25.362 -3.83 16.498 -0 -1.2 0
25.319 -4.352 16.467 -0 -1.2 0
25.27 -4.872 16.43 -0 -1.2 0
25.212 -5.391 16.389 -0 -1.2 0
25.147 -5.908 16.343 -0 -1.2 0
25.075 -6.424 16.293 -0 -1.2 0
24.994 -6.938 16.237 -0 -1.2 0
24.906 -7.451 16.177 -0 -1.2 0
24.811 -7.961 16.112 -0 -1.2 0
24.708 -8.47 16.042 -0 -1.2 0
24.597 -8.977 15.967 -0 -1.2 0
24.48 -9.481 15.889 -0 -1.2 0
24.354 -9.982 15.804 -0 -1.2 0
24.222 -10.481 15.716 -0 -1.2 0
24.082 -10.976 15.623 -0 -1.2 0
23.934 -11.47 15.525 -0 -1.2 0
23.78 -11.959 15.423 -0 -1.2 0
23.618 -12.445 15.317 -0 -1.2 0
23.449 -12.929 15.205 -0 -1.2 0
23.273 -13.408 15.089 -0 -1.2 0
23.09 -13.884 14.968 -0 -1.2 0
22.899 -14.355 14.844 -0 -1.2 0
22.703 -14.823 14.716 -0 -1.2 0
22.499 -15.286 14.582 -0 -1.2 0
22.287 -15.746 14.444 -0 -1.2 0
22.07 -16.2 14.303 -0 -1.2 0
21.846 -16.65 14.157 -0 -1.2 0
21.615 -17.095 14.006 -0 -1.2 0
21.378 -17.535 13.852 -0 -1.2 0
21.134 -17.971 13.694 -0 -1.2 0
20.884 -18.401 13.531 -0 -1.2 0
20.627 -18.826 13.366 -0 -1.2 0
20.364 -19.246 13.195 -0 -1.2 0
20.095 -19.66 13.021 -0 -1.2 0
19.82 -20.068 12.843 -0 -1.2 0
19.539 -20.471 12.662 -0 -1.2 0
19.252 -20.867 12.477 -0 -1.2 0
18.959 -21.258 12.288 -0 -1.2 0
18.66 -21.643 12.095 -0 -1.2 0
18.356 -22.022 11.899 -0 -1.2 0
25.904 0.406 15.795 -0 -1.2 0
25.937 -0.639 15.806 -0 -1.2 0
25.942 -1.162 15.805 -0 -1.2 0
25.939 -1.685 15.799 -0 -1.2 0
25.928 -2.209 15.789 -0 -1.2 0
25.909 -2.732 15.773 -0 -1.2 0
25.882 -3.254 15.754 -0 -1.2 0
25.847 -3.776 15.729 -0 -1.2 0
25.805 -4.298 15.7 -0 -1.2 0
25.755 -4.818 15.666 -0 -1.2 0
25.696 -5.337 15.628 -0 -1.2 0
25.63 -5.854 15.585 -0 -1.2 0
25.556 -6.371 15.538 -0 -1.2 0
25.476 -6.885 15.486 -0 -1.2 0
25.386 -7.398 15.429 -0 -1.2 0
25.289 -7.909 15.368 -0 -1.2 0
25.185 -8.418 15.302 -0 -1.2 0
25.072 -8.925 15.232 -0 -1.2 0
24.953 -9.429 15.158 -0 -1.2 0
24.825 -9.93 15.08 -0 -1.2 0
24.691 -10.43 14.996 -0 -1.2 0
24.548 -10.925 14.908 -0 -1.2 0
24.398 -11.419 14.815 -0 -1.2 0
24.241 -11.909 14.719 -0 -1.2 0
24.077 -12.395 14.618 -0 -1.2 0
23.905 -12.879 14.513 -0 -1.2 0
23.725 -13.358 14.404 -0 -1.2 0
23.539 -13.835 14.29 -0 -1.2 0
23.346 -14.306 14.172 -0 -1.2 0
23.145 -14.775 14.05 -0 -1.2 0
22.938 -15.238 13.924 -0 -1.2 0
22.724 -15.698 13.795 -0 -1.2 0
22.502 -16.153 13.66 -0 -1.2 0
22.273 -16.603 13.522 -0 -1.2 0
22.038 -17.05 13.38 -0 -1.2 0
21.797 -17.49 13.234 -0 -1.2 0
21.548 -17.926 13.084 -0 -1.2 0
21.294 -18.357 12.931 -0 -1.2 0
21.033 -18.783 12.773 -0 -1.2 0
20.766 -19.202 12.612 -0 -1.2 0
20.491 -19.617 12.447 -0 -1.2 0
20.211 -20.026 12.279 -0 -1.2 0
19.925 -20.43 12.107 -0 -1.2 0
19.632 -20.827 11.931 -0 -1.2 0
19.335 -21.218 11.752 -0 -1.2 0
19.03 -21.604 11.569 -0 -1.2 0
18.72 -21.983 11.383 -0 -1.2 0
26.432 -0.583 14.954 -0 -1.2 0
26.437 -1.106 14.954 -0 -1.2 0
26.434 -1.629 14.949 -0 -1.2 0
26.424 -2.153 14.94 -0 -1.2 0
26.404 -2.675 14.926 -0 -1.2 0
26.377 -3.198 14.908 -0 -1.2 0
26.342 -3.72 14.887 -0 -1.2 0
26.299 -4.242 14.86 -0 -1.2 0
26.248 -4.762 14.83 -0 -1.2 0
26.19 -5.281 14.794 -0 -1.2 0
26.123 -5.799 14.754 -0 -1.2 0
26.049 -6.315 14.71 -0 -1.2 0
25.966 -6.83 14.662 -0 -1.2 0
25.875 -7.343 14.61 -0 -1.2 0
25.777 -7.854 14.553 -0 -1.2 0
25.671 -8.363 14.493 -0 -1.2 0
25.557 -8.87 14.427 -0 -1.2 0
25.435 -9.375 14.358 -0 -1.2 0
25.306 -9.876 14.284 -0 -1.2 0
25.169 -10.376 14.207 -0 -1.2 0
25.024 -10.872 14.124 -0 -1.2 0
24.872 -11.366 14.038 -0 -1.2 0
24.712 -11.856 13.947 -0 -1.2 0
24.545 -12.343 13.853 -0 -1.2 0
24.37 -12.827 13.756 -0 -1.2 0
24.188 -13.307 13.653 -0 -1.2 0
23.999 -13.783 13.547 -0 -1.2 0
23.802 -14.255 13.436 -0 -1.2 0
23.598 -14.724 13.322 -0 -1.2 0
23.387 -15.189 13.204 -0 -1.2 0
23.168 -15.649 13.082 -0 -1.2 0
22.943 -16.105 12.956 -0 -1.2 0
22.711 -16.555 12.827 -0 -1.2 0
22.471 -17.002 12.694 -0 -1.2 0
22.226 -17.443 12.557 -0 -1.2 0
21.973 -17.88 12.417 -0 -1.2 0
21.713 -18.311 12.272 -0 -1.2 0
21.448 -18.737 12.124 -0 -1.2 0
21.175 -19.158 11.973 -0 -1.2 0
20.896 -19.573 11.818 -0 -1.2 0
20.612 -19.983 11.66 -0 -1.2 0
20.32 -20.387 11.498 -0 -1.2 0
20.022 -20.784 11.333 -0 -1.2 0
19.719 -21.176 11.165 -0 -1.2 0
19.409 -21.563 10.994 -0 -1.2 0
19.094 -21.943 10.82 -0 -1.2 0
26.851 0.485 14.091 -0 -1.2 0
26.873 -0.036 14.1 -0 -1.2 0
26.886 -0.559 14.104 -0 -1.2 0
26.892 -1.082 14.105 -0 -1.2 0
26.888 -1.605 14.101 -0 -1.2 0
26.878 -2.129 14.093 -0 -1.2 0
26.859 -2.652 14.081 -0 -1.2 0
26.831 -3.175 14.065 -0 -1.2 0
26.796 -3.696 14.045 -0 -1.2 0
26.752 -4.218 14.02 -0 -1.2 0
26.7 -4.739 13.992 -0 -1.2 0
26.64 -5.258 13.96 -0 -1.2 0
26.572 -5.775 13.922 -0 -1.2 0
26.496 -6.292 13.882 -0 -1.2 0
26.412 -6.807 13.837 -0 -1.2 0
26.32 -7.32 13.788 -0 -1.2 0
26.22 -7.831 13.736 -0 -1.2 0
26.112 -8.34 13.679 -0 -1.2 0
25.997 -8.847 13.618 -0 -1.2 0
25.873 -9.352 13.553 -0 -1.2 0
25.741 -9.854 13.485 -0 -1.2 0
25.601 -10.354 13.412 -0 -1.2 0
25.454 -10.85 13.336 -0 -1.2 0
25.299 -11.344 13.255 -0 -1.2 0
25.136 -11.834 13.171 -0 -1.2 0
24.966 -12.321 13.082 -0 -1.2 0
24.788 -12.805 12.991 -0 -1.2 0
24.603 -13.285 12.895 -0 -1.2 0
24.41 -13.762 12.796 -0 -1.2 0
24.211 -14.234 12.693 -0 -1.2 0
24.002 -14.704 12.586 -0 -1.2 0
23.788 -15.168 12.475 -0 -1.2 0
23.566 -15.629 12.362 -0 -1.2 0
23.337 -16.084 12.244 -0 -1.2 0
23.1 -16.535 12.123 -0 -1.2 0
22.857 -16.982 11.997 -0 -1.2 0
22.607 -17.423 11.87 -0 -1.2 0
22.35 -17.86 11.738 -0 -1.2 0
22.086 -18.292 11.603 -0 -1.2 0
21.816 -18.718 11.464 -0 -1.2 0
21.539 -19.139 11.323 -0 -1.2 0
21.255 -19.555 11.178 -0 -1.2 0
20.965 -19.965 11.03 -0 -1.2 0
20.668 -20.369 10.878 -0 -1.2 0
20.366 -20.767 10.724 -0 -1.2 0
20.057 -21.159 10.566 -0 -1.2 0
19.742 -21.545 10.405 -0 -1.2 0
19.421 -21.926 10.242 -0 -1.2 0
27.308 -0.548 13.251 -0 -1.2 0
27.313 -1.071 13.252 -0 -1.2 0
27.31 -1.594 13.249 -0 -1.2 0
27.299 -2.119 13.242 -0 -1.2 0
27.279 -2.641 13.231 -0 -1.2 0
27.252 -3.164 13.217 -0 -1.2 0
27.215 -3.686 13.198 -0 -1.2 0
27.171 -4.208 13.175 -0 -1.2 0
27.118 -4.728 13.149 -0 -1.2 0
27.057 -5.247 13.119 -0 -1.2 0
26.988 -5.765 13.085 -0 -1.2 0
26.91 -6.281 13.047 -0 -1.2 0
26.825 -6.796 13.006 -0 -1.2 0
26.731 -7.309 12.96 -0 -1.2 0
26.63 -7.82 12.911 -0 -1.2 0
26.52 -8.33 12.859 -0 -1.2 0
26.402 -8.837 12.802 -0 -1.2 0
26.276 -9.342 12.742 -0 -1.2 0
26.143 -9.844 12.678 -0 -1.2 0
26.001 -10.343 12.61 -0 -1.2 0
25.851 -10.84 12.539 -0 -1.2 0
25.693 -11.334 12.464 -0 -1.2 0
25.529 -11.824 12.386 -0 -1.2 0
25.355 -12.311 12.303 -0 -1.2 0
25.175 -12.796 12.218 -0 -1.2 0
24.986 -13.275 12.128 -0 -1.2 0
24.791 -13.753 12.036 -0 -1.2 0
24.587 -14.225 11.94 -0 -1.2 0
24.376 -14.694 11.84 -0 -1.2 0
24.158 -15.159 11.737 -0 -1.2 0
23.932 -15.619 11.63 -0 -1.2 0
23.7 -16.075 11.521 -0 -1.2 0
23.459 -16.526 11.408 -0 -1.2 0
23.212 -16.973 11.291 -0 -1.2 0
22.958 -17.414 11.172 -0 -1.2 0
22.697 -17.852 11.048 -0 -1.2 0
22.429 -18.283 10.922 -0 -1.2 0
22.154 -18.71 10.793 -0 -1.2 0
21.873 -19.13 10.661 -0 -1.2 0
21.584 -19.546 10.525 -0 -1.2 0
21.29 -19.956 10.386 -0 -1.2 0
20.989 -20.36 10.245 -0 -1.2 0
20.681 -20.759 10.101 -0 -1.2 0
20.367 -21.151 9.954 -0 -1.2 0
20.047 -21.538 9.804 -0 -1.2 0
19.722 -21.918 9.651 -0 -1.2 0
27.715 -0.02 12.318 -0 -1.2 0
27.728 -0.543 12.322 -0 -1.2 0
27.734 -1.066 12.323 -0 -1.2 0
27.73 -1.589 12.321 -0 -1.2 0
27.719 -2.114 12.315 -0 -1.2 0
27.698 -2.636 12.304 -0 -1.2 0
27.669 -3.159 12.291 -0 -1.2 0
27.633 -3.681 12.274 -0 -1.2 0
27.587 -4.203 12.254 -0 -1.2 0
27.533 -4.723 12.229 -0 -1.2 0
27.472 -5.242 12.203 -0 -1.2 0
27.402 -5.76 12.171 -0 -1.2 0
27.323 -6.276 12.136 -0 -1.2 0
27.236 -6.791 12.099 -0 -1.2 0
27.14 -7.304 12.057 -0 -1.2 0
27.037 -7.815 12.012 -0 -1.2 0
26.926 -8.325 11.964 -0 -1.2 0
26.806 -8.832 11.911 -0 -1.2 0
26.678 -9.337 11.856 -0 -1.2 0
26.542 -9.839 11.797 -0 -1.2 0
26.398 -10.339 11.735 -0 -1.2 0
26.246 -10.835 11.669 -0 -1.2 0
26.086 -11.329 11.6 -0 -1.2 0
25.918 -11.819 11.528 -0 -1.2 0
25.742 -12.306 11.452 -0 -1.2 0
25.559 -12.791 11.373 -0 -1.2 0
25.367 -13.271 11.291 -0 -1.2 0
25.168 -13.748 11.205 -0 -1.2 0
24.961 -14.22 11.116 -0 -1.2 0
24.747 -14.69 11.024 -0 -1.2 0
24.525 -15.154 10.93 -0 -1.2 0
24.296 -15.615 10.831 -0 -1.2 0
24.06 -16.071 10.73 -0 -1.2 0
23.815 -16.522 10.625 -0 -1.2 0
23.565 -16.969 10.518 -0 -1.2 0
23.306 -17.41 10.408 -0 -1.2 0
23.042 -17.847 10.294 -0 -1.2 0
22.769 -18.279 10.178 -0 -1.2 0
22.489 -18.706 10.058 -0 -1.2 0
22.204 -19.126 9.936 -0 -1.2 0
21.911 -19.542 9.811 -0 -1.2 0
21.612 -19.952 9.683 -0 -1.2 0
21.306 -20.357 9.552 -0 -1.2 0
20.993 -20.755 9.419 -0 -1.2 0
20.675 -21.147 9.283 -0 -1.2 0
20.349 -21.534 9.144 -0 -1.2 0
20.018 -21.915 9.003 -0 -1.2 0
28.076 -0.016 11.441 -0 -1.2 0
28.089 -0.539 11.446 -0 -1.2 0
28.095 -1.062 11.447 -0 -1.2 0
28.091 -1.585 11.445 -0 -1.2 0
28.08 -2.11 11.439 -0 -1.2 0
28.058 -2.632 11.431 -0 -1.2 0
28.03 -3.155 11.419 -0 -1.2 0
27.992 -3.677 11.404 -0 -1.2 0
27.946 -4.199 11.385 -0 -1.2 0
27.892 -4.719 11.363 -0 -1.2 0
27.829 -5.238 11.338 -0 -1.2 0
27.758 -5.756 11.309 -0 -1.2 0
27.678 -6.273 11.278 -0 -1.2 0
27.589 -6.787 11.243 -0 -1.2 0
27.493 -7.3 11.205 -0 -1.2 0
27.388 -7.812 11.164 -0 -1.2 0
27.275 -8.321 11.119 -0 -1.2 0
27.153 -8.828 11.072 -0 -1.2 0
27.024 -9.333 11.021 -0 -1.2 0
26.886 -9.835 10.967 -0 -1.2 0
26.74 -10.335 10.909 -0 -1.2 0
26.585 -10.831 10.848 -0 -1.2 0
26.423 -11.325 10.785 -0 -1.2 0
26.253 -11.816 10.719 -0 -1.2 0
26.075 -12.303 10.649 -0 -1.2 0
25.889 -12.787 10.576 -0 -1.2 0
25.695 -13.267 10.5 -0 -1.2 0
25.493 -13.744 10.422 -0 -1.2 0
25.283 -14.217 10.34 -0 -1.2 0
25.066 -14.686 10.255 -0 -1.2 0
24.842 -15.151 10.168 -0 -1.2 0
24.61 -15.611 10.077 -0 -1.2 0
24.37 -16.067 9.984 -0 -1.2 0
24.123 -16.518 9.887 -0 -1.2 0
23.868 -16.965 9.789 -0 -1.2 0
23.606 -17.407 9.686 -0 -1.2 0
23.337 -17.844 9.582 -0 -1.2 0
23.061 -18.276 9.475 -0 -1.2 0
22.779 -18.702 9.365 -0 -1.2 0
22.489 -19.123 9.252 -0 -1.2 0
22.192 -19.539 9.136 -0 -1.2 0
21.889 -19.949 9.019 -0 -1.2 0
21.579 -20.354 8.899 -0 -1.2 0
21.262 -20.752 8.775 -0 -1.2 0
20.939 -21.145 8.65 -0 -1.2 0
20.61 -21.531 8.522 -0 -1.2 0
20.274 -21.912 8.392 -0 -1.2 0
28.408 -0.014 10.555 -0 -1.2 0
28.422 -0.536 10.56 -0 -1.2 0
28.426 -1.059 10.561 -0 -1.2 0
28.423 -1.583 10.559 -0 -1.2 0
28.411 -2.107 10.555 -0 -1.2 0
28.39 -2.629 10.547 -0 -1.2 0
28.361 -3.152 10.537 -0 -1.2 0
28.323 -3.674 10.523 -0 -1.2 0
28.276 -4.196 10.506 -0 -1.2 0
28.221 -4.716 10.486 -0 -1.2 0
28.157 -5.236 10.464 -0 -1.2 0
28.085 -5.753 10.438 -0 -1.2 0
28.004 -6.27 10.41 -0 -1.2 0
27.914 -6.785 10.378 -0 -1.2 0
27.816 -7.298 10.344 -0 -1.2 0
27.71 -7.809 10.306 -0 -1.2 0
27.595 -8.318 10.265 -0 -1.2 0
27.473 -8.826 10.222 -0 -1.2 0
27.341 -9.33 10.176 -0 -1.2 0
27.202 -9.832 10.127 -0 -1.2 0
27.054 -10.332 10.074 -0 -1.2 0
26.897 -10.828 10.019 -0 -1.2 0
26.733 -11.323 9.961 -0 -1.2 0
26.561 -11.813 9.9 -0 -1.2 0
26.38 -12.3 9.836 -0 -1.2 0
26.192 -12.785 9.771 -0 -1.2 0
25.996 -13.265 9.701 -0 -1.2 0
25.792 -13.742 9.63 -0 -1.2 0
25.58 -14.214 9.555 -0 -1.2 0
25.36 -14.684 9.477 -0 -1.2 0
25.132 -15.148 9.398 -0 -1.2 0
24.897 -15.609 9.315 -0 -1.2 0
24.654 -16.065 9.23 -0 -1.2 0
24.404 -16.516 9.141 -0 -1.2 0
24.146 -16.963 9.051 -0 -1.2 0
23.882 -17.404 8.958 -0 -1.2 0
23.61 -17.842 8.863 -0 -1.2 0
23.33 -18.273 8.764 -0 -1.2 0
23.043 -18.7 8.664 -0 -1.2 0
22.75 -19.121 8.56 -0 -1.2 0
22.45 -19.537 8.455 -0 -1.2 0
22.143 -19.947 8.347 -0 -1.2 0
21.829 -20.352 8.238 -0 -1.2 0
21.509 -20.75 8.125 -0 -1.2 0
21.182 -21.143 8.01 -0 -1.2 0
20.848 -21.529 7.893 -0 -1.2 0
20.509 -21.91 7.773 -0 -1.2 0
28.744 -0.012 9.555 -0 -1.2 0
28.757 -0.534 9.559 -0 -1.2 0
28.763 -1.057 9.561 -0 -1.2 0
28.758 -1.581 9.56 -0 -1.2 0
28.746 -2.105 9.556 -0 -1.2 0
28.726 -2.627 9.549 -0 -1.2 0
28.695 -3.15 9.54 -0 -1.2 0
28.657 -3.672 9.528 -0 -1.2 0
28.609 -4.194 9.514 -0 -1.2 0
28.554 -4.714 9.496 -0 -1.2 0
28.489 -5.234 9.477 -0 -1.2 0
28.416 -5.751 9.454 -0 -1.2 0
28.334 -6.268 9.429 -0 -1.2 0
28.243 -6.783 9.4 -0 -1.2 0
28.144 -7.296 9.37 -0 -1.2 0
28.036 -7.807 9.337 -0 -1.2 0
27.92 -8.316 9.301 -0 -1.2 0
27.795 -8.824 9.262 -0 -1.2 0
27.662 -9.328 9.221 -0 -1.2 0
27.521 -9.83 9.177 -0 -1.2 0
27.371 -10.33 9.131 -0 -1.2 0
27.213 -10.827 9.082 -0 -1.2 0
27.047 -11.321 9.03 -0 -1.2 0
26.873 -11.811 8.976 -0 -1.2 0
26.689 -12.298 8.919 -0 -1.2 0
26.499 -12.783 8.86 -0 -1.2 0
26.3 -13.263 8.798 -0 -1.2 0
26.093 -13.74 8.735 -0 -1.2 0
25.879 -14.212 8.668 -0 -1.2 0
25.656 -14.682 8.599 -0 -1.2 0
25.426 -15.146 8.528 -0 -1.2 0
25.187 -15.607 8.453 -0 -1.2 0
24.942 -16.063 8.377 -0 -1.2 0
24.688 -16.514 8.299 -0 -1.2 0
24.428 -16.961 8.218 -0 -1.2 0
24.16 -17.403 8.134 -0 -1.2 0
23.884 -17.84 8.049 -0 -1.2 0
23.602 -18.272 7.961 -0 -1.2 0
23.312 -18.699 7.871 -0 -1.2 0
23.014 -19.12 7.78 -0 -1.2 0
22.711 -19.536 7.685 -0 -1.2 0
22.4 -19.946 7.588 -0 -1.2 0
22.083 -20.35 7.49 -0 -1.2 0
21.759 -20.748 7.389 -0 -1.2 0
21.427 -21.141 7.286 -0 -1.2 0
21.09 -21.528 7.182 -0 -1.2 0
20.746 -21.909 7.075 -0 -1.2 0
29.04 -0.534 8.609 -0 -1.2 0
29.045 -1.057 8.611 -0 -1.2 0
29.041 -1.58 8.611 -0 -1.2 0
29.029 -2.104 8.608 -0 -1.2 0
29.007 -2.627 8.602 -0 -1.2 0
28.977 -3.149 8.595 -0 -1.2 0
28.938 -3.671 8.585 -0 -1.2 0
28.768 -5.233 8.539 -0 -1.2 0
28.519 -6.782 8.473 -0 -1.2 0
28.419 -7.295 8.447 -0 -1.2 0
28.31 -7.806 8.417 -0 -1.2 0
28.194 -8.315 8.386 -0 -1.2 0
28.067 -8.823 8.351 -0 -1.2 0
27.933 -9.328 8.316 -0 -1.2 0
27.79 -9.83 8.277 -0 -1.2 0
27.638 -10.33 8.235 -0 -1.2 0
27.479 -10.826 8.192 -0 -1.2 0
27.311 -11.32 8.147 -0 -1.2 0
27.134 -11.811 8.099 -0 -1.2 0
26.95 -12.297 8.049 -0 -1.2 0
26.757 -12.782 7.997 -0 -1.2 0
26.556 -13.262 7.942 -0 -1.2 0
26.348 -13.739 7.885 -0 -1.2 0
26.13 -14.212 7.826 -0 -1.2 0
25.905 -14.681 7.765 -0 -1.2 0
25.673 -15.146 7.701 -0 -1.2 0
25.433 -15.607 7.636 -0 -1.2 0
25.184 -16.062 7.569 -0 -1.2 0
24.928 -16.513 7.499 -0 -1.2 0
24.665 -16.961 7.427 -0 -1.2 0
24.394 -17.402 7.353 -0 -1.2 0
24.116 -17.84 7.278 -0 -1.2 0
23.83 -18.271 7.199 -0 -1.2 0
23.537 -18.698 7.12 -0 -1.2 0
23.238 -19.119 7.037 -0 -1.2 0
22.931 -19.535 6.954 -0 -1.2 0
22.617 -19.945 6.868 -0 -1.2 0
22.296 -20.349 6.78 -0 -1.2 0
21.969 -20.748 6.691 -0 -1.2 0
21.634 -21.14 6.599 -0 -1.2 0
21.293 -21.527 6.507 -0 -1.2 0
20.946 -21.908 6.411 -0 -1.2 0
29.277 -2.104 7.653 -0 -1.2 0
29.256 -2.627 7.648 -0 -1.2 0
29.225 -3.15 7.642 -0 -1.2 0
29.186 -3.671 7.633 -0 -1.2 0
29.137 -4.193 7.623 -0 -1.2 0
29.079 -4.714 7.611 -0 -1.2 0
28.552 -7.806 7.49 -0 -1.2 0
28.434 -8.316 7.463 -0 -1.2 0
28.307 -8.823 7.434 -0 -1.2 0
28.171 -9.328 7.402 -0 -1.2 0
28.027 -9.83 7.369 -0 -1.2 0
27.874 -10.33 7.334 -0 -1.2 0
27.713 -10.826 7.296 -0 -1.2 0
27.543 -11.32 7.256 -0 -1.2 0
27.365 -11.811 7.215 -0 -1.2 0
27.179 -12.298 7.171 -0 -1.2 0
26.985 -12.782 7.126 -0 -1.2 0
26.782 -13.262 7.078 -0 -1.2 0
26.572 -13.74 7.029 -0 -1.2 0
26.353 -14.212 6.977 -0 -1.2 0
26.126 -14.681 6.924 -0 -1.2 0
25.891 -15.146 6.869 -0 -1.2 0
25.648 -15.607 6.812 -0 -1.2 0
25.398 -16.063 6.753 -0 -1.2 0
25.14 -16.514 6.693 -0 -1.2 0
24.874 -16.961 6.63 -0 -1.2 0
24.601 -17.402 6.565 -0 -1.2 0
24.32 -17.84 6.499 -0 -1.2 0
24.031 -18.271 6.431 -0 -1.2 0
23.736 -18.698 6.362 -0 -1.2 0
23.434 -19.119 6.29 -0 -1.2 0
23.125 -19.535 6.217 -0 -1.2 0
22.807 -19.945 6.142 -0 -1.2 0
22.484 -20.35 6.066 -0 -1.2 0
22.154 -20.748 5.987 -0 -1.2 0
21.816 -21.141 5.908 -0 -1.2 0
21.472 -21.527 5.827 -0 -1.2 0
21.123 -21.908 5.744 -0 -1.2 0
29.507 -0.013 6.611 -0 -1.2 0
29.416 -3.673 6.603 -0 -1.2 0
29.366 -4.195 6.595 -0 -1.2 0
29.309 -4.715 6.585 -0 -1.2 0
28.989 -6.784 6.526 -0 -1.2 0
28.887 -7.297 6.506 -0 -1.2 0
28.657 -8.317 6.464 -0 -1.2 0
28.529 -8.825 6.439 -0 -1.2 0
28.345 -9.315 6.403 -0 -1.2 0
28.246 -9.831 6.385 -0 -1.2 0
28.093 -10.331 6.355 -0 -1.2 0
27.93 -10.828 6.324 -0 -1.2 0
27.759 -11.322 6.291 -0 -1.2 0
27.58 -11.812 6.257 -0 -1.2 0
27.392 -12.299 6.22 -0 -1.2 0
27.195 -12.784 6.182 -0 -1.2 0
26.991 -13.264 6.142 -0 -1.2 0
26.779 -13.741 6.101 -0 -1.2 0
26.558 -14.213 6.057 -0 -1.2 0
26.33 -14.683 6.013 -0 -1.2 0
26.092 -15.147 5.967 -0 -1.2 0
25.848 -15.608 5.918 -0 -1.2 0
25.596 -16.064 5.869 -0 -1.2 0
25.336 -16.515 5.818 -0 -1.2 0
25.068 -16.962 5.766 -0 -1.2 0
24.793 -17.404 5.711 -0 -1.2 0
24.509 -17.841 5.655 -0 -1.2 0
24.219 -18.273 5.598 -0 -1.2 0
23.921 -18.699 5.539 -0 -1.2 0
23.616 -19.12 5.479 -0 -1.2 0
23.304 -19.536 5.417 -0 -1.2 0
22.984 -19.947 5.355 -0 -1.2 0
22.658 -20.351 5.29 -0 -1.2 0
22.326 -20.749 5.224 -0 -1.2 0
21.986 -21.142 5.157 -0 -1.2 0
21.639 -21.529 5.089 -0 -1.2 0
21.286 -21.909 5.018 -0 -1.2 0
29.629 1.03 5.656 -0 -1.2 0
29.683 -0.016 5.669 -0 -1.2 0
29.698 -0.538 5.673 -0 -1.2 0
29.702 -1.061 5.676 -0 -1.2 0
29.698 -1.584 5.677 -0 -1.2 0
29.417 -5.237 5.643 -0 -1.2 0
29.256 -6.272 5.619 -0 -1.2 0
28.949 -7.811 5.573 -0 -1.2 0
28.699 -8.828 5.534 -0 -1.2 0
28.561 -9.332 5.513 -0 -1.2 0
28.415 -9.834 5.49 -0 -1.2 0
28.26 -10.334 5.466 -0 -1.2 0
28.096 -10.83 5.44 -0 -1.2 0
27.925 -11.325 5.413 -0 -1.2 0
27.743 -11.815 5.384 -0 -1.2 0
27.555 -12.302 5.354 -0 -1.2 0
27.358 -12.786 5.323 -0 -1.2 0
27.152 -13.266 5.29 -0 -1.2 0
26.938 -13.744 5.255 -0 -1.2 0
26.716 -14.216 5.221 -0 -1.2 0
26.486 -14.685 5.184 -0 -1.2 0
26.247 -15.15 5.145 -0 -1.2 0
26.002 -15.611 5.106 -0 -1.2 0
25.747 -16.066 5.064 -0 -1.2 0
25.486 -16.517 5.022 -0 -1.2 0
25.216 -16.965 4.978 -0 -1.2 0
24.939 -17.406 4.933 -0 -1.2 0
24.654 -17.843 4.887 -0 -1.2 0
