# .PCD v.7 - Point Cloud Data file format
FIELDS x y z vp_x vp_y vp_z
SIZE 4 4 4 4 4 4
TYPE F F F F F F
COUNT 1 1 1 1 1 1
WIDTH 1615
HEIGHT 1
VIEWPOINT 0 -1.20014 0 1 0 0 0
POINTS 1615
DATA ascii
1.918 -2.952 -3.024 -0 -1.2 0
1.924 -3.033 -3.032 -0 -1.2 0
1.931 -3.116 -3.039 -0 -1.2 0
1.934 -3.199 -3.043 -0 -1.2 0
1.933 -3.278 -3.04 -0 -1.2 0
1.935 -3.363 -3.042 -0 -1.2 0
1.931 -3.443 -3.035 -0 -1.2 0
1.913 -3.505 -3.007 -0 -1.2 0
1.912 -3.591 -3.004 -0 -1.2 0
1.914 -3.684 -3.006 -0 -1.2 0
1.788 -3.599 -2.832 -0 -1.2 0
1.754 -3.638 -2.783 -0 -1.2 0
1.684 -3.622 -2.686 -0 -1.2 0
1.646 -3.65 -2.632 -0 -1.2 0
1.628 -3.711 -2.608 -0 -1.2 0
0.628 0.01 -1.326 -0 -1.2 0
0.646 0.004 -1.354 -0 -1.2 0
0.669 0.005 -1.388 -0 -1.2 0
0.696 0.011 -1.428 -0 -1.2 0
0.72 0.009 -1.464 -0 -1.2 0
0.739 0 -1.492 -0 -1.2 0
0.766 0.002 -1.534 -0 -1.2 0
0.799 0.009 -1.583 -0 -1.2 0
0.818 -0.003 -1.612 -0 -1.2 0
0.851 0 -1.661 -0 -1.2 0
0.88 -0.003 -1.704 -0 -1.2 0
0.914 -0.002 -1.754 -0 -1.2 0
0.947 -0.003 -1.805 -0 -1.2 0
0.981 -0.006 -1.856 -0 -1.2 0
1.02 -0.006 -1.915 -0 -1.2 0
1.054 -0.013 -1.966 -0 -1.2 0
1.099 -0.012 -2.032 -0 -1.2 0
1.143 -0.013 -2.099 -0 -1.2 0
1.193 -0.012 -2.174 -0 -1.2 0
1.239 -0.018 -2.242 -0 -1.2 0
1.304 -0.01 -2.34 -0 -1.2 0
1.355 -0.019 -2.417 -0 -1.2 0
1.421 -0.018 -2.517 -0 -1.2 0
1.488 -0.021 -2.616 -0 -1.2 0
1.55 -0.031 -2.71 -0 -1.2 0
1.628 -0.035 -2.826 -0 -1.2 0
1.706 -0.044 -2.944 -0 -1.2 0
1.769 -0.066 -3.037 -0 -1.2 0
1.763 -0.131 -3.028 -0 -1.2 0
1.762 -0.191 -3.025 -0 -1.2 0
1.761 -0.252 -3.022 -0 -1.2 0
1.759 -0.312 -3.017 -0 -1.2 0
1.761 -0.369 -3.019 -0 -1.2 0
1.762 -0.426 -3.021 -0 -1.2 0
1.796 -0.471 -3.071 -0 -1.2 0
1.813 -0.523 -3.096 -0 -1.2 0
1.819 -0.58 -3.104 -0 -1.2 0
1.824 -0.637 -3.111 -0 -1.2 0
1.819 -0.696 -3.1 -0 -1.2 0
1.817 -0.754 -3.098 -0 -1.2 0
1.826 -0.81 -3.11 -0 -1.2 0
1.774 -0.874 -3.03 -0 -1.2 0
1.776 -0.93 -3.033 -0 -1.2 0
1.795 -0.983 -3.06 -0 -1.2 0
1.945 -1.034 -3.286 -0 -1.2 0
1.952 -1.094 -3.294 -0 -1.2 0
1.986 -1.155 -3.343 -0 -1.2 0
1.919 -1.213 -3.242 -0 -1.2 0
1.996 -1.28 -3.356 -0 -1.2 0
2.006 -1.343 -3.368 -0 -1.2 0
2.004 -1.406 -3.365 -0 -1.2 0
1.979 -1.464 -3.326 -0 -1.2 0
2.008 -1.532 -3.37 -0 -1.2 0
2.01 -1.596 -3.37 -0 -1.2 0
2.022 -1.663 -3.387 -0 -1.2 0
2.017 -1.726 -3.378 -0 -1.2 0
2.016 -1.79 -3.377 -0 -1.2 0
2.021 -1.857 -3.382 -0 -1.2 0
1.921 -1.881 -3.233 -0 -1.2 0
2.027 -1.991 -3.39 -0 -1.2 0
2.024 -2.056 -3.384 -0 -1.2 0
2.015 -2.119 -3.369 -0 -1.2 0
1.979 -2.167 -3.314 -0 -1.2 0
1.98 -2.234 -3.313 -0 -1.2 0
2.012 -2.321 -3.359 -0 -1.2 0
2.01 -2.39 -3.357 -0 -1.2 0
2.045 -2.484 -3.407 -0 -1.2 0
2.016 -2.536 -3.362 -0 -1.2 0
1.92 -2.535 -3.218 -0 -1.2 0
2.013 -2.68 -3.356 -0 -1.2 0
2.024 -2.763 -3.37 -0 -1.2 0
2.008 -2.825 -3.345 -0 -1.2 0
1.967 -2.864 -3.282 -0 -1.2 0
1.901 -2.877 -3.182 -0 -1.2 0
1.854 -2.907 -3.113 -0 -1.2 0
1.866 -2.994 -3.128 -0 -1.2 0
1.867 -3.071 -3.129 -0 -1.2 0
1.872 -3.155 -3.135 -0 -1.2 0
1.872 -3.234 -3.132 -0 -1.2 0
1.874 -3.319 -3.134 -0 -1.2 0
1.871 -3.399 -3.129 -0 -1.2 0
1.854 -3.462 -3.101 -0 -1.2 0
1.849 -3.543 -3.092 -0 -1.2 0
1.852 -3.636 -3.095 -0 -1.2 0
1.85 -3.724 -3.091 -0 -1.2 0
1.69 -3.582 -2.855 -0 -1.2 0
1.692 -3.673 -2.855 -0 -1.2 0
1.622 -3.651 -2.749 -0 -1.2 0
1.589 -3.686 -2.7 -0 -1.2 0
0.596 0.01 -1.33 -0 -1.2 0
0.613 0.004 -1.358 -0 -1.2 0
0.64 0.011 -1.4 -0 -1.2 0
0.661 0.01 -1.435 -0 -1.2 0
0.679 0.002 -1.464 -0 -1.2 0
0.705 0.005 -1.507 -0 -1.2 0
0.728 0.001 -1.543 -0 -1.2 0
0.754 0.002 -1.586 -0 -1.2 0
0.785 0.007 -1.636 -0 -1.2 0
0.812 0.005 -1.68 -0 -1.2 0
0.836 -0.004 -1.716 -0 -1.2 0
0.867 -0.003 -1.768 -0 -1.2 0
0.903 0 -1.827 -0 -1.2 0
0.931 -0.008 -1.871 -0 -1.2 0
0.964 -0.013 -1.925 -0 -1.2 0
1.01 -0.004 -1.999 -0 -1.2 0
1.043 -0.013 -2.052 -0 -1.2 0
1.086 -0.014 -2.12 -0 -1.2 0
1.128 -0.018 -2.189 -0 -1.2 0
1.176 -0.02 -2.267 -0 -1.2 0
1.233 -0.017 -2.359 -0 -1.2 0
1.291 -0.017 -2.452 -0 -1.2 0
1.344 -0.024 -2.539 -0 -1.2 0
1.412 -0.022 -2.649 -0 -1.2 0
1.471 -0.033 -2.744 -0 -1.2 0
1.54 -0.041 -2.855 -0 -1.2 0
1.619 -0.046 -2.983 -0 -1.2 0
1.699 -0.056 -3.111 -0 -1.2 0
1.699 -0.118 -3.11 -0 -1.2 0
1.698 -0.18 -3.108 -0 -1.2 0
1.697 -0.241 -3.104 -0 -1.2 0
1.695 -0.302 -3.1 -0 -1.2 0
1.703 -0.357 -3.111 -0 -1.2 0
1.704 -0.416 -3.113 -0 -1.2 0
1.716 -0.47 -3.13 -0 -1.2 0
1.748 -0.518 -3.181 -0 -1.2 0
1.754 -0.575 -3.189 -0 -1.2 0
1.759 -0.633 -3.196 -0 -1.2 0
1.753 -0.693 -3.185 -0 -1.2 0
1.752 -0.752 -3.183 -0 -1.2 0
1.766 -0.807 -3.203 -0 -1.2 0
1.71 -0.873 -3.114 -0 -1.2 0
1.713 -0.929 -3.117 -0 -1.2 0
1.721 -0.985 -3.127 -0 -1.2 0
1.864 -1.035 -3.357 -0 -1.2 0
1.881 -1.096 -3.383 -0 -1.2 0
1.928 -1.159 -3.459 -0 -1.2 0
1.859 -1.217 -3.347 -0 -1.2 0
1.937 -1.286 -3.471 -0 -1.2 0
1.941 -1.35 -3.476 -0 -1.2 0
1.944 -1.414 -3.48 -0 -1.2 0
1.91 -1.472 -3.424 -0 -1.2 0
1.943 -1.543 -3.477 -0 -1.2 0
1.945 -1.608 -3.478 -0 -1.2 0
1.946 -1.673 -3.478 -0 -1.2 0
1.952 -1.74 -3.486 -0 -1.2 0
1.935 -1.8 -3.458 -0 -1.2 0
1.955 -1.873 -3.488 -0 -1.2 0
1.861 -1.899 -3.336 -0 -1.2 0
1.956 -2.008 -3.488 -0 -1.2 0
1.964 -2.079 -3.498 -0 -1.2 0
1.96 -2.146 -3.491 -0 -1.2 0
1.905 -2.183 -3.401 -0 -1.2 0
1.905 -2.251 -3.401 -0 -1.2 0
1.94 -2.342 -3.455 -0 -1.2 0
1.939 -2.412 -3.453 -0 -1.2 0
1.937 -2.482 -3.448 -0 -1.2 0
1.905 -2.53 -3.394 -0 -1.2 0
1.941 -2.631 -3.451 -0 -1.2 0
1.942 -2.706 -3.45 -0 -1.2 0
1.946 -2.786 -3.457 -0 -1.2 0
1.932 -2.849 -3.431 -0 -1.2 0
1.873 -2.871 -3.336 -0 -1.2 0
1.815 -2.889 -3.241 -0 -1.2 0
1.804 -2.952 -3.222 -0 -1.2 0
1.801 -3.026 -3.215 -0 -1.2 0
1.802 -3.104 -3.215 -0 -1.2 0
1.806 -3.189 -3.221 -0 -1.2 0
1.808 -3.274 -3.225 -0 -1.2 0
1.811 -3.36 -3.226 -0 -1.2 0
1.799 -3.43 -3.206 -0 -1.2 0
1.787 -3.5 -3.185 -0 -1.2 0
1.744 -3.528 -3.115 -0 -1.2 0
1.692 -3.541 -3.031 -0 -1.2 0
1.666 -3.589 -2.988 -0 -1.2 0
1.635 -3.629 -2.936 -0 -1.2 0
1.6 -3.662 -2.88 -0 -1.2 0
1.557 -3.679 -2.81 -0 -1.2 0
1.522 -3.709 -2.752 -0 -1.2 0
0.56 0.009 -1.337 -0 -1.2 0
0.58 0.01 -1.372 -0 -1.2 0
0.6 0.01 -1.408 -0 -1.2 0
0.614 -0.003 -1.431 -0 -1.2 0
0.634 -0.005 -1.467 -0 -1.2 0
0.659 -0.001 -1.511 -0 -1.2 0
0.68 -0.005 -1.547 -0 -1.2 0
0.704 -0.005 -1.591 -0 -1.2 0
0.734 0 -1.642 -0 -1.2 0
0.755 -0.007 -1.68 -0 -1.2 0
0.785 -0.005 -1.732 -0 -1.2 0
0.814 -0.004 -1.784 -0 -1.2 0
0.84 -0.011 -1.83 -0 -1.2 0
0.871 -0.014 -1.883 -0 -1.2 0
0.901 -0.019 -1.936 -0 -1.2 0
0.945 -0.011 -2.012 -0 -1.2 0
0.98 -0.015 -2.075 -0 -1.2 0
1.021 -0.016 -2.145 -0 -1.2 0
1.056 -0.025 -2.207 -0 -1.2 0
1.105 -0.022 -2.293 -0 -1.2 0
1.155 -0.023 -2.38 -0 -1.2 0
1.209 -0.023 -2.475 -0 -1.2 0
1.263 -0.025 -2.571 -0 -1.2 0
1.319 -0.032 -2.668 -0 -1.2 0
1.379 -0.039 -2.773 -0 -1.2 0
1.453 -0.039 -2.902 -0 -1.2 0
1.514 -0.054 -3.009 -0 -1.2 0
1.602 -0.055 -3.165 -0 -1.2 0
1.63 -0.1 -3.213 -0 -1.2 0
1.625 -0.165 -3.202 -0 -1.2 0
1.625 -0.227 -3.199 -0 -1.2 0
1.622 -0.289 -3.195 -0 -1.2 0
1.625 -0.348 -3.198 -0 -1.2 0
1.627 -0.407 -3.2 -0 -1.2 0
1.633 -0.464 -3.21 -0 -1.2 0
1.673 -0.509 -3.279 -0 -1.2 0
1.673 -0.569 -3.278 -0 -1.2 0
1.679 -0.628 -3.285 -0 -1.2 0
1.678 -0.688 -3.283 -0 -1.2 0
1.677 -0.747 -3.281 -0 -1.2 0
1.675 -0.807 -3.276 -0 -1.2 0
1.643 -0.87 -3.22 -0 -1.2 0
1.641 -0.928 -3.213 -0 -1.2 0
1.648 -0.985 -3.224 -0 -1.2 0
1.758 -1.038 -3.416 -0 -1.2 0
1.754 -1.099 -3.407 -0 -1.2 0
1.764 -1.16 -3.425 -0 -1.2 0
1.754 -1.221 -3.406 -0 -1.2 0
1.772 -1.284 -3.438 -0 -1.2 0
1.777 -1.346 -3.443 -0 -1.2 0
1.79 -1.411 -3.464 -0 -1.2 0
1.787 -1.473 -3.459 -0 -1.2 0
1.794 -1.537 -3.469 -0 -1.2 0
1.805 -1.604 -3.487 -0 -1.2 0
1.816 -1.671 -3.505 -0 -1.2 0
1.826 -1.739 -3.521 -0 -1.2 0
1.82 -1.803 -3.51 -0 -1.2 0
1.835 -1.874 -3.533 -0 -1.2 0
1.789 -1.92 -3.453 -0 -1.2 0
1.855 -2.018 -3.566 -0 -1.2 0
1.857 -2.087 -3.568 -0 -1.2 0
1.859 -2.157 -3.569 -0 -1.2 0
1.816 -2.201 -3.494 -0 -1.2 0
1.836 -2.282 -3.526 -0 -1.2 0
1.835 -2.352 -3.523 -0 -1.2 0
1.852 -2.436 -3.553 -0 -1.2 0
1.865 -2.518 -3.573 -0 -1.2 0
1.788 -2.529 -3.437 -0 -1.2 0
1.864 -2.665 -3.567 -0 -1.2 0
1.872 -2.75 -3.582 -0 -1.2 0
1.845 -2.802 -3.532 -0 -1.2 0
1.818 -2.852 -3.482 -0 -1.2 0
1.758 -2.869 -3.378 -0 -1.2 0
1.721 -2.906 -3.312 -0 -1.2 0
1.723 -2.984 -3.314 -0 -1.2 0
1.725 -3.064 -3.315 -0 -1.2 0
1.725 -3.143 -3.314 -0 -1.2 0
1.729 -3.229 -3.319 -0 -1.2 0
1.727 -3.31 -3.315 -0 -1.2 0
1.73 -3.397 -3.316 -0 -1.2 0
1.718 -3.467 -3.295 -0 -1.2 0
1.711 -3.544 -3.279 -0 -1.2 0
1.682 -3.59 -3.228 -0 -1.2 0
1.609 -3.567 -3.101 -0 -1.2 0
1.568 -3.591 -3.029 -0 -1.2 0
1.566 -3.676 -3.024 -0 -1.2 0
1.495 -3.644 -2.899 -0 -1.2 0
1.477 -3.701 -2.866 -0 -1.2 0
0.53 0.009 -1.338 -0 -1.2 0
0.542 -0.003 -1.361 -0 -1.2 0
0.559 -0.009 -1.391 -0 -1.2 0
0.584 0.003 -1.44 -0 -1.2 0
0.601 -0.005 -1.47 -0 -1.2 0
0.62 -0.008 -1.508 -0 -1.2 0
0.643 -0.005 -1.551 -0 -1.2 0
0.663 -0.011 -1.589 -0 -1.2 0
0.691 -0.005 -1.641 -0 -1.2 0
0.715 -0.007 -1.686 -0 -1.2 0
0.739 -0.011 -1.732 -0 -1.2 0
0.763 -0.016 -1.777 -0 -1.2 0
0.792 -0.017 -1.831 -0 -1.2 0
0.825 -0.014 -1.893 -0 -1.2 0
0.857 -0.014 -1.955 -0 -1.2 0
0.89 -0.016 -2.017 -0 -1.2 0
0.924 -0.019 -2.08 -0 -1.2 0
0.957 -0.025 -2.144 -0 -1.2 0
0.999 -0.024 -2.222 -0 -1.2 0
1.042 -0.025 -2.302 -0 -1.2 0
1.093 -0.022 -2.399 -0 -1.2 0
1.141 -0.026 -2.488 -0 -1.2 0
1.188 -0.033 -2.577 -0 -1.2 0
1.252 -0.028 -2.7 -0 -1.2 0
1.301 -0.042 -2.79 -0 -1.2 0
1.366 -0.046 -2.913 -0 -1.2 0
1.432 -0.054 -3.038 -0 -1.2 0
1.507 -0.061 -3.18 -0 -1.2 0
1.575 -0.079 -3.305 -0 -1.2 0
1.565 -0.149 -3.286 -0 -1.2 0
1.569 -0.209 -3.291 -0 -1.2 0
1.563 -0.275 -3.279 -0 -1.2 0
1.565 -0.335 -3.282 -0 -1.2 0
1.572 -0.393 -3.294 -0 -1.2 0
1.569 -0.455 -3.286 -0 -1.2 0
1.606 -0.5 -3.356 -0 -1.2 0
1.612 -0.56 -3.365 -0 -1.2 0
1.616 -0.619 -3.373 -0 -1.2 0
1.62 -0.679 -3.38 -0 -1.2 0
1.624 -0.739 -3.386 -0 -1.2 0
1.618 -0.801 -3.373 -0 -1.2 0
1.583 -0.866 -3.306 -0 -1.2 0
1.581 -0.925 -3.3 -0 -1.2 0
1.583 -0.983 -3.302 -0 -1.2 0
1.687 -1.036 -3.497 -0 -1.2 0
1.735 -1.098 -3.585 -0 -1.2 0
1.768 -1.163 -3.647 -0 -1.2 0
1.735 -1.225 -3.584 -0 -1.2 0
1.786 -1.295 -3.678 -0 -1.2 0
1.78 -1.36 -3.665 -0 -1.2 0
1.764 -1.423 -3.634 -0 -1.2 0
1.743 -1.483 -3.593 -0 -1.2 0
1.735 -1.546 -3.577 -0 -1.2 0
1.722 -1.607 -3.552 -0 -1.2 0
1.71 -1.667 -3.526 -0 -1.2 0
1.705 -1.73 -3.516 -0 -1.2 0
1.7 -1.792 -3.506 -0 -1.2 0
1.695 -1.854 -3.495 -0 -1.2 0
1.698 -1.921 -3.5 -0 -1.2 0
1.696 -1.985 -3.495 -0 -1.2 0
1.699 -2.053 -3.498 -0 -1.2 0
1.7 -2.12 -3.499 -0 -1.2 0
1.696 -2.185 -3.491 -0 -1.2 0
1.697 -2.253 -3.491 -0 -1.2 0
1.701 -2.325 -3.497 -0 -1.2 0
1.709 -2.401 -3.511 -0 -1.2 0
1.712 -2.474 -3.515 -0 -1.2 0
1.706 -2.54 -3.501 -0 -1.2 0
1.715 -2.621 -3.518 -0 -1.2 0
1.716 -2.696 -3.518 -0 -1.2 0
1.751 -2.805 -3.581 -0 -1.2 0
1.72 -2.851 -3.521 -0 -1.2 0
1.664 -2.868 -3.415 -0 -1.2 0
1.658 -2.938 -3.403 -0 -1.2 0
1.655 -3.012 -3.397 -0 -1.2 0
1.661 -3.098 -3.405 -0 -1.2 0
1.665 -3.183 -3.411 -0 -1.2 0
1.665 -3.265 -3.408 -0 -1.2 0
1.663 -3.347 -3.403 -0 -1.2 0
1.665 -3.435 -3.405 -0 -1.2 0
1.645 -3.495 -3.368 -0 -1.2 0
1.645 -3.584 -3.366 -0 -1.2 0
1.641 -3.667 -3.355 -0 -1.2 0
1.623 -3.733 -3.322 -0 -1.2 0
1.503 -3.622 -3.096 -0 -1.2 0
1.497 -3.702 -3.083 -0 -1.2 0
1.433 -3.677 -2.962 -0 -1.2 0
1.411 -3.728 -2.922 -0 -1.2 0
0.498 0.002 -1.33 -0 -1.2 0
0.51 -0.01 -1.353 -0 -1.2 0
0.531 -0.002 -1.396 -0 -1.2 0
0.547 -0.009 -1.427 -0 -1.2 0
0.572 0.002 -1.478 -0 -1.2 0
0.589 0 -1.515 -0 -1.2 0
0.608 -0.004 -1.553 -0 -1.2 0
0.631 -0.004 -1.598 -0 -1.2 0
0.654 -0.004 -1.644 -0 -1.2 0
0.673 -0.012 -1.682 -0 -1.2 0
0.695 -0.015 -1.728 -0 -1.2 0
0.722 -0.015 -1.782 -0 -1.2 0
0.757 -0.005 -1.852 -0 -1.2 0
0.78 -0.013 -1.9 -0 -1.2 0
0.807 -0.018 -1.954 -0 -1.2 0
0.842 -0.015 -2.026 -0 -1.2 0
0.874 -0.018 -2.09 -0 -1.2 0
0.905 -0.024 -2.154 -0 -1.2 0
0.945 -0.024 -2.234 -0 -1.2 0
0.985 -0.025 -2.315 -0 -1.2 0
1.033 -0.022 -2.413 -0 -1.2 0
1.074 -0.029 -2.494 -0 -1.2 0
1.122 -0.032 -2.593 -0 -1.2 0
1.176 -0.035 -2.702 -0 -1.2 0
1.233 -0.038 -2.818 -0 -1.2 0
1.288 -0.048 -2.927 -0 -1.2 0
1.354 -0.053 -3.062 -0 -1.2 0
1.421 -0.063 -3.197 -0 -1.2 0
1.501 -0.069 -3.359 -0 -1.2 0
1.517 -0.123 -3.391 -0 -1.2 0
1.508 -0.193 -3.371 -0 -1.2 0
1.511 -0.254 -3.376 -0 -1.2 0
1.509 -0.318 -3.371 -0 -1.2 0
1.507 -0.381 -3.365 -0 -1.2 0
1.513 -0.44 -3.375 -0 -1.2 0
1.535 -0.492 -3.421 -0 -1.2 0
1.545 -0.551 -3.438 -0 -1.2 0
1.549 -0.611 -3.446 -0 -1.2 0
1.553 -0.672 -3.453 -0 -1.2 0
1.562 -0.731 -3.469 -0 -1.2 0
1.556 -0.793 -3.456 -0 -1.2 0
1.531 -0.859 -3.406 -0 -1.2 0
1.52 -0.921 -3.382 -0 -1.2 0
1.523 -0.98 -3.384 -0 -1.2 0
1.616 -1.034 -3.574 -0 -1.2 0
1.643 -1.097 -3.627 -0 -1.2 0
1.648 -1.161 -3.636 -0 -1.2 0
1.643 -1.225 -3.625 -0 -1.2 0
1.647 -1.289 -3.632 -0 -1.2 0
1.664 -1.356 -3.664 -0 -1.2 0
1.662 -1.421 -3.659 -0 -1.2 0
1.66 -1.485 -3.653 -0 -1.2 0
1.657 -1.55 -3.647 -0 -1.2 0
1.654 -1.614 -3.638 -0 -1.2 0
1.651 -1.678 -3.63 -0 -1.2 0
1.65 -1.744 -3.628 -0 -1.2 0
1.65 -1.81 -3.627 -0 -1.2 0
1.645 -1.874 -3.615 -0 -1.2 0
1.647 -1.942 -3.62 -0 -1.2 0
1.659 -2.016 -3.64 -0 -1.2 0
1.66 -2.085 -3.643 -0 -1.2 0
1.657 -2.152 -3.635 -0 -1.2 0
1.658 -2.222 -3.635 -0 -1.2 0
1.658 -2.292 -3.634 -0 -1.2 0
1.657 -2.363 -3.631 -0 -1.2 0
1.657 -2.434 -3.627 -0 -1.2 0
1.659 -2.508 -3.631 -0 -1.2 0
1.653 -2.576 -3.617 -0 -1.2 0
1.658 -2.656 -3.626 -0 -1.2 0
1.658 -2.732 -3.625 -0 -1.2 0
1.654 -2.804 -3.615 -0 -1.2 0
1.605 -2.828 -3.515 -0 -1.2 0
1.592 -2.89 -3.488 -0 -1.2 0
1.598 -2.974 -3.498 -0 -1.2 0
1.595 -3.05 -3.491 -0 -1.2 0
1.596 -3.132 -3.491 -0 -1.2 0
1.6 -3.218 -3.497 -0 -1.2 0
1.599 -3.301 -3.494 -0 -1.2 0
1.6 -3.389 -3.496 -0 -1.2 0
1.591 -3.462 -3.475 -0 -1.2 0
1.584 -3.54 -3.459 -0 -1.2 0
1.584 -3.63 -3.455 -0 -1.2 0
1.582 -3.72 -3.451 -0 -1.2 0
1.466 -3.616 -3.219 -0 -1.2 0
1.451 -3.678 -3.186 -0 -1.2 0
1.386 -3.649 -3.056 -0 -1.2 0
1.37 -3.709 -3.023 -0 -1.2 0
0.463 -0.003 -1.324 -0 -1.2 0
0.483 0.004 -1.367 -0 -1.2 0
0.493 -0.008 -1.391 -0 -1.2 0
0.514 -0.002 -1.436 -0 -1.2 0
0.531 -0.004 -1.473 -0 -1.2 0
0.549 -0.007 -1.512 -0 -1.2 0
0.569 -0.004 -1.557 -0 -1.2 0
0.587 -0.01 -1.596 -0 -1.2 0
0.611 -0.004 -1.649 -0 -1.2 0
0.633 -0.006 -1.696 -0 -1.2 0
0.654 -0.01 -1.743 -0 -1.2 0
0.676 -0.014 -1.79 -0 -1.2 0
0.697 -0.02 -1.837 -0 -1.2 0
0.722 -0.023 -1.893 -0 -1.2 0
0.752 -0.022 -1.957 -0 -1.2 0
0.784 -0.019 -2.029 -0 -1.2 0
0.817 -0.017 -2.101 -0 -1.2 0
0.851 -0.019 -2.174 -0 -1.2 0
0.88 -0.027 -2.24 -0 -1.2 0
0.921 -0.024 -2.331 -0 -1.2 0
0.959 -0.029 -2.413 -0 -1.2 0
1.004 -0.029 -2.512 -0 -1.2 0
1.046 -0.035 -2.605 -0 -1.2 0
1.1 -0.034 -2.723 -0 -1.2 0
1.146 -0.044 -2.825 -0 -1.2 0
1.204 -0.047 -2.952 -0 -1.2 0
1.262 -0.056 -3.08 -0 -1.2 0
1.325 -0.065 -3.217 -0 -1.2 0
1.4 -0.071 -3.382 -0 -1.2 0
1.446 -0.101 -3.484 -0 -1.2 0
1.443 -0.17 -3.473 -0 -1.2 0
1.441 -0.235 -3.47 -0 -1.2 0
1.439 -0.3 -3.465 -0 -1.2 0
1.446 -0.36 -3.478 -0 -1.2 0
1.443 -0.425 -3.47 -0 -1.2 0
1.448 -0.485 -3.48 -0 -1.2 0
1.477 -0.536 -3.543 -0 -1.2 0
1.477 -0.6 -3.543 -0 -1.2 0
1.486 -0.66 -3.559 -0 -1.2 0
1.484 -0.723 -3.556 -0 -1.2 0
1.487 -0.785 -3.562 -0 -1.2 0
1.469 -0.851 -3.521 -0 -1.2 0
1.455 -0.914 -3.488 -0 -1.2 0
1.457 -0.975 -3.49 -0 -1.2 0
1.482 -1.035 -3.546 -0 -1.2 0
1.483 -1.096 -3.546 -0 -1.2 0
1.487 -1.157 -3.554 -0 -1.2 0
1.483 -1.219 -3.543 -0 -1.2 0
1.487 -1.281 -3.551 -0 -1.2 0
1.49 -1.344 -3.556 -0 -1.2 0
1.492 -1.407 -3.56 -0 -1.2 0
1.49 -1.469 -3.554 -0 -1.2 0
1.492 -1.532 -3.557 -0 -1.2 0
1.493 -1.595 -3.558 -0 -1.2 0
1.494 -1.659 -3.559 -0 -1.2 0
1.498 -1.724 -3.567 -0 -1.2 0
1.497 -1.788 -3.566 -0 -1.2 0
1.497 -1.852 -3.563 -0 -1.2 0
1.496 -1.917 -3.559 -0 -1.2 0
1.498 -1.983 -3.563 -0 -1.2 0
1.496 -2.048 -3.557 -0 -1.2 0
1.502 -2.118 -3.567 -0 -1.2 0
1.499 -2.183 -3.56 -0 -1.2 0
1.498 -2.251 -3.559 -0 -1.2 0
1.502 -2.323 -3.566 -0 -1.2 0
1.509 -2.399 -3.58 -0 -1.2 0
1.508 -2.468 -3.576 -0 -1.2 0
1.51 -2.541 -3.579 -0 -1.2 0
1.511 -2.615 -3.579 -0 -1.2 0
1.508 -2.686 -3.571 -0 -1.2 0
1.512 -2.765 -3.578 -0 -1.2 0
1.515 -2.845 -3.584 -0 -1.2 0
1.521 -2.93 -3.596 -0 -1.2 0
1.519 -3.006 -3.591 -0 -1.2 0
1.524 -3.093 -3.599 -0 -1.2 0
1.525 -3.176 -3.599 -0 -1.2 0
1.524 -3.259 -3.595 -0 -1.2 0
1.526 -3.348 -3.599 -0 -1.2 0
1.522 -3.427 -3.586 -0 -1.2 0
1.508 -3.494 -3.556 -0 -1.2 0
1.508 -3.585 -3.554 -0 -1.2 0
1.511 -3.682 -3.559 -0 -1.2 0
1.489 -3.737 -3.509 -0 -1.2 0
1.38 -3.633 -3.273 -0 -1.2 0
1.373 -3.708 -3.253 -0 -1.2 0
1.305 -3.668 -3.107 -0 -1.2 0
1.29 -3.727 -3.072 -0 -1.2 0
0.434 -0.002 -1.321 -0 -1.2 0
0.452 0.005 -1.365 -0 -1.2 0
0.468 0.005 -1.403 -0 -1.2 0
0.484 0.005 -1.441 -0 -1.2 0
0.5 0.003 -1.48 -0 -1.2 0
0.514 -0.006 -1.511 -0 -1.2 0
0.536 0.002 -1.565 -0 -1.2 0
0.549 -0.009 -1.597 -0 -1.2 0
0.569 -0.009 -1.644 -0 -1.2 0
0.589 -0.011 -1.691 -0 -1.2 0
0.609 -0.014 -1.738 -0 -1.2 0
0.632 -0.014 -1.793 -0 -1.2 0
0.653 -0.02 -1.841 -0 -1.2 0
0.676 -0.022 -1.897 -0 -1.2 0
0.703 -0.021 -1.962 -0 -1.2 0
0.734 -0.018 -2.036 -0 -1.2 0
0.764 -0.016 -2.108 -0 -1.2 0
0.792 -0.022 -2.175 -0 -1.2 0
0.824 -0.026 -2.249 -0 -1.2 0
0.859 -0.028 -2.332 -0 -1.2 0
0.897 -0.028 -2.424 -0 -1.2 0
0.937 -0.032 -2.518 -0 -1.2 0
0.98 -0.034 -2.619 -0 -1.2 0
1.026 -0.036 -2.729 -0 -1.2 0
1.076 -0.039 -2.849 -0 -1.2 0
1.13 -0.043 -2.979 -0 -1.2 0
1.181 -0.055 -3.1 -0 -1.2 0
1.24 -0.063 -3.239 -0 -1.2 0
1.306 -0.072 -3.397 -0 -1.2 0
1.38 -0.081 -3.572 -0 -1.2 0
1.383 -0.146 -3.579 -0 -1.2 0
1.379 -0.215 -3.566 -0 -1.2 0
1.381 -0.279 -3.571 -0 -1.2 0
1.379 -0.345 -3.565 -0 -1.2 0
1.381 -0.409 -3.568 -0 -1.2 0
1.378 -0.474 -3.56 -0 -1.2 0
1.416 -0.521 -3.652 -0 -1.2 0
1.417 -0.586 -3.651 -0 -1.2 0
1.416 -0.651 -3.65 -0 -1.2 0
1.424 -0.713 -3.666 -0 -1.2 0
1.423 -0.777 -3.662 -0 -1.2 0
1.421 -0.842 -3.658 -0 -1.2 0
1.416 -0.906 -3.642 -0 -1.2 0
1.417 -0.969 -3.645 -0 -1.2 0
1.422 -1.032 -3.655 -0 -1.2 0
1.422 -1.095 -3.656 -0 -1.2 0
1.423 -1.158 -3.655 -0 -1.2 0
1.422 -1.221 -3.654 -0 -1.2 0
1.422 -1.284 -3.651 -0 -1.2 0
1.421 -1.348 -3.648 -0 -1.2 0
1.424 -1.412 -3.652 -0 -1.2 0
1.425 -1.476 -3.656 -0 -1.2 0
1.427 -1.541 -3.658 -0 -1.2 0
1.427 -1.605 -3.659 -0 -1.2 0
1.428 -1.67 -3.66 -0 -1.2 0
1.428 -1.735 -3.658 -0 -1.2 0
1.432 -1.802 -3.666 -0 -1.2 0
1.431 -1.868 -3.662 -0 -1.2 0
1.43 -1.934 -3.659 -0 -1.2 0
1.432 -2.002 -3.662 -0 -1.2 0
1.433 -2.07 -3.665 -0 -1.2 0
1.438 -2.142 -3.675 -0 -1.2 0
1.443 -2.214 -3.684 -0 -1.2 0
1.443 -2.284 -3.683 -0 -1.2 0
1.442 -2.354 -3.681 -0 -1.2 0
1.446 -2.428 -3.686 -0 -1.2 0
1.443 -2.499 -3.681 -0 -1.2 0
1.445 -2.574 -3.684 -0 -1.2 0
1.446 -2.65 -3.685 -0 -1.2 0
1.447 -2.726 -3.685 -0 -1.2 0
1.45 -2.806 -3.691 -0 -1.2 0
1.452 -2.887 -3.696 -0 -1.2 0
1.451 -2.965 -3.691 -0 -1.2 0
1.453 -3.048 -3.692 -0 -1.2 0
1.453 -3.131 -3.693 -0 -1.2 0
1.456 -3.22 -3.699 -0 -1.2 0
1.456 -3.304 -3.696 -0 -1.2 0
1.458 -3.394 -3.699 -0 -1.2 0
1.449 -3.469 -3.678 -0 -1.2 0
1.44 -3.544 -3.654 -0 -1.2 0
1.436 -3.63 -3.644 -0 -1.2 0
1.438 -3.728 -3.647 -0 -1.2 0
1.323 -3.604 -3.376 -0 -1.2 0
1.32 -3.686 -3.364 -0 -1.2 0
1.26 -3.656 -3.222 -0 -1.2 0
1.248 -3.724 -3.194 -0 -1.2 0
0.41 0.011 -1.329 -0 -1.2 0
0.423 0.006 -1.361 -0 -1.2 0
0.434 0 -1.393 -0 -1.2 0
0.449 0 -1.431 -0 -1.2 0
0.465 -0.002 -1.47 -0 -1.2 0
0.482 0.001 -1.516 -0 -1.2 0
0.498 -0.002 -1.556 -0 -1.2 0
0.513 -0.008 -1.596 -0 -1.2 0
0.532 -0.008 -1.642 -0 -1.2 0
0.547 -0.016 -1.682 -0 -1.2 0
0.571 -0.008 -1.745 -0 -1.2 0
0.587 -0.018 -1.786 -0 -1.2 0
0.609 -0.019 -1.843 -0 -1.2 0
0.634 -0.015 -1.908 -0 -1.2 0
0.656 -0.02 -1.966 -0 -1.2 0
0.682 -0.022 -2.031 -0 -1.2 0
0.71 -0.02 -2.105 -0 -1.2 0
0.739 -0.021 -2.18 -0 -1.2 0
0.768 -0.025 -2.255 -0 -1.2 0
0.801 -0.027 -2.34 -0 -1.2 0
0.841 -0.022 -2.442 -0 -1.2 0
0.873 -0.03 -2.526 -0 -1.2 0
0.913 -0.033 -2.629 -0 -1.2 0
0.959 -0.032 -2.751 -0 -1.2 0
1.003 -0.038 -2.863 -0 -1.2 0
1.057 -0.038 -3.003 -0 -1.2 0
1.105 -0.049 -3.125 -0 -1.2 0
1.162 -0.056 -3.275 -0 -1.2 0
1.217 -0.07 -3.416 -0 -1.2 0
1.293 -0.074 -3.611 -0 -1.2 0
1.32 -0.12 -3.682 -0 -1.2 0
1.316 -0.191 -3.67 -0 -1.2 0
1.319 -0.257 -3.675 -0 -1.2 0
1.316 -0.324 -3.67 -0 -1.2 0
1.315 -0.391 -3.663 -0 -1.2 0
1.315 -0.456 -3.665 -0 -1.2 0
1.345 -0.508 -3.74 -0 -1.2 0
1.352 -0.572 -3.758 -0 -1.2 0
1.349 -0.639 -3.748 -0 -1.2 0
1.352 -0.704 -3.754 -0 -1.2 0
1.358 -0.768 -3.769 -0 -1.2 0
1.353 -0.834 -3.756 -0 -1.2 0
1.358 -0.898 -3.768 -0 -1.2 0
1.356 -0.964 -3.762 -0 -1.2 0
1.357 -1.029 -3.763 -0 -1.2 0
1.358 -1.093 -3.764 -0 -1.2 0
1.358 -1.157 -3.763 -0 -1.2 0
1.358 -1.222 -3.762 -0 -1.2 0
1.357 -1.287 -3.759 -0 -1.2 0
1.359 -1.353 -3.765 -0 -1.2 0
1.358 -1.418 -3.76 -0 -1.2 0
1.36 -1.483 -3.763 -0 -1.2 0
1.365 -1.551 -3.775 -0 -1.2 0
1.365 -1.617 -3.776 -0 -1.2 0
1.362 -1.682 -3.767 -0 -1.2 0
1.373 -1.754 -3.793 -0 -1.2 0
1.373 -1.821 -3.791 -0 -1.2 0
1.373 -1.889 -3.788 -0 -1.2 0
1.375 -1.959 -3.793 -0 -1.2 0
1.372 -2.026 -3.787 -0 -1.2 0
1.374 -2.097 -3.789 -0 -1.2 0
1.375 -2.167 -3.79 -0 -1.2 0
1.376 -2.239 -3.79 -0 -1.2 0
1.379 -2.313 -3.797 -0 -1.2 0
1.375 -2.382 -3.786 -0 -1.2 0
1.38 -2.461 -3.799 -0 -1.2 0
1.378 -2.533 -3.794 -0 -1.2 0
1.38 -2.61 -3.796 -0 -1.2 0
1.38 -2.687 -3.797 -0 -1.2 0
1.384 -2.768 -3.804 -0 -1.2 0
1.38 -2.842 -3.793 -0 -1.2 0
1.389 -2.934 -3.814 -0 -1.2 0
1.384 -3.008 -3.801 -0 -1.2 0
1.385 -3.092 -3.802 -0 -1.2 0
1.386 -3.177 -3.801 -0 -1.2 0
1.388 -3.268 -3.807 -0 -1.2 0
1.39 -3.359 -3.811 -0 -1.2 0
1.386 -3.44 -3.797 -0 -1.2 0
1.374 -3.511 -3.766 -0 -1.2 0
1.374 -3.603 -3.765 -0 -1.2 0
1.37 -3.691 -3.753 -0 -1.2 0
1.295 -3.638 -3.56 -0 -1.2 0
1.259 -3.656 -3.466 -0 -1.2 0
1.223 -3.672 -3.372 -0 -1.2 0
1.19 -3.693 -3.287 -0 -1.2 0
1.173 -3.748 -3.244 -0 -1.2 0
0.373 -0.001 -1.312 -0 -1.2 0
0.387 0 -1.351 -0 -1.2 0
0.4 0 -1.389 -0 -1.2 0
0.414 0 -1.428 -0 -1.2 0
0.428 -0.001 -1.468 -0 -1.2 0
0.445 0.002 -1.514 -0 -1.2 0
0.455 -0.008 -1.547 -0 -1.2 0
0.475 -0.001 -1.602 -0 -1.2 0
0.487 -0.013 -1.635 -0 -1.2 0
0.506 -0.009 -1.69 -0 -1.2 0
0.526 -0.007 -1.747 -0 -1.2 0
0.538 -0.023 -1.781 -0 -1.2 0
0.561 -0.017 -1.846 -0 -1.2 0
0.581 -0.02 -1.903 -0 -1.2 0
0.607 -0.014 -1.977 -0 -1.2 0
0.628 -0.021 -2.036 -0 -1.2 0
0.651 -0.024 -2.102 -0 -1.2 0
0.678 -0.025 -2.178 -0 -1.2 0
0.705 -0.029 -2.254 -0 -1.2 0
0.734 -0.029 -2.34 -0 -1.2 0
0.767 -0.03 -2.433 -0 -1.2 0
0.801 -0.033 -2.529 -0 -1.2 0
0.838 -0.036 -2.632 -0 -1.2 0
0.877 -0.037 -2.745 -0 -1.2 0
0.921 -0.04 -2.868 -0 -1.2 0
0.97 -0.04 -3.009 -0 -1.2 0
1.013 -0.051 -3.133 -0 -1.2 0
1.067 -0.057 -3.285 -0 -1.2 0
1.113 -0.075 -3.419 -0 -1.2 0
1.183 -0.077 -3.616 -0 -1.2 0
1.25 -0.09 -3.805 -0 -1.2 0
1.25 -0.16 -3.803 -0 -1.2 0
1.248 -0.23 -3.8 -0 -1.2 0
1.247 -0.299 -3.795 -0 -1.2 0
1.249 -0.366 -3.798 -0 -1.2 0
1.243 -0.437 -3.782 -0 -1.2 0
1.26 -0.495 -3.829 -0 -1.2 0
1.277 -0.556 -3.876 -0 -1.2 0
1.281 -0.622 -3.884 -0 -1.2 0
1.283 -0.689 -3.892 -0 -1.2 0
1.286 -0.756 -3.898 -0 -1.2 0
1.288 -0.823 -3.903 -0 -1.2 0
1.287 -0.891 -3.897 -0 -1.2 0
1.288 -0.957 -3.9 -0 -1.2 0
1.286 -1.025 -3.892 -0 -1.2 0
1.286 -1.091 -3.893 -0 -1.2 0
1.286 -1.157 -3.892 -0 -1.2 0
1.289 -1.225 -3.9 -0 -1.2 0
1.289 -1.291 -3.897 -0 -1.2 0
1.291 -1.359 -3.903 -0 -1.2 0
1.29 -1.426 -3.898 -0 -1.2 0
1.287 -1.493 -3.892 -0 -1.2 0
1.292 -1.562 -3.903 -0 -1.2 0
1.292 -1.63 -3.904 -0 -1.2 0
1.293 -1.699 -3.904 -0 -1.2 0
1.293 -1.768 -3.903 -0 -1.2 0
1.296 -1.838 -3.909 -0 -1.2 0
1.295 -1.908 -3.906 -0 -1.2 0
1.297 -1.979 -3.91 -0 -1.2 0
1.298 -2.051 -3.914 -0 -1.2 0
1.302 -2.125 -3.925 -0 -1.2 0
1.3 -2.196 -3.917 -0 -1.2 0
1.3 -2.269 -3.916 -0 -1.2 0
1.3 -2.342 -3.914 -0 -1.2 0
1.299 -2.416 -3.911 -0 -1.2 0
1.301 -2.493 -3.915 -0 -1.2 0
1.302 -2.57 -3.918 -0 -1.2 0
1.3 -2.645 -3.91 -0 -1.2 0
1.304 -2.727 -3.919 -0 -1.2 0
1.303 -2.806 -3.917 -0 -1.2 0
1.306 -2.89 -3.922 -0 -1.2 0
1.308 -2.974 -3.926 -0 -1.2 0
1.306 -3.055 -3.92 -0 -1.2 0
1.31 -3.146 -3.928 -0 -1.2 0
1.306 -3.228 -3.919 -0 -1.2 0
1.309 -3.32 -3.924 -0 -1.2 0
1.305 -3.402 -3.911 -0 -1.2 0
1.3 -3.486 -3.897 -0 -1.2 0
1.292 -3.563 -3.873 -0 -1.2 0
1.295 -3.663 -3.879 -0 -1.2 0
1.293 -3.758 -3.874 -0 -1.2 0
1.185 -3.624 -3.57 -0 -1.2 0
1.182 -3.708 -3.558 -0 -1.2 0
1.128 -3.677 -3.403 -0 -1.2 0
1.11 -3.728 -3.352 -0 -1.2 0
0.346 0.006 -1.315 -0 -1.2 0
0.356 0 -1.346 -0 -1.2 0
0.367 -0.005 -1.378 -0 -1.2 0
0.381 0 -1.425 -0 -1.2 0
0.393 0 -1.464 -0 -1.2 0
0.407 -0.003 -1.504 -0 -1.2 0
0.419 -0.007 -1.545 -0 -1.2 0
0.434 -0.006 -1.592 -0 -1.2 0
0.448 -0.012 -1.633 -0 -1.2 0
0.463 -0.014 -1.681 -0 -1.2 0
0.479 -0.017 -1.73 -0 -1.2 0
0.497 -0.015 -1.788 -0 -1.2 0
0.516 -0.016 -1.845 -0 -1.2 0
0.532 -0.024 -1.895 -0 -1.2 0
0.556 -0.018 -1.97 -0 -1.2 0
0.578 -0.02 -2.037 -0 -1.2 0
0.599 -0.023 -2.105 -0 -1.2 0
0.623 -0.023 -2.181 -0 -1.2 0
0.648 -0.027 -2.258 -0 -1.2 0
0.672 -0.033 -2.335 -0 -1.2 0
0.706 -0.029 -2.439 -0 -1.2 0
0.731 -0.039 -2.517 -0 -1.2 0
0.767 -0.038 -2.631 -0 -1.2 0
0.804 -0.04 -2.745 -0 -1.2 0
0.844 -0.041 -2.869 -0 -1.2 0
0.886 -0.045 -3.003 -0 -1.2 0
0.929 -0.053 -3.136 -0 -1.2 0
0.973 -0.065 -3.271 -0 -1.2 0
1.027 -0.07 -3.442 -0 -1.2 0
1.082 -0.081 -3.615 -0 -1.2 0
1.149 -0.088 -3.824 -0 -1.2 0
1.181 -0.13 -3.924 -0 -1.2 0
1.18 -0.202 -3.921 -0 -1.2 0
1.176 -0.276 -3.907 -0 -1.2 0
1.178 -0.344 -3.91 -0 -1.2 0
1.179 -0.413 -3.913 -0 -1.2 0
1.18 -0.482 -3.914 -0 -1.2 0
1.207 -0.537 -3.999 -0 -1.2 0
1.21 -0.606 -4.008 -0 -1.2 0
1.21 -0.676 -4.006 -0 -1.2 0
1.215 -0.743 -4.022 -0 -1.2 0
1.215 -0.813 -4.018 -0 -1.2 0
1.213 -0.882 -4.012 -0 -1.2 0
1.217 -0.951 -4.025 -0 -1.2 0
1.216 -1.02 -4.017 -0 -1.2 0
1.212 -1.088 -4.008 -0 -1.2 0
1.213 -1.156 -4.007 -0 -1.2 0
1.216 -1.225 -4.015 -0 -1.2 0
1.215 -1.294 -4.013 -0 -1.2 0
1.217 -1.363 -4.019 -0 -1.2 0
1.216 -1.432 -4.014 -0 -1.2 0
1.217 -1.501 -4.017 -0 -1.2 0
1.221 -1.573 -4.028 -0 -1.2 0
1.225 -1.644 -4.038 -0 -1.2 0
1.221 -1.713 -4.029 -0 -1.2 0
1.222 -1.784 -4.027 -0 -1.2 0
1.224 -1.856 -4.034 -0 -1.2 0
1.223 -1.927 -4.03 -0 -1.2 0
1.225 -2.001 -4.034 -0 -1.2 0
1.226 -2.075 -4.037 -0 -1.2 0
1.227 -2.149 -4.039 -0 -1.2 0
1.224 -2.22 -4.03 -0 -1.2 0
1.227 -2.298 -4.037 -0 -1.2 0
1.224 -2.37 -4.026 -0 -1.2 0
1.226 -2.448 -4.031 -0 -1.2 0
1.227 -2.527 -4.035 -0 -1.2 0
1.228 -2.607 -4.038 -0 -1.2 0
1.226 -2.683 -4.03 -0 -1.2 0
1.229 -2.768 -4.038 -0 -1.2 0
1.229 -2.849 -4.035 -0 -1.2 0
1.231 -2.934 -4.04 -0 -1.2 0
1.232 -3.021 -4.043 -0 -1.2 0
1.23 -3.103 -4.036 -0 -1.2 0
1.23 -3.191 -4.035 -0 -1.2 0
1.233 -3.284 -4.042 -0 -1.2 0
1.232 -3.373 -4.038 -0 -1.2 0
1.228 -3.457 -4.024 -0 -1.2 0
1.22 -3.536 -4 -0 -1.2 0
1.185 -3.555 -3.887 -0 -1.2 0
1.169 -3.616 -3.837 -0 -1.2 0
1.133 -3.629 -3.725 -0 -1.2 0
1.117 -3.687 -3.674 -0 -1.2 0
1.069 -3.664 -3.524 -0 -1.2 0
1.052 -3.718 -3.474 -0 -1.2 0
0.312 0.006 -1.307 -0 -1.2 0
0.324 0.007 -1.346 -0 -1.2 0
0.331 -0.005 -1.371 -0 -1.2 0
0.343 -0.006 -1.411 -0 -1.2 0
0.356 -0.001 -1.458 -0 -1.2 0
0.368 -0.004 -1.499 -0 -1.2 0
0.38 -0.008 -1.539 -0 -1.2 0
0.391 -0.012 -1.58 -0 -1.2 0
0.403 -0.018 -1.621 -0 -1.2 0
0.419 -0.014 -1.678 -0 -1.2 0
0.438 -0.006 -1.743 -0 -1.2 0
0.452 -0.011 -1.793 -0 -1.2 0
0.466 -0.017 -1.843 -0 -1.2 0
0.485 -0.014 -1.91 -0 -1.2 0
0.502 -0.018 -1.969 -0 -1.2 0
0.522 -0.02 -2.036 -0 -1.2 0
0.539 -0.028 -2.096 -0 -1.2 0
0.561 -0.029 -2.174 -0 -1.2 0
0.586 -0.028 -2.26 -0 -1.2 0
0.608 -0.033 -2.338 -0 -1.2 0
0.633 -0.037 -2.425 -0 -1.2 0
0.663 -0.036 -2.531 -0 -1.2 0
0.69 -0.042 -2.628 -0 -1.2 0
0.726 -0.04 -2.751 -0 -1.2 0
0.762 -0.042 -2.876 -0 -1.2 0
0.798 -0.049 -3.002 -0 -1.2 0
0.842 -0.05 -3.155 -0 -1.2 0
0.881 -0.062 -3.292 -0 -1.2 0
0.928 -0.07 -3.455 -0 -1.2 0
0.978 -0.082 -3.629 -0 -1.2 0
1.038 -0.088 -3.84 -0 -1.2 0
1.097 -0.105 -4.044 -0 -1.2 0
1.096 -0.178 -4.041 -0 -1.2 0
1.095 -0.252 -4.037 -0 -1.2 0
1.094 -0.324 -4.032 -0 -1.2 0
1.095 -0.395 -4.034 -0 -1.2 0
1.099 -0.464 -4.045 -0 -1.2 0
1.121 -0.523 -4.122 -0 -1.2 0
1.123 -0.593 -4.131 -0 -1.2 0
1.126 -0.664 -4.139 -0 -1.2 0
1.128 -0.735 -4.145 -0 -1.2 0
1.128 -0.806 -4.142 -0 -1.2 0
1.129 -0.877 -4.146 -0 -1.2 0
1.13 -0.948 -4.149 -0 -1.2 0
1.128 -1.019 -4.141 -0 -1.2 0
1.129 -1.089 -4.142 -0 -1.2 0
1.129 -1.159 -4.141 -0 -1.2 0
1.132 -1.23 -4.149 -0 -1.2 0
1.131 -1.301 -4.146 -0 -1.2 0
1.131 -1.372 -4.142 -0 -1.2 0
1.132 -1.443 -4.146 -0 -1.2 0
1.13 -1.514 -4.14 -0 -1.2 0
1.134 -1.587 -4.152 -0 -1.2 0
1.135 -1.659 -4.152 -0 -1.2 0
1.135 -1.731 -4.152 -0 -1.2 0
1.137 -1.806 -4.159 -0 -1.2 0
1.137 -1.878 -4.156 -0 -1.2 0
1.139 -1.953 -4.161 -0 -1.2 0
1.137 -2.027 -4.155 -0 -1.2 0
1.14 -2.105 -4.167 -0 -1.2 0
1.139 -2.178 -4.158 -0 -1.2 0
1.139 -2.254 -4.159 -0 -1.2 0
1.141 -2.334 -4.166 -0 -1.2 0
1.141 -2.411 -4.163 -0 -1.2 0
1.139 -2.488 -4.159 -0 -1.2 0
1.141 -2.569 -4.162 -0 -1.2 0
1.142 -2.651 -4.163 -0 -1.2 0
1.142 -2.733 -4.163 -0 -1.2 0
1.142 -2.816 -4.161 -0 -1.2 0
1.141 -2.898 -4.158 -0 -1.2 0
1.144 -2.986 -4.162 -0 -1.2 0
1.144 -3.074 -4.165 -0 -1.2 0
1.144 -3.163 -4.166 -0 -1.2 0
1.148 -3.257 -4.173 -0 -1.2 0
1.144 -3.343 -4.161 -0 -1.2 0
1.143 -3.434 -4.156 -0 -1.2 0
1.135 -3.509 -4.124 -0 -1.2 0
1.132 -3.6 -4.116 -0 -1.2 0
1.098 -3.616 -3.992 -0 -1.2 0
1.057 -3.616 -3.854 -0 -1.2 0
1.041 -3.671 -3.795 -0 -1.2 0
1.001 -3.664 -3.658 -0 -1.2 0
0.986 -3.713 -3.598 -0 -1.2 0
4.973 -14.943 -17.357 -0 -1.2 0
5.501 -16.97 -19.17 -0 -1.2 0
0.281 0.006 -1.301 -0 -1.2 0
0.285 -0.013 -1.319 -0 -1.2 0
0.298 -0.005 -1.365 -0 -1.2 0
0.308 -0.006 -1.406 -0 -1.2 0
0.319 -0.007 -1.446 -0 -1.2 0
0.332 0.002 -1.5 -0 -1.2 0
0.341 -0.008 -1.535 -0 -1.2 0
0.352 -0.013 -1.575 -0 -1.2 0
0.364 -0.012 -1.624 -0 -1.2 0
0.376 -0.014 -1.674 -0 -1.2 0
0.392 -0.011 -1.731 -0 -1.2 0
0.404 -0.016 -1.782 -0 -1.2 0
0.419 -0.017 -1.84 -0 -1.2 0
0.435 -0.02 -1.9 -0 -1.2 0
0.451 -0.019 -1.967 -0 -1.2 0
0.465 -0.03 -2.019 -0 -1.2 0
0.486 -0.023 -2.104 -0 -1.2 0
0.502 -0.033 -2.165 -0 -1.2 0
0.522 -0.037 -2.244 -0 -1.2 0
0.544 -0.038 -2.33 -0 -1.2 0
0.569 -0.037 -2.427 -0 -1.2 0
0.596 -0.036 -2.533 -0 -1.2 0
0.623 -0.039 -2.64 -0 -1.2 0
0.653 -0.041 -2.756 -0 -1.2 0
0.683 -0.046 -2.873 -0 -1.2 0
0.715 -0.053 -3 -0 -1.2 0
0.755 -0.054 -3.154 -0 -1.2 0
0.79 -0.066 -3.291 -0 -1.2 0
0.832 -0.074 -3.456 -0 -1.2 0
0.879 -0.082 -3.64 -0 -1.2 0
0.933 -0.089 -3.853 -0 -1.2 0
0.999 -0.09 -4.114 -0 -1.2 0
1.017 -0.149 -4.178 -0 -1.2 0
1.016 -0.225 -4.174 -0 -1.2 0
1.015 -0.3 -4.169 -0 -1.2 0
1.016 -0.372 -4.173 -0 -1.2 0
1.017 -0.445 -4.175 -0 -1.2 0
1.025 -0.513 -4.205 -0 -1.2 0
1.042 -0.578 -4.271 -0 -1.2 0
1.043 -0.652 -4.27 -0 -1.2 0
1.045 -0.724 -4.277 -0 -1.2 0
1.049 -0.797 -4.292 -0 -1.2 0
1.047 -0.87 -4.287 -0 -1.2 0
1.048 -0.943 -4.29 -0 -1.2 0
1.044 -1.017 -4.273 -0 -1.2 0
1.043 -1.089 -4.264 -0 -1.2 0
1.045 -1.161 -4.273 -0 -1.2 0
1.048 -1.234 -4.281 -0 -1.2 0
1.048 -1.307 -4.277 -0 -1.2 0
1.049 -1.381 -4.283 -0 -1.2 0
1.05 -1.455 -4.287 -0 -1.2 0
1.049 -1.528 -4.28 -0 -1.2 0
1.05 -1.602 -4.283 -0 -1.2 0
1.051 -1.676 -4.283 -0 -1.2 0
1.053 -1.752 -4.291 -0 -1.2 0
1.053 -1.827 -4.289 -0 -1.2 0
1.053 -1.901 -4.286 -0 -1.2 0
1.054 -1.978 -4.29 -0 -1.2 0
1.055 -2.056 -4.293 -0 -1.2 0
1.054 -2.131 -4.286 -0 -1.2 0
1.057 -2.212 -4.296 -0 -1.2 0
1.056 -2.29 -4.296 -0 -1.2 0
1.059 -2.372 -4.302 -0 -1.2 0
1.058 -2.451 -4.299 -0 -1.2 0
1.058 -2.531 -4.293 -0 -1.2 0
1.056 -2.61 -4.287 -0 -1.2 0
1.06 -2.698 -4.296 -0 -1.2 0
1.062 -2.785 -4.304 -0 -1.2 0
1.061 -2.87 -4.302 -0 -1.2 0
1.061 -2.955 -4.298 -0 -1.2 0
1.064 -3.049 -4.31 -0 -1.2 0
1.063 -3.136 -4.303 -0 -1.2 0
1.06 -3.222 -4.293 -0 -1.2 0
1.061 -3.314 -4.291 -0 -1.2 0
1.06 -3.406 -4.287 -0 -1.2 0
1.055 -3.489 -4.264 -0 -1.2 0
1.053 -3.581 -4.256 -0 -1.2 0
1.053 -3.68 -4.254 -0 -1.2 0
1.051 -3.774 -4.242 -0 -1.2 0
0.966 -3.651 -3.915 -0 -1.2 0
0.947 -3.694 -3.839 -0 -1.2 0
0.916 -3.699 -3.716 -0 -1.2 0
0.903 -3.756 -3.664 -0 -1.2 0
4.457 -14.865 -17.375 -0 -1.2 0
4.371 -15.084 -17.034 -0 -1.2 0
4.298 -15.339 -16.742 -0 -1.2 0
0.249 0.007 -1.291 -0 -1.2 0
0.255 -0.005 -1.317 -0 -1.2 0
0.264 -0.004 -1.357 -0 -1.2 0
0.275 0.001 -1.404 -0 -1.2 0
0.284 0 -1.444 -0 -1.2 0
0.293 -0.003 -1.486 -0 -1.2 0
0.302 -0.007 -1.527 -0 -1.2 0
0.313 -0.006 -1.576 -0 -1.2 0
0.324 -0.005 -1.625 -0 -1.2 0
0.335 -0.007 -1.676 -0 -1.2 0
0.346 -0.01 -1.725 -0 -1.2 0
0.358 -0.015 -1.776 -0 -1.2 0
0.371 -0.016 -1.835 -0 -1.2 0
0.385 -0.019 -1.894 -0 -1.2 0
0.398 -0.022 -1.955 -0 -1.2 0
0.413 -0.024 -2.023 -0 -1.2 0
0.429 -0.027 -2.093 -0 -1.2 0
0.446 -0.028 -2.171 -0 -1.2 0
0.464 -0.031 -2.25 -0 -1.2 0
0.484 -0.032 -2.337 -0 -1.2 0
0.504 -0.036 -2.426 -0 -1.2 0
0.528 -0.035 -2.532 -0 -1.2 0
0.553 -0.037 -2.64 -0 -1.2 0
0.577 -0.043 -2.748 -0 -1.2 0
0.607 -0.041 -2.884 -0 -1.2 0
0.634 -0.051 -3.003 -0 -1.2 0
0.669 -0.052 -3.159 -0 -1.2 0
0.703 -0.057 -3.315 -0 -1.2 0
0.739 -0.069 -3.472 -0 -1.2 0
0.783 -0.074 -3.667 -0 -1.2 0
0.829 -0.084 -3.872 -0 -1.2 0
0.886 -0.088 -4.125 -0 -1.2 0
0.93 -0.115 -4.322 -0 -1.2 0
0.93 -0.192 -4.319 -0 -1.2 0
0.928 -0.272 -4.305 -0 -1.2 0
0.928 -0.347 -4.308 -0 -1.2 0
0.929 -0.422 -4.312 -0 -1.2 0
0.933 -0.495 -4.322 -0 -1.2 0
0.953 -0.559 -4.409 -0 -1.2 0
0.955 -0.634 -4.418 -0 -1.2 0
0.959 -0.708 -4.435 -0 -1.2 0
0.958 -0.784 -4.431 -0 -1.2 0
0.955 -0.861 -4.416 -0 -1.2 0
0.957 -0.936 -4.419 -0 -1.2 0
0.957 -1.011 -4.421 -0 -1.2 0
0.956 -1.086 -4.412 -0 -1.2 0
0.958 -1.161 -4.422 -0 -1.2 0
0.958 -1.236 -4.42 -0 -1.2 0
0.961 -1.312 -4.427 -0 -1.2 0
0.96 -1.387 -4.422 -0 -1.2 0
0.962 -1.463 -4.426 -0 -1.2 0
0.962 -1.539 -4.429 -0 -1.2 0
0.965 -1.617 -4.441 -0 -1.2 0
0.966 -1.694 -4.441 -0 -1.2 0
0.966 -1.771 -4.439 -0 -1.2 0
0.966 -1.848 -4.437 -0 -1.2 0
0.967 -1.927 -4.442 -0 -1.2 0
0.966 -2.004 -4.437 -0 -1.2 0
0.968 -2.084 -4.439 -0 -1.2 0
0.968 -2.164 -4.441 -0 -1.2 0
0.969 -2.245 -4.442 -0 -1.2 0
0.969 -2.326 -4.44 -0 -1.2 0
0.971 -2.41 -4.446 -0 -1.2 0
0.97 -2.492 -4.441 -0 -1.2 0
0.972 -2.577 -4.445 -0 -1.2 0
0.972 -2.662 -4.446 -0 -1.2 0
0.973 -2.748 -4.446 -0 -1.2 0
0.973 -2.835 -4.445 -0 -1.2 0
0.973 -2.922 -4.442 -0 -1.2 0
0.974 -3.013 -4.445 -0 -1.2 0
0.975 -3.106 -4.447 -0 -1.2 0
0.974 -3.194 -4.438 -0 -1.2 0
0.973 -3.287 -4.437 -0 -1.2 0
0.974 -3.381 -4.433 -0 -1.2 0
0.971 -3.471 -4.42 -0 -1.2 0
0.969 -3.566 -4.413 -0 -1.2 0
0.968 -3.661 -4.403 -0 -1.2 0
0.966 -3.756 -4.392 -0 -1.2 0
0.89 -3.641 -4.06 -0 -1.2 0
0.881 -3.709 -4.015 -0 -1.2 0
0.844 -3.692 -3.85 -0 -1.2 0
0.83 -3.744 -3.789 -0 -1.2 0
3.847 -13.967 -16.969 -0 -1.2 0
3.699 -13.922 -16.316 -0 -1.2 0
3.989 -15.425 -17.568 -0 -1.2 0
0.212 0 -1.277 -0 -1.2 0
0.219 -0.005 -1.309 -0 -1.2 0
0.226 -0.004 -1.349 -0 -1.2 0
0.235 0.002 -1.397 -0 -1.2 0
0.243 0 -1.437 -0 -1.2 0
0.251 -0.002 -1.479 -0 -1.2 0
0.259 -0.006 -1.521 -0 -1.2 0
0.269 -0.005 -1.57 -0 -1.2 0
0.281 0.006 -1.635 -0 -1.2 0
0.288 -0.006 -1.67 -0 -1.2 0
0.299 -0.004 -1.729 -0 -1.2 0
0.307 -0.014 -1.771 -0 -1.2 0
0.32 -0.01 -1.839 -0 -1.2 0
0.33 -0.018 -1.891 -0 -1.2 0
0.34 -0.026 -1.943 -0 -1.2 0
0.354 -0.023 -2.02 -0 -1.2 0
0.368 -0.026 -2.09 -0 -1.2 0
0.385 -0.022 -2.177 -0 -1.2 0
0.398 -0.029 -2.247 -0 -1.2 0
0.415 -0.031 -2.336 -0 -1.2 0
0.434 -0.031 -2.434 -0 -1.2 0
0.456 -0.025 -2.551 -0 -1.2 0
0.476 -0.032 -2.65 -0 -1.2 0
0.498 -0.034 -2.768 -0 -1.2 0
0.521 -0.039 -2.886 -0 -1.2 0
0.547 -0.043 -3.024 -0 -1.2 0
0.574 -0.05 -3.163 -0 -1.2 0
0.602 -0.059 -3.311 -0 -1.2 0
0.638 -0.061 -3.496 -0 -1.2 0
0.675 -0.067 -3.693 -0 -1.2 0
0.716 -0.075 -3.909 -0 -1.2 0
0.764 -0.082 -4.155 -0 -1.2 0
0.818 -0.088 -4.44 -0 -1.2 0
0.825 -0.159 -4.475 -0 -1.2 0
0.825 -0.239 -4.471 -0 -1.2 0
0.825 -0.319 -4.467 -0 -1.2 0
0.826 -0.396 -4.469 -0 -1.2 0
0.827 -0.474 -4.471 -0 -1.2 0
0.848 -0.536 -4.579 -0 -1.2 0
0.85 -0.614 -4.587 -0 -1.2 0
0.851 -0.692 -4.595 -0 -1.2 0
0.849 -0.772 -4.581 -0 -1.2 0
0.85 -0.85 -4.586 -0 -1.2 0
0.848 -0.928 -4.569 -0 -1.2 0
0.849 -1.006 -4.572 -0 -1.2 0
0.852 -1.083 -4.583 -0 -1.2 0
0.85 -1.16 -4.572 -0 -1.2 0
0.854 -1.239 -4.59 -0 -1.2 0
0.856 -1.317 -4.596 -0 -1.2 0
0.856 -1.395 -4.593 -0 -1.2 0
0.856 -1.474 -4.597 -0 -1.2 0
0.856 -1.552 -4.589 -0 -1.2 0
0.86 -1.633 -4.61 -0 -1.2 0
0.861 -1.713 -4.609 -0 -1.2 0
0.859 -1.791 -4.599 -0 -1.2 0
0.862 -1.874 -4.615 -0 -1.2 0
0.862 -1.954 -4.61 -0 -1.2 0
0.862 -2.035 -4.604 -0 -1.2 0
0.862 -2.117 -4.607 -0 -1.2 0
0.863 -2.2 -4.607 -0 -1.2 0
0.865 -2.286 -4.617 -0 -1.2 0
0.859 -2.359 -4.577 -0 -1.2 0
0.856 -2.439 -4.564 -0 -1.2 0
0.861 -2.532 -4.586 -0 -1.2 0
0.866 -2.626 -4.607 -0 -1.2 0
0.866 -2.714 -4.609 -0 -1.2 0
0.867 -2.803 -4.608 -0 -1.2 0
0.868 -2.896 -4.614 -0 -1.2 0
0.868 -2.985 -4.609 -0 -1.2 0
0.868 -3.076 -4.603 -0 -1.2 0
0.87 -3.174 -4.614 -0 -1.2 0
0.871 -3.27 -4.612 -0 -1.2 0
0.869 -3.362 -4.6 -0 -1.2 0
0.868 -3.458 -4.595 -0 -1.2 0
0.868 -3.555 -4.588 -0 -1.2 0
0.867 -3.653 -4.58 -0 -1.2 0
0.865 -3.75 -4.569 -0 -1.2 0
0.795 -3.628 -4.206 -0 -1.2 0
0.789 -3.704 -4.171 -0 -1.2 0
0.755 -3.685 -3.995 -0 -1.2 0
0.742 -3.734 -3.926 -0 -1.2 0
1.279 -5.848 -6.666 -0 -1.2 0
3.488 -14.612 -17.929 -0 -1.2 0
3.221 -14.025 -16.554 -0 -1.2 0
0.178 -0.006 -1.259 -0 -1.2 0
0.184 -0.004 -1.299 -0 -1.2 0
0.192 0.003 -1.346 -0 -1.2 0
0.199 0.009 -1.394 -0 -1.2 0
0.206 0.001 -1.428 -0 -1.2 0
0.212 -0.001 -1.469 -0 -1.2 0
0.219 -0.005 -1.512 -0 -1.2 0
0.227 -0.004 -1.561 -0 -1.2 0
0.236 0.001 -1.619 -0 -1.2 0
0.244 0 -1.67 -0 -1.2 0
0.253 -0.003 -1.72 -0 -1.2 0
0.261 -0.008 -1.771 -0 -1.2 0
0.271 -0.009 -1.832 -0 -1.2 0
0.279 -0.017 -1.884 -0 -1.2 0
0.288 -0.02 -1.944 -0 -1.2 0
0.3 -0.022 -2.013 -0 -1.2 0
0.312 -0.02 -2.093 -0 -1.2 0
0.325 -0.021 -2.172 -0 -1.2 0
0.337 -0.028 -2.242 -0 -1.2 0
0.351 -0.03 -2.331 -0 -1.2 0
0.369 -0.021 -2.448 -0 -1.2 0
0.385 -0.024 -2.547 -0 -1.2 0
0.401 -0.031 -2.646 -0 -1.2 0
0.422 -0.028 -2.775 -0 -1.2 0
0.44 -0.038 -2.884 -0 -1.2 0
0.462 -0.041 -3.023 -0 -1.2 0
0.485 -0.049 -3.162 -0 -1.2 0
0.512 -0.051 -3.33 -0 -1.2 0
0.538 -0.062 -3.488 -0 -1.2 0
0.573 -0.063 -3.705 -0 -1.2 0
0.609 -0.067 -3.932 -0 -1.2 0
0.646 -0.08 -4.16 -0 -1.2 0
0.692 -0.086 -4.446 -0 -1.2 0
0.728 -0.117 -4.665 -0 -1.2 0
0.729 -0.198 -4.672 -0 -1.2 0
0.733 -0.276 -4.696 -0 -1.2 0
0.741 -0.351 -4.739 -0 -1.2 0
0.741 -0.434 -4.731 -0 -1.2 0
0.744 -0.514 -4.752 -0 -1.2 0
0.744 -0.596 -4.741 -0 -1.2 0
0.742 -0.679 -4.729 -0 -1.2 0
0.742 -0.76 -4.727 -0 -1.2 0
0.744 -0.84 -4.731 -0 -1.2 0
0.744 -0.921 -4.735 -0 -1.2 0
0.746 -1.001 -4.737 -0 -1.2 0
0.747 -1.081 -4.748 -0 -1.2 0
0.747 -1.161 -4.738 -0 -1.2 0
0.746 -1.241 -4.736 -0 -1.2 0
0.748 -1.322 -4.742 -0 -1.2 0
0.748 -1.403 -4.737 -0 -1.2 0
0.749 -1.484 -4.742 -0 -1.2 0
0.751 -1.566 -4.744 -0 -1.2 0
0.752 -1.647 -4.755 -0 -1.2 0
0.754 -1.731 -4.764 -0 -1.2 0
0.753 -1.812 -4.753 -0 -1.2 0
0.756 -1.897 -4.769 -0 -1.2 0
0.758 -1.982 -4.773 -0 -1.2 0
0.756 -2.063 -4.757 -0 -1.2 0
0.758 -2.15 -4.769 -0 -1.2 0
0.76 -2.238 -4.779 -0 -1.2 0
0.76 -2.324 -4.777 -0 -1.2 0
0.751 -2.395 -4.717 -0 -1.2 0
0.751 -2.481 -4.713 -0 -1.2 0
0.761 -2.588 -4.773 -0 -1.2 0
0.763 -2.678 -4.775 -0 -1.2 0
0.764 -2.772 -4.783 -0 -1.2 0
0.765 -2.864 -4.782 -0 -1.2 0
0.765 -2.956 -4.778 -0 -1.2 0
0.765 -3.049 -4.773 -0 -1.2 0
0.768 -3.154 -4.792 -0 -1.2 0
0.769 -3.252 -4.792 -0 -1.2 0
0.768 -3.346 -4.781 -0 -1.2 0
0.767 -3.445 -4.776 -0 -1.2 0
0.765 -3.535 -4.752 -0 -1.2 0
0.757 -3.611 -4.701 -0 -1.2 0
0.753 -3.701 -4.674 -0 -1.2 0
0.708 -3.636 -4.391 -0 -1.2 0
0.697 -3.699 -4.33 -0 -1.2 0
0.668 -3.68 -4.144 -0 -1.2 0
0.657 -3.733 -4.074 -0 -1.2 0
1.115 -5.775 -6.832 -0 -1.2 0
1.091 -5.839 -6.677 -0 -1.2 0
1.061 -5.876 -6.492 -0 -1.2 0
2.734 -13.944 -16.536 -0 -1.2 0
0.148 0.002 -1.253 -0 -1.2 0
0.152 -0.003 -1.286 -0 -1.2 0
0.157 -0.002 -1.326 -0 -1.2 0
0.164 0.003 -1.375 -0 -1.2 0
0.169 0.001 -1.416 -0 -1.2 0
0.176 0.012 -1.473 -0 -1.2 0
0.181 0.002 -1.507 -0 -1.2 0
0.187 -0.003 -1.549 -0 -1.2 0
0.193 -0.003 -1.599 -0 -1.2 0
0.201 0 -1.658 -0 -1.2 0
0.206 -0.007 -1.701 -0 -1.2 0
0.214 -0.007 -1.76 -0 -1.2 0
0.222 -0.013 -1.813 -0 -1.2 0
0.23 -0.016 -1.873 -0 -1.2 0
0.238 -0.019 -1.934 -0 -1.2 0
0.247 -0.021 -2.004 -0 -1.2 0
0.256 -0.024 -2.074 -0 -1.2 0
0.268 -0.019 -2.162 -0 -1.2 0
0.277 -0.027 -2.234 -0 -1.2 0
0.289 -0.029 -2.323 -0 -1.2 0
0.303 -0.024 -2.431 -0 -1.2 0
0.317 -0.023 -2.539 -0 -1.2 0
0.33 -0.029 -2.64 -0 -1.2 0
0.345 -0.035 -2.75 -0 -1.2 0
0.364 -0.029 -2.897 -0 -1.2 0
0.38 -0.04 -3.017 -0 -1.2 0
0.4 -0.044 -3.166 -0 -1.2 0
0.42 -0.053 -3.316 -0 -1.2 0
0.444 -0.058 -3.495 -0 -1.2 0
0.469 -0.066 -3.683 -0 -1.2 0
0.5 -0.068 -3.921 -0 -1.2 0
0.531 -0.078 -4.159 -0 -1.2 0
0.568 -0.086 -4.437 -0 -1.2 0
0.607 -0.099 -4.735 -0 -1.2 0
0.629 -0.151 -4.897 -0 -1.2 0
0.631 -0.235 -4.912 -0 -1.2 0
0.632 -0.321 -4.907 -0 -1.2 0
0.63 -0.409 -4.89 -0 -1.2 0
0.633 -0.491 -4.911 -0 -1.2 0
0.634 -0.576 -4.911 -0 -1.2 0
0.635 -0.66 -4.909 -0 -1.2 0
0.636 -0.744 -4.916 -0 -1.2 0
0.635 -0.828 -4.901 -0 -1.2 0
0.638 -0.911 -4.916 -0 -1.2 0
0.638 -0.995 -4.918 -0 -1.2 0
0.639 -1.078 -4.919 -0 -1.2 0
0.64 -1.161 -4.918 -0 -1.2 0
0.64 -1.245 -4.917 -0 -1.2 0
0.641 -1.329 -4.923 -0 -1.2 0
0.642 -1.413 -4.928 -0 -1.2 0
0.642 -1.497 -4.922 -0 -1.2 0
0.644 -1.581 -4.924 -0 -1.2 0
0.644 -1.666 -4.925 -0 -1.2 0
0.644 -1.751 -4.924 -0 -1.2 0
0.646 -1.838 -4.932 -0 -1.2 0
0.646 -1.923 -4.928 -0 -1.2 0
0.646 -2.009 -4.922 -0 -1.2 0
0.649 -2.097 -4.935 -0 -1.2 0
0.65 -2.188 -4.946 -0 -1.2 0
0.651 -2.276 -4.945 -0 -1.2 0
0.646 -2.356 -4.905 -0 -1.2 0
0.647 -2.445 -4.902 -0 -1.2 0
0.652 -2.544 -4.934 -0 -1.2 0
0.656 -2.643 -4.955 -0 -1.2 0
0.658 -2.743 -4.975 -0 -1.2 0
0.659 -2.838 -4.974 -0 -1.2 0
0.658 -2.929 -4.961 -0 -1.2 0
0.659 -3.024 -4.957 -0 -1.2 0
0.66 -3.128 -4.968 -0 -1.2 0
0.66 -3.224 -4.959 -0 -1.2 0
0.661 -3.325 -4.958 -0 -1.2 0
0.661 -3.426 -4.954 -0 -1.2 0
0.659 -3.519 -4.93 -0 -1.2 0
0.656 -3.613 -4.905 -0 -1.2 0
0.625 -3.59 -4.67 -0 -1.2 0
0.613 -3.639 -4.575 -0 -1.2 0
0.606 -3.71 -4.521 -0 -1.2 0
0.576 -3.676 -4.298 -0 -1.2 0
0.567 -3.733 -4.228 -0 -1.2 0
0.956 -5.748 -7.064 -0 -1.2 0
0.956 -5.914 -7.048 -0 -1.2 0
0.889 -5.737 -6.554 -0 -1.2 0
0.879 -5.849 -6.472 -0 -1.2 0
2.606 -15.828 -19.016 -0 -1.2 0
2.565 -16.102 -18.688 -0 -1.2 0
0.116 0.002 -1.241 -0 -1.2 0
0.12 0.003 -1.282 -0 -1.2 0
0.124 0.005 -1.323 -0 -1.2 0
0.128 0.004 -1.364 -0 -1.2 0
0.133 0.009 -1.412 -0 -1.2 0
0.137 0 -1.447 -0 -1.2 0
0.141 -0.004 -1.488 -0 -1.2 0
0.148 0.003 -1.546 -0 -1.2 0
0.153 0.003 -1.597 -0 -1.2 0
0.157 0.001 -1.648 -0 -1.2 0
0.162 -0.007 -1.691 -0 -1.2 0
0.168 -0.006 -1.751 -0 -1.2 0
0.174 -0.012 -1.802 -0 -1.2 0
0.181 -0.009 -1.871 -0 -1.2 0
0.186 -0.019 -1.925 -0 -1.2 0
0.193 -0.025 -1.986 -0 -1.2 0
0.201 -0.023 -2.065 -0 -1.2 0
0.209 -0.024 -2.145 -0 -1.2 0
0.218 -0.022 -2.234 -0 -1.2 0
0.227 -0.028 -2.315 -0 -1.2 0
0.239 -0.018 -2.432 -0 -1.2 0
0.249 -0.026 -2.522 -0 -1.2 0
0.26 -0.024 -2.642 -0 -1.2 0
0.271 -0.034 -2.743 -0 -1.2 0
0.285 -0.032 -2.881 -0 -1.2 0
0.3 -0.035 -3.021 -0 -1.2 0
0.313 -0.046 -3.151 -0 -1.2 0
0.33 -0.051 -3.311 -0 -1.2 0
0.349 -0.056 -3.49 -0 -1.2 0
0.367 -0.064 -3.679 -0 -1.2 0
0.392 -0.069 -3.908 -0 -1.2 0
0.418 -0.073 -4.166 -0 -1.2 0
0.445 -0.086 -4.425 -0 -1.2 0
0.476 -0.1 -4.725 -0 -1.2 0
0.508 -0.121 -5.033 -0 -1.2 0
0.514 -0.2 -5.089 -0 -1.2 0
0.516 -0.287 -5.104 -0 -1.2 0
0.515 -0.38 -5.077 -0 -1.2 0
0.518 -0.465 -5.099 -0 -1.2 0
0.519 -0.553 -5.099 -0 -1.2 0
0.519 -0.641 -5.098 -0 -1.2 0
0.52 -0.727 -5.106 -0 -1.2 0
0.521 -0.815 -5.101 -0 -1.2 0
0.522 -0.902 -5.105 -0 -1.2 0
0.522 -0.989 -5.098 -0 -1.2 0
0.523 -1.075 -5.109 -0 -1.2 0
0.524 -1.161 -5.108 -0 -1.2 0
0.525 -1.248 -5.107 -0 -1.2 0
0.525 -1.335 -5.103 -0 -1.2 0
0.526 -1.423 -5.108 -0 -1.2 0
0.528 -1.51 -5.112 -0 -1.2 0
0.528 -1.597 -5.103 -0 -1.2 0
0.529 -1.686 -5.113 -0 -1.2 0
0.53 -1.775 -5.113 -0 -1.2 0
0.53 -1.863 -5.11 -0 -1.2 0
0.531 -1.953 -5.115 -0 -1.2 0
0.53 -2.04 -5.1 -0 -1.2 0
0.535 -2.137 -5.131 -0 -1.2 0
0.534 -2.226 -5.122 -0 -1.2 0
0.535 -2.32 -5.131 -0 -1.2 0
0.534 -2.407 -5.108 -0 -1.2 0
0.533 -2.497 -5.094 -0 -1.2 0
0.541 -2.609 -5.155 -0 -1.2 0
0.541 -2.706 -5.156 -0 -1.2 0
0.542 -2.803 -5.156 -0 -1.2 0
0.543 -2.901 -5.153 -0 -1.2 0
0.549 -3.019 -5.205 -0 -1.2 0
0.545 -3.101 -5.153 -0 -1.2 0
0.545 -3.2 -5.144 -0 -1.2 0
0.545 -3.303 -5.143 -0 -1.2 0
0.546 -3.412 -5.149 -0 -1.2 0
0.545 -3.507 -5.126 -0 -1.2 0
0.544 -3.608 -5.111 -0 -1.2 0
0.545 -3.718 -5.11 -0 -1.2 0
0.511 -3.65 -4.784 -0 -1.2 0
0.503 -3.707 -4.696 -0 -1.2 0
0.479 -3.684 -4.479 -0 -1.2 0
0.471 -3.732 -4.391 -0 -1.2 0
0.744 -5.461 -6.904 -0 -1.2 0
0.745 -5.629 -6.902 -0 -1.2 0
0.748 -5.809 -6.911 -0 -1.2 0
0.758 -6.044 -6.99 -0 -1.2 0
0.697 -5.799 -6.417 -0 -1.2 0
0.682 -5.858 -6.272 -0 -1.2 0
0.081 0.01 -1.236 -0 -1.2 0
0.084 0.004 -1.269 -0 -1.2 0
0.087 -0.001 -1.303 -0 -1.2 0
0.09 0.004 -1.351 -0 -1.2 0
0.094 0.01 -1.4 -0 -1.2 0
0.097 0.007 -1.442 -0 -1.2 0
0.099 0.003 -1.484 -0 -1.2 0
0.102 -0.008 -1.519 -0 -1.2 0
0.106 -0.002 -1.577 -0 -1.2 0
0.11 -0.003 -1.628 -0 -1.2 0
0.114 -0.001 -1.687 -0 -1.2 0
0.118 -0.006 -1.739 -0 -1.2 0
0.123 -0.007 -1.8 -0 -1.2 0
0.126 -0.014 -1.852 -0 -1.2 0
0.131 -0.018 -1.913 -0 -1.2 0
0.135 -0.025 -1.976 -0 -1.2 0
0.141 -0.017 -2.064 -0 -1.2 0
0.147 -0.023 -2.135 -0 -1.2 0
0.153 -0.021 -2.224 -0 -1.2 0
0.159 -0.027 -2.305 -0 -1.2 0
0.167 -0.022 -2.414 -0 -1.2 0
0.173 -0.029 -2.505 -0 -1.2 0
0.182 -0.027 -2.624 -0 -1.2 0
0.19 -0.033 -2.734 -0 -1.2 0
0.199 -0.034 -2.864 -0 -1.2 0
0.21 -0.038 -3.003 -0 -1.2 0
0.221 -0.042 -3.153 -0 -1.2 0
0.231 -0.053 -3.295 -0 -1.2 0
0.245 -0.055 -3.484 -0 -1.2 0
0.259 -0.061 -3.683 -0 -1.2 0
0.275 -0.068 -3.903 -0 -1.2 0
0.293 -0.075 -4.152 -0 -1.2 0
0.312 -0.088 -4.412 -0 -1.2 0
0.334 -0.098 -4.721 -0 -1.2 0
0.36 -0.11 -5.08 -0 -1.2 0
0.377 -0.157 -5.312 -0 -1.2 0
0.377 -0.253 -5.299 -0 -1.2 0
0.378 -0.345 -5.302 -0 -1.2 0
0.379 -0.436 -5.305 -0 -1.2 0
0.379 -0.529 -5.296 -0 -1.2 0
0.38 -0.62 -5.294 -0 -1.2 0
0.382 -0.71 -5.313 -0 -1.2 0
0.382 -0.801 -5.298 -0 -1.2 0
0.383 -0.892 -5.303 -0 -1.2 0
0.384 -0.982 -5.305 -0 -1.2 0
0.384 -1.072 -5.296 -0 -1.2 0
0.385 -1.162 -5.296 -0 -1.2 0
0.386 -1.252 -5.304 -0 -1.2 0
0.387 -1.343 -5.311 -0 -1.2 0
0.388 -1.434 -5.306 -0 -1.2 0
0.389 -1.525 -5.308 -0 -1.2 0
0.391 -1.617 -5.321 -0 -1.2 0
0.391 -1.709 -5.32 -0 -1.2 0
0.392 -1.801 -5.318 -0 -1.2 0
0.393 -1.894 -5.325 -0 -1.2 0
0.395 -1.988 -5.33 -0 -1.2 0
0.394 -2.079 -5.314 -0 -1.2 0
0.396 -2.176 -5.325 -0 -1.2 0
0.396 -2.268 -5.315 -0 -1.2 0
0.397 -2.366 -5.323 -0 -1.2 0
0.396 -2.456 -5.3 -0 -1.2 0
0.403 -2.574 -5.372 -0 -1.2 0
0.428 -2.771 -5.699 -0 -1.2 0
0.437 -2.911 -5.802 -0 -1.2 0
0.44 -3.029 -5.826 -0 -1.2 0
0.438 -3.128 -5.792 -0 -1.2 0
0.434 -3.213 -5.718 -0 -1.2 0
0.407 -3.184 -5.364 -0 -1.2 0
0.407 -3.287 -5.355 -0 -1.2 0
0.409 -3.398 -5.362 -0 -1.2 0
0.409 -3.497 -5.339 -0 -1.2 0
0.408 -3.597 -5.314 -0 -1.2 0
0.408 -3.705 -5.306 -0 -1.2 0
0.384 -3.651 -4.986 -0 -1.2 0
0.377 -3.706 -4.888 -0 -1.2 0
0.361 -3.685 -4.66 -0 -1.2 0
0.356 -3.738 -4.571 -0 -1.2 0
0.527 -5.214 -6.781 -0 -1.2 0
0.53 -5.383 -6.792 -0 -1.2 0
0.531 -5.549 -6.791 -0 -1.2 0
0.533 -5.716 -6.786 -0 -1.2 0
0.52 -5.762 -6.607 -0 -1.2 0
0.506 -5.785 -6.405 -0 -1.2 0
0.498 -5.863 -6.284 -0 -1.2 0
0.486 -5.907 -6.122 -0 -1.2 0
0.049 0.004 -1.212 -0 -1.2 0
0.05 -0.001 -1.245 -0 -1.2 0
0.052 0 -1.286 -0 -1.2 0
0.054 0.005 -1.335 -0 -1.2 0
0.056 0.003 -1.376 -0 -1.2 0
0.058 0.001 -1.418 -0 -1.2 0
0.06 -0.002 -1.46 -0 -1.2 0
0.063 -0.001 -1.51 -0 -1.2 0
0.064 -0.001 -1.561 -0 -1.2 0
0.067 -0.002 -1.612 -0 -1.2 0
0.069 -0.005 -1.664 -0 -1.2 0
0.071 -0.005 -1.724 -0 -1.2 0
0.074 -0.01 -1.776 -0 -1.2 0
0.077 -0.013 -1.837 -0 -1.2 0
0.079 -0.022 -1.89 -0 -1.2 0
0.082 -0.018 -1.968 -0 -1.2 0
0.085 -0.021 -2.039 -0 -1.2 0
0.088 -0.022 -2.119 -0 -1.2 0
0.092 -0.029 -2.191 -0 -1.2 0
0.096 -0.03 -2.281 -0 -1.2 0
0.1 -0.029 -2.38 -0 -1.2 0
0.105 -0.028 -2.49 -0 -1.2 0
0.11 -0.033 -2.591 -0 -1.2 0
0.114 -0.035 -2.71 -0 -1.2 0
0.121 -0.037 -2.84 -0 -1.2 0
0.126 -0.043 -2.972 -0 -1.2 0
0.132 -0.049 -3.112 -0 -1.2 0
0.14 -0.055 -3.272 -0 -1.2 0
0.148 -0.059 -3.452 -0 -1.2 0
0.157 -0.064 -3.652 -0 -1.2 0
0.165 -0.073 -3.862 -0 -1.2 0
0.177 -0.077 -4.121 -0 -1.2 0
0.188 -0.091 -4.371 -0 -1.2 0
0.202 -0.099 -4.691 -0 -1.2 0
0.217 -0.114 -5.04 -0 -1.2 0
0.236 -0.124 -5.47 -0 -1.2 0
0.239 -0.213 -5.516 -0 -1.2 0
0.241 -0.307 -5.531 -0 -1.2 0
0.241 -0.404 -5.523 -0 -1.2 0
0.243 -0.5 -5.524 -0 -1.2 0
0.242 -0.595 -5.524 -0 -1.2 0
0.243 -0.69 -5.522 -0 -1.2 0
0.245 -0.785 -5.528 -0 -1.2 0
0.245 -0.88 -5.523 -0 -1.2 0
0.247 -0.974 -5.536 -0 -1.2 0
0.247 -1.068 -5.517 -0 -1.2 0
0.248 -1.162 -5.527 -0 -1.2 0
0.249 -1.256 -5.525 -0 -1.2 0
0.25 -1.351 -5.521 -0 -1.2 0
0.252 -1.446 -5.536 -0 -1.2 0
0.252 -1.54 -5.519 -0 -1.2 0
0.252 -1.635 -5.52 -0 -1.2 0
0.254 -1.733 -5.54 -0 -1.2 0
