# .PCD v.7 - Point Cloud Data file format
FIELDS x y z vp_x vp_y vp_z
SIZE 4 4 4 4 4 4
TYPE F F F F F F
COUNT 1 1 1 1 1 1
WIDTH 1619
HEIGHT 1
VIEWPOINT 0 -1.20013 0 1 0 0 0
POINTS 1619
DATA ascii
-7.983 -5.205 6.43 -0 -1.2 0
-7.974 -5.409 6.428 -0 -1.2 0
-7.969 -5.618 6.429 -0 -1.2 0
-7.903 -5.795 6.383 -0 -1.2 0
-7.982 -6.061 6.452 -0 -1.2 0
-8.313 -6.501 6.725 -0 -1.2 0
-8.298 -6.728 6.718 -0 -1.2 0
-8.312 -6.979 6.736 -0 -1.2 0
-8.302 -7.219 6.734 -0 -1.2 0
-8.241 -7.423 6.692 -0 -1.2 0
-8.296 -7.721 6.744 -0 -1.2 0
-8.273 -7.965 6.732 -0 -1.2 0
-8.034 -8.025 6.545 -0 -1.2 0
-7.866 -8.14 6.416 -0 -1.2 0
-7.846 -8.391 6.408 -0 -1.2 0
-7.632 -8.457 6.241 -0 -1.2 0
-7.424 -8.521 6.079 -0 -1.2 0
-7.319 -8.686 6.001 -0 -1.2 0
-7.129 -8.758 5.853 -0 -1.2 0
-0.908 -0.008 0.775 -0 -1.2 0
-0.934 -0.014 0.796 -0 -1.2 0
-0.965 -0.013 0.823 -0 -1.2 0
-1.002 -0.007 0.854 -0 -1.2 0
-1.034 -0.009 0.881 -0 -1.2 0
-1.06 -0.018 0.903 -0 -1.2 0
-1.093 -0.022 0.93 -0 -1.2 0
-1.137 -0.015 0.967 -0 -1.2 0
-1.17 -0.021 0.995 -0 -1.2 0
-1.209 -0.023 1.028 -0 -1.2 0
-1.254 -0.02 1.066 -0 -1.2 0
-1.3 -0.02 1.105 -0 -1.2 0
-1.347 -0.02 1.144 -0 -1.2 0
-1.387 -0.028 1.178 -0 -1.2 0
-1.447 -0.022 1.228 -0 -1.2 0
-1.514 -0.014 1.285 -0 -1.2 0
-1.562 -0.022 1.325 -0 -1.2 0
-1.631 -0.019 1.382 -0 -1.2 0
-1.699 -0.018 1.44 -0 -1.2 0
-1.775 -0.016 1.504 -0 -1.2 0
-1.845 -0.022 1.563 -0 -1.2 0
-1.922 -0.026 1.628 -0 -1.2 0
-2.007 -0.029 1.699 -0 -1.2 0
-2.113 -0.025 1.788 -0 -1.2 0
-2.22 -0.025 1.878 -0 -1.2 0
-2.328 -0.03 1.969 -0 -1.2 0
-2.443 -0.036 2.066 -0 -1.2 0
-2.581 -0.036 2.182 -0 -1.2 0
-2.712 -0.047 2.293 -0 -1.2 0
-2.894 -0.044 2.446 -0 -1.2 0
-3.063 -0.054 2.589 -0 -1.2 0
-3.292 -0.053 2.781 -0 -1.2 0
-3.499 -0.068 2.956 -0 -1.2 0
-3.759 -0.076 3.175 -0 -1.2 0
-4.073 -0.084 3.438 -0 -1.2 0
-4.425 -0.098 3.736 -0 -1.2 0
-4.876 -0.107 4.115 -0 -1.2 0
-5.419 -0.118 4.572 -0 -1.2 0
-6.045 -0.141 5.1 -0 -1.2 0
-6.65 -0.195 5.61 -0 -1.2 0
-6.674 -0.344 5.635 -0 -1.2 0
-6.713 -0.492 5.671 -0 -1.2 0
-6.917 -0.63 5.847 -0 -1.2 0
-7.05 -0.781 5.962 -0 -1.2 0
-7.38 -0.931 6.245 -0 -1.2 0
-7.372 -1.098 6.241 -0 -1.2 0
-7.375 -1.265 6.25 -0 -1.2 0
-7.385 -1.432 6.263 -0 -1.2 0
-7.385 -1.6 6.268 -0 -1.2 0
-7.36 -1.766 6.25 -0 -1.2 0
-7.302 -1.927 6.206 -0 -1.2 0
-7.82 -2.166 6.648 -0 -1.2 0
-7.892 -2.357 6.715 -0 -1.2 0
-7.782 -2.52 6.626 -0 -1.2 0
-7.894 -2.723 6.727 -0 -1.2 0
-7.771 -2.88 6.628 -0 -1.2 0
-7.886 -3.092 6.73 -0 -1.2 0
-7.826 -3.263 6.684 -0 -1.2 0
-7.668 -3.402 6.554 -0 -1.2 0
-7.782 -3.625 6.656 -0 -1.2 0
-7.825 -3.83 6.699 -0 -1.2 0
-7.675 -3.966 6.577 -0 -1.2 0
-7.489 -4.082 6.423 -0 -1.2 0
-7.409 -4.236 6.359 -0 -1.2 0
-7.399 -4.421 6.357 -0 -1.2 0
-7.388 -4.606 6.352 -0 -1.2 0
-7.387 -4.798 6.356 -0 -1.2 0
-7.384 -4.992 6.36 -0 -1.2 0
-7.377 -5.187 6.359 -0 -1.2 0
-7.375 -5.388 6.362 -0 -1.2 0
-7.362 -5.585 6.357 -0 -1.2 0
-7.327 -5.77 6.332 -0 -1.2 0
-7.294 -5.959 6.311 -0 -1.2 0
-7.575 -6.369 6.557 -0 -1.2 0
-7.513 -6.551 6.511 -0 -1.2 0
-7.753 -6.962 6.724 -0 -1.2 0
-7.567 -7.055 6.57 -0 -1.2 0
-7.568 -7.297 6.577 -0 -1.2 0
-7.532 -7.512 6.553 -0 -1.2 0
-7.525 -7.756 6.553 -0 -1.2 0
-7.45 -7.945 6.496 -0 -1.2 0
-7.276 -8.038 6.353 -0 -1.2 0
-7.259 -8.282 6.345 -0 -1.2 0
-7.172 -8.46 6.276 -0 -1.2 0
-6.894 -8.434 6.041 -0 -1.2 0
-6.827 -8.63 5.992 -0 -1.2 0
-6.633 -8.681 5.828 -0 -1.2 0
-0.882 -0.007 0.805 -0 -1.2 0
-0.907 -0.013 0.827 -0 -1.2 0
-0.943 -0.005 0.859 -0 -1.2 0
-0.968 -0.013 0.882 -0 -1.2 0
-0.993 -0.021 0.905 -0 -1.2 0
-1.03 -0.017 0.938 -0 -1.2 0
-1.061 -0.021 0.966 -0 -1.2 0
-1.105 -0.014 1.005 -0 -1.2 0
-1.13 -0.026 1.028 -0 -1.2 0
-1.174 -0.021 1.067 -0 -1.2 0
-1.219 -0.018 1.107 -0 -1.2 0
-1.269 -0.012 1.153 -0 -1.2 0
-1.308 -0.019 1.188 -0 -1.2 0
-1.354 -0.021 1.229 -0 -1.2 0
-1.399 -0.026 1.27 -0 -1.2 0
-1.458 -0.023 1.323 -0 -1.2 0
-1.524 -0.017 1.382 -0 -1.2 0
-1.591 -0.013 1.442 -0 -1.2 0
-1.651 -0.017 1.496 -0 -1.2 0
-1.725 -0.015 1.563 -0 -1.2 0
-1.799 -0.015 1.63 -0 -1.2 0
-1.881 -0.016 1.703 -0 -1.2 0
-1.963 -0.019 1.777 -0 -1.2 0
-2.046 -0.026 1.851 -0 -1.2 0
-2.164 -0.019 1.957 -0 -1.2 0
-2.261 -0.028 2.045 -0 -1.2 0
-2.373 -0.033 2.146 -0 -1.2 0
-2.493 -0.041 2.253 -0 -1.2 0
-2.634 -0.045 2.382 -0 -1.2 0
-2.812 -0.042 2.54 -0 -1.2 0
-2.983 -0.049 2.696 -0 -1.2 0
-3.184 -0.054 2.876 -0 -1.2 0
-3.392 -0.067 3.064 -0 -1.2 0
-3.652 -0.073 3.298 -0 -1.2 0
-3.949 -0.082 3.565 -0 -1.2 0
-4.306 -0.092 3.887 -0 -1.2 0
-4.737 -0.102 4.275 -0 -1.2 0
-5.226 -0.12 4.716 -0 -1.2 0
-5.851 -0.139 5.278 -0 -1.2 0
-6.69 -0.157 6.034 -0 -1.2 0
-6.855 -0.293 6.186 -0 -1.2 0
-6.833 -0.456 6.171 -0 -1.2 0
-6.868 -0.613 6.206 -0 -1.2 0
-6.841 -0.774 6.187 -0 -1.2 0
-6.842 -0.933 6.193 -0 -1.2 0
-6.841 -1.092 6.196 -0 -1.2 0
-6.846 -1.251 6.205 -0 -1.2 0
-6.847 -1.411 6.212 -0 -1.2 0
-6.84 -1.57 6.209 -0 -1.2 0
-6.845 -1.731 6.219 -0 -1.2 0
-6.752 -1.881 6.139 -0 -1.2 0
-6.902 -2.062 6.278 -0 -1.2 0
-6.908 -2.226 6.289 -0 -1.2 0
-6.898 -2.389 6.284 -0 -1.2 0
-6.9 -2.554 6.29 -0 -1.2 0
-6.899 -2.72 6.295 -0 -1.2 0
-6.889 -2.885 6.291 -0 -1.2 0
-6.885 -3.051 6.292 -0 -1.2 0
-6.878 -3.219 6.29 -0 -1.2 0
-6.876 -3.389 6.293 -0 -1.2 0
-6.871 -3.56 6.294 -0 -1.2 0
-6.865 -3.731 6.293 -0 -1.2 0
-6.856 -3.903 6.29 -0 -1.2 0
-6.859 -4.082 6.297 -0 -1.2 0
-6.851 -4.258 6.296 -0 -1.2 0
-6.842 -4.435 6.291 -0 -1.2 0
-6.844 -4.62 6.299 -0 -1.2 0
-6.842 -4.807 6.303 -0 -1.2 0
-6.832 -4.99 6.299 -0 -1.2 0
-6.839 -5.186 6.31 -0 -1.2 0
-6.823 -5.372 6.301 -0 -1.2 0
-6.817 -5.566 6.301 -0 -1.2 0
-6.822 -5.771 6.311 -0 -1.2 0
-6.816 -5.973 6.312 -0 -1.2 0
-6.807 -6.176 6.31 -0 -1.2 0
-6.803 -6.386 6.312 -0 -1.2 0
-6.8 -6.601 6.315 -0 -1.2 0
-6.8 -6.824 6.322 -0 -1.2 0
-6.797 -7.049 6.325 -0 -1.2 0
-6.795 -7.281 6.33 -0 -1.2 0
-6.784 -7.509 6.326 -0 -1.2 0
-6.781 -7.75 6.33 -0 -1.2 0
-6.774 -7.992 6.33 -0 -1.2 0
-6.721 -8.195 6.289 -0 -1.2 0
-6.694 -8.428 6.271 -0 -1.2 0
-6.473 -8.444 6.073 -0 -1.2 0
-6.335 -8.55 5.952 -0 -1.2 0
-6.198 -8.652 5.831 -0 -1.2 0
-6.054 -8.744 5.704 -0 -1.2 0
-0.853 -0.006 0.836 -0 -1.2 0
-0.877 -0.012 0.859 -0 -1.2 0
-0.907 -0.011 0.887 -0 -1.2 0
-0.936 -0.012 0.916 -0 -1.2 0
-0.961 -0.02 0.94 -0 -1.2 0
-1.002 -0.01 0.979 -0 -1.2 0
-1.032 -0.014 1.009 -0 -1.2 0
-1.068 -0.012 1.044 -0 -1.2 0
-1.099 -0.018 1.073 -0 -1.2 0
-1.136 -0.02 1.109 -0 -1.2 0
-1.178 -0.017 1.15 -0 -1.2 0
-1.228 -0.011 1.198 -0 -1.2 0
-1.271 -0.012 1.24 -0 -1.2 0
-1.315 -0.015 1.283 -0 -1.2 0
-1.359 -0.02 1.325 -0 -1.2 0
-1.404 -0.027 1.368 -0 -1.2 0
-1.474 -0.015 1.436 -0 -1.2 0
-1.532 -0.016 1.492 -0 -1.2 0
-1.596 -0.015 1.554 -0 -1.2 0
-1.655 -0.022 1.611 -0 -1.2 0
-1.733 -0.019 1.687 -0 -1.2 0
-1.812 -0.018 1.763 -0 -1.2 0
-1.892 -0.021 1.84 -0 -1.2 0
-1.985 -0.021 1.93 -0 -1.2 0
-2.079 -0.024 2.021 -0 -1.2 0
-2.187 -0.025 2.125 -0 -1.2 0
-2.295 -0.031 2.23 -0 -1.2 0
-2.411 -0.039 2.342 -0 -1.2 0
-2.547 -0.042 2.474 -0 -1.2 0
-2.712 -0.042 2.634 -0 -1.2 0
-2.892 -0.043 2.808 -0 -1.2 0
-3.057 -0.059 2.968 -0 -1.2 0
-3.28 -0.063 3.184 -0 -1.2 0
-3.524 -0.072 3.42 -0 -1.2 0
-3.819 -0.078 3.705 -0 -1.2 0
-4.185 -0.082 4.059 -0 -1.2 0
-4.588 -0.095 4.449 -0 -1.2 0
-4.954 -0.134 4.805 -0 -1.2 0
-5.172 -0.218 5.018 -0 -1.2 0
-5.158 -0.345 5.009 -0 -1.2 0
-5.051 -0.483 4.908 -0 -1.2 0
-5.042 -0.606 4.903 -0 -1.2 0
-5.009 -0.729 4.876 -0 -1.2 0
-4.904 -0.855 4.777 -0 -1.2 0
-5.178 -0.965 5.045 -0 -1.2 0
-5.127 -1.089 4.999 -0 -1.2 0
-6.318 -1.238 6.155 -0 -1.2 0
-6.327 -1.391 6.168 -0 -1.2 0
-6.32 -1.543 6.167 -0 -1.2 0
-6.326 -1.697 6.176 -0 -1.2 0
-6.244 -1.84 6.102 -0 -1.2 0
-6.389 -2.014 6.247 -0 -1.2 0
-6.394 -2.17 6.257 -0 -1.2 0
-6.399 -2.329 6.267 -0 -1.2 0
-6.395 -2.486 6.266 -0 -1.2 0
-6.395 -2.646 6.272 -0 -1.2 0
-6.387 -2.804 6.269 -0 -1.2 0
-6.384 -2.964 6.269 -0 -1.2 0
-6.385 -3.127 6.276 -0 -1.2 0
-6.384 -3.291 6.28 -0 -1.2 0
-6.374 -3.453 6.274 -0 -1.2 0
-6.376 -3.62 6.281 -0 -1.2 0
-6.368 -3.786 6.279 -0 -1.2 0
-6.372 -3.958 6.288 -0 -1.2 0
-6.34 -4.116 6.261 -0 -1.2 0
-6.34 -4.289 6.265 -0 -1.2 0
-6.33 -4.46 6.261 -0 -1.2 0
-6.33 -4.64 6.267 -0 -1.2 0
-6.322 -4.816 6.264 -0 -1.2 0
-6.325 -5.001 6.272 -0 -1.2 0
-6.318 -5.184 6.271 -0 -1.2 0
-6.309 -5.367 6.267 -0 -1.2 0
-6.308 -5.561 6.273 -0 -1.2 0
-6.294 -5.746 6.263 -0 -1.2 0
-6.226 -5.894 6.202 -0 -1.2 0
-6.323 -6.175 6.304 -0 -1.2 0
-6.305 -6.369 6.292 -0 -1.2 0
-6.302 -6.58 6.296 -0 -1.2 0
-6.295 -6.792 6.295 -0 -1.2 0
-6.291 -7.012 6.298 -0 -1.2 0
-6.284 -7.232 6.298 -0 -1.2 0
-6.278 -7.461 6.298 -0 -1.2 0
-6.28 -7.703 6.307 -0 -1.2 0
-6.267 -7.936 6.301 -0 -1.2 0
-6.206 -8.119 6.247 -0 -1.2 0
-6.196 -8.366 6.245 -0 -1.2 0
-6.038 -8.439 6.094 -0 -1.2 0
-5.853 -8.472 5.917 -0 -1.2 0
-5.819 -8.696 5.891 -0 -1.2 0
-5.63 -8.713 5.708 -0 -1.2 0
-0.825 -0.005 0.864 -0 -1.2 0
-0.848 -0.011 0.888 -0 -1.2 0
-0.877 -0.01 0.917 -0 -1.2 0
-0.911 -0.004 0.952 -0 -1.2 0
-0.934 -0.012 0.977 -0 -1.2 0
-0.963 -0.015 1.007 -0 -1.2 0
-0.998 -0.013 1.043 -0 -1.2 0
-1.028 -0.017 1.073 -0 -1.2 0
-1.068 -0.011 1.115 -0 -1.2 0
-1.104 -0.013 1.152 -0 -1.2 0
-1.14 -0.016 1.189 -0 -1.2 0
-1.182 -0.016 1.232 -0 -1.2 0
-1.224 -0.017 1.276 -0 -1.2 0
-1.272 -0.014 1.326 -0 -1.2 0
-1.315 -0.018 1.37 -0 -1.2 0
-1.364 -0.02 1.421 -0 -1.2 0
-1.413 -0.023 1.472 -0 -1.2 0
-1.481 -0.015 1.542 -0 -1.2 0
-1.544 -0.013 1.607 -0 -1.2 0
-1.613 -0.011 1.678 -0 -1.2 0
-1.689 -0.008 1.757 -0 -1.2 0
-1.753 -0.017 1.823 -0 -1.2 0
-1.83 -0.019 1.902 -0 -1.2 0
-1.92 -0.019 1.995 -0 -1.2 0
-2.011 -0.022 2.089 -0 -1.2 0
-2.115 -0.023 2.197 -0 -1.2 0
-2.213 -0.032 2.298 -0 -1.2 0
-2.345 -0.029 2.434 -0 -1.2 0
-2.47 -0.037 2.564 -0 -1.2 0
-2.63 -0.036 2.729 -0 -1.2 0
-2.79 -0.043 2.896 -0 -1.2 0
-2.963 -0.053 3.076 -0 -1.2 0
-3.172 -0.06 3.291 -0 -1.2 0
-3.402 -0.071 3.529 -0 -1.2 0
-3.687 -0.077 3.823 -0 -1.2 0
-4.048 -0.078 4.196 -0 -1.2 0
-4.403 -0.099 4.564 -0 -1.2 0
-4.881 -0.111 5.06 -0 -1.2 0
-5.445 -0.133 5.642 -0 -1.2 0
-5.294 -0.292 5.492 -0 -1.2 0
-5.246 -0.431 5.446 -0 -1.2 0
-5.126 -0.575 5.327 -0 -1.2 0
-5.887 -0.642 6.116 -0 -1.2 0
-5.876 -0.789 6.108 -0 -1.2 0
-5.87 -0.935 6.107 -0 -1.2 0
-5.869 -1.081 6.109 -0 -1.2 0
-5.804 -1.225 6.046 -0 -1.2 0
-5.883 -1.374 6.132 -0 -1.2 0
-5.876 -1.52 6.13 -0 -1.2 0
-5.868 -1.666 6.126 -0 -1.2 0
-5.796 -1.805 6.056 -0 -1.2 0
-5.853 -1.96 6.12 -0 -1.2 0
-6.349 -2.194 6.64 -0 -1.2 0
-6.354 -2.356 6.648 -0 -1.2 0
-6.205 -2.485 6.499 -0 -1.2 0
-6.342 -2.679 6.647 -0 -1.2 0
-6.333 -2.841 6.642 -0 -1.2 0
-6.328 -3.005 6.643 -0 -1.2 0
-6.329 -3.172 6.649 -0 -1.2 0
-6.174 -3.285 6.491 -0 -1.2 0
-6.177 -3.452 6.499 -0 -1.2 0
-6.325 -3.68 6.659 -0 -1.2 0
-6.316 -3.849 6.656 -0 -1.2 0
-6.319 -4.026 6.664 -0 -1.2 0
-6.059 -4.074 6.396 -0 -1.2 0
-5.877 -4.151 6.21 -0 -1.2 0
-5.875 -4.319 6.213 -0 -1.2 0
-5.871 -4.488 6.214 -0 -1.2 0
-5.865 -4.659 6.213 -0 -1.2 0
-5.864 -4.834 6.216 -0 -1.2 0
-5.858 -5.01 6.217 -0 -1.2 0
-5.858 -5.191 6.221 -0 -1.2 0
-5.861 -5.379 6.229 -0 -1.2 0
-5.854 -5.563 6.228 -0 -1.2 0
-5.845 -5.748 6.224 -0 -1.2 0
-5.773 -5.885 6.154 -0 -1.2 0
-6.266 -6.511 6.683 -0 -1.2 0
-6.215 -6.684 6.635 -0 -1.2 0
-6.241 -6.932 6.671 -0 -1.2 0
-6.23 -7.15 6.665 -0 -1.2 0
-6.17 -7.324 6.608 -0 -1.2 0
-6.036 -7.42 6.473 -0 -1.2 0
-6.219 -7.86 6.675 -0 -1.2 0
-6.091 -7.967 6.545 -0 -1.2 0
-5.903 -8.001 6.352 -0 -1.2 0
-5.758 -8.078 6.206 -0 -1.2 0
-5.753 -8.328 6.208 -0 -1.2 0
-5.632 -8.433 6.085 -0 -1.2 0
-5.441 -8.439 5.886 -0 -1.2 0
-5.397 -8.645 5.849 -0 -1.2 0
-5.231 -8.675 5.677 -0 -1.2 0
-0.796 -0.004 0.891 -0 -1.2 0
-0.828 0.003 0.926 -0 -1.2 0
-0.846 -0.009 0.946 -0 -1.2 0
-0.869 -0.017 0.971 -0 -1.2 0
-0.902 -0.011 1.007 -0 -1.2 0
-0.935 -0.008 1.044 -0 -1.2 0
-0.963 -0.012 1.075 -0 -1.2 0
-0.997 -0.01 1.113 -0 -1.2 0
-1.031 -0.01 1.15 -0 -1.2 0
-1.076 0 1.2 -0 -1.2 0
-1.111 -0.004 1.239 -0 -1.2 0
-1.14 -0.015 1.271 -0 -1.2 0
-1.186 -0.009 1.322 -0 -1.2 0
-1.227 -0.012 1.367 -0 -1.2 0
-1.263 -0.022 1.407 -0 -1.2 0
-1.316 -0.019 1.465 -0 -1.2 0
-1.37 -0.016 1.525 -0 -1.2 0
-1.429 -0.013 1.591 -0 -1.2 0
-1.484 -0.017 1.651 -0 -1.2 0
-1.563 -0.006 1.738 -0 -1.2 0
-1.63 -0.006 1.812 -0 -1.2 0
-1.698 -0.011 1.887 -0 -1.2 0
-1.766 -0.017 1.962 -0 -1.2 0
-1.853 -0.017 2.058 -0 -1.2 0
-1.94 -0.02 2.155 -0 -1.2 0
-2.034 -0.024 2.259 -0 -1.2 0
-2.142 -0.026 2.378 -0 -1.2 0
-2.256 -0.03 2.504 -0 -1.2 0
-2.384 -0.034 2.645 -0 -1.2 0
-2.538 -0.033 2.815 -0 -1.2 0
-2.692 -0.041 2.987 -0 -1.2 0
-2.86 -0.05 3.173 -0 -1.2 0
-3.048 -0.061 3.381 -0 -1.2 0
-3.289 -0.066 3.648 -0 -1.2 0
-3.557 -0.073 3.944 -0 -1.2 0
-3.893 -0.077 4.315 -0 -1.2 0
-4.229 -0.1 4.687 -0 -1.2 0
-4.697 -0.109 5.205 -0 -1.2 0
-5.254 -0.127 5.821 -0 -1.2 0
-4.848 -0.329 5.379 -0 -1.2 0
-4.941 -0.442 5.485 -0 -1.2 0
-5.456 -0.514 6.056 -0 -1.2 0
-5.459 -0.654 6.065 -0 -1.2 0
-5.448 -0.796 6.057 -0 -1.2 0
-5.45 -0.936 6.062 -0 -1.2 0
-5.442 -1.076 6.058 -0 -1.2 0
-5.446 -1.216 6.066 -0 -1.2 0
-5.455 -1.357 6.081 -0 -1.2 0
-5.442 -1.497 6.071 -0 -1.2 0
-5.441 -1.638 6.074 -0 -1.2 0
-5.399 -1.774 6.032 -0 -1.2 0
-5.395 -1.915 6.032 -0 -1.2 0
-5.747 -2.119 6.428 -0 -1.2 0
-5.779 -2.277 6.468 -0 -1.2 0
-5.762 -2.427 6.453 -0 -1.2 0
-5.776 -2.584 6.474 -0 -1.2 0
-5.775 -2.739 6.478 -0 -1.2 0
-5.74 -2.884 6.443 -0 -1.2 0
-5.768 -3.051 6.48 -0 -1.2 0
-5.761 -3.207 6.477 -0 -1.2 0
-5.682 -3.336 6.393 -0 -1.2 0
-5.73 -3.516 6.451 -0 -1.2 0
-5.73 -3.679 6.457 -0 -1.2 0
-5.735 -3.845 6.468 -0 -1.2 0
-5.718 -4.004 6.454 -0 -1.2 0
-5.531 -4.071 6.249 -0 -1.2 0
-5.443 -4.185 6.156 -0 -1.2 0
-5.441 -4.349 6.159 -0 -1.2 0
-5.444 -4.517 6.166 -0 -1.2 0
-5.437 -4.682 6.165 -0 -1.2 0
-5.44 -4.857 6.173 -0 -1.2 0
-5.435 -5.029 6.173 -0 -1.2 0
-5.434 -5.206 6.176 -0 -1.2 0
-5.435 -5.389 6.184 -0 -1.2 0
-5.428 -5.569 6.182 -0 -1.2 0
-5.419 -5.75 6.177 -0 -1.2 0
-5.356 -5.885 6.111 -0 -1.2 0
-5.701 -6.403 6.51 -0 -1.2 0
-5.664 -6.579 6.474 -0 -1.2 0
-5.679 -6.81 6.498 -0 -1.2 0
-5.652 -7.003 6.475 -0 -1.2 0
-5.655 -7.232 6.485 -0 -1.2 0
-5.591 -7.392 6.418 -0 -1.2 0
-5.624 -7.666 6.463 -0 -1.2 0
-5.625 -7.913 6.473 -0 -1.2 0
-5.492 -7.996 6.328 -0 -1.2 0
-5.339 -8.048 6.16 -0 -1.2 0
-5.333 -8.294 6.161 -0 -1.2 0
-5.251 -8.44 6.074 -0 -1.2 0
-5.053 -8.418 5.855 -0 -1.2 0
-5.011 -8.62 5.815 -0 -1.2 0
-0.764 -0.004 0.919 -0 -1.2 0
-0.785 -0.009 0.945 -0 -1.2 0
-0.812 -0.008 0.976 -0 -1.2 0
-0.843 -0.002 1.013 -0 -1.2 0
-0.87 -0.004 1.045 -0 -1.2 0
-0.897 -0.007 1.077 -0 -1.2 0
-0.924 -0.011 1.11 -0 -1.2 0
-0.951 -0.015 1.142 -0 -1.2 0
-0.989 -0.009 1.187 -0 -1.2 0
-1.027 -0.005 1.232 -0 -1.2 0
-1.055 -0.014 1.265 -0 -1.2 0
-1.099 -0.007 1.318 -0 -1.2 0
-1.138 -0.008 1.364 -0 -1.2 0
-1.183 -0.006 1.418 -0 -1.2 0
-1.223 -0.011 1.465 -0 -1.2 0
-1.268 -0.012 1.519 -0 -1.2 0
-1.314 -0.015 1.573 -0 -1.2 0
-1.366 -0.017 1.635 -0 -1.2 0
-1.429 -0.01 1.71 -0 -1.2 0
-1.482 -0.017 1.773 -0 -1.2 0
-1.563 -0.004 1.87 -0 -1.2 0
-1.628 -0.009 1.947 -0 -1.2 0
-1.694 -0.015 2.025 -0 -1.2 0
-1.777 -0.015 2.124 -0 -1.2 0
-1.867 -0.014 2.231 -0 -1.2 0
-1.952 -0.022 2.332 -0 -1.2 0
-2.055 -0.024 2.454 -0 -1.2 0
-2.158 -0.031 2.577 -0 -1.2 0
-2.281 -0.035 2.723 -0 -1.2 0
-2.428 -0.034 2.898 -0 -1.2 0
-2.583 -0.038 3.083 -0 -1.2 0
-2.737 -0.05 3.267 -0 -1.2 0
-2.917 -0.06 3.482 -0 -1.2 0
-3.155 -0.062 3.765 -0 -1.2 0
-3.413 -0.069 4.071 -0 -1.2 0
-3.715 -0.079 4.43 -0 -1.2 0
-4.056 -0.095 4.837 -0 -1.2 0
-4.506 -0.104 5.372 -0 -1.2 0
-5.001 -0.129 5.962 -0 -1.2 0
-5.041 -0.257 6.015 -0 -1.2 0
-5.055 -0.392 6.034 -0 -1.2 0
-5.047 -0.529 6.029 -0 -1.2 0
-5.05 -0.664 6.037 -0 -1.2 0
-5.039 -0.801 6.029 -0 -1.2 0
-5.04 -0.936 6.034 -0 -1.2 0
-5.039 -1.071 6.037 -0 -1.2 0
-5.037 -1.206 6.038 -0 -1.2 0
-5.045 -1.342 6.053 -0 -1.2 0
-5.033 -1.477 6.044 -0 -1.2 0
-5.033 -1.613 6.047 -0 -1.2 0
-5.011 -1.747 6.026 -0 -1.2 0
-4.969 -1.876 5.98 -0 -1.2 0
-5.079 -2.033 6.115 -0 -1.2 0
-5.078 -2.173 6.119 -0 -1.2 0
-5.076 -2.313 6.12 -0 -1.2 0
-5.072 -2.453 6.121 -0 -1.2 0
-5.073 -2.594 6.126 -0 -1.2 0
-5.066 -2.735 6.122 -0 -1.2 0
-5.063 -2.878 6.124 -0 -1.2 0
-5.059 -3.022 6.123 -0 -1.2 0
-5.059 -3.169 6.129 -0 -1.2 0
-5.057 -3.316 6.131 -0 -1.2 0
-5.055 -3.464 6.131 -0 -1.2 0
-5.056 -3.616 6.138 -0 -1.2 0
-5.055 -3.768 6.141 -0 -1.2 0
-5.046 -3.919 6.136 -0 -1.2 0
-5.035 -4.069 6.128 -0 -1.2 0
-5.035 -4.227 6.132 -0 -1.2 0
-5.026 -4.383 6.127 -0 -1.2 0
-5.026 -4.547 6.133 -0 -1.2 0
-5.025 -4.712 6.137 -0 -1.2 0
-5.022 -4.879 6.139 -0 -1.2 0
-5.017 -5.046 6.138 -0 -1.2 0
-5.015 -5.22 6.14 -0 -1.2 0
-5.02 -5.404 6.154 -0 -1.2 0
-5.014 -5.58 6.151 -0 -1.2 0
-5.01 -5.761 6.152 -0 -1.2 0
-5.013 -5.955 6.162 -0 -1.2 0
-5.01 -6.146 6.164 -0 -1.2 0
-5.008 -6.343 6.169 -0 -1.2 0
-5.003 -6.541 6.169 -0 -1.2 0
-4.99 -6.736 6.16 -0 -1.2 0
-4.985 -6.943 6.161 -0 -1.2 0
-4.981 -7.158 6.163 -0 -1.2 0
-4.979 -7.382 6.168 -0 -1.2 0
-4.978 -7.613 6.175 -0 -1.2 0
-4.965 -7.833 6.164 -0 -1.2 0
-4.933 -8.035 6.134 -0 -1.2 0
-4.926 -8.278 6.134 -0 -1.2 0
-4.852 -8.426 6.049 -0 -1.2 0
-4.677 -8.417 5.842 -0 -1.2 0
-0.737 0.003 0.95 -0 -1.2 0
-0.758 -0.002 0.977 -0 -1.2 0
-0.783 0 1.009 -0 -1.2 0
-0.809 -0.001 1.041 -0 -1.2 0
-0.83 -0.009 1.068 -0 -1.2 0
-0.86 -0.006 1.107 -0 -1.2 0
-0.891 -0.003 1.146 -0 -1.2 0
-0.917 -0.008 1.18 -0 -1.2 0
-0.954 -0.002 1.226 -0 -1.2 0
-0.985 -0.004 1.266 -0 -1.2 0
-1.017 -0.007 1.307 -0 -1.2 0
-1.059 0 1.361 -0 -1.2 0
-1.097 -0.002 1.408 -0 -1.2 0
-1.14 0 1.463 -0 -1.2 0
-1.178 -0.004 1.512 -0 -1.2 0
-1.222 -0.006 1.568 -0 -1.2 0
-1.271 -0.004 1.63 -0 -1.2 0
-1.321 -0.005 1.694 -0 -1.2 0
-1.371 -0.009 1.758 -0 -1.2 0
-1.438 -0.002 1.843 -0 -1.2 0
-1.494 -0.007 1.915 -0 -1.2 0
-1.562 -0.007 2.001 -0 -1.2 0
-1.631 -0.01 2.088 -0 -1.2 0
-1.699 -0.016 2.176 -0 -1.2 0
-1.786 -0.015 2.285 -0 -1.2 0
-1.872 -0.02 2.396 -0 -1.2 0
-1.971 -0.022 2.522 -0 -1.2 0
-2.076 -0.025 2.656 -0 -1.2 0
-2.182 -0.035 2.79 -0 -1.2 0
-2.324 -0.034 2.971 -0 -1.2 0
-2.466 -0.04 3.153 -0 -1.2 0
-2.62 -0.049 3.35 -0 -1.2 0
-2.811 -0.052 3.594 -0 -1.2 0
-3.027 -0.058 3.869 -0 -1.2 0
-3.28 -0.063 4.191 -0 -1.2 0
-3.558 -0.076 4.545 -0 -1.2 0
-3.886 -0.092 4.963 -0 -1.2 0
-4.329 -0.098 5.529 -0 -1.2 0
-4.564 -0.172 5.831 -0 -1.2 0
-4.609 -0.293 5.892 -0 -1.2 0
-4.615 -0.422 5.903 -0 -1.2 0
-4.594 -0.554 5.882 -0 -1.2 0
-4.58 -0.684 5.868 -0 -1.2 0
-4.575 -0.812 5.866 -0 -1.2 0
-4.6 -0.94 5.902 -0 -1.2 0
-4.563 -1.068 5.858 -0 -1.2 0
-4.554 -1.195 5.851 -0 -1.2 0
-4.58 -1.324 5.89 -0 -1.2 0
-4.588 -1.454 5.903 -0 -1.2 0
-4.625 -1.586 5.954 -0 -1.2 0
-4.622 -1.717 5.957 -0 -1.2 0
-4.589 -1.842 5.918 -0 -1.2 0
-4.627 -1.981 5.971 -0 -1.2 0
-4.706 -2.13 6.076 -0 -1.2 0
-4.704 -2.265 6.079 -0 -1.2 0
-4.707 -2.403 6.087 -0 -1.2 0
-4.703 -2.539 6.085 -0 -1.2 0
-4.703 -2.677 6.089 -0 -1.2 0
-4.694 -2.813 6.084 -0 -1.2 0
-4.697 -2.955 6.092 -0 -1.2 0
-4.692 -3.095 6.09 -0 -1.2 0
-4.691 -3.238 6.094 -0 -1.2 0
-4.689 -3.381 6.096 -0 -1.2 0
-4.685 -3.525 6.095 -0 -1.2 0
-4.679 -3.67 6.093 -0 -1.2 0
-4.678 -3.819 6.095 -0 -1.2 0
-4.674 -3.968 6.096 -0 -1.2 0
-4.669 -4.119 6.094 -0 -1.2 0
-4.667 -4.273 6.098 -0 -1.2 0
-4.664 -4.429 6.098 -0 -1.2 0
-4.664 -4.59 6.104 -0 -1.2 0
-4.657 -4.748 6.1 -0 -1.2 0
-4.653 -4.911 6.099 -0 -1.2 0
-4.646 -5.075 6.097 -0 -1.2 0
-4.643 -5.245 6.099 -0 -1.2 0
-4.643 -5.421 6.105 -0 -1.2 0
-4.636 -5.593 6.102 -0 -1.2 0
-4.631 -5.771 6.101 -0 -1.2 0
-4.634 -5.962 6.112 -0 -1.2 0
-4.644 -6.165 6.131 -0 -1.2 0
-4.063 -5.698 5.376 -0 -1.2 0
-4.631 -6.55 6.127 -0 -1.2 0
-4.629 -6.753 6.131 -0 -1.2 0
-4.617 -6.951 6.123 -0 -1.2 0
-4.617 -7.169 6.131 -0 -1.2 0
-4.614 -7.39 6.133 -0 -1.2 0
-4.607 -7.612 6.133 -0 -1.2 0
-4.597 -7.836 6.128 -0 -1.2 0
-4.562 -8.029 6.089 -0 -1.2 0
-4.564 -8.283 6.098 -0 -1.2 0
-4.407 -8.286 5.898 -0 -1.2 0
-0.701 -0.002 0.969 -0 -1.2 0
-0.725 -0.001 1.002 -0 -1.2 0
-0.745 -0.007 1.029 -0 -1.2 0
-0.773 0 1.068 -0 -1.2 0
-0.794 -0.008 1.095 -0 -1.2 0
-0.823 -0.005 1.135 -0 -1.2 0
-0.852 -0.002 1.176 -0 -1.2 0
-0.873 -0.013 1.204 -0 -1.2 0
-0.903 -0.013 1.244 -0 -1.2 0
-0.938 -0.009 1.292 -0 -1.2 0
-0.973 -0.006 1.34 -0 -1.2 0
-1.008 -0.005 1.389 -0 -1.2 0
-1.054 0.004 1.451 -0 -1.2 0
-1.09 0.001 1.501 -0 -1.2 0
-1.122 -0.008 1.544 -0 -1.2 0
-1.174 0 1.615 -0 -1.2 0
-1.221 0.001 1.679 -0 -1.2 0
-1.269 0 1.744 -0 -1.2 0
-1.311 -0.007 1.803 -0 -1.2 0
-1.381 0.003 1.898 -0 -1.2 0
-1.435 -0.001 1.971 -0 -1.2 0
-1.494 -0.005 2.053 -0 -1.2 0
-1.56 -0.008 2.142 -0 -1.2 0
-1.625 -0.014 2.232 -0 -1.2 0
-1.702 -0.017 2.337 -0 -1.2 0
-1.791 -0.018 2.458 -0 -1.2 0
-1.886 -0.02 2.587 -0 -1.2 0
-1.986 -0.023 2.724 -0 -1.2 0
-2.087 -0.033 2.862 -0 -1.2 0
-2.223 -0.032 3.047 -0 -1.2 0
-2.364 -0.034 3.241 -0 -1.2 0
-2.511 -0.044 3.444 -0 -1.2 0
-2.694 -0.047 3.694 -0 -1.2 0
-2.89 -0.057 3.961 -0 -1.2 0
-3.155 -0.055 4.323 -0 -1.2 0
-3.403 -0.072 4.662 -0 -1.2 0
-3.705 -0.09 5.075 -0 -1.2 0
-4.123 -0.097 5.648 -0 -1.2 0
-4.342 -0.171 5.95 -0 -1.2 0
-4.338 -0.3 5.947 -0 -1.2 0
-4.344 -0.427 5.959 -0 -1.2 0
-4.342 -0.555 5.961 -0 -1.2 0
-4.327 -0.684 5.946 -0 -1.2 0
-4.299 -0.813 5.912 -0 -1.2 0
-4.335 -0.937 5.965 -0 -1.2 0
-4.334 -1.063 5.968 -0 -1.2 0
-4.332 -1.189 5.969 -0 -1.2 0
-4.333 -1.317 5.977 -0 -1.2 0
-4.323 -1.443 5.966 -0 -1.2 0
-4.323 -1.57 5.97 -0 -1.2 0
-4.327 -1.699 5.98 -0 -1.2 0
-4.271 -1.817 5.908 -0 -1.2 0
-4.319 -1.955 5.98 -0 -1.2 0
-4.343 -2.09 6.016 -0 -1.2 0
-4.336 -2.219 6.011 -0 -1.2 0
-4.333 -2.349 6.011 -0 -1.2 0
-4.335 -2.482 6.018 -0 -1.2 0
-4.336 -2.616 6.023 -0 -1.2 0
-4.335 -2.75 6.027 -0 -1.2 0
-4.326 -2.882 6.02 -0 -1.2 0
-4.327 -3.018 6.027 -0 -1.2 0
-4.323 -3.155 6.023 -0 -1.2 0
-4.332 -3.298 6.042 -0 -1.2 0
-4.318 -3.432 6.027 -0 -1.2 0
-4.313 -3.572 6.025 -0 -1.2 0
-4.307 -3.712 6.023 -0 -1.2 0
-4.31 -3.86 6.032 -0 -1.2 0
-4.306 -4.006 6.031 -0 -1.2 0
-4.3 -4.152 6.028 -0 -1.2 0
-4.303 -4.307 6.038 -0 -1.2 0
-4.299 -4.459 6.038 -0 -1.2 0
-4.299 -4.617 6.042 -0 -1.2 0
-4.296 -4.775 6.044 -0 -1.2 0
-4.292 -4.935 6.044 -0 -1.2 0
-4.296 -5.105 6.054 -0 -1.2 0
-4.282 -5.262 6.041 -0 -1.2 0
-4.282 -5.434 6.046 -0 -1.2 0
-4.283 -5.614 6.055 -0 -1.2 0
-4.288 -5.8 6.068 -0 -1.2 0
-4.005 -5.661 5.677 -0 -1.2 0
-3.917 -5.733 5.56 -0 -1.2 0
-3.834 -5.809 5.448 -0 -1.2 0
-4.28 -6.562 6.082 -0 -1.2 0
-4.267 -6.75 6.071 -0 -1.2 0
-4.264 -6.958 6.075 -0 -1.2 0
-4.263 -7.174 6.082 -0 -1.2 0
-4.259 -7.392 6.083 -0 -1.2 0
-4.251 -7.612 6.081 -0 -1.2 0
-4.249 -7.847 6.086 -0 -1.2 0
-4.223 -8.05 6.056 -0 -1.2 0
-4.218 -8.295 6.058 -0 -1.2 0
-0.666 -0.001 0.994 -0 -1.2 0
-0.685 -0.007 1.021 -0 -1.2 0
-0.708 -0.006 1.055 -0 -1.2 0
-0.731 -0.006 1.089 -0 -1.2 0
-0.758 -0.001 1.13 -0 -1.2 0
-0.786 0.002 1.171 -0 -1.2 0
-0.81 0 1.206 -0 -1.2 0
-0.834 -0.006 1.241 -0 -1.2 0
-0.858 -0.012 1.276 -0 -1.2 0
-0.891 -0.008 1.325 -0 -1.2 0
-0.929 0 1.381 -0 -1.2 0
-0.967 0.006 1.438 -0 -1.2 0
-1.002 0.006 1.489 -0 -1.2 0
-1.031 -0.002 1.532 -0 -1.2 0
-1.076 0.004 1.597 -0 -1.2 0
-1.11 -0.003 1.649 -0 -1.2 0
-1.155 -0.002 1.715 -0 -1.2 0
-1.196 -0.007 1.774 -0 -1.2 0
-1.246 -0.006 1.849 -0 -1.2 0
-1.312 0.004 1.946 -0 -1.2 0
-1.358 -0.003 2.014 -0 -1.2 0
-1.415 -0.008 2.098 -0 -1.2 0
-1.477 -0.01 2.189 -0 -1.2 0
-1.544 -0.012 2.289 -0 -1.2 0
-1.612 -0.019 2.389 -0 -1.2 0
-1.696 -0.018 2.513 -0 -1.2 0
-1.786 -0.02 2.645 -0 -1.2 0
-1.876 -0.027 2.778 -0 -1.2 0
-1.989 -0.027 2.944 -0 -1.2 0
-2.112 -0.029 3.125 -0 -1.2 0
-2.247 -0.031 3.324 -0 -1.2 0
-2.386 -0.041 3.532 -0 -1.2 0
-2.56 -0.044 3.789 -0 -1.2 0
-2.762 -0.046 4.086 -0 -1.2 0
-2.987 -0.054 4.417 -0 -1.2 0
-3.223 -0.072 4.766 -0 -1.2 0
-3.52 -0.086 5.205 -0 -1.2 0
-3.868 -0.105 5.719 -0 -1.2 0
-3.864 -0.227 5.717 -0 -1.2 0
-3.764 -0.366 5.574 -0 -1.2 0
-3.762 -0.483 5.577 -0 -1.2 0
-3.761 -0.599 5.578 -0 -1.2 0
-3.74 -0.717 5.553 -0 -1.2 0
-3.972 -0.816 5.898 -0 -1.2 0
-4.006 -0.936 5.953 -0 -1.2 0
-4 -1.059 5.947 -0 -1.2 0
-3.997 -1.182 5.948 -0 -1.2 0
-4 -1.305 5.956 -0 -1.2 0
-3.989 -1.428 5.945 -0 -1.2 0
-3.989 -1.552 5.949 -0 -1.2 0
-3.988 -1.676 5.952 -0 -1.2 0
-3.94 -1.791 5.886 -0 -1.2 0
-3.959 -1.919 5.918 -0 -1.2 0
-3.998 -2.054 5.98 -0 -1.2 0
-3.997 -2.18 5.983 -0 -1.2 0
-4.001 -2.309 5.993 -0 -1.2 0
-3.997 -2.436 5.992 -0 -1.2 0
-3.997 -2.566 5.998 -0 -1.2 0
-3.991 -2.694 5.994 -0 -1.2 0
-3.99 -2.825 5.995 -0 -1.2 0
-3.991 -2.957 6.003 -0 -1.2 0
-3.981 -3.087 5.993 -0 -1.2 0
-3.986 -3.224 6.004 -0 -1.2 0
-3.979 -3.358 5.998 -0 -1.2 0
-3.98 -3.496 6.005 -0 -1.2 0
-3.98 -3.636 6.01 -0 -1.2 0
-3.962 -3.768 5.99 -0 -1.2 0
-3.966 -3.912 5.999 -0 -1.2 0
-3.971 -4.062 6.012 -0 -1.2 0
-3.965 -4.206 6.008 -0 -1.2 0
-3.967 -4.358 6.016 -0 -1.2 0
-3.962 -4.507 6.015 -0 -1.2 0
-3.961 -4.662 6.018 -0 -1.2 0
-3.953 -4.813 6.012 -0 -1.2 0
-3.957 -4.98 6.024 -0 -1.2 0
-3.95 -5.138 6.02 -0 -1.2 0
-3.945 -5.301 6.02 -0 -1.2 0
-3.944 -5.472 6.024 -0 -1.2 0
-3.926 -5.627 6.003 -0 -1.2 0
-3.811 -5.667 5.834 -0 -1.2 0
-3.927 -5.99 6.016 -0 -1.2 0
-3.93 -6.183 6.027 -0 -1.2 0
-3.926 -6.372 6.028 -0 -1.2 0
-3.928 -6.574 6.039 -0 -1.2 0
-3.923 -6.772 6.038 -0 -1.2 0
-3.916 -6.971 6.034 -0 -1.2 0
-3.918 -7.192 6.045 -0 -1.2 0
-3.908 -7.401 6.039 -0 -1.2 0
-3.904 -7.625 6.041 -0 -1.2 0
-3.897 -7.851 6.039 -0 -1.2 0
-3.886 -8.079 6.031 -0 -1.2 0
-0.633 0 1.015 -0 -1.2 0
-0.655 0 1.049 -0 -1.2 0
-0.673 -0.005 1.078 -0 -1.2 0
-0.699 0.001 1.119 -0 -1.2 0
-0.717 -0.006 1.148 -0 -1.2 0
-0.743 -0.003 1.189 -0 -1.2 0
-0.77 0 1.232 -0 -1.2 0
-0.797 0 1.274 -0 -1.2 0
-0.82 -0.005 1.311 -0 -1.2 0
-0.847 -0.007 1.354 -0 -1.2 0
-0.874 -0.009 1.397 -0 -1.2 0
-0.915 0.002 1.462 -0 -1.2 0
-0.952 0.007 1.521 -0 -1.2 0
-0.985 0.003 1.573 -0 -1.2 0
-1.018 0 1.625 -0 -1.2 0
-1.06 0.002 1.692 -0 -1.2 0
-1.098 0 1.752 -0 -1.2 0
-1.146 0.002 1.828 -0 -1.2 0
-1.185 -0.004 1.889 -0 -1.2 0
-1.247 0.006 1.988 -0 -1.2 0
-1.286 -0.007 2.05 -0 -1.2 0
-1.345 -0.006 2.143 -0 -1.2 0
-1.404 -0.008 2.237 -0 -1.2 0
-1.468 -0.01 2.338 -0 -1.2 0
-1.538 -0.013 2.449 -0 -1.2 0
-1.613 -0.016 2.567 -0 -1.2 0
-1.703 -0.015 2.711 -0 -1.2 0
-1.789 -0.022 2.847 -0 -1.2 0
-1.886 -0.028 3 -0 -1.2 0
-2.008 -0.026 3.193 -0 -1.2 0
-2.141 -0.027 3.405 -0 -1.2 0
-2.269 -0.038 3.609 -0 -1.2 0
-2.434 -0.041 3.871 -0 -1.2 0
-2.621 -0.045 4.167 -0 -1.2 0
-2.829 -0.055 4.497 -0 -1.2 0
-3.059 -0.07 4.861 -0 -1.2 0
-3.347 -0.082 5.319 -0 -1.2 0
-3.667 -0.104 5.827 -0 -1.2 0
-3.637 -0.231 5.783 -0 -1.2 0
-3.52 -0.374 5.603 -0 -1.2 0
-3.524 -0.488 5.614 -0 -1.2 0
-3.522 -0.602 5.615 -0 -1.2 0
-3.508 -0.718 5.598 -0 -1.2 0
-3.686 -0.818 5.883 -0 -1.2 0
-3.701 -0.937 5.913 -0 -1.2 0
-3.695 -1.056 5.907 -0 -1.2 0
-3.693 -1.175 5.909 -0 -1.2 0
-3.696 -1.295 5.916 -0 -1.2 0
-3.691 -1.415 5.914 -0 -1.2 0
-3.691 -1.535 5.918 -0 -1.2 0
-3.689 -1.656 5.921 -0 -1.2 0
-3.645 -1.768 5.853 -0 -1.2 0
-3.647 -1.889 5.86 -0 -1.2 0
-3.7 -2.023 5.951 -0 -1.2 0
-3.7 -2.146 5.954 -0 -1.2 0
-3.703 -2.272 5.964 -0 -1.2 0
-3.694 -2.394 5.956 -0 -1.2 0
-3.696 -2.52 5.962 -0 -1.2 0
-3.695 -2.647 5.966 -0 -1.2 0
-3.688 -2.772 5.96 -0 -1.2 0
-3.686 -2.9 5.96 -0 -1.2 0
-3.682 -3.028 5.959 -0 -1.2 0
-3.681 -3.16 5.963 -0 -1.2 0
-3.685 -3.295 5.974 -0 -1.2 0
-3.677 -3.425 5.966 -0 -1.2 0
-3.672 -3.558 5.964 -0 -1.2 0
-3.671 -3.696 5.968 -0 -1.2 0
-3.675 -3.838 5.978 -0 -1.2 0
-3.671 -3.977 5.977 -0 -1.2 0
-3.661 -4.113 5.966 -0 -1.2 0
-3.654 -4.254 5.96 -0 -1.2 0
-3.66 -4.408 5.976 -0 -1.2 0
-3.659 -4.559 5.98 -0 -1.2 0
-3.662 -4.716 5.99 -0 -1.2 0
-3.653 -4.865 5.982 -0 -1.2 0
-3.652 -5.025 5.986 -0 -1.2 0
-3.649 -5.185 5.988 -0 -1.2 0
-3.644 -5.347 5.985 -0 -1.2 0
-3.642 -5.515 5.988 -0 -1.2 0
-3.637 -5.685 5.987 -0 -1.2 0
-3.635 -5.861 5.99 -0 -1.2 0
-3.631 -6.039 5.99 -0 -1.2 0
-3.628 -6.224 5.993 -0 -1.2 0
-3.623 -6.411 5.992 -0 -1.2 0
-3.616 -6.599 5.987 -0 -1.2 0
-3.618 -6.807 5.999 -0 -1.2 0
-3.614 -7.012 5.999 -0 -1.2 0
-3.614 -7.23 6.009 -0 -1.2 0
-3.605 -7.437 6 -0 -1.2 0
-3.603 -7.667 6.006 -0 -1.2 0
-3.598 -7.898 6.008 -0 -1.2 0
-0.6 0 1.035 -0 -1.2 0
-0.62 0.001 1.07 -0 -1.2 0
-0.637 -0.004 1.099 -0 -1.2 0
-0.662 0.001 1.141 -0 -1.2 0
-0.675 -0.012 1.164 -0 -1.2 0
-0.704 -0.002 1.213 -0 -1.2 0
-0.729 0 1.256 -0 -1.2 0
-0.751 -0.004 1.293 -0 -1.2 0
-0.772 -0.01 1.33 -0 -1.2 0
-0.802 -0.005 1.381 -0 -1.2 0
-0.836 0.002 1.44 -0 -1.2 0
-0.863 -0.002 1.485 -0 -1.2 0
-0.898 0.002 1.544 -0 -1.2 0
-0.933 0.004 1.604 -0 -1.2 0
-0.964 0 1.658 -0 -1.2 0
-1 0 1.719 -0 -1.2 0
-1.036 -0.004 1.78 -0 -1.2 0
-1.077 -0.004 1.85 -0 -1.2 0
-1.127 0 1.935 -0 -1.2 0
-1.181 0.007 2.028 -0 -1.2 0
-1.228 0.003 2.107 -0 -1.2 0
-1.279 0 2.194 -0 -1.2 0
-1.33 -0.006 2.282 -0 -1.2 0
-1.391 -0.009 2.386 -0 -1.2 0
-1.461 -0.008 2.506 -0 -1.2 0
-1.532 -0.011 2.627 -0 -1.2 0
-1.613 -0.013 2.766 -0 -1.2 0
-1.699 -0.016 2.913 -0 -1.2 0
-1.791 -0.023 3.068 -0 -1.2 0
-1.902 -0.024 3.258 -0 -1.2 0
-2.033 -0.021 3.482 -0 -1.2 0
-2.16 -0.03 3.698 -0 -1.2 0
-2.315 -0.033 3.966 -0 -1.2 0
-2.482 -0.042 4.251 -0 -1.2 0
-2.675 -0.053 4.58 -0 -1.2 0
-2.902 -0.065 4.968 -0 -1.2 0
-3.175 -0.077 5.434 -0 -1.2 0
-3.508 -0.089 6.004 -0 -1.2 0
-3.545 -0.201 6.071 -0 -1.2 0
-3.535 -0.325 6.059 -0 -1.2 0
-3.534 -0.447 6.063 -0 -1.2 0
-3.537 -0.567 6.073 -0 -1.2 0
-3.53 -0.689 6.064 -0 -1.2 0
-3.531 -0.81 6.071 -0 -1.2 0
-3.53 -0.931 6.076 -0 -1.2 0
-3.525 -1.051 6.07 -0 -1.2 0
-3.522 -1.171 6.071 -0 -1.2 0
-3.52 -1.292 6.07 -0 -1.2 0
-3.515 -1.412 6.068 -0 -1.2 0
-3.515 -1.533 6.072 -0 -1.2 0
-3.513 -1.654 6.074 -0 -1.2 0
-3.456 -1.765 5.979 -0 -1.2 0
-3.453 -1.885 5.978 -0 -1.2 0
-3.523 -2.025 6.105 -0 -1.2 0
-3.523 -2.148 6.108 -0 -1.2 0
-3.53 -2.275 6.127 -0 -1.2 0
-3.522 -2.399 6.118 -0 -1.2 0
-3.513 -2.522 6.107 -0 -1.2 0
-3.518 -2.651 6.12 -0 -1.2 0
-3.506 -2.774 6.105 -0 -1.2 0
-3.504 -2.903 6.105 -0 -1.2 0
-3.504 -3.034 6.111 -0 -1.2 0
-3.499 -3.163 6.107 -0 -1.2 0
-3.503 -3.299 6.119 -0 -1.2 0
-3.495 -3.429 6.11 -0 -1.2 0
-3.49 -3.563 6.108 -0 -1.2 0
-3.489 -3.701 6.111 -0 -1.2 0
-3.486 -3.84 6.114 -0 -1.2 0
-3.488 -3.984 6.12 -0 -1.2 0
-3.483 -4.124 6.117 -0 -1.2 0
-3.476 -4.266 6.112 -0 -1.2 0
-3.477 -4.416 6.119 -0 -1.2 0
-3.472 -4.563 6.116 -0 -1.2 0
-3.47 -4.716 6.118 -0 -1.2 0
-3.466 -4.87 6.117 -0 -1.2 0
-3.46 -5.025 6.113 -0 -1.2 0
-3.457 -5.185 6.115 -0 -1.2 0
-3.452 -5.347 6.112 -0 -1.2 0
-3.446 -5.51 6.107 -0 -1.2 0
-3.441 -5.68 6.106 -0 -1.2 0
-3.439 -5.856 6.11 -0 -1.2 0
-3.431 -6.028 6.102 -0 -1.2 0
-3.428 -6.213 6.105 -0 -1.2 0
-3.419 -6.393 6.097 -0 -1.2 0
-3.417 -6.588 6.099 -0 -1.2 0
-3.411 -6.783 6.097 -0 -1.2 0
-3.406 -6.987 6.099 -0 -1.2 0
-3.404 -7.199 6.101 -0 -1.2 0
-3.394 -7.406 6.093 -0 -1.2 0
-3.393 -7.635 6.1 -0 -1.2 0
-3.381 -7.852 6.089 -0 -1.2 0
-0.563 0 1.056 -0 -1.2 0
-0.582 0.002 1.092 -0 -1.2 0
-0.598 -0.003 1.121 -0 -1.2 0
-0.617 -0.004 1.158 -0 -1.2 0
-0.641 0.001 1.201 -0 -1.2 0
-0.661 -0.001 1.238 -0 -1.2 0
-0.677 -0.011 1.268 -0 -1.2 0
-0.705 -0.003 1.319 -0 -1.2 0
-0.725 -0.009 1.357 -0 -1.2 0
-0.753 -0.004 1.409 -0 -1.2 0
-0.781 -0.002 1.461 -0 -1.2 0
-0.814 0.005 1.522 -0 -1.2 0
-0.839 -0.001 1.568 -0 -1.2 0
-0.872 0.001 1.629 -0 -1.2 0
-0.905 0.001 1.691 -0 -1.2 0
-0.943 0.005 1.761 -0 -1.2 0
-0.972 -0.003 1.816 -0 -1.2 0
-1.015 0.001 1.894 -0 -1.2 0
-1.053 -0.001 1.966 -0 -1.2 0
-1.1 0.001 2.053 -0 -1.2 0
-1.152 0.005 2.15 -0 -1.2 0
-1.196 -0.003 2.23 -0 -1.2 0
-1.253 -0.001 2.336 -0 -1.2 0
-1.305 -0.007 2.434 -0 -1.2 0
-1.367 -0.01 2.548 -0 -1.2 0
-1.429 -0.016 2.664 -0 -1.2 0
-1.51 -0.014 2.813 -0 -1.2 0
-1.595 -0.014 2.971 -0 -1.2 0
-1.676 -0.023 3.122 -0 -1.2 0
-1.785 -0.021 3.324 -0 -1.2 0
-1.885 -0.031 3.509 -0 -1.2 0
-2.023 -0.029 3.764 -0 -1.2 0
-2.169 -0.032 4.038 -0 -1.2 0
-2.321 -0.044 4.32 -0 -1.2 0
-2.515 -0.047 4.681 -0 -1.2 0
-2.729 -0.059 5.077 -0 -1.2 0
-2.985 -0.07 5.552 -0 -1.2 0
-3.288 -0.086 6.117 -0 -1.2 0
-3.498 -0.149 6.507 -0 -1.2 0
-3.489 -0.279 6.496 -0 -1.2 0
-3.483 -0.408 6.491 -0 -1.2 0
-3.486 -0.535 6.502 -0 -1.2 0
-3.479 -0.663 6.493 -0 -1.2 0
-3.479 -0.79 6.5 -0 -1.2 0
-3.48 -0.917 6.505 -0 -1.2 0
-3.469 -1.043 6.491 -0 -1.2 0
-3.467 -1.169 6.492 -0 -1.2 0
-3.464 -1.296 6.491 -0 -1.2 0
-3.455 -1.421 6.48 -0 -1.2 0
-3.454 -1.548 6.483 -0 -1.2 0
-3.462 -1.677 6.503 -0 -1.2 0
-3.398 -1.792 6.389 -0 -1.2 0
-3.431 -1.926 6.457 -0 -1.2 0
-3.478 -2.068 6.55 -0 -1.2 0
-3.473 -2.197 6.544 -0 -1.2 0
-3.47 -2.327 6.545 -0 -1.2 0
-3.466 -2.458 6.544 -0 -1.2 0
-3.471 -2.593 6.557 -0 -1.2 0
-3.461 -2.723 6.543 -0 -1.2 0
-3.458 -2.857 6.544 -0 -1.2 0
-3.463 -2.996 6.561 -0 -1.2 0
-3.45 -3.126 6.54 -0 -1.2 0
-3.449 -3.265 6.543 -0 -1.2 0
-3.45 -3.405 6.553 -0 -1.2 0
-3.446 -3.545 6.551 -0 -1.2 0
-3.445 -3.689 6.554 -0 -1.2 0
-3.439 -3.83 6.549 -0 -1.2 0
-3.44 -3.978 6.556 -0 -1.2 0
-3.435 -4.124 6.552 -0 -1.2 0
-3.429 -4.271 6.547 -0 -1.2 0
-3.43 -4.427 6.554 -0 -1.2 0
-3.42 -4.575 6.544 -0 -1.2 0
-3.418 -4.732 6.546 -0 -1.2 0
-3.41 -4.887 6.538 -0 -1.2 0
-3.409 -5.051 6.542 -0 -1.2 0
-3.401 -5.213 6.535 -0 -1.2 0
-3.397 -5.379 6.533 -0 -1.2 0
-3.398 -5.556 6.543 -0 -1.2 0
-3.394 -5.731 6.542 -0 -1.2 0
-3.384 -5.902 6.531 -0 -1.2 0
-3.38 -6.084 6.53 -0 -1.2 0
-3.362 -6.25 6.504 -0 -1.2 0
-3.369 -6.459 6.525 -0 -1.2 0
-3.366 -6.657 6.527 -0 -1.2 0
-3.364 -6.863 6.533 -0 -1.2 0
-3.352 -7.059 6.52 -0 -1.2 0
-3.346 -7.269 6.516 -0 -1.2 0
-3.341 -7.486 6.515 -0 -1.2 0
-3.332 -7.706 6.508 -0 -1.2 0
-3.328 -7.94 6.51 -0 -1.2 0
-3.321 -8.177 6.507 -0 -1.2 0
-0.528 0.001 1.074 -0 -1.2 0
-0.539 -0.011 1.098 -0 -1.2 0
-0.561 -0.002 1.141 -0 -1.2 0
-0.582 0.003 1.184 -0 -1.2 0
-0.597 -0.004 1.215 -0 -1.2 0
-0.619 0 1.259 -0 -1.2 0
-0.638 -0.004 1.297 -0 -1.2 0
-0.664 0.003 1.349 -0 -1.2 0
-0.687 0.003 1.394 -0 -1.2 0
-0.71 0.002 1.44 -0 -1.2 0
-0.732 -0.001 1.487 -0 -1.2 0
-0.763 0.006 1.548 -0 -1.2 0
-0.79 0.004 1.602 -0 -1.2 0
-0.825 0.013 1.671 -0 -1.2 0
-0.849 0.003 1.72 -0 -1.2 0
-0.88 0.001 1.783 -0 -1.2 0
-0.916 0.003 1.855 -0 -1.2 0
-0.951 0.003 1.927 -0 -1.2 0
-0.988 0 2 -0 -1.2 0
-1.032 0.002 2.089 -0 -1.2 0
-1.076 0.002 2.179 -0 -1.2 0
-1.125 0.002 2.277 -0 -1.2 0
-1.17 -0.003 2.368 -0 -1.2 0
-1.224 -0.005 2.476 -0 -1.2 0
-1.278 -0.012 2.584 -0 -1.2 0
-1.345 -0.01 2.718 -0 -1.2 0
-1.412 -0.015 2.853 -0 -1.2 0
-1.492 -0.016 3.014 -0 -1.2 0
-1.572 -0.021 3.176 -0 -1.2 0
-1.67 -0.021 3.373 -0 -1.2 0
-1.776 -0.024 3.587 -0 -1.2 0
-1.901 -0.024 3.838 -0 -1.2 0
-2.029 -0.032 4.099 -0 -1.2 0
-2.176 -0.041 4.395 -0 -1.2 0
-2.345 -0.05 4.735 -0 -1.2 0
-2.554 -0.057 5.156 -0 -1.2 0
-2.812 -0.061 5.675 -0 -1.2 0
-3.096 -0.077 6.249 -0 -1.2 0
-3.43 -0.1 6.921 -0 -1.2 0
-3.457 -0.227 6.981 -0 -1.2 0
-3.457 -0.363 6.986 -0 -1.2 0
-3.447 -0.499 6.972 -0 -1.2 0
-3.448 -0.633 6.981 -0 -1.2 0
-3.444 -0.767 6.979 -0 -1.2 0
-3.441 -0.902 6.975 -0 -1.2 0
-3.435 -1.035 6.97 -0 -1.2 0
-3.432 -1.168 6.971 -0 -1.2 0
-3.433 -1.302 6.979 -0 -1.2 0
-3.425 -1.435 6.967 -0 -1.2 0
-3.419 -1.569 6.962 -0 -1.2 0
-3.417 -1.703 6.963 -0 -1.2 0
-3.362 -1.826 6.857 -0 -1.2 0
-3.471 -1.988 7.086 -0 -1.2 0
-3.467 -2.125 7.08 -0 -1.2 0
-3.465 -2.263 7.083 -0 -1.2 0
-3.461 -2.402 7.082 -0 -1.2 0
-3.457 -2.541 7.079 -0 -1.2 0
-3.456 -2.682 7.084 -0 -1.2 0
-3.45 -2.822 7.077 -0 -1.2 0
-3.447 -2.964 7.076 -0 -1.2 0
-3.442 -3.107 7.074 -0 -1.2 0
-3.436 -3.25 7.068 -0 -1.2 0
-3.433 -3.396 7.068 -0 -1.2 0
-3.429 -3.543 7.068 -0 -1.2 0
-3.424 -3.69 7.063 -0 -1.2 0
-3.418 -3.838 7.057 -0 -1.2 0
-3.418 -3.994 7.065 -0 -1.2 0
-3.414 -4.146 7.062 -0 -1.2 0
-3.411 -4.304 7.064 -0 -1.2 0
-3.408 -4.462 7.063 -0 -1.2 0
-3.403 -4.622 7.06 -0 -1.2 0
-3.401 -4.786 7.062 -0 -1.2 0
-3.397 -4.951 7.061 -0 -1.2 0
-3.395 -5.123 7.065 -0 -1.2 0
-3.387 -5.29 7.058 -0 -1.2 0
-3.382 -5.464 7.055 -0 -1.2 0
-3.38 -5.643 7.056 -0 -1.2 0
-3.371 -5.819 7.047 -0 -1.2 0
-3.361 -5.995 7.034 -0 -1.2 0
-3.36 -6.189 7.04 -0 -1.2 0
-3.353 -6.379 7.036 -0 -1.2 0
-3.349 -6.576 7.034 -0 -1.2 0
-3.341 -6.775 7.028 -0 -1.2 0
-3.342 -6.993 7.04 -0 -1.2 0
-3.337 -7.207 7.039 -0 -1.2 0
-3.331 -7.423 7.035 -0 -1.2 0
-3.322 -7.64 7.025 -0 -1.2 0
-3.317 -7.872 7.024 -0 -1.2 0
-3.28 -8.045 6.959 -0 -1.2 0
-3.273 -8.287 6.955 -0 -1.2 0
-3.209 -8.404 6.83 -0 -1.2 0
-0.492 0.002 1.091 -0 -1.2 0
-0.508 0.003 1.128 -0 -1.2 0
-0.522 -0.001 1.159 -0 -1.2 0
-0.543 0.004 1.203 -0 -1.2 0
-0.557 -0.003 1.234 -0 -1.2 0
-0.58 0.007 1.286 -0 -1.2 0
-0.595 -0.003 1.317 -0 -1.2 0
-0.619 0.004 1.37 -0 -1.2 0
-0.64 0.004 1.417 -0 -1.2 0
-0.658 -0.002 1.456 -0 -1.2 0
-0.686 0.005 1.518 -0 -1.2 0
-0.711 0.007 1.573 -0 -1.2 0
-0.736 0.005 1.628 -0 -1.2 0
-0.765 0.008 1.691 -0 -1.2 0
-0.791 0.004 1.748 -0 -1.2 0
-0.82 0.002 1.812 -0 -1.2 0
-0.857 0.009 1.893 -0 -1.2 0
-0.887 0.004 1.958 -0 -1.2 0
-0.92 0.001 2.032 -0 -1.2 0
-0.965 0.008 2.131 -0 -1.2 0
-1.003 0.004 2.214 -0 -1.2 0
-1.041 -0.003 2.297 -0 -1.2 0
-1.091 -0.001 2.406 -0 -1.2 0
-1.141 -0.003 2.515 -0 -1.2 0
-1.195 -0.006 2.634 -0 -1.2 0
-1.253 -0.009 2.762 -0 -1.2 0
-1.319 -0.01 2.907 -0 -1.2 0
-1.386 -0.016 3.054 -0 -1.2 0
-1.465 -0.019 3.227 -0 -1.2 0
-1.556 -0.019 3.427 -0 -1.2 0
-1.652 -0.023 3.636 -0 -1.2 0
-1.768 -0.024 3.891 -0 -1.2 0
-1.891 -0.029 4.165 -0 -1.2 0
-2.032 -0.036 4.474 -0 -1.2 0
-2.19 -0.045 4.82 -0 -1.2 0
-2.393 -0.048 5.266 -0 -1.2 0
-2.621 -0.057 5.766 -0 -1.2 0
-2.891 -0.071 6.358 -0 -1.2 0
-3.23 -0.085 7.105 -0 -1.2 0
-3.421 -0.167 7.527 -0 -1.2 0
-3.404 -0.315 7.497 -0 -1.2 0
-3.398 -0.459 7.491 -0 -1.2 0
-3.4 -0.6 7.501 -0 -1.2 0
-3.397 -0.743 7.5 -0 -1.2 0
-3.392 -0.885 7.497 -0 -1.2 0
-3.387 -1.026 7.491 -0 -1.2 0
-3.384 -1.167 7.493 -0 -1.2 0
-3.385 -1.309 7.5 -0 -1.2 0
-3.376 -1.45 7.488 -0 -1.2 0
-3.375 -1.592 7.492 -0 -1.2 0
-3.34 -1.727 7.42 -0 -1.2 0
-3.316 -1.864 7.374 -0 -1.2 0
-3.423 -2.034 7.615 -0 -1.2 0
-3.421 -2.18 7.618 -0 -1.2 0
-3.418 -2.327 7.62 -0 -1.2 0
-3.411 -2.472 7.609 -0 -1.2 0
-3.41 -2.621 7.614 -0 -1.2 0
-3.408 -2.77 7.617 -0 -1.2 0
-3.401 -2.918 7.608 -0 -1.2 0
-3.397 -3.068 7.606 -0 -1.2 0
-3.387 -3.216 7.593 -0 -1.2 0
-3.389 -3.372 7.602 -0 -1.2 0
-3.381 -3.523 7.593 -0 -1.2 0
-3.38 -3.681 7.598 -0 -1.2 0
-3.378 -3.84 7.6 -0 -1.2 0
-3.375 -3.999 7.599 -0 -1.2 0
-3.37 -4.159 7.596 -0 -1.2 0
-3.364 -4.32 7.59 -0 -1.2 0
-3.364 -4.489 7.599 -0 -1.2 0
-3.362 -4.66 7.603 -0 -1.2 0
-3.36 -4.831 7.604 -0 -1.2 0
-3.348 -4.995 7.587 -0 -1.2 0
-3.343 -5.168 7.582 -0 -1.2 0
-3.343 -5.352 7.591 -0 -1.2 0
-3.334 -5.527 7.58 -0 -1.2 0
-3.328 -5.71 7.573 -0 -1.2 0
-3.322 -5.897 7.571 -0 -1.2 0
-3.316 -6.085 7.565 -0 -1.2 0
-3.307 -6.275 7.555 -0 -1.2 0
-3.308 -6.482 7.564 -0 -1.2 0
-3.302 -6.686 7.562 -0 -1.2 0
-3.295 -6.891 7.555 -0 -1.2 0
-3.293 -7.109 7.559 -0 -1.2 0
-3.281 -7.317 7.543 -0 -1.2 0
-3.274 -7.538 7.538 -0 -1.2 0
-3.271 -7.774 7.542 -0 -1.2 0
-3.247 -7.972 7.499 -0 -1.2 0
-3.233 -8.198 7.479 -0 -1.2 0
-3.2 -8.384 7.414 -0 -1.2 0
-3.093 -8.399 7.178 -0 -1.2 0
-2.989 -8.413 6.95 -0 -1.2 0
-0.456 0.01 1.114 -0 -1.2 0
-0.468 0.004 1.146 -0 -1.2 0
-0.483 0.005 1.184 -0 -1.2 0
-0.499 0.005 1.222 -0 -1.2 0
-0.512 -0.002 1.253 -0 -1.2 0
-0.534 0.008 1.305 -0 -1.2 0
-0.55 0.004 1.345 -0 -1.2 0
-0.569 0.005 1.392 -0 -1.2 0
-0.589 0.005 1.439 -0 -1.2 0
-0.605 -0.001 1.479 -0 -1.2 0
-0.628 0 1.534 -0 -1.2 0
-0.651 0.002 1.59 -0 -1.2 0
-0.674 0.002 1.646 -0 -1.2 0
-0.701 0.004 1.71 -0 -1.2 0
-0.724 0 1.767 -0 -1.2 0
-0.751 0 1.832 -0 -1.2 0
-0.782 0 1.906 -0 -1.2 0
-0.812 0 1.981 -0 -1.2 0
-0.847 0.002 2.064 -0 -1.2 0
-0.888 0.009 2.164 -0 -1.2 0
-0.923 0.005 2.248 -0 -1.2 0
-0.961 0.001 2.342 -0 -1.2 0
-1 -0.004 2.435 -0 -1.2 0
-1.05 -0.001 2.555 -0 -1.2 0
-1.099 -0.004 2.676 -0 -1.2 0
-1.153 -0.007 2.805 -0 -1.2 0
-1.21 -0.011 2.945 -0 -1.2 0
-1.275 -0.014 3.102 -0 -1.2 0
-1.348 -0.016 3.278 -0 -1.2 0
-1.428 -0.019 3.472 -0 -1.2 0
-1.516 -0.024 3.685 -0 -1.2 0
-1.623 -0.024 3.943 -0 -1.2 0
-1.732 -0.03 4.212 -0 -1.2 0
-1.862 -0.036 4.527 -0 -1.2 0
-2.011 -0.043 4.887 -0 -1.2 0
-2.198 -0.045 5.34 -0 -1.2 0
-2.404 -0.057 5.839 -0 -1.2 0
-2.667 -0.063 6.476 -0 -1.2 0
-2.983 -0.075 7.244 -0 -1.2 0
-3.327 -0.108 8.076 -0 -1.2 0
-3.338 -0.257 8.111 -0 -1.2 0
-3.333 -0.41 8.106 -0 -1.2 0
-3.334 -0.561 8.117 -0 -1.2 0
-3.323 -0.714 8.098 -0 -1.2 0
-3.319 -0.865 8.095 -0 -1.2 0
-3.318 -1.015 8.098 -0 -1.2 0
-3.311 -1.165 8.091 -0 -1.2 0
-3.312 -1.316 8.099 -0 -1.2 0
-3.303 -1.466 8.086 -0 -1.2 0
-3.302 -1.617 8.089 -0 -1.2 0
-3.249 -1.758 7.971 -0 -1.2 0
-3.276 -1.914 8.042 -0 -1.2 0
-3.347 -2.087 8.222 -0 -1.2 0
-3.345 -2.243 8.225 -0 -1.2 0
-3.342 -2.399 8.224 -0 -1.2 0
-3.334 -2.553 8.212 -0 -1.2 0
-3.332 -2.711 8.216 -0 -1.2 0
-3.333 -2.871 8.226 -0 -1.2 0
-3.326 -3.028 8.216 -0 -1.2 0
-3.321 -3.187 8.211 -0 -1.2 0
-3.318 -3.35 8.214 -0 -1.2 0
-3.315 -3.513 8.213 -0 -1.2 0
-3.31 -3.676 8.209 -0 -1.2 0
-3.304 -3.84 8.203 -0 -1.2 0
-3.301 -4.008 8.203 -0 -1.2 0
-3.296 -4.176 8.199 -0 -1.2 0
-3.29 -4.346 8.193 -0 -1.2 0
-3.286 -4.52 8.192 -0 -1.2 0
-3.281 -4.694 8.188 -0 -1.2 0
-3.282 -4.876 8.198 -0 -1.2 0
-3.277 -5.057 8.196 -0 -1.2 0
-3.272 -5.239 8.191 -0 -1.2 0
-3.261 -5.417 8.174 -0 -1.2 0
-3.259 -5.61 8.178 -0 -1.2 0
-3.255 -5.803 8.179 -0 -1.2 0
-3.247 -5.994 8.167 -0 -1.2 0
-3.243 -6.195 8.169 -0 -1.2 0
-3.235 -6.392 8.158 -0 -1.2 0
-3.225 -6.591 8.142 -0 -1.2 0
-3.225 -6.812 8.155 -0 -1.2 0
-3.218 -7.025 8.146 -0 -1.2 0
-3.212 -7.244 8.142 -0 -1.2 0
-3.207 -7.471 8.14 -0 -1.2 0
-3.202 -7.706 8.141 -0 -1.2 0
-3.193 -7.936 8.128 -0 -1.2 0
-3.158 -8.117 8.053 -0 -1.2 0
-3.144 -8.349 8.032 -0 -1.2 0
-3.047 -8.385 7.797 -0 -1.2 0
-2.939 -8.386 7.535 -0 -1.2 0
-2.901 -8.559 7.451 -0 -1.2 0
-2.814 -8.604 7.244 -0 -1.2 0
-0.415 0.003 1.123 -0 -1.2 0
-0.429 0.005 1.161 -0 -1.2 0
-0.444 0.006 1.199 -0 -1.2 0
-0.456 0 1.231 -0 -1.2 0
-0.473 0.004 1.277 -0 -1.2 0
-0.488 0.002 1.316 -0 -1.2 0
-0.505 0.005 1.363 -0 -1.2 0
-0.523 0.006 1.41 -0 -1.2 0
-0.541 0.006 1.458 -0 -1.2 0
-0.561 0.011 1.512 -0 -1.2 0
-0.577 0.001 1.554 -0 -1.2 0
-0.598 0.003 1.611 -0 -1.2 0
-0.622 0.008 1.675 -0 -1.2 0
-0.643 0.005 1.733 -0 -1.2 0
-0.668 0.006 1.799 -0 -1.2 0
-0.69 0 1.857 -0 -1.2 0
-0.715 -0.001 1.923 -0 -1.2 0
-0.749 0.007 2.015 -0 -1.2 0
-0.774 -0.001 2.083 -0 -1.2 0
-0.812 0.007 2.184 -0 -1.2 0
-0.847 0.007 2.278 -0 -1.2 0
-0.883 0.003 2.372 -0 -1.2 0
-0.918 -0.002 2.467 -0 -1.2 0
-0.961 -0.004 2.58 -0 -1.2 0
-1.006 -0.006 2.702 -0 -1.2 0
-1.055 -0.009 2.834 -0 -1.2 0
-1.108 -0.012 2.975 -0 -1.2 0
-1.168 -0.015 3.134 -0 -1.2 0
-1.234 -0.017 3.312 -0 -1.2 0
-1.305 -0.023 3.5 -0 -1.2 0
-1.389 -0.024 3.724 -0 -1.2 0
-1.483 -0.026 3.977 -0 -1.2 0
-1.591 -0.027 4.267 -0 -1.2 0
-1.71 -0.033 4.586 -0 -1.2 0
-1.854 -0.036 4.97 -0 -1.2 0
-2.015 -0.044 5.401 -0 -1.2 0
-2.214 -0.049 5.935 -0 -1.2 0
-2.456 -0.056 6.58 -0 -1.2 0
-2.76 -0.063 7.396 -0 -1.2 0
-3.138 -0.075 8.407 -0 -1.2 0
-3.285 -0.189 8.806 -0 -1.2 0
-3.277 -0.355 8.792 -0 -1.2 0
-3.275 -0.517 8.794 -0 -1.2 0
-3.268 -0.68 8.785 -0 -1.2 0
-3.264 -0.842 8.783 -0 -1.2 0
-3.256 -1.003 8.767 -0 -1.2 0
-3.25 -1.164 8.76 -0 -1.2 0
-3.25 -1.325 8.768 -0 -1.2 0
-3.242 -1.486 8.754 -0 -1.2 0
-3.239 -1.647 8.757 -0 -1.2 0
-3.181 -1.797 8.608 -0 -1.2 0
-3.291 -1.986 8.913 -0 -1.2 0
-3.29 -2.152 8.917 -0 -1.2 0
-3.287 -2.318 8.919 -0 -1.2 0
-3.283 -2.485 8.917 -0 -1.2 0
-3.281 -2.654 8.921 -0 -1.2 0
-3.275 -2.821 8.914 -0 -1.2 0
-3.272 -2.99 8.914 -0 -1.2 0
-3.264 -3.158 8.901 -0 -1.2 0
-3.259 -3.328 8.895 -0 -1.2 0
-3.254 -3.501 8.894 -0 -1.2 0
-3.25 -3.674 8.89 -0 -1.2 0
-3.248 -3.851 8.893 -0 -1.2 0
-3.244 -4.029 8.893 -0 -1.2 0
-3.239 -4.207 8.889 -0 -1.2 0
-3.234 -4.386 8.882 -0 -1.2 0
-3.226 -4.567 8.872 -0 -1.2 0
-3.221 -4.751 8.868 -0 -1.2 0
-3.218 -4.94 8.869 -0 -1.2 0
-3.213 -5.13 8.866 -0 -1.2 0
-3.204 -5.316 8.851 -0 -1.2 0
-3.2 -5.512 8.851 -0 -1.2 0
-3.195 -5.709 8.845 -0 -1.2 0
-3.187 -5.907 8.836 -0 -1.2 0
-3.178 -6.107 8.823 -0 -1.2 0
-3.175 -6.317 8.823 -0 -1.2 0
-3.172 -6.533 8.827 -0 -1.2 0
-3.164 -6.746 8.818 -0 -1.2 0
-3.158 -6.965 8.814 -0 -1.2 0
-3.153 -7.192 8.811 -0 -1.2 0
-3.143 -7.414 8.797 -0 -1.2 0
-3.137 -7.649 8.793 -0 -1.2 0
-3.132 -7.892 8.792 -0 -1.2 0
-3.101 -8.083 8.718 -0 -1.2 0
-3.087 -8.316 8.692 -0 -1.2 0
-3.003 -8.385 8.472 -0 -1.2 0
-2.897 -8.389 8.188 -0 -1.2 0
-2.847 -8.532 8.061 -0 -1.2 0
-2.766 -8.59 7.849 -0 -1.2 0
-2.695 -8.67 7.664 -0 -1.2 0
-0.378 0.004 1.136 -0 -1.2 0
-0.391 0.005 1.175 -0 -1.2 0
-0.404 0.007 1.213 -0 -1.2 0
-0.417 0.006 1.253 -0 -1.2 0
-0.433 0.012 1.298 -0 -1.2 0
-0.444 0.002 1.332 -0 -1.2 0
-0.46 0.006 1.379 -0 -1.2 0
-0.476 0.007 1.427 -0 -1.2 0
-0.492 0.007 1.475 -0 -1.2 0
-0.511 0.012 1.53 -0 -1.2 0
-0.525 0.002 1.573 -0 -1.2 0
-0.541 -0.001 1.622 -0 -1.2 0
-0.566 0.009 1.695 -0 -1.2 0
-0.583 0.001 1.745 -0 -1.2 0
-0.605 0.002 1.812 -0 -1.2 0
-0.63 0.006 1.887 -0 -1.2 0
-0.653 0.003 1.954 -0 -1.2 0
-0.679 0.003 2.031 -0 -1.2 0
-0.705 0 2.107 -0 -1.2 0
-0.734 0 2.193 -0 -1.2 0
-0.771 0.008 2.305 -0 -1.2 0
-0.803 0.004 2.401 -0 -1.2 0
-0.839 0.003 2.505 -0 -1.2 0
-0.871 -0.006 2.602 -0 -1.2 0
-0.916 -0.005 2.734 -0 -1.2 0
-0.958 -0.01 2.858 -0 -1.2 0
-1.006 -0.014 3.001 -0 -1.2 0
-1.066 -0.01 3.18 -0 -1.2 0
-1.123 -0.015 3.351 -0 -1.2 0
-1.19 -0.018 3.55 -0 -1.2 0
-1.267 -0.019 3.778 -0 -1.2 0
-1.346 -0.026 4.015 -0 -1.2 0
-1.451 -0.022 4.327 -0 -1.2 0
-1.55 -0.035 4.623 -0 -1.2 0
-1.693 -0.029 5.048 -0 -1.2 0
-1.84 -0.037 5.484 -0 -1.2 0
-2.025 -0.041 6.033 -0 -1.2 0
-2.248 -0.046 6.696 -0 -1.2 0
-2.528 -0.052 7.53 -0 -1.2 0
-2.894 -0.056 8.62 -0 -1.2 0
-3.213 -0.115 9.57 -0 -1.2 0
-3.206 -0.292 9.558 -0 -1.2 0
-3.204 -0.467 9.561 -0 -1.2 0
-3.194 -0.642 9.542 -0 -1.2 0
-3.19 -0.816 9.54 -0 -1.2 0
-3.189 -0.989 9.545 -0 -1.2 0
-3.186 -1.162 9.546 -0 -1.2 0
-3.178 -1.335 9.535 -0 -1.2 0
-3.171 -1.508 9.522 -0 -1.2 0
-3.159 -1.681 9.495 -0 -1.2 0
-3.115 -1.844 9.372 -0 -1.2 0
-3.221 -2.047 9.7 -0 -1.2 0
-3.219 -2.226 9.701 -0 -1.2 0
-3.211 -2.403 9.692 -0 -1.2 0
-3.204 -2.582 9.679 -0 -1.2 0
-3.199 -2.76 9.673 -0 -1.2 0
-3.195 -2.941 9.673 -0 -1.2 0
-3.188 -3.121 9.661 -0 -1.2 0
-3.186 -3.304 9.664 -0 -1.2 0
-3.179 -3.487 9.655 -0 -1.2 0
-3.175 -3.671 9.652 -0 -1.2 0
-3.172 -3.86 9.655 -0 -1.2 0
-3.169 -4.049 9.655 -0 -1.2 0
-3.169 -4.245 9.669 -0 -1.2 0
-3.161 -4.432 9.652 -0 -1.2 0
-3.153 -4.623 9.642 -0 -1.2 0
-3.151 -4.822 9.645 -0 -1.2 0
-3.144 -5.018 9.637 -0 -1.2 0
-3.143 -5.223 9.641 -0 -1.2 0
-3.133 -5.421 9.625 -0 -1.2 0
-3.125 -5.624 9.614 -0 -1.2 0
-3.123 -5.836 9.616 -0 -1.2 0
-3.115 -6.045 9.605 -0 -1.2 0
-3.111 -6.264 9.607 -0 -1.2 0
-3.104 -6.48 9.597 -0 -1.2 0
-3.1 -6.708 9.598 -0 -1.2 0
-3.097 -6.941 9.604 -0 -1.2 0
-3.093 -7.177 9.604 -0 -1.2 0
-3.082 -7.404 9.584 -0 -1.2 0
-3.075 -7.643 9.575 -0 -1.2 0
-3.068 -7.889 9.568 -0 -1.2 0
-3.037 -8.084 9.486 -0 -1.2 0
-3.024 -8.326 9.462 -0 -1.2 0
-2.935 -8.38 9.199 -0 -1.2 0
-2.829 -8.385 8.884 -0 -1.2 0
-2.783 -8.538 8.755 -0 -1.2 0
-2.699 -8.586 8.508 -0 -1.2 0
-2.629 -8.665 8.305 -0 -1.2 0
-0.337 0.005 1.149 -0 -1.2 0
-0.349 0.006 1.188 -0 -1.2 0
-0.358 0.001 1.22 -0 -1.2 0
-0.372 0.007 1.267 -0 -1.2 0
-0.386 0.013 1.313 -0 -1.2 0
-0.398 0.01 1.353 -0 -1.2 0
-0.41 0.007 1.395 -0 -1.2 0
-0.427 0.015 1.45 -0 -1.2 0
-0.439 0.008 1.492 -0 -1.2 0
-0.454 0.007 1.541 -0 -1.2 0
-0.468 0.003 1.591 -0 -1.2 0
-0.485 0.005 1.648 -0 -1.2 0
-0.5 0 1.698 -0 -1.2 0
-0.523 0.008 1.773 -0 -1.2 0
-0.543 0.008 1.841 -0 -1.2 0
-0.563 0.007 1.908 -0 -1.2 0
-0.583 0.004 1.977 -0 -1.2 0
-0.608 0.009 2.062 -0 -1.2 0
-0.629 0.001 2.131 -0 -1.2 0
-0.655 0 2.218 -0 -1.2 0
-0.686 0.005 2.323 -0 -1.2 0
-0.714 0.002 2.419 -0 -1.2 0
-0.743 -0.003 2.516 -0 -1.2 0
-0.78 0 2.641 -0 -1.2 0
-0.817 -0.003 2.765 -0 -1.2 0
-0.855 -0.008 2.891 -0 -1.2 0
-0.903 -0.005 3.053 -0 -1.2 0
-0.949 -0.011 3.207 -0 -1.2 0
-1.003 -0.013 3.39 -0 -1.2 0
-1.06 -0.019 3.582 -0 -1.2 0
-1.125 -0.022 3.802 -0 -1.2 0
-1.205 -0.02 4.07 -0 -1.2 0
-1.292 -0.022 4.367 -0 -1.2 0
-1.383 -0.032 4.675 -0 -1.2 0
-1.503 -0.032 5.077 -0 -1.2 0
-1.645 -0.032 5.556 -0 -1.2 0
-1.81 -0.035 6.112 -0 -1.2 0
-2.015 -0.037 6.801 -0 -1.2 0
-2.274 -0.038 7.673 -0 -1.2 0
-2.598 -0.044 8.765 -0 -1.2 0
-3.019 -0.056 10.185 -0 -1.2 0
-3.104 -0.217 10.478 -0 -1.2 0
-3.095 -0.407 10.464 -0 -1.2 0
-3.087 -0.597 10.446 -0 -1.2 0
-3.08 -0.786 10.435 -0 -1.2 0
-3.078 -0.973 10.44 -0 -1.2 0
-3.072 -1.16 10.431 -0 -1.2 0
-3.071 -1.348 10.439 -0 -1.2 0
-3.061 -1.535 10.415 -0 -1.2 0
-3.024 -1.717 10.302 -0 -1.2 0
-3.035 -1.906 10.348 -0 -1.2 0
-3.1 -2.116 10.583 -0 -1.2 0
-3.103 -2.311 10.603 -0 -1.2 0
-3.093 -2.501 10.582 -0 -1.2 0
-3.088 -2.694 10.577 -0 -1.2 0
-3.085 -2.889 10.579 -0 -1.2 0
-3.078 -3.083 10.567 -0 -1.2 0
-3.076 -3.28 10.571 -0 -1.2 0
-3.067 -3.475 10.552 -0 -1.2 0
-3.068 -3.678 10.569 -0 -1.2 0
-3.062 -3.877 10.562 -0 -1.2 0
-3.061 -4.082 10.57 -0 -1.2 0
-3.057 -4.286 10.566 -0 -1.2 0
-3.053 -4.493 10.567 -0 -1.2 0
