# .PCD v.7 - Point Cloud Data file format
FIELDS x y z vp_x vp_y vp_z
SIZE 4 4 4 4 4 4
TYPE F F F F F F
COUNT 1 1 1 1 1 1
WIDTH 1556
HEIGHT 1
VIEWPOINT 0 -1.2001 0 1 0 0 0
POINTS 1556
DATA ascii
-0.924 -0.025 -1.352 -0 -1.2 0
-0.954 -0.031 -1.406 -0 -1.2 0
-0.989 -0.036 -1.467 -0 -1.2 0
-1.025 -0.041 -1.529 -0 -1.2 0
-1.069 -0.039 -1.607 -0 -1.2 0
-1.105 -0.049 -1.669 -0 -1.2 0
-1.16 -0.045 -1.764 -0 -1.2 0
-1.2 -0.056 -1.834 -0 -1.2 0
-1.255 -0.058 -1.93 -0 -1.2 0
-1.309 -0.063 -2.026 -0 -1.2 0
-1.37 -0.069 -2.131 -0 -1.2 0
-1.425 -0.082 -2.228 -0 -1.2 0
-1.494 -0.088 -2.35 -0 -1.2 0
-1.569 -0.096 -2.48 -0 -1.2 0
-1.654 -0.104 -2.627 -0 -1.2 0
-1.733 -0.119 -2.767 -0 -1.2 0
-1.839 -0.127 -2.95 -0 -1.2 0
-1.952 -0.137 -3.148 -0 -1.2 0
-2.077 -0.151 -3.366 -0 -1.2 0
-2.201 -0.172 -3.584 -0 -1.2 0
-2.35 -0.193 -3.844 -0 -1.2 0
-2.524 -0.215 -4.148 -0 -1.2 0
-2.737 -0.237 -4.521 -0 -1.2 0
-2.991 -0.261 -4.962 -0 -1.2 0
-3.294 -0.292 -5.491 -0 -1.2 0
-3.675 -0.326 -6.158 -0 -1.2 0
-4.132 -0.374 -6.956 -0 -1.2 0
-4.792 -0.425 -8.109 -0 -1.2 0
-5.81 -0.484 -9.885 -0 -1.2 0
-7.245 -0.584 -12.39 -0 -1.2 0
-10.138 -0.73 -17.436 -0 -1.2 0
-8.872 -4.238 -15.337 -0 -1.2 0
-11.278 -5.917 -19.583 -0 -1.2 0
-9.59 -5.552 -16.63 -0 -1.2 0
-10.401 -6.711 -18.078 -0 -1.2 0
-9.572 -6.63 -16.629 -0 -1.2 0
-9.06 -6.684 -15.739 -0 -1.2 0
-8.058 -6.7 -13.993 -0 -1.2 0
-8.338 -7.229 -14.498 -0 -1.2 0
-8.289 -7.53 -14.421 -0 -1.2 0
-8.155 -7.762 -14.195 -0 -1.2 0
-7.798 -7.795 -13.573 -0 -1.2 0
-0.628 -0.012 -0.739 -0 -1.2 0
-0.654 -0.004 -0.781 -0 -1.2 0
-0.671 -0.012 -0.809 -0 -1.2 0
-0.698 -0.007 -0.85 -0 -1.2 0
-0.715 -0.016 -0.88 -0 -1.2 0
-0.745 -0.007 -0.929 -0 -1.2 0
-0.768 -0.013 -0.965 -0 -1.2 0
-0.795 -0.013 -1.008 -0 -1.2 0
-0.821 -0.015 -1.051 -0 -1.2 0
-0.848 -0.018 -1.096 -0 -1.2 0
-0.881 -0.017 -1.146 -0 -1.2 0
-0.917 -0.013 -1.206 -0 -1.2 0
-0.944 -0.02 -1.25 -0 -1.2 0
-0.977 -0.025 -1.303 -0 -1.2 0
-1.009 -0.032 -1.355 -0 -1.2 0
-1.051 -0.031 -1.423 -0 -1.2 0
-1.084 -0.041 -1.477 -0 -1.2 0
-1.125 -0.044 -1.545 -0 -1.2 0
-1.173 -0.045 -1.621 -0 -1.2 0
-1.221 -0.049 -1.699 -0 -1.2 0
-1.273 -0.052 -1.784 -0 -1.2 0
-1.322 -0.062 -1.862 -0 -1.2 0
-1.379 -0.067 -1.956 -0 -1.2 0
-1.442 -0.072 -2.059 -0 -1.2 0
-1.507 -0.082 -2.162 -0 -1.2 0
-1.575 -0.091 -2.273 -0 -1.2 0
-1.659 -0.096 -2.409 -0 -1.2 0
-1.738 -0.11 -2.537 -0 -1.2 0
-1.827 -0.122 -2.683 -0 -1.2 0
-1.927 -0.134 -2.844 -0 -1.2 0
-2.043 -0.147 -3.031 -0 -1.2 0
-2.169 -0.162 -3.236 -0 -1.2 0
-2.321 -0.174 -3.483 -0 -1.2 0
-2.469 -0.199 -3.721 -0 -1.2 0
-2.652 -0.22 -4.019 -0 -1.2 0
-2.867 -0.244 -4.368 -0 -1.2 0
-3.129 -0.27 -4.793 -0 -1.2 0
-3.444 -0.3 -5.302 -0 -1.2 0
-3.832 -0.338 -5.932 -0 -1.2 0
-4.32 -0.382 -6.722 -0 -1.2 0
-4.939 -0.443 -7.725 -0 -1.2 0
-5.989 -0.5 -9.424 -0 -1.2 0
-7.6 -0.587 -12.033 -0 -1.2 0
-10.42 -0.741 -16.599 -0 -1.2 0
-12.92 -5.867 -20.774 -0 -1.2 0
-11.438 -6.12 -18.383 -0 -1.2 0
-10.599 -6.125 -17.027 -0 -1.2 0
-10.619 -6.514 -17.068 -0 -1.2 0
-9.011 -6.018 -14.454 -0 -1.2 0
-9.905 -6.869 -15.922 -0 -1.2 0
-10.339 -7.503 -16.639 -0 -1.2 0
-9.347 -7.236 -15.028 -0 -1.2 0
-9.226 -7.505 -14.84 -0 -1.2 0
-8.93 -7.641 -14.362 -0 -1.2 0
-8.338 -7.53 -13.403 -0 -1.2 0
-8.965 -8.37 -14.439 -0 -1.2 0
-0.664 -0.012 -0.699 -0 -1.2 0
-0.692 -0.004 -0.739 -0 -1.2 0
-0.714 -0.005 -0.774 -0 -1.2 0
-0.737 -0.007 -0.808 -0 -1.2 0
-0.761 -0.009 -0.843 -0 -1.2 0
-0.78 -0.02 -0.872 -0 -1.2 0
-0.812 -0.013 -0.92 -0 -1.2 0
-0.84 -0.013 -0.962 -0 -1.2 0
-0.869 -0.015 -1.005 -0 -1.2 0
-0.897 -0.019 -1.047 -0 -1.2 0
-0.926 -0.022 -1.091 -0 -1.2 0
-0.96 -0.023 -1.141 -0 -1.2 0
-0.998 -0.021 -1.199 -0 -1.2 0
-1.032 -0.026 -1.25 -0 -1.2 0
-1.072 -0.027 -1.308 -0 -1.2 0
-1.106 -0.036 -1.36 -0 -1.2 0
-1.146 -0.041 -1.42 -0 -1.2 0
-1.19 -0.044 -1.486 -0 -1.2 0
-1.23 -0.053 -1.546 -0 -1.2 0
-1.29 -0.049 -1.636 -0 -1.2 0
-1.341 -0.056 -1.712 -0 -1.2 0
-1.397 -0.062 -1.796 -0 -1.2 0
-1.454 -0.071 -1.88 -0 -1.2 0
-1.515 -0.08 -1.973 -0 -1.2 0
-1.593 -0.082 -2.089 -0 -1.2 0
-1.66 -0.095 -2.19 -0 -1.2 0
-1.748 -0.1 -2.323 -0 -1.2 0
-1.833 -0.112 -2.448 -0 -1.2 0
-1.922 -0.127 -2.583 -0 -1.2 0
-2.027 -0.14 -2.741 -0 -1.2 0
-2.149 -0.152 -2.924 -0 -1.2 0
-2.261 -0.175 -3.091 -0 -1.2 0
-2.41 -0.191 -3.315 -0 -1.2 0
-2.593 -0.204 -3.59 -0 -1.2 0
-2.771 -0.23 -3.856 -0 -1.2 0
-3.004 -0.252 -4.204 -0 -1.2 0
-3.254 -0.284 -4.579 -0 -1.2 0
-3.575 -0.315 -5.06 -0 -1.2 0
-3.991 -0.349 -5.683 -0 -1.2 0
-4.468 -0.398 -6.397 -0 -1.2 0
-5.155 -0.45 -7.427 -0 -1.2 0
-6.136 -0.518 -8.897 -0 -1.2 0
-7.796 -0.603 -11.38 -0 -1.2 0
-10.731 -0.75 -15.776 -0 -1.2 0
-10.2 -5.328 -15.076 -0 -1.2 0
-9.523 -6.01 -14.076 -0 -1.2 0
-9.688 -6.428 -14.332 -0 -1.2 0
-10.741 -7.382 -15.927 -0 -1.2 0
-10.618 -7.684 -15.749 -0 -1.2 0
-9.475 -7.312 -14.031 -0 -1.2 0
-11.715 -9.207 -17.422 -0 -1.2 0
-8.698 -7.433 -12.871 -0 -1.2 0
-9.004 -7.992 -13.34 -0 -1.2 0
-10.742 -9.731 -15.977 -0 -1.2 0
-11.848 -11.078 -17.659 -0 -1.2 0
-0.696 -0.011 -0.66 -0 -1.2 0
-0.72 -0.011 -0.693 -0 -1.2 0
-0.74 -0.019 -0.72 -0 -1.2 0
-0.768 -0.014 -0.76 -0 -1.2 0
-0.797 -0.009 -0.8 -0 -1.2 0
-0.816 -0.02 -0.828 -0 -1.2 0
-0.846 -0.019 -0.869 -0 -1.2 0
-0.876 -0.019 -0.91 -0 -1.2 0
-0.91 -0.015 -0.958 -0 -1.2 0
-0.935 -0.023 -0.993 -0 -1.2 0
-0.97 -0.022 -1.042 -0 -1.2 0
-1.005 -0.023 -1.092 -0 -1.2 0
-1.041 -0.026 -1.141 -0 -1.2 0
-1.077 -0.03 -1.191 -0 -1.2 0
-1.118 -0.031 -1.248 -0 -1.2 0
-1.159 -0.036 -1.306 -0 -1.2 0
-1.201 -0.041 -1.364 -0 -1.2 0
-1.242 -0.048 -1.422 -0 -1.2 0
-1.295 -0.049 -1.495 -0 -1.2 0
-1.353 -0.049 -1.576 -0 -1.2 0
-1.401 -0.06 -1.643 -0 -1.2 0
-1.454 -0.07 -1.717 -0 -1.2 0
-1.518 -0.075 -1.807 -0 -1.2 0
-1.577 -0.086 -1.889 -0 -1.2 0
-1.647 -0.095 -1.987 -0 -1.2 0
-1.729 -0.101 -2.101 -0 -1.2 0
-1.81 -0.112 -2.216 -0 -1.2 0
-1.91 -0.118 -2.354 -0 -1.2 0
-1.992 -0.138 -2.469 -0 -1.2 0
-2.092 -0.155 -2.608 -0 -1.2 0
-2.208 -0.171 -2.77 -0 -1.2 0
-2.342 -0.186 -2.958 -0 -1.2 0
-2.482 -0.207 -3.153 -0 -1.2 0
-2.662 -0.223 -3.404 -0 -1.2 0
-2.86 -0.244 -3.681 -0 -1.2 0
-3.069 -0.273 -3.973 -0 -1.2 0
-3.343 -0.3 -4.355 -0 -1.2 0
-3.662 -0.333 -4.801 -0 -1.2 0
-4.07 -0.369 -5.369 -0 -1.2 0
-4.563 -0.415 -6.059 -0 -1.2 0
-5.197 -0.475 -6.943 -0 -1.2 0
-6.093 -0.548 -8.193 -0 -1.2 0
-7.85 -0.621 -10.644 -0 -1.2 0
-11.016 -0.755 -15.062 -0 -1.2 0
-10.577 -5.949 -14.537 -0 -1.2 0
-9.901 -6.282 -13.6 -0 -1.2 0
-10.005 -6.669 -13.751 -0 -1.2 0
-11.371 -7.811 -15.675 -0 -1.2 0
-10.753 -7.81 -14.813 -0 -1.2 0
-9.473 -7.335 -13.021 -0 -1.2 0
-11.378 -8.99 -15.706 -0 -1.2 0
-10.099 -8.457 -13.912 -0 -1.2 0
-9.745 -8.548 -13.421 -0 -1.2 0
-11.571 -10.371 -15.998 -0 -1.2 0
-0.725 -0.018 -0.613 -0 -1.2 0
-0.75 -0.018 -0.645 -0 -1.2 0
-0.779 -0.012 -0.683 -0 -1.2 0
-0.804 -0.014 -0.716 -0 -1.2 0
-0.831 -0.016 -0.749 -0 -1.2 0
-0.856 -0.02 -0.782 -0 -1.2 0
-0.886 -0.019 -0.822 -0 -1.2 0
-0.917 -0.019 -0.863 -0 -1.2 0
-0.948 -0.021 -0.903 -0 -1.2 0
-0.98 -0.023 -0.944 -0 -1.2 0
-1.017 -0.022 -0.992 -0 -1.2 0
-1.054 -0.023 -1.039 -0 -1.2 0
-1.091 -0.026 -1.087 -0 -1.2 0
-1.128 -0.03 -1.136 -0 -1.2 0
-1.176 -0.027 -1.199 -0 -1.2 0
-1.214 -0.036 -1.248 -0 -1.2 0
-1.258 -0.041 -1.304 -0 -1.2 0
-1.302 -0.048 -1.361 -0 -1.2 0
-1.35 -0.053 -1.425 -0 -1.2 0
-1.406 -0.058 -1.497 -0 -1.2 0
-1.461 -0.064 -1.57 -0 -1.2 0
-1.517 -0.074 -1.642 -0 -1.2 0
-1.579 -0.083 -1.722 -0 -1.2 0
-1.646 -0.09 -1.809 -0 -1.2 0
-1.72 -0.098 -1.906 -0 -1.2 0
-1.8 -0.108 -2.008 -0 -1.2 0
-1.879 -0.121 -2.113 -0 -1.2 0
-1.976 -0.13 -2.24 -0 -1.2 0
-2.075 -0.144 -2.367 -0 -1.2 0
-2.179 -0.161 -2.502 -0 -1.2 0
-2.295 -0.178 -2.653 -0 -1.2 0
-2.429 -0.196 -2.828 -0 -1.2 0
-2.581 -0.214 -3.026 -0 -1.2 0
-2.752 -0.236 -3.247 -0 -1.2 0
-2.953 -0.257 -3.509 -0 -1.2 0
-3.166 -0.287 -3.787 -0 -1.2 0
-3.44 -0.315 -4.142 -0 -1.2 0
-3.787 -0.344 -4.593 -0 -1.2 0
-4.182 -0.383 -5.107 -0 -1.2 0
-4.694 -0.429 -5.772 -0 -1.2 0
-5.363 -0.485 -6.642 -0 -1.2 0
-6.167 -0.568 -7.686 -0 -1.2 0
-7.823 -0.646 -9.839 -0 -1.2 0
-15.279 -5.947 -19.601 -0 -1.2 0
-11.626 -5.483 -14.85 -0 -1.2 0
-11.597 -6.179 -14.824 -0 -1.2 0
-10.82 -6.51 -13.82 -0 -1.2 0
-10.822 -6.852 -13.828 -0 -1.2 0
-10.343 -6.927 -13.207 -0 -1.2 0
-11.065 -7.693 -14.156 -0 -1.2 0
-11.059 -8.052 -14.154 -0 -1.2 0
-10.953 -8.349 -14.021 -0 -1.2 0
-10.089 -8.117 -12.895 -0 -1.2 0
-0.764 -0.012 -0.574 -0 -1.2 0
-0.785 -0.018 -0.6 -0 -1.2 0
-0.812 -0.019 -0.632 -0 -1.2 0
-0.838 -0.02 -0.663 -0 -1.2 0
-0.869 -0.017 -0.701 -0 -1.2 0
-0.896 -0.02 -0.733 -0 -1.2 0
-0.929 -0.019 -0.772 -0 -1.2 0
-0.961 -0.019 -0.811 -0 -1.2 0
-0.993 -0.021 -0.851 -0 -1.2 0
-1.026 -0.024 -0.89 -0 -1.2 0
-1.064 -0.023 -0.936 -0 -1.2 0
-1.103 -0.024 -0.983 -0 -1.2 0
-1.142 -0.027 -1.03 -0 -1.2 0
-1.186 -0.026 -1.084 -0 -1.2 0
-1.226 -0.032 -1.131 -0 -1.2 0
-1.266 -0.041 -1.179 -0 -1.2 0
-1.317 -0.041 -1.24 -0 -1.2 0
-1.368 -0.045 -1.302 -0 -1.2 0
-1.42 -0.05 -1.365 -0 -1.2 0
-1.471 -0.058 -1.427 -0 -1.2 0
-1.53 -0.065 -1.498 -0 -1.2 0
-1.588 -0.074 -1.568 -0 -1.2 0
-1.652 -0.083 -1.646 -0 -1.2 0
-1.718 -0.095 -1.724 -0 -1.2 0
-1.794 -0.103 -1.817 -0 -1.2 0
-1.877 -0.112 -1.918 -0 -1.2 0
-1.955 -0.128 -2.011 -0 -1.2 0
-2.045 -0.142 -2.119 -0 -1.2 0
-2.147 -0.156 -2.243 -0 -1.2 0
-2.268 -0.166 -2.39 -0 -1.2 0
-2.389 -0.184 -2.536 -0 -1.2 0
-2.524 -0.203 -2.698 -0 -1.2 0
-2.683 -0.221 -2.89 -0 -1.2 0
-2.849 -0.245 -3.091 -0 -1.2 0
-3.066 -0.265 -3.352 -0 -1.2 0
-3.269 -0.298 -3.598 -0 -1.2 0
-3.543 -0.329 -3.929 -0 -1.2 0
-3.894 -0.358 -4.351 -0 -1.2 0
-4.308 -0.397 -4.851 -0 -1.2 0
-4.843 -0.44 -5.496 -0 -1.2 0
-5.562 -0.493 -6.364 -0 -1.2 0
-6.352 -0.578 -7.317 -0 -1.2 0
-7.785 -0.671 -9.046 -0 -1.2 0
-10.431 -0.807 -12.237 -0 -1.2 0
-15.425 -4.908 -18.313 -0 -1.2 0
-15.571 -5.382 -18.497 -0 -1.2 0
-10.985 -6.021 -12.977 -0 -1.2 0
-11.212 -6.457 -13.258 -0 -1.2 0
-11.282 -6.831 -13.347 -0 -1.2 0
-11.317 -7.194 -13.394 -0 -1.2 0
-11.329 -7.55 -13.413 -0 -1.2 0
-13.214 -9.46 -15.712 -0 -1.2 0
-0.784 -0.026 -0.52 -0 -1.2 0
-0.821 -0.012 -0.562 -0 -1.2 0
-0.843 -0.019 -0.587 -0 -1.2 0
-0.876 -0.014 -0.623 -0 -1.2 0
-0.899 -0.022 -0.649 -0 -1.2 0
-0.932 -0.02 -0.687 -0 -1.2 0
-0.97 -0.013 -0.73 -0 -1.2 0
-0.993 -0.025 -0.756 -0 -1.2 0
-1.033 -0.021 -0.8 -0 -1.2 0
-1.067 -0.024 -0.839 -0 -1.2 0
-1.101 -0.029 -0.877 -0 -1.2 0
-1.147 -0.024 -0.929 -0 -1.2 0
-1.181 -0.032 -0.968 -0 -1.2 0
-1.228 -0.031 -1.02 -0 -1.2 0
-1.274 -0.032 -1.073 -0 -1.2 0
-1.321 -0.036 -1.126 -0 -1.2 0
-1.374 -0.037 -1.186 -0 -1.2 0
-1.422 -0.045 -1.24 -0 -1.2 0
-1.476 -0.05 -1.3 -0 -1.2 0
-1.523 -0.062 -1.355 -0 -1.2 0
-1.59 -0.065 -1.43 -0 -1.2 0
-1.65 -0.075 -1.498 -0 -1.2 0
-1.717 -0.083 -1.573 -0 -1.2 0
-1.79 -0.091 -1.657 -0 -1.2 0
-1.864 -0.103 -1.74 -0 -1.2 0
-1.938 -0.119 -1.824 -0 -1.2 0
-2.019 -0.134 -1.915 -0 -1.2 0
-2.119 -0.146 -2.027 -0 -1.2 0
-2.218 -0.162 -2.14 -0 -1.2 0
-2.338 -0.175 -2.275 -0 -1.2 0
-2.451 -0.197 -2.403 -0 -1.2 0
-2.61 -0.208 -2.582 -0 -1.2 0
-2.762 -0.23 -2.754 -0 -1.2 0
-2.934 -0.253 -2.949 -0 -1.2 0
-3.146 -0.276 -3.188 -0 -1.2 0
-3.371 -0.305 -3.443 -0 -1.2 0
-3.643 -0.337 -3.749 -0 -1.2 0
-3.986 -0.37 -4.138 -0 -1.2 0
-4.404 -0.409 -4.608 -0 -1.2 0
-4.952 -0.452 -5.227 -0 -1.2 0
-5.646 -0.507 -6.012 -0 -1.2 0
-6.44 -0.592 -6.909 -0 -1.2 0
-7.876 -0.684 -8.531 -0 -1.2 0
-10.871 -0.809 -11.909 -0 -1.2 0
-17.289 -4.283 -19.195 -0 -1.2 0
-17.407 -6.663 -19.358 -0 -1.2 0
-17.764 -8.263 -19.78 -0 -1.2 0
-16.231 -8.105 -18.049 -0 -1.2 0
-11.389 -7.341 -12.578 -0 -1.2 0
-0.819 -0.019 -0.482 -0 -1.2 0
-0.851 -0.012 -0.516 -0 -1.2 0
-0.88 -0.012 -0.546 -0 -1.2 0
-0.914 -0.007 -0.582 -0 -1.2 0
-0.937 -0.017 -0.607 -0 -1.2 0
-0.966 -0.02 -0.638 -0 -1.2 0
-0.995 -0.025 -0.668 -0 -1.2 0
-1.035 -0.019 -0.71 -0 -1.2 0
-1.065 -0.027 -0.742 -0 -1.2 0
-1.105 -0.024 -0.785 -0 -1.2 0
-1.141 -0.029 -0.823 -0 -1.2 0
-1.188 -0.024 -0.873 -0 -1.2 0
-1.23 -0.027 -0.917 -0 -1.2 0
-1.272 -0.031 -0.962 -0 -1.2 0
-1.321 -0.032 -1.013 -0 -1.2 0
-1.376 -0.032 -1.071 -0 -1.2 0
-1.419 -0.042 -1.116 -0 -1.2 0
-1.474 -0.045 -1.174 -0 -1.2 0
-1.529 -0.05 -1.233 -0 -1.2 0
-1.598 -0.05 -1.306 -0 -1.2 0
-1.654 -0.061 -1.365 -0 -1.2 0
-1.718 -0.071 -1.432 -0 -1.2 0
-1.78 -0.084 -1.499 -0 -1.2 0
-1.856 -0.091 -1.579 -0 -1.2 0
-1.933 -0.103 -1.66 -0 -1.2 0
-2.009 -0.119 -1.741 -0 -1.2 0
-2.086 -0.138 -1.822 -0 -1.2 0
-2.183 -0.151 -1.924 -0 -1.2 0
-2.3 -0.162 -2.048 -0 -1.2 0
-2.424 -0.175 -2.179 -0 -1.2 0
-2.534 -0.199 -2.297 -0 -1.2 0
-2.699 -0.21 -2.47 -0 -1.2 0
-2.857 -0.232 -2.638 -0 -1.2 0
-3.042 -0.254 -2.834 -0 -1.2 0
-3.241 -0.282 -3.044 -0 -1.2 0
-3.501 -0.305 -3.319 -0 -1.2 0
-3.762 -0.341 -3.595 -0 -1.2 0
-4.098 -0.377 -3.95 -0 -1.2 0
-4.536 -0.414 -4.414 -0 -1.2 0
-5.106 -0.456 -5.016 -0 -1.2 0
-5.805 -0.513 -5.755 -0 -1.2 0
-6.662 -0.594 -6.662 -0 -1.2 0
-8.156 -0.685 -8.243 -0 -1.2 0
-11.418 -0.807 -11.69 -0 -1.2 0
-16.436 -1.092 -16.995 -0 -1.2 0
-16.891 -9.075 -17.568 -0 -1.2 0
-11.596 -7.23 -11.952 -0 -1.2 0
-0.854 -0.012 -0.441 -0 -1.2 0
-0.883 -0.012 -0.469 -0 -1.2 0
-0.912 -0.012 -0.498 -0 -1.2 0
-0.942 -0.014 -0.528 -0 -1.2 0
-0.972 -0.017 -0.557 -0 -1.2 0
-1.007 -0.014 -0.592 -0 -1.2 0
-1.043 -0.014 -0.627 -0 -1.2 0
-1.08 -0.013 -0.663 -0 -1.2 0
-1.11 -0.021 -0.694 -0 -1.2 0
-1.147 -0.024 -0.729 -0 -1.2 0
-1.183 -0.029 -0.765 -0 -1.2 0
-1.214 -0.041 -0.796 -0 -1.2 0
-1.27 -0.032 -0.851 -0 -1.2 0
-1.319 -0.031 -0.899 -0 -1.2 0
-1.37 -0.032 -0.949 -0 -1.2 0
-1.42 -0.037 -0.998 -0 -1.2 0
-1.478 -0.037 -1.055 -0 -1.2 0
-1.528 -0.045 -1.106 -0 -1.2 0
-1.593 -0.046 -1.168 -0 -1.2 0
-1.658 -0.05 -1.232 -0 -1.2 0
-1.715 -0.062 -1.29 -0 -1.2 0
-1.78 -0.071 -1.354 -0 -1.2 0
-1.853 -0.08 -1.425 -0 -1.2 0
-1.918 -0.096 -1.489 -0 -1.2 0
-1.997 -0.107 -1.568 -0 -1.2 0
-2.077 -0.122 -1.646 -0 -1.2 0
-2.17 -0.135 -1.738 -0 -1.2 0
-2.271 -0.149 -1.837 -0 -1.2 0
-2.377 -0.165 -1.942 -0 -1.2 0
-2.499 -0.181 -2.062 -0 -1.2 0
-2.627 -0.2 -2.189 -0 -1.2 0
-2.784 -0.215 -2.343 -0 -1.2 0
-2.969 -0.231 -2.525 -0 -1.2 0
-3.154 -0.254 -2.707 -0 -1.2 0
-3.353 -0.284 -2.905 -0 -1.2 0
-3.616 -0.308 -3.164 -0 -1.2 0
-3.901 -0.341 -3.444 -0 -1.2 0
-4.256 -0.376 -3.794 -0 -1.2 0
-4.71 -0.414 -4.242 -0 -1.2 0
-5.286 -0.457 -4.81 -0 -1.2 0
-5.975 -0.519 -5.489 -0 -1.2 0
-6.878 -0.598 -6.378 -0 -1.2 0
-8.542 -0.683 -8.017 -0 -1.2 0
-12.179 -0.8 -11.599 -0 -1.2 0
-15.899 -1.095 -15.265 -0 -1.2 0
-19.107 -1.561 -18.429 -0 -1.2 0
-19.154 -2.03 -18.479 -0 -1.2 0
-19.122 -2.497 -18.453 -0 -1.2 0
-19.092 -2.963 -18.429 -0 -1.2 0
-19.085 -3.432 -18.427 -0 -1.2 0
-17.585 -3.682 -16.953 -0 -1.2 0
-19.074 -4.374 -18.426 -0 -1.2 0
-18.894 -4.814 -18.254 -0 -1.2 0
-18.934 -5.296 -18.298 -0 -1.2 0
-18.645 -5.701 -18.018 -0 -1.2 0
-18.575 -6.155 -17.954 -0 -1.2 0
-18.316 -7.023 -17.708 -0 -1.2 0
-18.175 -7.449 -17.574 -0 -1.2 0
-18.105 -7.898 -17.51 -0 -1.2 0
-18.09 -8.37 -17.5 -0 -1.2 0
-18.029 -8.826 -17.444 -0 -1.2 0
-18.225 -9.899 -17.649 -0 -1.2 0
-17.713 -11.14 -17.158 -0 -1.2 0
-0.887 -0.005 -0.4 -0 -1.2 0
-0.924 0.001 -0.432 -0 -1.2 0
-0.948 -0.006 -0.455 -0 -1.2 0
-0.978 -0.007 -0.483 -0 -1.2 0
-1.016 -0.004 -0.517 -0 -1.2 0
-1.046 -0.008 -0.546 -0 -1.2 0
-1.072 -0.02 -0.569 -0 -1.2 0
-1.109 -0.019 -0.603 -0 -1.2 0
-1.153 -0.015 -0.643 -0 -1.2 0
-1.191 -0.019 -0.678 -0 -1.2 0
-1.241 -0.012 -0.725 -0 -1.2 0
-1.267 -0.03 -0.749 -0 -1.2 0
-1.324 -0.021 -0.802 -0 -1.2 0
-1.363 -0.031 -0.838 -0 -1.2 0
-1.415 -0.033 -0.885 -0 -1.2 0
-1.474 -0.032 -0.939 -0 -1.2 0
-1.526 -0.037 -0.988 -0 -1.2 0
-1.578 -0.045 -1.036 -0 -1.2 0
-1.645 -0.046 -1.097 -0 -1.2 0
-1.711 -0.05 -1.159 -0 -1.2 0
-1.779 -0.057 -1.22 -0 -1.2 0
-1.846 -0.068 -1.282 -0 -1.2 0
-1.914 -0.08 -1.344 -0 -1.2 0
-1.988 -0.092 -1.413 -0 -1.2 0
-2.063 -0.108 -1.483 -0 -1.2 0
-2.152 -0.12 -1.565 -0 -1.2 0
-2.241 -0.135 -1.647 -0 -1.2 0
-2.338 -0.152 -1.736 -0 -1.2 0
-2.462 -0.163 -1.85 -0 -1.2 0
-2.58 -0.181 -1.959 -0 -1.2 0
-2.72 -0.198 -2.088 -0 -1.2 0
-2.896 -0.209 -2.25 -0 -1.2 0
-3.073 -0.229 -2.413 -0 -1.2 0
-3.25 -0.257 -2.576 -0 -1.2 0
-3.47 -0.283 -2.779 -0 -1.2 0
-3.734 -0.309 -3.023 -0 -1.2 0
-4.05 -0.338 -3.313 -0 -1.2 0
-4.417 -0.373 -3.651 -0 -1.2 0
-4.857 -0.415 -4.057 -0 -1.2 0
-5.444 -0.46 -4.598 -0 -1.2 0
-6.149 -0.521 -5.247 -0 -1.2 0
-7.169 -0.594 -6.186 -0 -1.2 0
-8.806 -0.685 -7.694 -0 -1.2 0
-12.974 -0.792 -11.531 -0 -1.2 0
-16.969 -1.098 -15.212 -0 -1.2 0
-17.693 -1.516 -15.882 -0 -1.2 0
-17.72 -1.935 -15.91 -0 -1.2 0
-19.881 -5.37 -17.932 -0 -1.2 0
-18.163 -5.443 -16.352 -0 -1.2 0
-19.841 -6.821 -17.91 -0 -1.2 0
-19.826 -7.311 -17.902 -0 -1.2 0
-17.554 -8.385 -15.82 -0 -1.2 0
-0.916 -0.005 -0.35 -0 -1.2 0
-0.946 -0.005 -0.377 -0 -1.2 0
-0.978 -0.006 -0.404 -0 -1.2 0
-1.01 -0.007 -0.431 -0 -1.2 0
-1.047 -0.004 -0.463 -0 -1.2 0
-1.086 -0.002 -0.496 -0 -1.2 0
-1.106 -0.02 -0.513 -0 -1.2 0
-1.144 -0.019 -0.546 -0 -1.2 0
-1.195 -0.01 -0.591 -0 -1.2 0
-1.235 -0.014 -0.624 -0 -1.2 0
-1.274 -0.018 -0.657 -0 -1.2 0
-1.32 -0.019 -0.698 -0 -1.2 0
-1.366 -0.022 -0.738 -0 -1.2 0
-1.413 -0.027 -0.777 -0 -1.2 0
-1.446 -0.043 -0.806 -0 -1.2 0
-1.52 -0.032 -0.869 -0 -1.2 0
-1.574 -0.037 -0.915 -0 -1.2 0
-1.642 -0.036 -0.974 -0 -1.2 0
-1.69 -0.051 -1.015 -0 -1.2 0
-1.772 -0.047 -1.086 -0 -1.2 0
-1.834 -0.057 -1.139 -0 -1.2 0
-1.904 -0.068 -1.199 -0 -1.2 0
-1.974 -0.08 -1.26 -0 -1.2 0
-2.043 -0.096 -1.319 -0 -1.2 0
-2.127 -0.108 -1.392 -0 -1.2 0
-2.226 -0.116 -1.477 -0 -1.2 0
-2.311 -0.135 -1.55 -0 -1.2 0
-2.403 -0.155 -1.629 -0 -1.2 0
-2.547 -0.161 -1.753 -0 -1.2 0
-2.669 -0.178 -1.857 -0 -1.2 0
-2.813 -0.196 -1.982 -0 -1.2 0
-2.973 -0.214 -2.118 -0 -1.2 0
-3.169 -0.23 -2.287 -0 -1.2 0
-3.373 -0.251 -2.464 -0 -1.2 0
-3.587 -0.281 -2.646 -0 -1.2 0
-3.851 -0.309 -2.874 -0 -1.2 0
-4.184 -0.337 -3.16 -0 -1.2 0
-4.57 -0.371 -3.491 -0 -1.2 0
-5.009 -0.416 -3.868 -0 -1.2 0
-5.614 -0.461 -4.388 -0 -1.2 0
-6.302 -0.526 -4.98 -0 -1.2 0
-7.453 -0.591 -5.969 -0 -1.2 0
-9.316 -0.675 -7.57 -0 -1.2 0
-17.142 -1.1 -14.293 -0 -1.2 0
-17.153 -1.493 -14.306 -0 -1.2 0
-16.84 -1.872 -14.04 -0 -1.2 0
-16.826 -2.259 -14.032 -0 -1.2 0
-16.92 -2.655 -14.116 -0 -1.2 0
-19.017 -6.419 -15.95 -0 -1.2 0
-18.598 -8.587 -15.609 -0 -1.2 0
-18.091 -9.303 -15.18 -0 -1.2 0
-0.944 -0.005 -0.3 -0 -1.2 0
-0.976 -0.004 -0.325 -0 -1.2 0
-1.007 -0.005 -0.351 -0 -1.2 0
-1.047 0 -0.382 -0 -1.2 0
-1.079 -0.004 -0.408 -0 -1.2 0
-1.112 -0.007 -0.434 -0 -1.2 0
-1.146 -0.013 -0.461 -0 -1.2 0
-1.192 -0.007 -0.497 -0 -1.2 0
-1.212 -0.027 -0.515 -0 -1.2 0
-1.284 -0.001 -0.572 -0 -1.2 0
-1.32 -0.012 -0.599 -0 -1.2 0
-1.354 -0.024 -0.626 -0 -1.2 0
-1.428 -0.005 -0.685 -0 -1.2 0
-1.476 -0.01 -0.724 -0 -1.2 0
-1.504 -0.032 -0.747 -0 -1.2 0
-1.574 -0.026 -0.801 -0 -1.2 0
-1.629 -0.032 -0.846 -0 -1.2 0
-1.692 -0.035 -0.896 -0 -1.2 0
-1.756 -0.042 -0.947 -0 -1.2 0
-1.813 -0.054 -0.992 -0 -1.2 0
-1.891 -0.057 -1.055 -0 -1.2 0
-1.963 -0.067 -1.112 -0 -1.2 0
-2.042 -0.076 -1.175 -0 -1.2 0
-2.113 -0.091 -1.232 -0 -1.2 0
-2.2 -0.103 -1.301 -0 -1.2 0
-2.295 -0.115 -1.378 -0 -1.2 0
-2.382 -0.134 -1.447 -0 -1.2 0
-2.492 -0.149 -1.535 -0 -1.2 0
-2.611 -0.164 -1.629 -0 -1.2 0
-2.751 -0.178 -1.741 -0 -1.2 0
-2.9 -0.195 -1.86 -0 -1.2 0
-3.064 -0.213 -1.991 -0 -1.2 0
-3.275 -0.226 -2.159 -0 -1.2 0
-3.463 -0.254 -2.308 -0 -1.2 0
-3.689 -0.282 -2.49 -0 -1.2 0
-3.963 -0.31 -2.707 -0 -1.2 0
-4.306 -0.338 -2.98 -0 -1.2 0
-4.704 -0.372 -3.298 -0 -1.2 0
-5.156 -0.416 -3.659 -0 -1.2 0
-5.741 -0.465 -4.125 -0 -1.2 0
-6.506 -0.524 -4.734 -0 -1.2 0
-7.661 -0.591 -5.655 -0 -1.2 0
-9.566 -0.676 -7.172 -0 -1.2 0
-18.034 -1.098 -13.92 -0 -1.2 0
-17.7 -1.492 -13.659 -0 -1.2 0
-17.69 -1.884 -13.655 -0 -1.2 0
-17.854 -2.29 -13.79 -0 -1.2 0
-19.04 -5.821 -14.77 -0 -1.2 0
-19.283 -6.33 -14.969 -0 -1.2 0
-19.992 -8.906 -15.561 -0 -1.2 0
-19.052 -9.958 -14.824 -0 -1.2 0
-6.252 -9.365 -4.625 -0 -1.2 0
-0.969 -0.004 -0.251 -0 -1.2 0
-1.007 0.003 -0.28 -0 -1.2 0
-1.034 -0.004 -0.301 -0 -1.2 0
-1.074 0 -0.33 -0 -1.2 0
-1.101 -0.008 -0.351 -0 -1.2 0
-1.141 -0.006 -0.381 -0 -1.2 0
-1.176 -0.012 -0.405 -0 -1.2 0
-1.217 -0.012 -0.435 -0 -1.2 0
-1.284 0.009 -0.485 -0 -1.2 0
-1.292 -0.022 -0.492 -0 -1.2 0
-1.353 -0.011 -0.538 -0 -1.2 0
-1.416 -0.001 -0.584 -0 -1.2 0
-1.445 -0.02 -0.605 -0 -1.2 0
-1.508 -0.014 -0.653 -0 -1.2 0
-1.571 -0.011 -0.7 -0 -1.2 0
-1.621 -0.02 -0.737 -0 -1.2 0
-1.658 -0.04 -0.764 -0 -1.2 0
-1.73 -0.039 -0.818 -0 -1.2 0
-1.802 -0.04 -0.871 -0 -1.2 0
-1.875 -0.045 -0.925 -0 -1.2 0
-1.941 -0.055 -0.974 -0 -1.2 0
-2.006 -0.07 -1.023 -0 -1.2 0
-2.096 -0.074 -1.09 -0 -1.2 0
-2.169 -0.09 -1.145 -0 -1.2 0
-2.251 -0.106 -1.206 -0 -1.2 0
-2.348 -0.118 -1.277 -0 -1.2 0
-2.453 -0.13 -1.356 -0 -1.2 0
-2.558 -0.147 -1.434 -0 -1.2 0
-2.679 -0.163 -1.523 -0 -1.2 0
-2.808 -0.181 -1.62 -0 -1.2 0
-2.96 -0.198 -1.734 -0 -1.2 0
-3.153 -0.209 -1.876 -0 -1.2 0
-3.345 -0.229 -2.019 -0 -1.2 0
-3.554 -0.252 -2.175 -0 -1.2 0
-3.794 -0.278 -2.354 -0 -1.2 0
-4.066 -0.308 -2.557 -0 -1.2 0
-4.402 -0.338 -2.806 -0 -1.2 0
-4.811 -0.372 -3.11 -0 -1.2 0
-5.267 -0.416 -3.45 -0 -1.2 0
-5.836 -0.468 -3.872 -0 -1.2 0
-6.548 -0.533 -4.402 -0 -1.2 0
-7.733 -0.596 -5.284 -0 -1.2 0
-9.833 -0.671 -6.843 -0 -1.2 0
-18.233 -1.09 -13.089 -0 -1.2 0
-17.739 -1.475 -12.725 -0 -1.2 0
-17.793 -1.862 -12.771 -0 -1.2 0
-17.906 -2.256 -12.859 -0 -1.2 0
-20.05 -5.937 -14.494 -0 -1.2 0
-7.111 -6.402 -4.888 -0 -1.2 0
-6.429 -9.094 -4.413 -0 -1.2 0
-6.37 -9.305 -4.372 -0 -1.2 0
-0.998 0.003 -0.204 -0 -1.2 0
-1.033 0.004 -0.228 -0 -1.2 0
-1.06 -0.003 -0.247 -0 -1.2 0
-1.1 0.001 -0.275 -0 -1.2 0
-1.122 -0.014 -0.29 -0 -1.2 0
-1.164 -0.011 -0.318 -0 -1.2 0
-1.205 -0.011 -0.348 -0 -1.2 0
-1.24 -0.016 -0.371 -0 -1.2 0
-1.295 -0.007 -0.41 -0 -1.2 0
-1.358 0.006 -0.453 -0 -1.2 0
-1.367 -0.026 -0.459 -0 -1.2 0
-1.437 -0.01 -0.508 -0 -1.2 0
-1.509 0.001 -0.557 -0 -1.2 0
-1.545 -0.013 -0.583 -0 -1.2 0
-1.589 -0.024 -0.613 -0 -1.2 0
-1.655 -0.024 -0.658 -0 -1.2 0
-1.72 -0.024 -0.704 -0 -1.2 0
-1.772 -0.037 -0.74 -0 -1.2 0
-1.847 -0.039 -0.791 -0 -1.2 0
-1.913 -0.047 -0.838 -0 -1.2 0
-1.981 -0.058 -0.884 -0 -1.2 0
-2.048 -0.072 -0.931 -0 -1.2 0
-2.132 -0.08 -0.989 -0 -1.2 0
-2.215 -0.092 -1.046 -0 -1.2 0
-2.306 -0.104 -1.11 -0 -1.2 0
-2.398 -0.119 -1.173 -0 -1.2 0
-2.498 -0.135 -1.242 -0 -1.2 0
-2.614 -0.148 -1.322 -0 -1.2 0
-2.737 -0.163 -1.408 -0 -1.2 0
-2.869 -0.182 -1.5 -0 -1.2 0
-3.034 -0.195 -1.614 -0 -1.2 0
-3.214 -0.211 -1.739 -0 -1.2 0
-3.412 -0.23 -1.875 -0 -1.2 0
-3.633 -0.251 -2.029 -0 -1.2 0
-3.848 -0.285 -2.177 -0 -1.2 0
-4.135 -0.311 -2.376 -0 -1.2 0
-4.487 -0.338 -2.62 -0 -1.2 0
-4.889 -0.374 -2.898 -0 -1.2 0
-5.348 -0.419 -3.217 -0 -1.2 0
-5.931 -0.469 -3.62 -0 -1.2 0
-6.668 -0.531 -4.13 -0 -1.2 0
-6.979 -0.651 -4.347 -0 -1.2 0
-6.975 -0.799 -4.347 -0 -1.2 0
-6.97 -0.946 -4.344 -0 -1.2 0
-6.954 -1.093 -4.335 -0 -1.2 0
-6.952 -1.239 -4.335 -0 -1.2 0
-6.948 -1.385 -4.335 -0 -1.2 0
-6.942 -1.531 -4.332 -0 -1.2 0
-6.942 -1.678 -4.334 -0 -1.2 0
-6.932 -1.824 -4.329 -0 -1.2 0
-6.928 -1.971 -4.328 -0 -1.2 0
-6.929 -2.12 -4.331 -0 -1.2 0
-6.929 -2.268 -4.333 -0 -1.2 0
-6.903 -2.412 -4.316 -0 -1.2 0
-6.849 -2.551 -4.28 -0 -1.2 0
-6.924 -2.718 -4.334 -0 -1.2 0
-6.923 -2.87 -4.335 -0 -1.2 0
-6.92 -3.022 -4.335 -0 -1.2 0
-6.914 -3.174 -4.333 -0 -1.2 0
-6.914 -3.331 -4.335 -0 -1.2 0
-6.904 -3.484 -4.329 -0 -1.2 0
-6.899 -3.641 -4.328 -0 -1.2 0
-6.892 -3.799 -4.325 -0 -1.2 0
-6.882 -3.957 -4.321 -0 -1.2 0
-6.878 -4.119 -4.319 -0 -1.2 0
-6.871 -4.281 -4.317 -0 -1.2 0
-6.869 -4.448 -4.318 -0 -1.2 0
-6.864 -4.616 -4.317 -0 -1.2 0
-6.865 -4.789 -4.319 -0 -1.2 0
-6.855 -4.959 -4.314 -0 -1.2 0
-6.848 -5.134 -4.312 -0 -1.2 0
-6.84 -5.309 -4.309 -0 -1.2 0
-6.836 -5.49 -4.308 -0 -1.2 0
-6.835 -5.678 -4.31 -0 -1.2 0
-6.824 -5.862 -4.304 -0 -1.2 0
-6.825 -6.057 -4.307 -0 -1.2 0
-6.807 -6.243 -4.298 -0 -1.2 0
-6.807 -6.446 -4.3 -0 -1.2 0
-6.797 -6.645 -4.295 -0 -1.2 0
-6.789 -6.851 -4.292 -0 -1.2 0
-6.777 -7.058 -4.286 -0 -1.2 0
-6.768 -7.272 -4.283 -0 -1.2 0
-6.755 -7.488 -4.277 -0 -1.2 0
-6.745 -7.712 -4.272 -0 -1.2 0
-6.729 -7.938 -4.265 -0 -1.2 0
-6.728 -8.184 -4.267 -0 -1.2 0
-6.715 -8.426 -4.261 -0 -1.2 0
-6.746 -8.723 -4.286 -0 -1.2 0
-6.717 -8.963 -4.269 -0 -1.2 0
-6.603 -9.103 -4.191 -0 -1.2 0
-6.401 -9.134 -4.052 -0 -1.2 0
-1.023 0.004 -0.15 -0 -1.2 0
-1.045 -0.008 -0.165 -0 -1.2 0
-1.087 -0.002 -0.191 -0 -1.2 0
-1.122 -0.004 -0.213 -0 -1.2 0
-1.15 -0.013 -0.232 -0 -1.2 0
-1.193 -0.01 -0.258 -0 -1.2 0
-1.222 -0.022 -0.277 -0 -1.2 0
-1.257 -0.028 -0.3 -0 -1.2 0
-1.314 -0.017 -0.336 -0 -1.2 0
-1.357 -0.02 -0.364 -0 -1.2 0
-1.436 0.001 -0.413 -0 -1.2 0
-1.466 -0.015 -0.433 -0 -1.2 0
-1.525 -0.012 -0.47 -0 -1.2 0
-1.584 -0.011 -0.508 -0 -1.2 0
-1.658 -0.004 -0.555 -0 -1.2 0
-1.703 -0.018 -0.584 -0 -1.2 0
-1.756 -0.028 -0.618 -0 -1.2 0
-1.817 -0.036 -0.657 -0 -1.2 0
-1.885 -0.041 -0.701 -0 -1.2 0
-1.954 -0.05 -0.745 -0 -1.2 0
-2.023 -0.061 -0.789 -0 -1.2 0
-2.1 -0.07 -0.838 -0 -1.2 0
-2.17 -0.087 -0.882 -0 -1.2 0
-2.271 -0.091 -0.947 -0 -1.2 0
-2.356 -0.105 -1.001 -0 -1.2 0
-2.458 -0.117 -1.066 -0 -1.2 0
-2.544 -0.139 -1.122 -0 -1.2 0
-2.67 -0.149 -1.203 -0 -1.2 0
-2.79 -0.168 -1.279 -0 -1.2 0
-2.941 -0.18 -1.376 -0 -1.2 0
-3.085 -0.201 -1.468 -0 -1.2 0
-3.295 -0.209 -1.602 -0 -1.2 0
-3.472 -0.235 -1.715 -0 -1.2 0
-3.691 -0.258 -1.855 -0 -1.2 0
-3.927 -0.285 -2.006 -0 -1.2 0
-4.205 -0.316 -2.183 -0 -1.2 0
-4.566 -0.342 -2.414 -0 -1.2 0
-4.97 -0.378 -2.672 -0 -1.2 0
-5.432 -0.422 -2.967 -0 -1.2 0
-5.996 -0.475 -3.327 -0 -1.2 0
-6.752 -0.535 -3.81 -0 -1.2 0
-7.002 -0.658 -3.972 -0 -1.2 0
-7.007 -0.802 -3.976 -0 -1.2 0
-6.992 -0.946 -3.969 -0 -1.2 0
-6.993 -1.09 -3.971 -0 -1.2 0
-6.983 -1.233 -3.967 -0 -1.2 0
-6.979 -1.376 -3.966 -0 -1.2 0
-6.973 -1.519 -3.964 -0 -1.2 0
-6.974 -1.663 -3.966 -0 -1.2 0
-6.048 -1.713 -3.377 -0 -1.2 0
-6.951 -1.949 -3.956 -0 -1.2 0
-6.937 -2.092 -3.949 -0 -1.2 0
-6.954 -2.239 -3.961 -0 -1.2 0
-6.943 -2.384 -3.956 -0 -1.2 0
-6.872 -2.516 -3.913 -0 -1.2 0
-6.941 -2.678 -3.958 -0 -1.2 0
-6.94 -2.827 -3.96 -0 -1.2 0
-6.937 -2.976 -3.961 -0 -1.2 0
-6.932 -3.126 -3.96 -0 -1.2 0
-6.933 -3.278 -3.962 -0 -1.2 0
-6.916 -3.426 -3.952 -0 -1.2 0
-6.912 -3.58 -3.952 -0 -1.2 0
-6.914 -3.737 -3.955 -0 -1.2 0
-6.905 -3.892 -3.952 -0 -1.2 0
-6.902 -4.051 -3.951 -0 -1.2 0
-6.896 -4.21 -3.95 -0 -1.2 0
-6.894 -4.374 -3.951 -0 -1.2 0
-6.876 -4.531 -3.941 -0 -1.2 0
-6.877 -4.7 -3.944 -0 -1.2 0
-6.875 -4.871 -3.945 -0 -1.2 0
-6.87 -5.043 -3.945 -0 -1.2 0
-6.855 -5.211 -3.937 -0 -1.2 0
-6.853 -5.389 -3.938 -0 -1.2 0
-6.84 -5.564 -3.932 -0 -1.2 0
-6.845 -5.754 -3.937 -0 -1.2 0
-6.831 -5.936 -3.931 -0 -1.2 0
-6.83 -6.129 -3.933 -0 -1.2 0
-6.825 -6.323 -3.932 -0 -1.2 0
-6.815 -6.519 -3.928 -0 -1.2 0
-6.796 -6.71 -3.919 -0 -1.2 0
-6.793 -6.919 -3.919 -0 -1.2 0
-6.786 -7.131 -3.918 -0 -1.2 0
-6.781 -7.35 -3.917 -0 -1.2 0
-6.765 -7.565 -3.911 -0 -1.2 0
-6.752 -7.787 -3.905 -0 -1.2 0
-6.741 -8.016 -3.901 -0 -1.2 0
-6.743 -8.269 -3.905 -0 -1.2 0
-6.722 -8.502 -3.895 -0 -1.2 0
-6.714 -8.758 -3.893 -0 -1.2 0
-6.694 -9.009 -3.883 -0 -1.2 0
-6.535 -9.096 -3.783 -0 -1.2 0
-1.033 -0.008 -0.091 -0 -1.2 0
-1.068 -0.007 -0.113 -0 -1.2 0
-1.11 -0.001 -0.137 -0 -1.2 0
-1.152 0.003 -0.162 -0 -1.2 0
-1.181 -0.005 -0.179 -0 -1.2 0
-1.225 -0.003 -0.204 -0 -1.2 0
-1.261 -0.009 -0.227 -0 -1.2 0
-1.305 -0.009 -0.252 -0 -1.2 0
-1.349 -0.011 -0.278 -0 -1.2 0
-1.379 -0.025 -0.296 -0 -1.2 0
-1.431 -0.024 -0.327 -0 -1.2 0
-1.483 -0.025 -0.357 -0 -1.2 0
-1.565 -0.006 -0.405 -0 -1.2 0
-1.611 -0.016 -0.432 -0 -1.2 0
-1.664 -0.022 -0.464 -0 -1.2 0
-1.724 -0.026 -0.5 -0 -1.2 0
-1.794 -0.027 -0.541 -0 -1.2 0
-1.863 -0.03 -0.582 -0 -1.2 0
-1.918 -0.045 -0.614 -0 -1.2 0
-1.995 -0.048 -0.66 -0 -1.2 0
-2.074 -0.056 -0.707 -0 -1.2 0
-2.145 -0.069 -0.749 -0 -1.2 0
-2.216 -0.085 -0.79 -0 -1.2 0
-2.311 -0.093 -0.847 -0 -1.2 0
-2.398 -0.108 -0.899 -0 -1.2 0
-2.503 -0.119 -0.96 -0 -1.2 0
-2.599 -0.138 -1.017 -0 -1.2 0
-2.712 -0.154 -1.084 -0 -1.2 0
-2.841 -0.169 -1.161 -0 -1.2 0
-2.996 -0.182 -1.253 -0 -1.2 0
-3.151 -0.2 -1.345 -0 -1.2 0
-3.34 -0.215 -1.457 -0 -1.2 0
-3.53 -0.238 -1.569 -0 -1.2 0
-3.736 -0.263 -1.691 -0 -1.2 0
-3.994 -0.287 -1.843 -0 -1.2 0
-4.311 -0.31 -2.031 -0 -1.2 0
-4.629 -0.346 -2.219 -0 -1.2 0
-5.025 -0.383 -2.452 -0 -1.2 0
-5.505 -0.425 -2.737 -0 -1.2 0
-6.106 -0.475 -3.092 -0 -1.2 0
-6.441 -0.57 -3.291 -0 -1.2 0
-6.112 -0.72 -3.099 -0 -1.2 0
-6.03 -0.847 -3.052 -0 -1.2 0
-6.022 -0.969 -3.05 -0 -1.2 0
-5.997 -1.089 -3.036 -0 -1.2 0
-5.97 -1.209 -3.022 -0 -1.2 0
-5.958 -1.327 -3.017 -0 -1.2 0
-5.971 -1.449 -3.025 -0 -1.2 0
-5.963 -1.569 -3.024 -0 -1.2 0
-5.946 -1.687 -3.014 -0 -1.2 0
-6.03 -1.818 -3.065 -0 -1.2 0
-6.966 -2.072 -3.622 -0 -1.2 0
-6.958 -2.214 -3.619 -0 -1.2 0
-6.964 -2.358 -3.625 -0 -1.2 0
-6.884 -2.486 -3.58 -0 -1.2 0
-6.963 -2.647 -3.627 -0 -1.2 0
-6.963 -2.793 -3.63 -0 -1.2 0
-6.961 -2.94 -3.63 -0 -1.2 0
-6.957 -3.087 -3.63 -0 -1.2 0
-6.95 -3.234 -3.628 -0 -1.2 0
-6.94 -3.382 -3.625 -0 -1.2 0
-6.937 -3.534 -3.625 -0 -1.2 0
-6.931 -3.685 -3.623 -0 -1.2 0
-6.923 -3.838 -3.62 -0 -1.2 0
-6.912 -3.99 -3.617 -0 -1.2 0
-6.9 -4.143 -3.611 -0 -1.2 0
-6.892 -4.3 -3.608 -0 -1.2 0
-6.888 -4.462 -3.609 -0 -1.2 0
-6.883 -4.625 -3.608 -0 -1.2 0
-6.875 -4.789 -3.606 -0 -1.2 0
-6.872 -4.957 -3.606 -0 -1.2 0
-6.858 -5.123 -3.6 -0 -1.2 0
-6.864 -5.302 -3.606 -0 -1.2 0
-6.852 -5.474 -3.601 -0 -1.2 0
-6.844 -5.651 -3.598 -0 -1.2 0
-6.84 -5.835 -3.598 -0 -1.2 0
-6.832 -6.02 -3.597 -0 -1.2 0
-6.821 -6.206 -3.593 -0 -1.2 0
-6.813 -6.399 -3.591 -0 -1.2 0
-6.809 -6.598 -3.591 -0 -1.2 0
-6.801 -6.8 -3.589 -0 -1.2 0
-6.788 -7.002 -3.585 -0 -1.2 0
-6.779 -7.213 -3.582 -0 -1.2 0
-6.779 -7.437 -3.585 -0 -1.2 0
-6.761 -7.649 -3.577 -0 -1.2 0
-6.751 -7.876 -3.574 -0 -1.2 0
-6.736 -8.106 -3.569 -0 -1.2 0
-6.73 -8.35 -3.568 -0 -1.2 0
-6.724 -8.603 -3.568 -0 -1.2 0
-6.706 -8.85 -3.561 -0 -1.2 0
-6.665 -9.078 -3.54 -0 -1.2 0
-1.06 0 -0.041 -0 -1.2 0
-1.089 -0.007 -0.057 -0 -1.2 0
-1.132 0 -0.081 -0 -1.2 0
-1.168 -0.002 -0.1 -0 -1.2 0
-1.211 0 -0.124 -0 -1.2 0
-1.242 -0.008 -0.14 -0 -1.2 0
-1.286 -0.008 -0.165 -0 -1.2 0
-1.331 -0.008 -0.189 -0 -1.2 0
-1.368 -0.015 -0.21 -0 -1.2 0
-1.428 -0.008 -0.241 -0 -1.2 0
-1.474 -0.012 -0.267 -0 -1.2 0
-1.512 -0.024 -0.288 -0 -1.2 0
-1.566 -0.026 -0.317 -0 -1.2 0
-1.627 -0.025 -0.35 -0 -1.2 0
-1.704 -0.016 -0.393 -0 -1.2 0
-1.75 -0.03 -0.418 -0 -1.2 0
-1.821 -0.031 -0.457 -0 -1.2 0
-1.892 -0.034 -0.495 -0 -1.2 0
-1.956 -0.044 -0.53 -0 -1.2 0
-2.019 -0.056 -0.564 -0 -1.2 0
-2.107 -0.059 -0.612 -0 -1.2 0
-2.178 -0.072 -0.651 -0 -1.2 0
-2.26 -0.084 -0.696 -0 -1.2 0
-2.34 -0.099 -0.74 -0 -1.2 0
-2.437 -0.109 -0.793 -0 -1.2 0
-2.535 -0.124 -0.846 -0 -1.2 0
-2.641 -0.139 -0.905 -0 -1.2 0
-2.765 -0.152 -0.972 -0 -1.2 0
-2.897 -0.168 -1.045 -0 -1.2 0
-3.046 -0.182 -1.127 -0 -1.2 0
-3.213 -0.198 -1.217 -0 -1.2 0
-3.406 -0.214 -1.322 -0 -1.2 0
-3.591 -0.238 -1.424 -0 -1.2 0
-3.81 -0.262 -1.543 -0 -1.2 0
-4.073 -0.286 -1.687 -0 -1.2 0
-4.379 -0.312 -1.854 -0 -1.2 0
-4.704 -0.347 -2.032 -0 -1.2 0
-5.088 -0.386 -2.242 -0 -1.2 0
-5.57 -0.429 -2.505 -0 -1.2 0
-6.174 -0.478 -2.835 -0 -1.2 0
-6.874 -0.542 -3.217 -0 -1.2 0
-6.136 -0.724 -2.818 -0 -1.2 0
-6.016 -0.85 -2.754 -0 -1.2 0
-5.992 -0.97 -2.743 -0 -1.2 0
-5.966 -1.087 -2.731 -0 -1.2 0
-5.947 -1.204 -2.722 -0 -1.2 0
-5.944 -1.321 -2.722 -0 -1.2 0
-5.956 -1.438 -2.73 -0 -1.2 0
-5.95 -1.556 -2.728 -0 -1.2 0
-5.941 -1.673 -2.725 -0 -1.2 0
-6 -1.798 -2.76 -0 -1.2 0
-6.981 -2.053 -3.297 -0 -1.2 0
-6.974 -2.192 -3.296 -0 -1.2 0
-6.972 -2.332 -3.296 -0 -1.2 0
-6.9 -2.459 -3.258 -0 -1.2 0
-6.962 -2.614 -3.295 -0 -1.2 0
-7.007 -2.768 -3.321 -0 -1.2 0
-7.005 -2.913 -3.323 -0 -1.2 0
-6.992 -3.056 -3.318 -0 -1.2 0
-6.985 -3.201 -3.316 -0 -1.2 0
-6.976 -3.347 -3.314 -0 -1.2 0
-6.973 -3.497 -3.314 -0 -1.2 0
-6.96 -3.642 -3.309 -0 -1.2 0
-6.961 -3.796 -3.311 -0 -1.2 0
-6.951 -3.947 -3.309 -0 -1.2 0
-6.946 -4.101 -3.308 -0 -1.2 0
-6.939 -4.257 -3.307 -0 -1.2 0
-6.937 -4.417 -3.307 -0 -1.2 0
-6.931 -4.578 -3.307 -0 -1.2 0
-6.924 -4.74 -3.305 -0 -1.2 0
-6.914 -4.903 -3.303 -0 -1.2 0
-6.9 -5.065 -3.297 -0 -1.2 0
-6.9 -5.238 -3.3 -0 -1.2 0
-6.888 -5.408 -3.295 -0 -1.2 0
-6.888 -5.589 -3.298 -0 -1.2 0
-6.877 -5.766 -3.295 -0 -1.2 0
-6.871 -5.949 -3.294 -0 -1.2 0
-6.868 -6.138 -3.295 -0 -1.2 0
-6.855 -6.324 -3.291 -0 -1.2 0
-6.852 -6.522 -3.292 -0 -1.2 0
-6.837 -6.715 -3.287 -0 -1.2 0
-6.833 -6.922 -3.288 -0 -1.2 0
-6.818 -7.123 -3.282 -0 -1.2 0
-6.805 -7.333 -3.278 -0 -1.2 0
-6.795 -7.55 -3.275 -0 -1.2 0
-6.787 -7.776 -3.274 -0 -1.2 0
-6.773 -8.003 -3.271 -0 -1.2 0
-6.762 -8.238 -3.267 -0 -1.2 0
-6.751 -8.482 -3.265 -0 -1.2 0
-6.71 -8.7 -3.246 -0 -1.2 0
-6.694 -8.953 -3.241 -0 -1.2 0
-1.073 -0.006 0.016 -0 -1.2 0
-1.11 -0.006 -0.002 -0 -1.2 0
-1.146 -0.007 -0.02 -0 -1.2 0
-1.19 -0.001 -0.042 -0 -1.2 0
-1.235 0.001 -0.064 -0 -1.2 0
-1.265 -0.008 -0.079 -0 -1.2 0
-1.31 -0.007 -0.102 -0 -1.2 0
-1.348 -0.013 -0.121 -0 -1.2 0
-1.402 -0.009 -0.148 -0 -1.2 0
-1.455 -0.007 -0.174 -0 -1.2 0
-1.501 -0.012 -0.198 -0 -1.2 0
-1.563 -0.007 -0.229 -0 -1.2 0
-1.61 -0.015 -0.252 -0 -1.2 0
-1.665 -0.02 -0.279 -0 -1.2 0
-1.72 -0.026 -0.307 -0 -1.2 0
-1.799 -0.02 -0.347 -0 -1.2 0
-1.856 -0.03 -0.375 -0 -1.2 0
-1.92 -0.038 -0.407 -0 -1.2 0
-1.984 -0.047 -0.44 -0 -1.2 0
-2.049 -0.059 -0.472 -0 -1.2 0
-2.139 -0.062 -0.517 -0 -1.2 0
-2.211 -0.075 -0.554 -0 -1.2 0
-2.293 -0.086 -0.595 -0 -1.2 0
-2.384 -0.098 -0.64 -0 -1.2 0
-2.483 -0.109 -0.689 -0 -1.2 0
-2.583 -0.123 -0.74 -0 -1.2 0
-2.691 -0.138 -0.794 -0 -1.2 0
-2.808 -0.155 -0.853 -0 -1.2 0
-2.96 -0.164 -0.929 -0 -1.2 0
-3.103 -0.181 -1 -0 -1.2 0
-3.264 -0.199 -1.082 -0 -1.2 0
-3.444 -0.219 -1.171 -0 -1.2 0
-3.649 -0.239 -1.274 -0 -1.2 0
-3.855 -0.267 -1.378 -0 -1.2 0
-4.105 -0.294 -1.503 -0 -1.2 0
-4.435 -0.316 -1.668 -0 -1.2 0
-4.774 -0.348 -1.838 -0 -1.2 0
-5.157 -0.389 -2.03 -0 -1.2 0
-5.622 -0.434 -2.262 -0 -1.2 0
-6.254 -0.48 -2.579 -0 -1.2 0
-6.994 -0.542 -2.949 -0 -1.2 0
-6.134 -0.73 -2.523 -0 -1.2 0
-6.049 -0.853 -2.482 -0 -1.2 0
-6.015 -0.97 -2.467 -0 -1.2 0
-6.007 -1.086 -2.465 -0 -1.2 0
-5.987 -1.202 -2.457 -0 -1.2 0
-5.957 -1.316 -2.444 -0 -1.2 0
-5.971 -1.432 -2.452 -0 -1.2 0
-5.963 -1.547 -2.451 -0 -1.2 0
-5.928 -1.66 -2.434 -0 -1.2 0
-5.989 -1.783 -2.467 -0 -1.2 0
-6.998 -2.036 -2.974 -0 -1.2 0
-6.99 -2.173 -2.972 -0 -1.2 0
-6.988 -2.311 -2.974 -0 -1.2 0
-6.932 -2.439 -2.947 -0 -1.2 0
-6.937 -2.579 -2.951 -0 -1.2 0
-7.025 -2.74 -2.998 -0 -1.2 0
-7.006 -2.878 -2.992 -0 -1.2 0
-7.011 -3.024 -2.996 -0 -1.2 0
-6.997 -3.164 -2.991 -0 -1.2 0
-6.997 -3.31 -2.993 -0 -1.2 0
-6.994 -3.457 -2.994 -0 -1.2 0
-6.981 -3.601 -2.99 -0 -1.2 0
-6.974 -3.749 -2.989 -0 -1.2 0
-6.972 -3.901 -2.991 -0 -1.2 0
-6.96 -4.05 -2.986 -0 -1.2 0
-6.953 -4.204 -2.986 -0 -1.2 0
-6.952 -4.361 -2.988 -0 -1.2 0
-6.94 -4.516 -2.983 -0 -1.2 0
-6.934 -4.675 -2.983 -0 -1.2 0
-6.924 -4.835 -2.98 -0 -1.2 0
-6.927 -5.005 -2.985 -0 -1.2 0
-6.92 -5.172 -2.983 -0 -1.2 0
-6.901 -5.335 -2.977 -0 -1.2 0
-6.895 -5.508 -2.975 -0 -1.2 0
-6.893 -5.688 -2.977 -0 -1.2 0
-6.888 -5.868 -2.977 -0 -1.2 0
-6.879 -6.05 -2.976 -0 -1.2 0
-6.873 -6.239 -2.976 -0 -1.2 0
-6.865 -6.428 -2.975 -0 -1.2 0
-6.851 -6.62 -2.971 -0 -1.2 0
-6.849 -6.824 -2.973 -0 -1.2 0
-6.835 -7.024 -2.968 -0 -1.2 0
-6.823 -7.232 -2.966 -0 -1.2 0
-6.822 -7.453 -2.968 -0 -1.2 0
-6.801 -7.664 -2.962 -0 -1.2 0
-6.796 -7.894 -2.963 -0 -1.2 0
-6.78 -8.121 -2.958 -0 -1.2 0
-6.764 -8.356 -2.954 -0 -1.2 0
-6.75 -8.6 -2.95 -0 -1.2 0
-6.705 -8.816 -2.932 -0 -1.2 0
-1.097 0 0.066 -0 -1.2 0
-1.134 0 0.048 -0 -1.2 0
-1.164 -0.006 0.034 -0 -1.2 0
-1.202 -0.008 0.017 -0 -1.2 0
-1.254 0.001 -0.007 -0 -1.2 0
-1.285 -0.007 -0.021 -0 -1.2 0
-1.339 0 -0.046 -0 -1.2 0
-1.377 -0.007 -0.064 -0 -1.2 0
-1.424 -0.008 -0.085 -0 -1.2 0
-1.478 -0.006 -0.11 -0 -1.2 0
-1.526 -0.011 -0.132 -0 -1.2 0
-1.581 -0.012 -0.157 -0 -1.2 0
-1.636 -0.014 -0.182 -0 -1.2 0
-1.692 -0.019 -0.208 -0 -1.2 0
-1.748 -0.025 -0.234 -0 -1.2 0
-1.82 -0.024 -0.267 -0 -1.2 0
-1.877 -0.034 -0.293 -0 -1.2 0
-1.95 -0.037 -0.327 -0 -1.2 0
-2.016 -0.047 -0.357 -0 -1.2 0
-2.09 -0.055 -0.391 -0 -1.2 0
-2.172 -0.061 -0.429 -0 -1.2 0
-2.247 -0.074 -0.464 -0 -1.2 0
-2.338 -0.083 -0.506 -0 -1.2 0
-2.431 -0.094 -0.549 -0 -1.2 0
-2.514 -0.112 -0.587 -0 -1.2 0
-2.615 -0.127 -0.634 -0 -1.2 0
-2.734 -0.138 -0.688 -0 -1.2 0
-2.862 -0.151 -0.747 -0 -1.2 0
-3.007 -0.163 -0.814 -0 -1.2 0
-3.161 -0.179 -0.886 -0 -1.2 0
-3.334 -0.194 -0.965 -0 -1.2 0
-3.525 -0.212 -1.053 -0 -1.2 0
-3.698 -0.24 -1.133 -0 -1.2 0
-3.908 -0.268 -1.229 -0 -1.2 0
-4.17 -0.293 -1.351 -0 -1.2 0
-4.505 -0.315 -1.505 -0 -1.2 0
-4.85 -0.348 -1.663 -0 -1.2 0
-5.24 -0.388 -1.842 -0 -1.2 0
-5.72 -0.433 -2.064 -0 -1.2 0
-6.327 -0.482 -2.344 -0 -1.2 0
-7.006 -0.549 -2.656 -0 -1.2 0
-6.095 -0.738 -2.241 -0 -1.2 0
-6.027 -0.857 -2.212 -0 -1.2 0
-6.021 -0.972 -2.21 -0 -1.2 0
-6.003 -1.085 -2.205 -0 -1.2 0
-6.001 -1.199 -2.205 -0 -1.2 0
-5.989 -1.312 -2.202 -0 -1.2 0
-5.993 -1.427 -2.206 -0 -1.2 0
-5.977 -1.54 -2.2 -0 -1.2 0
-5.905 -1.648 -2.168 -0 -1.2 0
-5.94 -1.765 -2.186 -0 -1.2 0
-6.631 -1.972 -2.507 -0 -1.2 0
-7.002 -2.157 -2.68 -0 -1.2 0
-7.001 -2.294 -2.682 -0 -1.2 0
-6.953 -2.422 -2.662 -0 -1.2 0
-6.931 -2.553 -2.654 -0 -1.2 0
-7.021 -2.712 -2.698 -0 -1.2 0
-7.021 -2.853 -2.7 -0 -1.2 0
-7.017 -2.994 -2.701 -0 -1.2 0
-7.003 -3.133 -2.696 -0 -1.2 0
-7.003 -3.277 -2.698 -0 -1.2 0
-6.993 -3.419 -2.696 -0 -1.2 0
-6.989 -3.563 -2.697 -0 -1.2 0
-6.983 -3.709 -2.696 -0 -1.2 0
-6.973 -3.856 -2.694 -0 -1.2 0
-6.961 -4.003 -2.691 -0 -1.2 0
-6.956 -4.154 -2.691 -0 -1.2 0
-6.947 -4.306 -2.689 -0 -1.2 0
-6.944 -4.462 -2.69 -0 -1.2 0
-6.947 -4.624 -2.695 -0 -1.2 0
-6.937 -4.782 -2.692 -0 -1.2 0
-6.925 -4.942 -2.69 -0 -1.2 0
-6.927 -5.111 -2.692 -0 -1.2 0
-6.917 -5.275 -2.691 -0 -1.2 0
-6.903 -5.442 -2.688 -0 -1.2 0
-6.887 -5.61 -2.683 -0 -1.2 0
-6.883 -5.788 -2.684 -0 -1.2 0
-6.883 -5.973 -2.686 -0 -1.2 0
-6.878 -6.16 -2.688 -0 -1.2 0
-6.864 -6.342 -2.683 -0 -1.2 0
-6.867 -6.543 -2.688 -0 -1.2 0
-6.85 -6.733 -2.684 -0 -1.2 0
-6.845 -6.937 -2.684 -0 -1.2 0
-6.835 -7.142 -2.683 -0 -1.2 0
-6.828 -7.356 -2.683 -0 -1.2 0
-6.814 -7.571 -2.681 -0 -1.2 0
-6.798 -7.787 -2.677 -0 -1.2 0
-6.795 -8.025 -2.68 -0 -1.2 0
-6.775 -8.251 -2.674 -0 -1.2 0
-6.762 -8.493 -2.672 -0 -1.2 0
-6.719 -8.707 -2.655 -0 -1.2 0
-1.106 -0.005 0.121 -0 -1.2 0
-1.15 0.001 0.102 -0 -1.2 0
-1.181 -0.005 0.089 -0 -1.2 0
-1.219 -0.007 0.073 -0 -1.2 0
-1.265 -0.003 0.054 -0 -1.2 0
-1.304 -0.006 0.038 -0 -1.2 0
-1.357 0 0.015 -0 -1.2 0
-1.404 0 -0.005 -0 -1.2 0
-1.444 -0.008 -0.021 -0 -1.2 0
-1.499 -0.005 -0.044 -0 -1.2 0
-1.539 -0.015 -0.061 -0 -1.2 0
-1.595 -0.016 -0.085 -0 -1.2 0
-1.651 -0.019 -0.108 -0 -1.2 0
-1.716 -0.018 -0.136 -0 -1.2 0
-1.773 -0.024 -0.16 -0 -1.2 0
-1.838 -0.028 -0.187 -0 -1.2 0
-1.904 -0.033 -0.215 -0 -1.2 0
-1.978 -0.036 -0.246 -0 -1.2 0
-2.045 -0.046 -0.274 -0 -1.2 0
-2.119 -0.054 -0.306 -0 -1.2 0
-2.203 -0.06 -0.341 -0 -1.2 0
-2.278 -0.073 -0.373 -0 -1.2 0
-2.372 -0.082 -0.413 -0 -1.2 0
-2.456 -0.096 -0.448 -0 -1.2 0
-2.558 -0.107 -0.491 -0 -1.2 0
-2.662 -0.122 -0.535 -0 -1.2 0
-2.773 -0.137 -0.582 -0 -1.2 0
-2.911 -0.147 -0.64 -0 -1.2 0
-3.05 -0.162 -0.699 -0 -1.2 0
-3.207 -0.178 -0.765 -0 -1.2 0
-3.373 -0.195 -0.836 -0 -1.2 0
-3.567 -0.213 -0.916 -0 -1.2 0
-3.752 -0.239 -0.995 -0 -1.2 0
-3.99 -0.261 -1.096 -0 -1.2 0
-4.23 -0.292 -1.197 -0 -1.2 0
-4.579 -0.311 -1.344 -0 -1.2 0
-4.911 -0.348 -1.484 -0 -1.2 0
-5.315 -0.387 -1.655 -0 -1.2 0
-5.793 -0.431 -1.856 -0 -1.2 0
-6.399 -0.481 -2.111 -0 -1.2 0
-6.969 -0.558 -2.352 -0 -1.2 0
-6.782 -0.7 -2.276 -0 -1.2 0
-6.851 -0.825 -2.307 -0 -1.2 0
-6.864 -0.953 -2.315 -0 -1.2 0
-6.919 -1.082 -2.34 -0 -1.2 0
-6.429 -1.203 -2.136 -0 -1.2 0
-6.407 -1.323 -2.129 -0 -1.2 0
-6.992 -2.004 -2.386 -0 -1.2 0
-6.995 -2.138 -2.389 -0 -1.2 0
-7.003 -2.274 -2.395 -0 -1.2 0
-6.964 -2.402 -2.381 -0 -1.2 0
-6.923 -2.528 -2.366 -0 -1.2 0
-7.043 -2.691 -2.419 -0 -1.2 0
-7.024 -2.826 -2.414 -0 -1.2 0
-7.021 -2.965 -2.414 -0 -1.2 0
-7.016 -3.104 -2.415 -0 -1.2 0
-7.008 -3.244 -2.414 -0 -1.2 0
-7.007 -3.387 -2.415 -0 -1.2 0
-6.994 -3.528 -2.413 -0 -1.2 0
-6.997 -3.675 -2.417 -0 -1.2 0
-6.98 -3.816 -2.411 -0 -1.2 0
-6.969 -3.961 -2.409 -0 -1.2 0
-6.972 -4.114 -2.414 -0 -1.2 0
-6.964 -4.265 -2.413 -0 -1.2 0
-6.953 -4.415 -2.411 -0 -1.2 0
-6.948 -4.571 -2.411 -0 -1.2 0
-6.94 -4.728 -2.41 -0 -1.2 0
-6.936 -4.889 -2.411 -0 -1.2 0
-6.931 -5.052 -2.412 -0 -1.2 0
-6.922 -5.216 -2.411 -0 -1.2 0
-6.918 -5.386 -2.411 -0 -1.2 0
-6.902 -5.551 -2.408 -0 -1.2 0
-6.89 -5.722 -2.406 -0 -1.2 0
-6.891 -5.906 -2.41 -0 -1.2 0
-6.889 -6.09 -2.411 -0 -1.2 0
-6.881 -6.277 -2.412 -0 -1.2 0
-6.87 -6.464 -2.41 -0 -1.2 0
-6.864 -6.659 -2.411 -0 -1.2 0
-6.852 -6.856 -2.409 -0 -1.2 0
-6.85 -7.065 -2.412 -0 -1.2 0
-6.837 -7.27 -2.409 -0 -1.2 0
-6.825 -7.483 -2.408 -0 -1.2 0
-6.817 -7.704 -2.408 -0 -1.2 0
-6.803 -7.928 -2.406 -0 -1.2 0
-6.784 -8.152 -2.401 -0 -1.2 0
-6.772 -8.391 -2.401 -0 -1.2 0
-6.748 -8.626 -2.395 -0 -1.2 0
-1.121 -0.004 0.176 -0 -1.2 0
-1.152 -0.01 0.164 -0 -1.2 0
-1.19 -0.011 0.15 -0 -1.2 0
-1.236 -0.005 0.132 -0 -1.2 0
-1.267 -0.014 0.12 -0 -1.2 0
-1.322 -0.005 0.099 -0 -1.2 0
-1.368 -0.004 0.081 -0 -1.2 0
-1.416 -0.004 0.063 -0 -1.2 0
-1.456 -0.012 0.049 -0 -1.2 0
-1.504 -0.014 0.03 -0 -1.2 0
-1.56 -0.013 0.008 -0 -1.2 0
-1.617 -0.014 -0.013 -0 -1.2 0
-1.666 -0.022 -0.032 -0 -1.2 0
-1.723 -0.027 -0.054 -0 -1.2 0
-1.788 -0.027 -0.078 -0 -1.2 0
-1.855 -0.031 -0.104 -0 -1.2 0
-1.93 -0.031 -0.132 -0 -1.2 0
-1.98 -0.048 -0.152 -0 -1.2 0
-2.064 -0.048 -0.184 -0 -1.2 0
-2.14 -0.055 -0.212 -0 -1.2 0
-2.225 -0.062 -0.245 -0 -1.2 0
-2.302 -0.075 -0.274 -0 -1.2 0
-2.395 -0.082 -0.31 -0 -1.2 0
-2.482 -0.097 -0.343 -0 -1.2 0
-2.585 -0.108 -0.383 -0 -1.2 0
-2.698 -0.119 -0.426 -0 -1.2 0
-2.82 -0.131 -0.473 -0 -1.2 0
-2.96 -0.141 -0.526 -0 -1.2 0
-3.092 -0.159 -0.577 -0 -1.2 0
-3.251 -0.174 -0.638 -0 -1.2 0
-3.401 -0.197 -0.695 -0 -1.2 0
-3.607 -0.211 -0.773 -0 -1.2 0
-3.794 -0.238 -0.845 -0 -1.2 0
-4.045 -0.257 -0.941 -0 -1.2 0
-4.288 -0.287 -1.034 -0 -1.2 0
-4.634 -0.309 -1.166 -0 -1.2 0
-4.941 -0.348 -1.284 -0 -1.2 0
-5.361 -0.385 -1.444 -0 -1.2 0
-5.836 -0.43 -1.626 -0 -1.2 0
-6.478 -0.476 -1.871 -0 -1.2 0
-7.093 -0.548 -2.106 -0 -1.2 0
-7.081 -0.681 -2.104 -0 -1.2 0
-7.077 -0.812 -2.104 -0 -1.2 0
-7.07 -0.944 -2.104 -0 -1.2 0
-7.062 -1.075 -2.103 -0 -1.2 0
-7.061 -1.205 -2.105 -0 -1.2 0
-7.057 -1.335 -2.106 -0 -1.2 0
-7.052 -1.466 -2.106 -0 -1.2 0
-7.053 -1.597 -2.108 -0 -1.2 0
-7.034 -1.726 -2.103 -0 -1.2 0
-7.031 -1.857 -2.104 -0 -1.2 0
-7.026 -1.989 -2.105 -0 -1.2 0
-7.01 -2.119 -2.101 -0 -1.2 0
-7.01 -2.251 -2.103 -0 -1.2 0
-6.998 -2.383 -2.101 -0 -1.2 0
-6.939 -2.505 -2.08 -0 -1.2 0
-7.052 -2.664 -2.125 -0 -1.2 0
-7.051 -2.801 -2.128 -0 -1.2 0
-7.04 -2.937 -2.126 -0 -1.2 0
-7.044 -3.077 -2.13 -0 -1.2 0
-7.027 -3.212 -2.126 -0 -1.2 0
-7.028 -3.353 -2.128 -0 -1.2 0
-7.015 -3.493 -2.126 -0 -1.2 0
-7.01 -3.635 -2.127 -0 -1.2 0
-7.002 -3.779 -2.126 -0 -1.2 0
-7 -3.926 -2.127 -0 -1.2 0
-6.987 -4.07 -2.124 -0 -1.2 0
-6.979 -4.219 -2.124 -0 -1.2 0
-6.978 -4.372 -2.126 -0 -1.2 0
-6.973 -4.527 -2.127 -0 -1.2 0
-6.966 -4.682 -2.126 -0 -1.2 0
-6.955 -4.837 -2.126 -0 -1.2 0
-6.942 -4.993 -2.123 -0 -1.2 0
-6.933 -5.155 -2.123 -0 -1.2 0
-6.93 -5.323 -2.125 -0 -1.2 0
-6.924 -5.493 -2.124 -0 -1.2 0
-6.914 -5.663 -2.123 -0 -1.2 0
-6.908 -5.839 -2.124 -0 -1.2 0
-6.898 -6.017 -2.123 -0 -1.2 0
-6.901 -6.207 -2.127 -0 -1.2 0
-6.89 -6.393 -2.127 -0 -1.2 0
-6.885 -6.587 -2.128 -0 -1.2 0
-6.882 -6.786 -2.13 -0 -1.2 0
-6.874 -6.989 -2.13 -0 -1.2 0
-6.861 -7.193 -2.129 -0 -1.2 0
-6.851 -7.404 -2.129 -0 -1.2 0
-6.844 -7.624 -2.13 -0 -1.2 0
-6.831 -7.846 -2.128 -0 -1.2 0
-6.813 -8.068 -2.126 -0 -1.2 0
-6.797 -8.3 -2.123 -0 -1.2 0
-6.787 -8.547 -2.124 -0 -1.2 0
-1.125 -0.009 0.229 -0 -1.2 0
-1.157 -0.015 0.219 -0 -1.2 0
-1.203 -0.009 0.203 -0 -1.2 0
-1.242 -0.01 0.189 -0 -1.2 0
-1.274 -0.019 0.178 -0 -1.2 0
-1.329 -0.01 0.159 -0 -1.2 0
-1.376 -0.009 0.143 -0 -1.2 0
-1.424 -0.008 0.127 -0 -1.2 0
-1.465 -0.016 0.113 -0 -1.2 0
-1.521 -0.013 0.093 -0 -1.2 0
-1.577 -0.011 0.074 -0 -1.2 0
-1.626 -0.018 0.056 -0 -1.2 0
-1.684 -0.02 0.036 -0 -1.2 0
-1.742 -0.025 0.016 -0 -1.2 0
-1.8 -0.031 -0.004 -0 -1.2 0
-1.867 -0.034 -0.028 -0 -1.2 0
-1.934 -0.039 -0.051 -0 -1.2 0
-2.01 -0.041 -0.077 -0 -1.2 0
-2.078 -0.051 -0.1 -0 -1.2 0
-2.155 -0.058 -0.127 -0 -1.2 0
-2.241 -0.064 -0.157 -0 -1.2 0
-2.318 -0.076 -0.184 -0 -1.2 0
-2.405 -0.087 -0.214 -0 -1.2 0
-2.5 -0.099 -0.248 -0 -1.2 0
-2.606 -0.109 -0.283 -0 -1.2 0
-2.71 -0.123 -0.32 -0 -1.2 0
-2.843 -0.13 -0.366 -0 -1.2 0
-2.976 -0.143 -0.412 -0 -1.2 0
-3.117 -0.158 -0.461 -0 -1.2 0
-3.26 -0.178 -0.511 -0 -1.2 0
-3.44 -0.193 -0.574 -0 -1.2 0
-3.619 -0.215 -0.636 -0 -1.2 0
-3.837 -0.234 -0.711 -0 -1.2 0
-4.054 -0.26 -0.787 -0 -1.2 0
-4.337 -0.283 -0.885 -0 -1.2 0
-4.639 -0.312 -0.99 -0 -1.2 0
-4.969 -0.348 -1.104 -0 -1.2 0
-5.384 -0.384 -1.248 -0 -1.2 0
-5.883 -0.426 -1.422 -0 -1.2 0
-6.495 -0.476 -1.634 -0 -1.2 0
-7.098 -0.547 -1.844 -0 -1.2 0
-7.086 -0.679 -1.842 -0 -1.2 0
-7.082 -0.809 -1.842 -0 -1.2 0
-7.067 -0.939 -1.839 -0 -1.2 0
-7.058 -1.068 -1.839 -0 -1.2 0
-7.056 -1.197 -1.84 -0 -1.2 0
-7.053 -1.325 -1.842 -0 -1.2 0
-7.048 -1.454 -1.842 -0 -1.2 0
-7.049 -1.583 -1.845 -0 -1.2 0
-7.03 -1.712 -1.84 -0 -1.2 0
-7.028 -1.841 -1.842 -0 -1.2 0
-7.032 -1.972 -1.845 -0 -1.2 0
-7.025 -2.102 -1.844 -0 -1.2 0
-7.017 -2.232 -1.844 -0 -1.2 0
-7.015 -2.364 -1.846 -0 -1.2 0
-6.945 -2.483 -1.823 -0 -1.2 0
-7.06 -2.641 -1.866 -0 -1.2 0
-7.042 -2.771 -1.862 -0 -1.2 0
-7.04 -2.907 -1.863 -0 -1.2 0
-7.026 -3.041 -1.861 -0 -1.2 0
-7.038 -3.183 -1.867 -0 -1.2 0
-7.029 -3.321 -1.867 -0 -1.2 0
-7.026 -3.461 -1.868 -0 -1.2 0
-7.022 -3.603 -1.869 -0 -1.2 0
-7.014 -3.745 -1.869 -0 -1.2 0
-7.004 -3.887 -1.868 -0 -1.2 0
-6.992 -4.03 -1.865 -0 -1.2 0
-6.993 -4.181 -1.869 -0 -1.2 0
-6.983 -4.329 -1.868 -0 -1.2 0
-6.98 -4.482 -1.87 -0 -1.2 0
-6.965 -4.63 -1.867 -0 -1.2 0
-6.955 -4.785 -1.866 -0 -1.2 0
-6.952 -4.944 -1.867 -0 -1.2 0
-6.944 -5.105 -1.867 -0 -1.2 0
-6.933 -5.267 -1.867 -0 -1.2 0
-6.927 -5.435 -1.867 -0 -1.2 0
-6.918 -5.603 -1.867 -0 -1.2 0
-6.914 -5.778 -1.869 -0 -1.2 0
-6.905 -5.955 -1.868 -0 -1.2 0
-6.908 -6.143 -1.873 -0 -1.2 0
-6.892 -6.321 -1.87 -0 -1.2 0
-6.887 -6.513 -1.872 -0 -1.2 0
-6.885 -6.712 -1.874 -0 -1.2 0
-6.879 -6.913 -1.875 -0 -1.2 0
-6.868 -7.115 -1.875 -0 -1.2 0
-6.86 -7.326 -1.876 -0 -1.2 0
-6.847 -7.538 -1.875 -0 -1.2 0
-6.842 -7.764 -1.877 -0 -1.2 0
-6.825 -7.985 -1.875 -0 -1.2 0
-6.81 -8.215 -1.874 -0 -1.2 0
-6.796 -8.454 -1.873 -0 -1.2 0
-1.137 -0.008 0.283 -0 -1.2 0
-1.169 -0.014 0.272 -0 -1.2 0
-1.208 -0.013 0.26 -0 -1.2 0
-1.247 -0.015 0.247 -0 -1.2 0
-1.294 -0.011 0.233 -0 -1.2 0
-1.334 -0.014 0.221 -0 -1.2 0
-1.374 -0.019 0.208 -0 -1.2 0
-1.422 -0.019 0.193 -0 -1.2 0
-1.479 -0.014 0.175 -0 -1.2 0
-1.528 -0.017 0.161 -0 -1.2 0
-1.577 -0.021 0.144 -0 -1.2 0
-1.635 -0.021 0.127 -0 -1.2 0
-1.701 -0.018 0.106 -0 -1.2 0
-1.76 -0.023 0.088 -0 -1.2 0
-1.827 -0.023 0.067 -0 -1.2 0
-1.877 -0.036 0.051 -0 -1.2 0
-1.945 -0.04 0.029 -0 -1.2 0
-2.031 -0.038 0.003 -0 -1.2 0
-2.099 -0.048 -0.018 -0 -1.2 0
-2.168 -0.059 -0.04 -0 -1.2 0
-2.245 -0.069 -0.064 -0 -1.2 0
-2.333 -0.077 -0.092 -0 -1.2 0
-2.42 -0.088 -0.119 -0 -1.2 0
-2.507 -0.102 -0.146 -0 -1.2 0
-2.614 -0.113 -0.18 -0 -1.2 0
-2.728 -0.123 -0.215 -0 -1.2 0
-2.862 -0.131 -0.258 -0 -1.2 0
-2.996 -0.144 -0.299 -0 -1.2 0
-3.14 -0.158 -0.345 -0 -1.2 0
-3.293 -0.175 -0.392 -0 -1.2 0
-3.483 -0.186 -0.452 -0 -1.2 0
-3.666 -0.208 -0.51 -0 -1.2 0
-3.885 -0.226 -0.577 -0 -1.2 0
-4.114 -0.251 -0.65 -0 -1.2 0
-4.372 -0.28 -0.73 -0 -1.2 0
-4.686 -0.307 -0.829 -0 -1.2 0
-5.01 -0.343 -0.93 -0 -1.2 0
-5.4 -0.383 -1.052 -0 -1.2 0
-5.952 -0.419 -1.225 -0 -1.2 0
-6.238 -0.499 -1.316 -0 -1.2 0
-6.228 -0.614 -1.314 -0 -1.2 0
-6.739 -0.696 -1.476 -0 -1.2 0
-7.078 -0.804 -1.582 -0 -1.2 0
-7.072 -0.932 -1.583 -0 -1.2 0
-7.073 -1.06 -1.585 -0 -1.2 0
-7.071 -1.188 -1.587 -0 -1.2 0
-7.068 -1.316 -1.588 -0 -1.2 0
-7.063 -1.444 -1.589 -0 -1.2 0
-7.056 -1.572 -1.589 -0 -1.2 0
-7.036 -1.699 -1.585 -0 -1.2 0
-7.034 -1.827 -1.586 -0 -1.2 0
-7.03 -1.956 -1.588 -0 -1.2 0
-7.024 -2.084 -1.588 -0 -1.2 0
-7.025 -2.215 -1.59 -0 -1.2 0
-7.022 -2.345 -1.592 -0 -1.2 0
-6.944 -2.461 -1.569 -0 -1.2 0
-7.05 -2.615 -1.605 -0 -1.2 0
-7.051 -2.749 -1.608 -0 -1.2 0
-7.05 -2.884 -1.609 -0 -1.2 0
-7.046 -3.019 -1.611 -0 -1.2 0
-7.031 -3.152 -1.608 -0 -1.2 0
-7.031 -3.291 -1.611 -0 -1.2 0
-7.029 -3.43 -1.612 -0 -1.2 0
-7.024 -3.57 -1.614 -0 -1.2 0
