# .PCD v.7 - Point Cloud Data file format
FIELDS x y z vp_x vp_y vp_z
SIZE 4 4 4 4 4 4
TYPE F F F F F F
COUNT 1 1 1 1 1 1
WIDTH 1638
HEIGHT 1
VIEWPOINT 0 -1.20013 0 1 0 0 0
POINTS 1638
DATA ascii
19.97 -2.83 4.741 -0 -1.2 0
20.015 -3.191 4.75 -0 -1.2 0
20.024 -3.552 4.753 -0 -1.2 0
20.027 -3.913 4.754 -0 -1.2 0
20.005 -4.273 4.749 -0 -1.2 0
19.987 -4.633 4.746 -0 -1.2 0
26.137 -8.659 6.025 -0 -1.2 0
7.407 -5.73 2.137 -0 -1.2 0
8.083 -6.359 2.277 -0 -1.2 0
6.761 -6.379 2.003 -0 -1.2 0
1.162 0.003 0.807 -0 -1.2 0
1.202 0.006 0.814 -0 -1.2 0
1.242 0.008 0.82 -0 -1.2 0
1.283 0.007 0.827 -0 -1.2 0
1.323 0.007 0.833 -0 -1.2 0
1.38 0.018 0.843 -0 -1.2 0
1.413 0.009 0.849 -0 -1.2 0
1.463 0.011 0.857 -0 -1.2 0
1.505 0.006 0.865 -0 -1.2 0
1.563 0.011 0.875 -0 -1.2 0
1.607 0.003 0.881 -0 -1.2 0
1.666 0.005 0.891 -0 -1.2 0
1.725 0.005 0.901 -0 -1.2 0
1.785 0.005 0.912 -0 -1.2 0
1.846 0.002 0.922 -0 -1.2 0
1.932 0.012 0.936 -0 -1.2 0
2.002 0.01 0.948 -0 -1.2 0
2.072 0.006 0.96 -0 -1.2 0
2.161 0.008 0.974 -0 -1.2 0
2.258 0.013 0.991 -0 -1.2 0
2.366 0.02 1.01 -0 -1.2 0
2.474 0.022 1.027 -0 -1.2 0
2.574 0.017 1.044 -0 -1.2 0
2.692 0.016 1.065 -0 -1.2 0
2.83 0.02 1.087 -0 -1.2 0
2.959 0.015 1.11 -0 -1.2 0
3.126 0.02 1.137 -0 -1.2 0
3.331 0.032 1.172 -0 -1.2 0
3.556 0.044 1.209 -0 -1.2 0
3.801 0.053 1.25 -0 -1.2 0
4.049 0.055 1.293 -0 -1.2 0
4.334 0.058 1.34 -0 -1.2 0
4.679 0.067 1.398 -0 -1.2 0
5.053 0.07 1.462 -0 -1.2 0
5.477 0.07 1.533 -0 -1.2 0
6.049 0.086 1.629 -0 -1.2 0
6.65 0.086 1.73 -0 -1.2 0
7.467 0.101 1.868 -0 -1.2 0
8.366 0.099 2.019 -0 -1.2 0
9.628 0.112 2.231 -0 -1.2 0
11.196 0.112 2.496 -0 -1.2 0
13.642 0.138 2.907 -0 -1.2 0
17.132 0.154 3.495 -0 -1.2 0
17.092 -0.149 3.488 -0 -1.2 0
17.096 -0.45 3.489 -0 -1.2 0
17.065 -0.751 3.485 -0 -1.2 0
17.069 -1.051 3.485 -0 -1.2 0
17.116 -1.351 3.493 -0 -1.2 0
19.894 -3.15 3.963 -0 -1.2 0
19.875 -3.502 3.959 -0 -1.2 0
19.89 -3.86 3.961 -0 -1.2 0
19.907 -4.22 3.965 -0 -1.2 0
19.899 -4.578 3.964 -0 -1.2 0
9.687 -4.036 2.245 -0 -1.2 0
9.782 -4.635 2.261 -0 -1.2 0
9.269 -4.631 2.175 -0 -1.2 0
9.572 -4.942 2.226 -0 -1.2 0
9.651 -5.371 2.239 -0 -1.2 0
8.994 -5.266 2.129 -0 -1.2 0
9.046 -6.293 2.138 -0 -1.2 0
8.584 -6.225 2.061 -0 -1.2 0
7.523 -5.762 1.882 -0 -1.2 0
8.244 -6.418 2.004 -0 -1.2 0
6.745 -5.777 1.751 -0 -1.2 0
6.931 -6.466 1.783 -0 -1.2 0
6.576 -6.372 1.722 -0 -1.2 0
6.923 -7.727 1.783 -0 -1.2 0
1.175 0.011 0.781 -0 -1.2 0
1.208 0.007 0.786 -0 -1.2 0
1.249 0.009 0.791 -0 -1.2 0
1.297 0.016 0.797 -0 -1.2 0
1.33 0.008 0.801 -0 -1.2 0
1.379 0.013 0.808 -0 -1.2 0
1.413 0.004 0.813 -0 -1.2 0
1.471 0.012 0.82 -0 -1.2 0
1.505 0.001 0.824 -0 -1.2 0
1.555 0 0.831 -0 -1.2 0
1.614 0.004 0.839 -0 -1.2 0
1.674 0.007 0.847 -0 -1.2 0
1.734 0.007 0.854 -0 -1.2 0
1.802 0.011 0.864 -0 -1.2 0
1.863 0.009 0.872 -0 -1.2 0
1.941 0.013 0.882 -0 -1.2 0
2.012 0.012 0.892 -0 -1.2 0
2.082 0.007 0.901 -0 -1.2 0
2.163 0.006 0.911 -0 -1.2 0
2.269 0.015 0.926 -0 -1.2 0
2.377 0.021 0.94 -0 -1.2 0
2.469 0.015 0.952 -0 -1.2 0
2.587 0.019 0.967 -0 -1.2 0
2.706 0.018 0.984 -0 -1.2 0
2.835 0.018 1 -0 -1.2 0
2.974 0.017 1.019 -0 -1.2 0
3.133 0.018 1.04 -0 -1.2 0
3.33 0.027 1.066 -0 -1.2 0
3.556 0.04 1.096 -0 -1.2 0
3.821 0.056 1.132 -0 -1.2 0
4.06 0.055 1.163 -0 -1.2 0
4.347 0.059 1.201 -0 -1.2 0
4.674 0.063 1.244 -0 -1.2 0
5.06 0.069 1.295 -0 -1.2 0
5.496 0.072 1.353 -0 -1.2 0
6.021 0.079 1.423 -0 -1.2 0
6.617 0.079 1.501 -0 -1.2 0
7.448 0.097 1.611 -0 -1.2 0
8.351 0.096 1.731 -0 -1.2 0
9.57 0.104 1.892 -0 -1.2 0
11.147 0.108 2.101 -0 -1.2 0
13.526 0.13 2.416 -0 -1.2 0
17.766 0.207 2.978 -0 -1.2 0
17.975 -0.093 3.005 -0 -1.2 0
17.979 -0.408 3.006 -0 -1.2 0
17.969 -0.722 3.005 -0 -1.2 0
17.903 -1.037 2.997 -0 -1.2 0
18.08 -1.352 3.02 -0 -1.2 0
19.668 -1.719 3.231 -0 -1.2 0
19.733 -2.066 3.24 -0 -1.2 0
19.733 -2.414 3.24 -0 -1.2 0
20.063 -2.789 3.284 -0 -1.2 0
27.024 -6.277 4.208 -0 -1.2 0
26.629 -6.686 4.157 -0 -1.2 0
26.866 -9.763 4.191 -0 -1.2 0
9.606 -4.356 1.901 -0 -1.2 0
9.623 -4.55 1.903 -0 -1.2 0
8.977 -4.494 1.818 -0 -1.2 0
10.031 -5.099 1.957 -0 -1.2 0
9.622 -5.129 1.903 -0 -1.2 0
9.351 -5.207 1.868 -0 -1.2 0
9.522 -5.481 1.891 -0 -1.2 0
9.444 -5.647 1.881 -0 -1.2 0
9.603 -5.932 1.901 -0 -1.2 0
9.439 -6.268 1.88 -0 -1.2 0
9.099 -6.286 1.835 -0 -1.2 0
8.233 -5.979 1.721 -0 -1.2 0
8.391 -6.273 1.742 -0 -1.2 0
8.217 -6.364 1.718 -0 -1.2 0
7.943 -6.383 1.683 -0 -1.2 0
6.882 -5.841 1.541 -0 -1.2 0
8.077 -6.889 1.701 -0 -1.2 0
7.531 -6.694 1.629 -0 -1.2 0
8.084 -7.332 1.701 -0 -1.2 0
6.87 -6.574 1.54 -0 -1.2 0
7.178 -7.032 1.581 -0 -1.2 0
7.47 -7.73 1.621 -0 -1.2 0
7.151 -7.669 1.579 -0 -1.2 0
1.172 0.005 0.753 -0 -1.2 0
1.212 0.008 0.757 -0 -1.2 0
1.26 0.017 0.761 -0 -1.2 0
1.294 0.009 0.765 -0 -1.2 0
1.327 0.002 0.768 -0 -1.2 0
1.384 0.014 0.774 -0 -1.2 0
1.418 0.005 0.777 -0 -1.2 0
1.468 0.007 0.781 -0 -1.2 0
1.519 0.008 0.787 -0 -1.2 0
1.57 0.007 0.792 -0 -1.2 0
1.621 0.006 0.796 -0 -1.2 0
1.68 0.008 0.802 -0 -1.2 0
1.741 0.008 0.808 -0 -1.2 0
1.801 0.007 0.814 -0 -1.2 0
1.871 0.01 0.821 -0 -1.2 0
1.941 0.009 0.828 -0 -1.2 0
2.011 0.008 0.834 -0 -1.2 0
2.091 0.009 0.842 -0 -1.2 0
2.171 0.007 0.849 -0 -1.2 0
2.27 0.013 0.86 -0 -1.2 0
2.378 0.019 0.87 -0 -1.2 0
2.478 0.017 0.88 -0 -1.2 0
2.588 0.017 0.89 -0 -1.2 0
2.707 0.017 0.901 -0 -1.2 0
2.846 0.02 0.916 -0 -1.2 0
2.976 0.016 0.928 -0 -1.2 0
3.136 0.017 0.943 -0 -1.2 0
3.334 0.027 0.962 -0 -1.2 0
3.56 0.04 0.985 -0 -1.2 0
3.807 0.05 1.008 -0 -1.2 0
4.067 0.055 1.033 -0 -1.2 0
4.335 0.054 1.059 -0 -1.2 0
4.683 0.064 1.093 -0 -1.2 0
5.051 0.066 1.128 -0 -1.2 0
5.488 0.07 1.171 -0 -1.2 0
6.006 0.076 1.221 -0 -1.2 0
6.623 0.08 1.281 -0 -1.2 0
7.409 0.091 1.357 -0 -1.2 0
8.325 0.094 1.445 -0 -1.2 0
9.51 0.098 1.561 -0 -1.2 0
11.162 0.112 1.72 -0 -1.2 0
13.5 0.132 1.946 -0 -1.2 0
17.977 0.229 2.38 -0 -1.2 0
19.533 -0.678 2.531 -0 -1.2 0
19.588 -1.017 2.537 -0 -1.2 0
19.606 -1.359 2.539 -0 -1.2 0
10.807 -4.956 1.69 -0 -1.2 0
10.431 -5.026 1.655 -0 -1.2 0
9.631 -4.913 1.577 -0 -1.2 0
9.692 -5.134 1.583 -0 -1.2 0
9.957 -5.45 1.609 -0 -1.2 0
9.916 -5.638 1.605 -0 -1.2 0
10.006 -5.892 1.614 -0 -1.2 0
9.566 -5.885 1.571 -0 -1.2 0
9.226 -5.914 1.539 -0 -1.2 0
9.524 -6.286 1.568 -0 -1.2 0
9.165 -6.295 1.533 -0 -1.2 0
8.406 -6.054 1.459 -0 -1.2 0
8.285 -6.177 1.448 -0 -1.2 0
7.132 -5.633 1.336 -0 -1.2 0
7.938 -6.35 1.415 -0 -1.2 0
8.271 -6.783 1.447 -0 -1.2 0
7.299 -6.294 1.352 -0 -1.2 0
7.168 -6.389 1.34 -0 -1.2 0
7.515 -6.854 1.373 -0 -1.2 0
7.181 -6.796 1.341 -0 -1.2 0
7.551 -7.536 1.378 -0 -1.2 0
6.578 -6.893 1.283 -0 -1.2 0
6.301 -6.842 1.256 -0 -1.2 0
1.183 0.012 0.727 -0 -1.2 0
1.223 0.015 0.729 -0 -1.2 0
1.257 0.01 0.732 -0 -1.2 0
1.298 0.01 0.733 -0 -1.2 0
1.339 0.009 0.736 -0 -1.2 0
1.388 0.015 0.739 -0 -1.2 0
1.43 0.011 0.742 -0 -1.2 0
1.48 0.013 0.744 -0 -1.2 0
1.516 0.002 0.746 -0 -1.2 0
1.574 0.008 0.75 -0 -1.2 0
1.625 0.006 0.754 -0 -1.2 0
1.685 0.008 0.757 -0 -1.2 0
1.738 0.003 0.76 -0 -1.2 0
1.807 0.008 0.765 -0 -1.2 0
1.876 0.01 0.768 -0 -1.2 0
1.947 0.01 0.773 -0 -1.2 0
2.017 0.008 0.777 -0 -1.2 0
2.097 0.009 0.782 -0 -1.2 0
2.178 0.008 0.787 -0 -1.2 0
2.277 0.013 0.792 -0 -1.2 0
2.376 0.014 0.799 -0 -1.2 0
2.486 0.017 0.805 -0 -1.2 0
2.605 0.021 0.812 -0 -1.2 0
2.725 0.02 0.82 -0 -1.2 0
2.855 0.02 0.827 -0 -1.2 0
2.985 0.016 0.835 -0 -1.2 0
3.145 0.017 0.844 -0 -1.2 0
3.352 0.03 0.857 -0 -1.2 0
3.561 0.036 0.869 -0 -1.2 0
3.819 0.05 0.885 -0 -1.2 0
4.078 0.055 0.9 -0 -1.2 0
4.367 0.059 0.918 -0 -1.2 0
4.677 0.059 0.936 -0 -1.2 0
5.075 0.068 0.961 -0 -1.2 0
5.504 0.07 0.986 -0 -1.2 0
6.052 0.081 1.019 -0 -1.2 0
6.633 0.079 1.053 -0 -1.2 0
7.43 0.091 1.102 -0 -1.2 0
8.388 0.1 1.159 -0 -1.2 0
9.597 0.106 1.231 -0 -1.2 0
11.204 0.114 1.328 -0 -1.2 0
13.44 0.123 1.462 -0 -1.2 0
17.978 0.225 1.734 -0 -1.2 0
19.464 -0.003 1.824 -0 -1.2 0
19.52 -0.34 1.827 -0 -1.2 0
10.918 -5.2 1.32 -0 -1.2 0
10.484 -5.243 1.293 -0 -1.2 0
9.94 -5.226 1.261 -0 -1.2 0
9.922 -5.421 1.26 -0 -1.2 0
8.784 -5.102 1.191 -0 -1.2 0
10.646 -6.188 1.304 -0 -1.2 0
9.245 -5.709 1.219 -0 -1.2 0
9.076 -5.821 1.209 -0 -1.2 0
11.005 -7.084 1.328 -0 -1.2 0
9.278 -6.344 1.223 -0 -1.2 0
10.12 -7.061 1.274 -0 -1.2 0
9.226 -6.746 1.22 -0 -1.2 0
8.438 -6.461 1.172 -0 -1.2 0
8.608 -6.783 1.183 -0 -1.2 0
7.893 -6.503 1.14 -0 -1.2 0
6.818 -5.932 1.074 -0 -1.2 0
7.357 -6.514 1.108 -0 -1.2 0
7.071 -6.493 1.09 -0 -1.2 0
7.436 -6.983 1.113 -0 -1.2 0
7.163 -6.969 1.096 -0 -1.2 0
6.712 -6.791 1.069 -0 -1.2 0
6.567 -6.866 1.06 -0 -1.2 0
6.312 -6.835 1.046 -0 -1.2 0
6.629 -7.344 1.065 -0 -1.2 0
1.178 0.005 0.702 -0 -1.2 0
1.225 0.015 0.702 -0 -1.2 0
1.259 0.01 0.703 -0 -1.2 0
1.3 0.009 0.705 -0 -1.2 0
1.341 0.009 0.706 -0 -1.2 0
1.39 0.014 0.707 -0 -1.2 0
1.432 0.011 0.708 -0 -1.2 0
1.483 0.013 0.709 -0 -1.2 0
1.525 0.008 0.711 -0 -1.2 0
1.576 0.007 0.712 -0 -1.2 0
1.627 0.005 0.713 -0 -1.2 0
1.687 0.008 0.715 -0 -1.2 0
1.748 0.008 0.717 -0 -1.2 0
1.809 0.007 0.718 -0 -1.2 0
1.878 0.01 0.72 -0 -1.2 0
1.949 0.009 0.722 -0 -1.2 0
2.028 0.013 0.724 -0 -1.2 0
2.1 0.009 0.726 -0 -1.2 0
2.198 0.017 0.728 -0 -1.2 0
2.288 0.017 0.731 -0 -1.2 0
2.397 0.023 0.734 -0 -1.2 0
2.489 0.017 0.736 -0 -1.2 0
2.617 0.025 0.74 -0 -1.2 0
2.738 0.024 0.742 -0 -1.2 0
2.858 0.02 0.746 -0 -1.2 0
2.999 0.019 0.75 -0 -1.2 0
3.168 0.025 0.754 -0 -1.2 0
3.376 0.037 0.76 -0 -1.2 0
3.595 0.046 0.766 -0 -1.2 0
3.853 0.058 0.773 -0 -1.2 0
4.103 0.061 0.779 -0 -1.2 0
4.393 0.064 0.787 -0 -1.2 0
4.732 0.07 0.796 -0 -1.2 0
5.102 0.072 0.805 -0 -1.2 0
5.552 0.078 0.818 -0 -1.2 0
6.091 0.086 0.832 -0 -1.2 0
6.72 0.092 0.849 -0 -1.2 0
7.48 0.097 0.869 -0 -1.2 0
8.499 0.113 0.895 -0 -1.2 0
9.789 0.128 0.93 -0 -1.2 0
11.409 0.133 0.973 -0 -1.2 0
13.808 0.154 1.037 -0 -1.2 0
17.775 0.206 1.142 -0 -1.2 0
11.828 -4.852 0.995 -0 -1.2 0
9.29 -4.216 0.927 -0 -1.2 0
11.539 -5.204 0.988 -0 -1.2 0
10.952 -5.208 0.973 -0 -1.2 0
8.873 -4.595 0.916 -0 -1.2 0
10.24 -5.347 0.954 -0 -1.2 0
8.939 -4.984 0.919 -0 -1.2 0
9.042 -5.217 0.922 -0 -1.2 0
8.465 -5.128 0.906 -0 -1.2 0
9.58 -5.872 0.938 -0 -1.2 0
8.098 -5.3 0.897 -0 -1.2 0
9.399 -6.195 0.934 -0 -1.2 0
7.659 -5.412 0.885 -0 -1.2 0
9.155 -6.479 0.928 -0 -1.2 0
7.98 -5.968 0.895 -0 -1.2 0
10.08 -7.512 0.954 -0 -1.2 0
7.215 -5.845 0.875 -0 -1.2 0
6.959 -5.848 0.867 -0 -1.2 0
6.957 -6.026 0.868 -0 -1.2 0
6.622 -5.959 0.859 -0 -1.2 0
7.342 -6.695 0.88 -0 -1.2 0
7.757 -7.235 0.892 -0 -1.2 0
6.327 -6.266 0.852 -0 -1.2 0
6.252 -6.387 0.851 -0 -1.2 0
6.568 -6.86 0.859 -0 -1.2 0
7.193 -7.644 0.878 -0 -1.2 0
8.24 -8.88 0.908 -0 -1.2 0
1.185 0.012 0.677 -0 -1.2 0
1.226 0.015 0.677 -0 -1.2 0
1.267 0.017 0.677 -0 -1.2 0
1.308 0.016 0.676 -0 -1.2 0
1.349 0.016 0.676 -0 -1.2 0
1.398 0.02 0.676 -0 -1.2 0
1.441 0.017 0.676 -0 -1.2 0
1.483 0.013 0.676 -0 -1.2 0
1.534 0.014 0.675 -0 -1.2 0
1.577 0.007 0.675 -0 -1.2 0
1.637 0.011 0.674 -0 -1.2 0
1.688 0.008 0.674 -0 -1.2 0
1.757 0.014 0.673 -0 -1.2 0
1.818 0.012 0.673 -0 -1.2 0
1.897 0.02 0.672 -0 -1.2 0
1.958 0.014 0.672 -0 -1.2 0
2.029 0.013 0.672 -0 -1.2 0
2.101 0.008 0.671 -0 -1.2 0
2.208 0.021 0.67 -0 -1.2 0
2.29 0.016 0.67 -0 -1.2 0
2.399 0.023 0.669 -0 -1.2 0
2.499 0.021 0.668 -0 -1.2 0
2.628 0.029 0.668 -0 -1.2 0
2.748 0.028 0.666 -0 -1.2 0
2.869 0.024 0.666 -0 -1.2 0
3.01 0.023 0.665 -0 -1.2 0
3.206 0.038 0.664 -0 -1.2 0
3.396 0.043 0.662 -0 -1.2 0
3.596 0.045 0.661 -0 -1.2 0
3.864 0.061 0.659 -0 -1.2 0
4.133 0.068 0.657 -0 -1.2 0
4.404 0.066 0.655 -0 -1.2 0
4.743 0.073 0.653 -0 -1.2 0
5.133 0.078 0.65 -0 -1.2 0
5.602 0.088 0.647 -0 -1.2 0
6.123 0.091 0.643 -0 -1.2 0
6.782 0.102 0.639 -0 -1.2 0
7.542 0.105 0.633 -0 -1.2 0
8.592 0.125 0.626 -0 -1.2 0
9.882 0.137 0.618 -0 -1.2 0
11.602 0.152 0.606 -0 -1.2 0
14.091 0.177 0.589 -0 -1.2 0
18.469 0.254 0.559 -0 -1.2 0
11.595 -4.999 0.62 -0 -1.2 0
9.548 -4.488 0.633 -0 -1.2 0
9.469 -4.646 0.634 -0 -1.2 0
9.535 -4.86 0.634 -0 -1.2 0
9.995 -5.245 0.632 -0 -1.2 0
10.451 -5.65 0.63 -0 -1.2 0
10.488 -5.884 0.63 -0 -1.2 0
8.998 -5.386 0.639 -0 -1.2 0
9.958 -6.063 0.634 -0 -1.2 0
8.065 -5.283 0.646 -0 -1.2 0
8.253 -5.566 0.645 -0 -1.2 0
7.246 -5.175 0.65 -0 -1.2 0
9.553 -6.716 0.639 -0 -1.2 0
9.53 -6.928 0.64 -0 -1.2 0
8.065 -6.214 0.648 -0 -1.2 0
9.03 -7.058 0.644 -0 -1.2 0
6.657 -5.638 0.656 -0 -1.2 0
6.594 -5.763 0.656 -0 -1.2 0
7.096 -6.313 0.655 -0 -1.2 0
7.296 -6.66 0.654 -0 -1.2 0
6.94 -6.578 0.657 -0 -1.2 0
6.306 -6.248 0.66 -0 -1.2 0
6.435 -6.545 0.66 -0 -1.2 0
6.055 -6.401 0.662 -0 -1.2 0
7.416 -7.848 0.657 -0 -1.2 0
8.018 -8.666 0.655 -0 -1.2 0
1.184 0.033 -0.699 -0 -1.2 0
1.224 0.034 -0.701 -0 -1.2 0
1.259 0.029 -0.702 -0 -1.2 0
1.306 0.036 -0.705 -0 -1.2 0
1.348 0.035 -0.707 -0 -1.2 0
1.39 0.033 -0.709 -0 -1.2 0
1.432 0.03 -0.711 -0 -1.2 0
1.483 0.031 -0.713 -0 -1.2 0
1.534 0.033 -0.715 -0 -1.2 0
1.593 0.038 -0.718 -0 -1.2 0
1.636 0.029 -0.72 -0 -1.2 0
1.697 0.031 -0.723 -0 -1.2 0
1.749 0.026 -0.725 -0 -1.2 0
1.827 0.035 -0.728 -0 -1.2 0
1.889 0.032 -0.732 -0 -1.2 0
1.968 0.037 -0.735 -0 -1.2 0
2.039 0.034 -0.738 -0 -1.2 0
2.119 0.035 -0.742 -0 -1.2 0
2.2 0.033 -0.745 -0 -1.2 0
2.291 0.033 -0.749 -0 -1.2 0
2.391 0.034 -0.755 -0 -1.2 0
2.501 0.037 -0.76 -0 -1.2 0
2.62 0.041 -0.764 -0 -1.2 0
2.749 0.044 -0.771 -0 -1.2 0
2.889 0.047 -0.777 -0 -1.2 0
3.048 0.053 -0.785 -0 -1.2 0
3.218 0.056 -0.792 -0 -1.2 0
3.407 0.062 -0.801 -0 -1.2 0
3.617 0.067 -0.811 -0 -1.2 0
3.846 0.071 -0.821 -0 -1.2 0
4.144 0.087 -0.835 -0 -1.2 0
4.444 0.093 -0.848 -0 -1.2 0
4.802 0.104 -0.865 -0 -1.2 0
5.192 0.109 -0.882 -0 -1.2 0
5.632 0.111 -0.903 -0 -1.2 0
6.171 0.119 -0.928 -0 -1.2 0
6.849 0.133 -0.958 -0 -1.2 0
7.669 0.146 -0.996 -0 -1.2 0
8.717 0.164 -1.044 -0 -1.2 0
10.105 0.189 -1.107 -0 -1.2 0
11.933 0.215 -1.191 -0 -1.2 0
14.351 0.231 -1.302 -0 -1.2 0
18.636 0.305 -1.498 -0 -1.2 0
20.711 0.101 -1.595 -0 -1.2 0
20.729 -0.259 -1.598 -0 -1.2 0
20.72 -0.619 -1.601 -0 -1.2 0
20.745 -0.979 -1.604 -0 -1.2 0
20.724 -1.339 -1.607 -0 -1.2 0
20.766 -1.701 -1.612 -0 -1.2 0
20.762 -2.062 -1.614 -0 -1.2 0
20.772 -2.425 -1.617 -0 -1.2 0
20.776 -2.789 -1.62 -0 -1.2 0
20.762 -3.151 -1.622 -0 -1.2 0
20.773 -3.517 -1.626 -0 -1.2 0
20.787 -3.886 -1.629 -0 -1.2 0
20.784 -4.255 -1.632 -0 -1.2 0
20.765 -4.622 -1.634 -0 -1.2 0
20.779 -4.997 -1.637 -0 -1.2 0
20.737 -5.364 -1.638 -0 -1.2 0
20.699 -5.732 -1.639 -0 -1.2 0
20.73 -6.119 -1.643 -0 -1.2 0
13.083 -4.497 -1.28 -0 -1.2 0
11.974 -4.429 -1.228 -0 -1.2 0
11.886 -4.627 -1.226 -0 -1.2 0
20.805 -7.7 -1.659 -0 -1.2 0
20.8 -8.098 -1.662 -0 -1.2 0
9.437 -4.435 -1.112 -0 -1.2 0
11.648 -5.456 -1.221 -0 -1.2 0
7.783 -4.149 -1.034 -0 -1.2 0
7.286 -4.098 -1.011 -0 -1.2 0
7.855 -4.496 -1.04 -0 -1.2 0
6.243 -3.917 -0.961 -0 -1.2 0
10.935 -6.307 -1.195 -0 -1.2 0
6.113 -4.116 -0.957 -0 -1.2 0
7.661 -5.061 -1.035 -0 -1.2 0
7.406 -5.092 -1.024 -0 -1.2 0
10.12 -6.808 -1.161 -0 -1.2 0
5.011 -4.007 -0.905 -0 -1.2 0
5.071 -4.161 -0.91 -0 -1.2 0
6.538 -5.224 -0.985 -0 -1.2 0
5.459 -4.665 -0.931 -0 -1.2 0
6.455 -5.492 -0.983 -0 -1.2 0
5.469 -4.949 -0.934 -0 -1.2 0
8.493 -7.348 -1.091 -0 -1.2 0
5.039 -4.908 -0.914 -0 -1.2 0
7.288 -6.85 -1.032 -0 -1.2 0
4.75 -4.95 -0.9 -0 -1.2 0
9.187 -8.909 -1.134 -0 -1.2 0
6.588 -6.872 -1 -0 -1.2 0
4.997 -5.609 -0.917 -0 -1.2 0
4.881 -5.659 -0.912 -0 -1.2 0
1.183 0.033 -0.724 -0 -1.2 0
1.223 0.035 -0.728 -0 -1.2 0
1.257 0.029 -0.731 -0 -1.2 0
1.298 0.029 -0.734 -0 -1.2 0
1.34 0.028 -0.736 -0 -1.2 0
1.381 0.026 -0.74 -0 -1.2 0
1.438 0.037 -0.744 -0 -1.2 0
1.481 0.032 -0.748 -0 -1.2 0
1.531 0.033 -0.753 -0 -1.2 0
1.583 0.032 -0.756 -0 -1.2 0
1.642 0.035 -0.761 -0 -1.2 0
1.694 0.032 -0.765 -0 -1.2 0
1.755 0.032 -0.769 -0 -1.2 0
1.816 0.03 -0.775 -0 -1.2 0
1.895 0.037 -0.78 -0 -1.2 0
1.965 0.037 -0.787 -0 -1.2 0
2.036 0.035 -0.792 -0 -1.2 0
2.117 0.035 -0.798 -0 -1.2 0
2.196 0.033 -0.805 -0 -1.2 0
2.296 0.038 -0.813 -0 -1.2 0
2.396 0.039 -0.82 -0 -1.2 0
2.496 0.037 -0.828 -0 -1.2 0
2.607 0.037 -0.837 -0 -1.2 0
2.736 0.041 -0.847 -0 -1.2 0
2.884 0.047 -0.859 -0 -1.2 0
3.043 0.053 -0.872 -0 -1.2 0
3.222 0.061 -0.885 -0 -1.2 0
3.401 0.062 -0.899 -0 -1.2 0
3.61 0.067 -0.917 -0 -1.2 0
3.867 0.08 -0.936 -0 -1.2 0
4.107 0.079 -0.955 -0 -1.2 0
4.416 0.088 -0.98 -0 -1.2 0
4.783 0.101 -1.008 -0 -1.2 0
5.172 0.107 -1.039 -0 -1.2 0
5.592 0.106 -1.072 -0 -1.2 0
6.149 0.118 -1.116 -0 -1.2 0
6.768 0.121 -1.165 -0 -1.2 0
7.634 0.144 -1.234 -0 -1.2 0
8.67 0.161 -1.316 -0 -1.2 0
9.986 0.178 -1.419 -0 -1.2 0
11.899 0.216 -1.57 -0 -1.2 0
14.283 0.23 -1.759 -0 -1.2 0
18.608 0.308 -2.1 -0 -1.2 0
20.59 0.099 -2.258 -0 -1.2 0
20.597 -0.26 -2.261 -0 -1.2 0
20.598 -0.618 -2.264 -0 -1.2 0
20.603 -0.976 -2.266 -0 -1.2 0
20.573 -1.335 -2.266 -0 -1.2 0
20.665 -1.696 -2.276 -0 -1.2 0
20.671 -2.057 -2.279 -0 -1.2 0
20.68 -2.419 -2.282 -0 -1.2 0
20.684 -2.781 -2.285 -0 -1.2 0
20.671 -3.143 -2.286 -0 -1.2 0
20.682 -3.509 -2.29 -0 -1.2 0
20.686 -3.875 -2.292 -0 -1.2 0
20.693 -4.244 -2.295 -0 -1.2 0
20.693 -4.614 -2.298 -0 -1.2 0
14.056 -3.731 -1.768 -0 -1.2 0
20.704 -5.363 -2.305 -0 -1.2 0
15.181 -4.494 -1.862 -0 -1.2 0
13.298 -4.314 -1.711 -0 -1.2 0
20.704 -6.504 -2.312 -0 -1.2 0
20.703 -6.891 -2.314 -0 -1.2 0
11.289 -4.454 -1.554 -0 -1.2 0
15.008 -5.858 -1.857 -0 -1.2 0
20.721 -8.083 -2.324 -0 -1.2 0
9.099 -4.319 -1.38 -0 -1.2 0
8.995 -4.459 -1.373 -0 -1.2 0
10.972 -5.426 -1.536 -0 -1.2 0
7.529 -4.205 -1.255 -0 -1.2 0
7.51 -4.35 -1.254 -0 -1.2 0
7.688 -4.588 -1.27 -0 -1.2 0
7.581 -4.699 -1.263 -0 -1.2 0
7.633 -4.888 -1.267 -0 -1.2 0
7.151 -4.8 -1.229 -0 -1.2 0
6.036 -4.348 -1.138 -0 -1.2 0
5.754 -4.322 -1.116 -0 -1.2 0
5.671 -4.405 -1.11 -0 -1.2 0
5.29 -4.302 -1.079 -0 -1.2 0
5.468 -4.544 -1.094 -0 -1.2 0
5.05 -4.398 -1.06 -0 -1.2 0
5.435 -4.792 -1.094 -0 -1.2 0
5.362 -4.878 -1.088 -0 -1.2 0
5.151 -4.862 -1.071 -0 -1.2 0
5.219 -5.054 -1.078 -0 -1.2 0
5.251 -5.224 -1.081 -0 -1.2 0
11.121 -10.262 -1.58 -0 -1.2 0
4.552 -4.926 -1.024 -0 -1.2 0
4.395 -4.924 -1.012 -0 -1.2 0
4.965 -5.588 -1.061 -0 -1.2 0
4.352 -5.161 -1.011 -0 -1.2 0
1.179 0.033 -0.747 -0 -1.2 0
1.212 0.028 -0.751 -0 -1.2 0
1.253 0.03 -0.756 -0 -1.2 0
1.294 0.03 -0.761 -0 -1.2 0
1.335 0.028 -0.765 -0 -1.2 0
1.377 0.026 -0.77 -0 -1.2 0
1.427 0.031 -0.776 -0 -1.2 0
1.477 0.032 -0.781 -0 -1.2 0
1.528 0.033 -0.787 -0 -1.2 0
1.578 0.032 -0.793 -0 -1.2 0
1.629 0.029 -0.798 -0 -1.2 0
1.689 0.032 -0.805 -0 -1.2 0
1.75 0.032 -0.811 -0 -1.2 0
1.81 0.031 -0.819 -0 -1.2 0
1.872 0.027 -0.825 -0 -1.2 0
1.951 0.032 -0.834 -0 -1.2 0
2.03 0.035 -0.843 -0 -1.2 0
2.102 0.03 -0.851 -0 -1.2 0
2.19 0.033 -0.861 -0 -1.2 0
2.289 0.038 -0.872 -0 -1.2 0
2.389 0.039 -0.884 -0 -1.2 0
2.489 0.037 -0.895 -0 -1.2 0
2.607 0.041 -0.908 -0 -1.2 0
2.727 0.041 -0.922 -0 -1.2 0
2.866 0.044 -0.936 -0 -1.2 0
3.033 0.053 -0.956 -0 -1.2 0
3.212 0.061 -0.976 -0 -1.2 0
3.39 0.063 -0.995 -0 -1.2 0
3.589 0.064 -1.017 -0 -1.2 0
3.809 0.065 -1.042 -0 -1.2 0
4.076 0.074 -1.072 -0 -1.2 0
4.383 0.083 -1.107 -0 -1.2 0
4.739 0.095 -1.147 -0 -1.2 0
5.108 0.096 -1.188 -0 -1.2 0
5.546 0.1 -1.237 -0 -1.2 0
6.072 0.106 -1.296 -0 -1.2 0
6.688 0.111 -1.366 -0 -1.2 0
7.561 0.136 -1.464 -0 -1.2 0
8.565 0.151 -1.576 -0 -1.2 0
9.807 0.16 -1.715 -0 -1.2 0
11.694 0.198 -1.926 -0 -1.2 0
14.258 0.233 -2.215 -0 -1.2 0
18.055 0.272 -2.641 -0 -1.2 0
20.128 0.078 -2.874 -0 -1.2 0
20.116 -0.275 -2.875 -0 -1.2 0
20.435 -0.618 -2.912 -0 -1.2 0
20.439 -0.975 -2.915 -0 -1.2 0
20.418 -1.332 -2.915 -0 -1.2 0
20.49 -1.69 -2.925 -0 -1.2 0
20.516 -2.051 -2.931 -0 -1.2 0
20.516 -2.41 -2.932 -0 -1.2 0
20.52 -2.771 -2.935 -0 -1.2 0
20.537 -3.134 -2.94 -0 -1.2 0
20.518 -3.495 -2.939 -0 -1.2 0
20.532 -3.861 -2.943 -0 -1.2 0
20.52 -4.225 -2.944 -0 -1.2 0
20.531 -4.595 -2.947 -0 -1.2 0
20.555 -4.97 -2.952 -0 -1.2 0
20.533 -5.338 -2.952 -0 -1.2 0
14.213 -4.284 -2.236 -0 -1.2 0
14.04 -4.503 -2.218 -0 -1.2 0
14.939 -5.001 -2.322 -0 -1.2 0
14.457 -5.144 -2.269 -0 -1.2 0
14.918 -5.557 -2.323 -0 -1.2 0
11.222 -4.657 -1.902 -0 -1.2 0
11.347 -4.915 -1.918 -0 -1.2 0
11.923 -5.345 -1.986 -0 -1.2 0
9.078 -4.499 -1.661 -0 -1.2 0
8.86 -4.594 -1.638 -0 -1.2 0
11.998 -6.092 -1.998 -0 -1.2 0
20.563 -10.118 -2.984 -0 -1.2 0
6.337 -3.973 -1.35 -0 -1.2 0
8.301 -5.058 -1.577 -0 -1.2 0
11.365 -6.784 -1.931 -0 -1.2 0
10.049 -6.341 -1.781 -0 -1.2 0
5.73 -4.189 -1.283 -0 -1.2 0
5.831 -4.375 -1.296 -0 -1.2 0
5.849 -4.522 -1.299 -0 -1.2 0
5.755 -4.601 -1.289 -0 -1.2 0
7.098 -5.606 -1.445 -0 -1.2 0
6.357 -5.285 -1.36 -0 -1.2 0
6.913 -5.832 -1.426 -0 -1.2 0
20.177 -15.595 -2.973 -0 -1.2 0
8.21 -7.167 -1.58 -0 -1.2 0
5.345 -5.164 -1.246 -0 -1.2 0
5.203 -5.199 -1.23 -0 -1.2 0
5.1 -5.263 -1.22 -0 -1.2 0
5.095 -5.408 -1.22 -0 -1.2 0
5.049 -5.522 -1.215 -0 -1.2 0
4.212 -4.902 -1.117 -0 -1.2 0
3.987 -4.823 -1.092 -0 -1.2 0
1.175 0.033 -0.774 -0 -1.2 0
1.215 0.035 -0.781 -0 -1.2 0
1.249 0.03 -0.786 -0 -1.2 0
1.29 0.03 -0.791 -0 -1.2 0
1.331 0.029 -0.797 -0 -1.2 0
1.372 0.027 -0.804 -0 -1.2 0
1.421 0.031 -0.811 -0 -1.2 0
1.471 0.032 -0.819 -0 -1.2 0
1.514 0.027 -0.825 -0 -1.2 0
1.564 0.026 -0.832 -0 -1.2 0
1.624 0.03 -0.841 -0 -1.2 0
1.683 0.032 -0.85 -0 -1.2 0
1.735 0.026 -0.857 -0 -1.2 0
1.804 0.031 -0.867 -0 -1.2 0
1.873 0.033 -0.878 -0 -1.2 0
1.943 0.032 -0.888 -0 -1.2 0
2.022 0.035 -0.899 -0 -1.2 0
2.084 0.027 -0.909 -0 -1.2 0
2.182 0.034 -0.924 -0 -1.2 0
2.271 0.034 -0.936 -0 -1.2 0
2.379 0.04 -0.952 -0 -1.2 0
2.479 0.038 -0.967 -0 -1.2 0
2.597 0.042 -0.984 -0 -1.2 0
2.735 0.049 -1.005 -0 -1.2 0
2.864 0.048 -1.023 -0 -1.2 0
3.002 0.047 -1.044 -0 -1.2 0
3.189 0.058 -1.072 -0 -1.2 0
3.367 0.06 -1.098 -0 -1.2 0
3.584 0.068 -1.13 -0 -1.2 0
3.792 0.066 -1.161 -0 -1.2 0
4.049 0.073 -1.199 -0 -1.2 0
4.345 0.08 -1.243 -0 -1.2 0
4.719 0.097 -1.298 -0 -1.2 0
5.076 0.095 -1.351 -0 -1.2 0
5.482 0.093 -1.41 -0 -1.2 0
6.007 0.1 -1.487 -0 -1.2 0
6.659 0.113 -1.584 -0 -1.2 0
7.47 0.129 -1.703 -0 -1.2 0
8.488 0.148 -1.854 -0 -1.2 0
9.696 0.155 -2.032 -0 -1.2 0
11.584 0.196 -2.309 -0 -1.2 0
14.106 0.23 -2.682 -0 -1.2 0
18.251 0.3 -3.292 -0 -1.2 0
20.267 0.098 -3.592 -0 -1.2 0
18.544 -0.329 -3.339 -0 -1.2 0
20.295 -0.613 -3.598 -0 -1.2 0
20.3 -0.969 -3.601 -0 -1.2 0
20.279 -1.324 -3.599 -0 -1.2 0
20.331 -1.682 -3.609 -0 -1.2 0
20.367 -2.041 -3.615 -0 -1.2 0
20.387 -2.401 -3.62 -0 -1.2 0
20.372 -2.759 -3.619 -0 -1.2 0
20.369 -3.119 -3.62 -0 -1.2 0
20.379 -3.482 -3.623 -0 -1.2 0
20.384 -3.846 -3.625 -0 -1.2 0
20.392 -4.212 -3.628 -0 -1.2 0
20.383 -4.577 -3.628 -0 -1.2 0
20.397 -4.95 -3.632 -0 -1.2 0
20.396 -5.321 -3.633 -0 -1.2 0
20.397 -5.696 -3.634 -0 -1.2 0
20.4 -6.074 -3.637 -0 -1.2 0
20.397 -6.455 -3.638 -0 -1.2 0
13.453 -4.873 -2.607 -0 -1.2 0
14.608 -5.477 -2.78 -0 -1.2 0
20.402 -7.621 -3.643 -0 -1.2 0
11.852 -5.1 -2.372 -0 -1.2 0
11.799 -5.314 -2.365 -0 -1.2 0
14.473 -6.566 -2.764 -0 -1.2 0
8.879 -4.613 -1.931 -0 -1.2 0
8.817 -4.768 -1.922 -0 -1.2 0
11.652 -6.204 -2.347 -0 -1.2 0
12.308 -6.753 -2.446 -0 -1.2 0
10.335 -6.059 -2.152 -0 -1.2 0
6.209 -4.189 -1.535 -0 -1.2 0
5.997 -4.212 -1.504 -0 -1.2 0
5.924 -4.307 -1.493 -0 -1.2 0
5.661 -4.29 -1.455 -0 -1.2 0
6.159 -4.718 -1.53 -0 -1.2 0
6.634 -5.16 -1.602 -0 -1.2 0
9.71 -7.314 -2.065 -0 -1.2 0
6.34 -5.288 -1.559 -0 -1.2 0
10.896 -8.633 -2.246 -0 -1.2 0
5.316 -4.87 -1.407 -0 -1.2 0
8.273 -7.236 -1.852 -0 -1.2 0
5.675 -5.437 -1.462 -0 -1.2 0
11.222 -10.081 -2.3 -0 -1.2 0
10.966 -10.193 -2.263 -0 -1.2 0
4.948 -5.295 -1.354 -0 -1.2 0
6.508 -6.849 -1.591 -0 -1.2 0
9.069 -9.441 -1.979 -0 -1.2 0
5.189 -5.995 -1.392 -0 -1.2 0
1.162 0.026 -0.796 -0 -1.2 0
1.209 0.035 -0.805 -0 -1.2 0
1.235 0.023 -0.809 -0 -1.2 0
1.283 0.03 -0.818 -0 -1.2 0
1.324 0.029 -0.826 -0 -1.2 0
1.366 0.027 -0.832 -0 -1.2 0
1.415 0.031 -0.841 -0 -1.2 0
1.457 0.026 -0.849 -0 -1.2 0
1.514 0.033 -0.86 -0 -1.2 0
1.565 0.033 -0.869 -0 -1.2 0
1.624 0.036 -0.88 -0 -1.2 0
1.675 0.032 -0.889 -0 -1.2 0
1.735 0.033 -0.9 -0 -1.2 0
1.795 0.031 -0.91 -0 -1.2 0
1.872 0.038 -0.924 -0 -1.2 0
1.942 0.038 -0.936 -0 -1.2 0
2.012 0.035 -0.95 -0 -1.2 0
2.091 0.036 -0.964 -0 -1.2 0
2.179 0.04 -0.98 -0 -1.2 0
2.26 0.034 -0.994 -0 -1.2 0
2.367 0.04 -1.014 -0 -1.2 0
2.467 0.038 -1.032 -0 -1.2 0
2.584 0.042 -1.053 -0 -1.2 0
2.712 0.045 -1.076 -0 -1.2 0
2.849 0.049 -1.1 -0 -1.2 0
2.997 0.051 -1.128 -0 -1.2 0
3.163 0.055 -1.158 -0 -1.2 0
3.35 0.061 -1.191 -0 -1.2 0
3.547 0.063 -1.226 -0 -1.2 0
3.801 0.077 -1.273 -0 -1.2 0
4.037 0.076 -1.315 -0 -1.2 0
4.332 0.083 -1.368 -0 -1.2 0
4.714 0.102 -1.437 -0 -1.2 0
5.06 0.098 -1.499 -0 -1.2 0
5.483 0.101 -1.576 -0 -1.2 0
5.995 0.106 -1.669 -0 -1.2 0
6.634 0.117 -1.784 -0 -1.2 0
7.48 0.139 -1.936 -0 -1.2 0
8.435 0.147 -2.109 -0 -1.2 0
9.626 0.154 -2.324 -0 -1.2 0
11.612 0.207 -2.682 -0 -1.2 0
14.189 0.248 -3.147 -0 -1.2 0
17.88 0.283 -3.813 -0 -1.2 0
19.758 0.078 -4.153 -0 -1.2 0
19.608 -0.276 -4.127 -0 -1.2 0
20.111 -0.61 -4.218 -0 -1.2 0
20.155 -0.964 -4.227 -0 -1.2 0
20.144 -1.319 -4.226 -0 -1.2 0
20.196 -1.676 -4.236 -0 -1.2 0
20.233 -2.034 -4.244 -0 -1.2 0
20.233 -2.392 -4.245 -0 -1.2 0
20.236 -2.751 -4.246 -0 -1.2 0
20.243 -3.112 -4.249 -0 -1.2 0
20.236 -3.472 -4.248 -0 -1.2 0
20.24 -3.835 -4.249 -0 -1.2 0
20.249 -4.201 -4.252 -0 -1.2 0
20.25 -4.568 -4.253 -0 -1.2 0
20.255 -4.937 -4.255 -0 -1.2 0
20.243 -5.307 -4.254 -0 -1.2 0
14.963 -4.478 -3.299 -0 -1.2 0
14.674 -4.684 -3.247 -0 -1.2 0
14.4 -4.886 -3.198 -0 -1.2 0
13.12 -4.794 -2.967 -0 -1.2 0
14.139 -5.354 -3.152 -0 -1.2 0
20.261 -7.604 -4.263 -0 -1.2 0
11.801 -5.1 -2.73 -0 -1.2 0
14.465 -6.299 -3.214 -0 -1.2 0
20.266 -8.808 -4.267 -0 -1.2 0
8.88 -4.63 -2.201 -0 -1.2 0
8.81 -4.781 -2.189 -0 -1.2 0
11.62 -6.213 -2.7 -0 -1.2 0
10.359 -5.871 -2.472 -0 -1.2 0
10.231 -6.031 -2.448 -0 -1.2 0
5.994 -4.093 -1.679 -0 -1.2 0
5.932 -4.193 -1.668 -0 -1.2 0
8.27 -5.623 -2.094 -0 -1.2 0
19.898 -12.535 -4.21 -0 -1.2 0
11.403 -7.892 -2.665 -0 -1.2 0
20.347 -13.765 -4.295 -0 -1.2 0
11.352 -8.412 -2.657 -0 -1.2 0
10.898 -8.389 -2.575 -0 -1.2 0
10.754 -8.568 -2.55 -0 -1.2 0
5.235 -4.829 -1.544 -0 -1.2 0
8.273 -7.264 -2.098 -0 -1.2 0
5.578 -5.38 -1.607 -0 -1.2 0
5.45 -5.434 -1.584 -0 -1.2 0
6.284 -6.293 -1.737 -0 -1.2 0
5.978 -6.213 -1.681 -0 -1.2 0
9.241 -9.346 -2.278 -0 -1.2 0
4.828 -5.511 -1.472 -0 -1.2 0
4.687 -5.531 -1.447 -0 -1.2 0
1.163 0.033 -0.82 -0 -1.2 0
1.202 0.035 -0.828 -0 -1.2 0
1.229 0.023 -0.834 -0 -1.2 0
1.275 0.03 -0.844 -0 -1.2 0
1.316 0.029 -0.853 -0 -1.2 0
1.357 0.027 -0.862 -0 -1.2 0
1.414 0.037 -0.874 -0 -1.2 0
1.456 0.032 -0.882 -0 -1.2 0
1.506 0.033 -0.893 -0 -1.2 0
1.555 0.033 -0.904 -0 -1.2 0
1.614 0.036 -0.917 -0 -1.2 0
1.673 0.038 -0.929 -0 -1.2 0
1.724 0.033 -0.94 -0 -1.2 0
1.784 0.031 -0.952 -0 -1.2 0
1.853 0.033 -0.967 -0 -1.2 0
1.93 0.038 -0.984 -0 -1.2 0
2 0.036 -0.999 -0 -1.2 0
2.079 0.036 -1.016 -0 -1.2 0
2.149 0.029 -1.031 -0 -1.2 0
2.246 0.035 -1.052 -0 -1.2 0
2.344 0.036 -1.072 -0 -1.2 0
2.452 0.039 -1.096 -0 -1.2 0
2.568 0.043 -1.121 -0 -1.2 0
2.695 0.046 -1.147 -0 -1.2 0
2.814 0.042 -1.172 -0 -1.2 0
2.969 0.047 -1.206 -0 -1.2 0
3.144 0.056 -1.243 -0 -1.2 0
3.321 0.058 -1.281 -0 -1.2 0
3.525 0.063 -1.325 -0 -1.2 0
3.768 0.074 -1.377 -0 -1.2 0
4.003 0.074 -1.427 -0 -1.2 0
4.287 0.078 -1.488 -0 -1.2 0
4.667 0.098 -1.569 -0 -1.2 0
5.019 0.097 -1.644 -0 -1.2 0
5.421 0.095 -1.73 -0 -1.2 0
5.92 0.099 -1.836 -0 -1.2 0
6.564 0.112 -1.974 -0 -1.2 0
7.395 0.133 -2.151 -0 -1.2 0
8.343 0.144 -2.354 -0 -1.2 0
9.488 0.145 -2.599 -0 -1.2 0
11.393 0.193 -3.006 -0 -1.2 0
14.013 0.242 -3.566 -0 -1.2 0
18.1 0.312 -4.439 -0 -1.2 0
19.351 0.064 -4.707 -0 -1.2 0
19.329 -0.279 -4.703 -0 -1.2 0
19.995 -0.606 -4.845 -0 -1.2 0
20.01 -0.961 -4.849 -0 -1.2 0
19.999 -1.315 -4.847 -0 -1.2 0
20.042 -1.672 -4.855 -0 -1.2 0
20.087 -2.03 -4.866 -0 -1.2 0
20.087 -2.388 -4.866 -0 -1.2 0
20.092 -2.746 -4.867 -0 -1.2 0
20.099 -3.107 -4.869 -0 -1.2 0
20.091 -3.467 -4.868 -0 -1.2 0
20.105 -3.831 -4.871 -0 -1.2 0
20.095 -4.194 -4.869 -0 -1.2 0
20.106 -4.561 -4.872 -0 -1.2 0
20.111 -4.93 -4.873 -0 -1.2 0
20.109 -5.301 -4.873 -0 -1.2 0
20.111 -5.675 -4.874 -0 -1.2 0
20.106 -6.05 -4.873 -0 -1.2 0
20.122 -6.434 -4.876 -0 -1.2 0
20.122 -6.817 -4.878 -0 -1.2 0
12.544 -4.891 -3.256 -0 -1.2 0
14.574 -5.793 -3.69 -0 -1.2 0
20.116 -7.989 -4.877 -0 -1.2 0
11.623 -5.292 -3.06 -0 -1.2 0
8.878 -4.469 -2.472 -0 -1.2 0
8.873 -4.647 -2.471 -0 -1.2 0
8.811 -4.802 -2.458 -0 -1.2 0
10.681 -5.823 -2.859 -0 -1.2 0
20.12 -10.473 -4.879 -0 -1.2 0
6.044 -4.005 -1.867 -0 -1.2 0
5.914 -4.07 -1.839 -0 -1.2 0
5.889 -4.187 -1.833 -0 -1.2 0
9.534 -6.355 -2.614 -0 -1.2 0
9.97 -6.828 -2.707 -0 -1.2 0
10.039 -7.106 -2.723 -0 -1.2 0
20.201 -13.747 -4.899 -0 -1.2 0
20.205 -14.249 -4.901 -0 -1.2 0
20.213 -14.766 -4.903 -0 -1.2 0
8.574 -7.072 -2.41 -0 -1.2 0
8.376 -7.152 -2.367 -0 -1.2 0
10.712 -9.154 -2.868 -0 -1.2 0
10.565 -9.335 -2.837 -0 -1.2 0
10.385 -9.49 -2.798 -0 -1.2 0
6.27 -6.311 -1.917 -0 -1.2 0
8.726 -8.654 -2.444 -0 -1.2 0
5.972 -6.422 -1.853 -0 -1.2 0
8.513 -9.004 -2.398 -0 -1.2 0
4.569 -5.441 -1.553 -0 -1.2 0
1.148 0.026 -0.843 -0 -1.2 0
1.187 0.028 -0.854 -0 -1.2 0
1.227 0.03 -0.864 -0 -1.2 0
1.267 0.03 -0.873 -0 -1.2 0
1.314 0.036 -0.886 -0 -1.2 0
1.348 0.027 -0.894 -0 -1.2 0
1.396 0.031 -0.906 -0 -1.2 0
1.445 0.032 -0.919 -0 -1.2 0
1.487 0.027 -0.928 -0 -1.2 0
1.545 0.032 -0.943 -0 -1.2 0
1.595 0.03 -0.956 -0 -1.2 0
1.653 0.032 -0.97 -0 -1.2 0
1.703 0.026 -0.983 -0 -1.2 0
1.771 0.031 -1 -0 -1.2 0
1.839 0.033 -1.017 -0 -1.2 0
1.908 0.032 -1.034 -0 -1.2 0
1.985 0.035 -1.053 -0 -1.2 0
2.063 0.036 -1.073 -0 -1.2 0
2.133 0.029 -1.09 -0 -1.2 0
2.221 0.03 -1.112 -0 -1.2 0
2.326 0.036 -1.139 -0 -1.2 0
2.433 0.039 -1.165 -0 -1.2 0
2.541 0.038 -1.192 -0 -1.2 0
2.675 0.046 -1.226 -0 -1.2 0
2.793 0.042 -1.255 -0 -1.2 0
2.947 0.047 -1.294 -0 -1.2 0
3.111 0.052 -1.336 -0 -1.2 0
3.295 0.058 -1.381 -0 -1.2 0
3.489 0.061 -1.43 -0 -1.2 0
3.721 0.068 -1.488 -0 -1.2 0
3.955 0.067 -1.546 -0 -1.2 0
4.236 0.072 -1.616 -0 -1.2 0
4.564 0.081 -1.699 -0 -1.2 0
4.943 0.088 -1.794 -0 -1.2 0
5.36 0.091 -1.898 -0 -1.2 0
5.855 0.095 -2.021 -0 -1.2 0
6.466 0.103 -2.175 -0 -1.2 0
7.26 0.121 -2.374 -0 -1.2 0
8.211 0.133 -2.611 -0 -1.2 0
9.365 0.139 -2.9 -0 -1.2 0
11.111 0.171 -3.337 -0 -1.2 0
13.729 0.226 -3.992 -0 -1.2 0
17.599 0.285 -4.961 -0 -1.2 0
19.837 0.104 -5.521 -0 -1.2 0
19.844 -0.25 -5.522 -0 -1.2 0
19.866 -0.604 -5.527 -0 -1.2 0
19.861 -0.959 -5.526 -0 -1.2 0
19.842 -1.314 -5.52 -0 -1.2 0
19.893 -1.671 -5.533 -0 -1.2 0
19.919 -2.028 -5.539 -0 -1.2 0
19.929 -2.387 -5.541 -0 -1.2 0
19.943 -2.746 -5.544 -0 -1.2 0
19.932 -3.104 -5.542 -0 -1.2 0
19.952 -3.468 -5.547 -0 -1.2 0
19.948 -3.83 -5.545 -0 -1.2 0
19.947 -4.194 -5.544 -0 -1.2 0
19.948 -4.56 -5.545 -0 -1.2 0
19.944 -4.927 -5.543 -0 -1.2 0
19.962 -5.302 -5.547 -0 -1.2 0
19.954 -5.673 -5.545 -0 -1.2 0
19.959 -6.051 -5.546 -0 -1.2 0
13.657 -4.737 -3.969 -0 -1.2 0
13.089 -4.835 -3.828 -0 -1.2 0
11.564 -4.619 -3.445 -0 -1.2 0
11.392 -4.787 -3.403 -0 -1.2 0
11.401 -5.016 -3.405 -0 -1.2 0
19.969 -8.391 -5.545 -0 -1.2 0
19.97 -8.796 -5.545 -0 -1.2 0
8.824 -4.654 -2.76 -0 -1.2 0
8.825 -4.837 -2.76 -0 -1.2 0
19.969 -10.045 -5.544 -0 -1.2 0
19.956 -10.468 -5.54 -0 -1.2 0
6.033 -4.022 -2.062 -0 -1.2 0
5.922 -4.097 -2.035 -0 -1.2 0
10.367 -6.625 -3.144 -0 -1.2 0
19.708 -12.116 -5.477 -0 -1.2 0
8.883 -6.235 -2.774 -0 -1.2 0
10.222 -7.263 -3.107 -0 -1.2 0
9.935 -7.328 -3.035 -0 -1.2 0
9.901 -7.553 -3.027 -0 -1.2 0
8.579 -6.898 -2.696 -0 -1.2 0
8.463 -7.038 -2.668 -0 -1.2 0
9.442 -7.985 -2.911 -0 -1.2 0
5.064 -4.888 -1.818 -0 -1.2 0
9.219 -8.328 -2.855 -0 -1.2 0
10.497 -9.646 -3.174 -0 -1.2 0
10.246 -9.742 -3.111 -0 -1.2 0
8.699 -8.686 -2.724 -0 -1.2 0
6.226 -6.694 -2.108 -0 -1.2 0
6.201 -6.871 -2.101 -0 -1.2 0
6.771 -7.635 -2.243 -0 -1.2 0
1.145 0.033 -0.868 -0 -1.2 0
1.177 0.027 -0.878 -0 -1.2 0
1.217 0.029 -0.889 -0 -1.2 0
1.256 0.029 -0.9 -0 -1.2 0
1.289 0.022 -0.909 -0 -1.2 0
1.337 0.026 -0.923 -0 -1.2 0
1.385 0.03 -0.936 -0 -1.2 0
1.426 0.026 -0.948 -0 -1.2 0
1.482 0.033 -0.964 -0 -1.2 0
1.531 0.032 -0.978 -0 -1.2 0
1.589 0.036 -0.995 -0 -1.2 0
1.639 0.032 -1.009 -0 -1.2 0
1.698 0.032 -1.026 -0 -1.2 0
1.764 0.036 -1.045 -0 -1.2 0
1.824 0.033 -1.062 -0 -1.2 0
1.892 0.032 -1.08 -0 -1.2 0
1.969 0.035 -1.102 -0 -1.2 0
2.047 0.036 -1.124 -0 -1.2 0
2.124 0.034 -1.147 -0 -1.2 0
2.211 0.034 -1.171 -0 -1.2 0
2.308 0.036 -1.199 -0 -1.2 0
2.412 0.038 -1.229 -0 -1.2 0
2.519 0.038 -1.259 -0 -1.2 0
2.644 0.042 -1.295 -0 -1.2 0
2.76 0.037 -1.328 -0 -1.2 0
2.914 0.044 -1.372 -0 -1.2 0
3.085 0.052 -1.421 -0 -1.2 0
3.267 0.058 -1.472 -0 -1.2 0
3.46 0.061 -1.527 -0 -1.2 0
3.69 0.067 -1.593 -0 -1.2 0
3.93 0.07 -1.661 -0 -1.2 0
4.209 0.075 -1.74 -0 -1.2 0
4.517 0.078 -1.828 -0 -1.2 0
4.892 0.085 -1.935 -0 -1.2 0
5.286 0.084 -2.047 -0 -1.2 0
5.767 0.086 -2.184 -0 -1.2 0
6.392 0.099 -2.362 -0 -1.2 0
7.227 0.125 -2.6 -0 -1.2 0
8.074 0.123 -2.84 -0 -1.2 0
9.038 0.105 -3.115 -0 -1.2 0
10.93 0.161 -3.654 -0 -1.2 0
13.64 0.228 -4.426 -0 -1.2 0
17.611 0.297 -5.556 -0 -1.2 0
17.527 -0.026 -5.531 -0 -1.2 0
17.523 -0.343 -5.529 -0 -1.2 0
17.639 -0.656 -5.561 -0 -1.2 0
19.731 -0.96 -6.155 -0 -1.2 0
19.712 -1.315 -6.149 -0 -1.2 0
19.743 -1.672 -6.157 -0 -1.2 0
19.789 -2.031 -6.169 -0 -1.2 0
19.789 -2.389 -6.168 -0 -1.2 0
19.803 -2.75 -6.171 -0 -1.2 0
19.792 -3.108 -6.167 -0 -1.2 0
19.803 -3.471 -6.169 -0 -1.2 0
19.808 -3.834 -6.17 -0 -1.2 0
19.808 -4.199 -6.168 -0 -1.2 0
19.809 -4.566 -6.168 -0 -1.2 0
19.824 -4.937 -6.171 -0 -1.2 0
19.822 -5.308 -6.17 -0 -1.2 0
19.805 -5.678 -6.164 -0 -1.2 0
19.81 -6.056 -6.164 -0 -1.2 0
13.431 -4.707 -4.352 -0 -1.2 0
12.961 -4.83 -4.218 -0 -1.2 0
19.82 -7.21 -6.164 -0 -1.2 0
10.096 -4.391 -3.404 -0 -1.2 0
10.212 -4.633 -3.436 -0 -1.2 0
8.856 -4.336 -3.051 -0 -1.2 0
8.746 -4.472 -3.02 -0 -1.2 0
8.822 -4.683 -3.04 -0 -1.2 0
12.464 -6.445 -4.072 -0 -1.2 0
19.822 -10.053 -6.157 -0 -1.2 0
6.356 -4.069 -2.34 -0 -1.2 0
6.184 -4.121 -2.291 -0 -1.2 0
11.199 -6.871 -3.711 -0 -1.2 0
19.779 -11.79 -6.14 -0 -1.2 0
19.563 -12.126 -6.077 -0 -1.2 0
8.718 -6.181 -3.007 -0 -1.2 0
19.894 -13.263 -6.167 -0 -1.2 0
19.892 -13.751 -6.166 -0 -1.2 0
8.565 -6.718 -2.961 -0 -1.2 0
8.509 -6.898 -2.945 -0 -1.2 0
10.952 -8.872 -3.635 -0 -1.2 0
10.75 -9.015 -3.577 -0 -1.2 0
10.655 -9.237 -3.549 -0 -1.2 0
8.884 -8.121 -3.049 -0 -1.2 0
8.721 -8.241 -3.002 -0 -1.2 0
8.652 -8.441 -2.982 -0 -1.2 0
10.586 -10.431 -3.527 -0 -1.2 0
5.91 -6.448 -2.207 -0 -1.2 0
6.18 -6.898 -2.283 -0 -1.2 0
5.811 -6.739 -2.178 -0 -1.2 0
1.128 0.025 -0.887 -0 -1.2 0
1.173 0.034 -0.901 -0 -1.2 0
1.206 0.029 -0.912 -0 -1.2 0
1.245 0.029 -0.924 -0 -1.2 0
1.285 0.028 -0.937 -0 -1.2 0
1.325 0.026 -0.949 -0 -1.2 0
1.373 0.03 -0.964 -0 -1.2 0
1.42 0.031 -0.98 -0 -1.2 0
1.461 0.026 -0.993 -0 -1.2 0
1.517 0.032 -1.011 -0 -1.2 0
1.575 0.035 -1.03 -0 -1.2 0
1.624 0.031 -1.045 -0 -1.2 0
1.682 0.032 -1.064 -0 -1.2 0
1.741 0.03 -1.082 -0 -1.2 0
1.807 0.032 -1.104 -0 -1.2 0
1.883 0.037 -1.128 -0 -1.2 0
1.959 0.04 -1.152 -0 -1.2 0
2.027 0.036 -1.174 -0 -1.2 0
2.104 0.034 -1.199 -0 -1.2 0
2.199 0.038 -1.229 -0 -1.2 0
2.295 0.039 -1.259 -0 -1.2 0
2.382 0.034 -1.287 -0 -1.2 0
2.487 0.033 -1.321 -0 -1.2 0
2.619 0.042 -1.363 -0 -1.2 0
2.743 0.041 -1.403 -0 -1.2 0
2.895 0.046 -1.451 -0 -1.2 0
3.056 0.052 -1.503 -0 -1.2 0
3.237 0.057 -1.561 -0 -1.2 0
3.436 0.062 -1.625 -0 -1.2 0
3.646 0.064 -1.691 -0 -1.2 0
3.911 0.075 -1.776 -0 -1.2 0
4.169 0.075 -1.858 -0 -1.2 0
4.483 0.08 -1.958 -0 -1.2 0
4.836 0.082 -2.071 -0 -1.2 0
5.236 0.084 -2.199 -0 -1.2 0
5.713 0.086 -2.351 -0 -1.2 0
6.332 0.098 -2.549 -0 -1.2 0
7.112 0.116 -2.798 -0 -1.2 0
7.904 0.107 -3.052 -0 -1.2 0
8.65 0.063 -3.289 -0 -1.2 0
10.845 0.162 -3.992 -0 -1.2 0
13.463 0.222 -4.828 -0 -1.2 0
17.282 0.282 -6.048 -0 -1.2 0
17.359 -0.028 -6.071 -0 -1.2 0
17.699 -0.33 -6.179 -0 -1.2 0
19.585 -0.605 -6.78 -0 -1.2 0
19.591 -0.961 -6.78 -0 -1.2 0
19.571 -1.318 -6.772 -0 -1.2 0
19.746 -1.68 -6.826 -0 -1.2 0
19.876 -2.046 -6.866 -0 -1.2 0
19.887 -2.41 -6.868 -0 -1.2 0
19.891 -2.775 -6.867 -0 -1.2 0
19.889 -3.14 -6.866 -0 -1.2 0
19.881 -3.505 -6.86 -0 -1.2 0
19.875 -3.873 -6.857 -0 -1.2 0
19.676 -4.21 -6.792 -0 -1.2 0
19.678 -4.578 -6.791 -0 -1.2 0
14.476 -3.924 -5.133 -0 -1.2 0
14.344 -4.168 -5.089 -0 -1.2 0
12.729 -4.061 -4.573 -0 -1.2 0
13.892 -4.601 -4.943 -0 -1.2 0
13.73 -4.825 -4.89 -0 -1.2 0
19.989 -6.929 -6.879 -0 -1.2 0
9.352 -3.991 -3.495 -0 -1.2 0
9.394 -4.19 -3.507 -0 -1.2 0
8.781 -4.161 -3.312 -0 -1.2 0
8.684 -4.303 -3.28 -0 -1.2 0
12.858 -6.129 -4.606 -0 -1.2 0
12.994 -6.454 -4.647 -0 -1.2 0
12.727 -6.612 -4.562 -0 -1.2 0
13.35 -7.17 -4.758 -0 -1.2 0
6.479 -4.158 -2.577 -0 -1.2 0
11.55 -6.851 -4.184 -0 -1.2 0
11.232 -6.944 -4.082 -0 -1.2 0
8.608 -5.76 -3.25 -0 -1.2 0
8.512 -5.906 -3.218 -0 -1.2 0
8.523 -6.113 -3.221 -0 -1.2 0
8.536 -6.327 -3.224 -0 -1.2 0
8.505 -6.517 -3.213 -0 -1.2 0
8.703 -6.864 -3.275 -0 -1.2 0
8.773 -7.137 -3.295 -0 -1.2 0
8.749 -7.351 -3.288 -0 -1.2 0
8.73 -7.573 -3.28 -0 -1.2 0
8.705 -7.794 -3.272 -0 -1.2 0
8.744 -8.074 -3.282 -0 -1.2 0
8.91 -8.468 -3.334 -0 -1.2 0
9.022 -8.831 -3.368 -0 -1.2 0
7.502 -7.743 -2.887 -0 -1.2 0
8.831 -9.219 -3.305 -0 -1.2 0
6.196 -6.967 -2.473 -0 -1.2 0
6.408 -7.387 -2.539 -0 -1.2 0
1.117 0.024 -0.909 -0 -1.2 0
1.156 0.026 -0.922 -0 -1.2 0
1.201 0.035 -0.939 -0 -1.2 0
1.233 0.028 -0.95 -0 -1.2 0
1.273 0.027 -0.964 -0 -1.2 0
1.312 0.025 -0.978 -0 -1.2 0
1.366 0.036 -0.997 -0 -1.2 0
1.406 0.031 -1.011 -0 -1.2 0
1.447 0.026 -1.026 -0 -1.2 0
1.495 0.025 -1.043 -0 -1.2 0
1.559 0.035 -1.066 -0 -1.2 0
1.6 0.025 -1.08 -0 -1.2 0
1.666 0.031 -1.104 -0 -1.2 0
1.731 0.035 -1.127 -0 -1.2 0
1.789 0.031 -1.148 -0 -1.2 0
1.856 0.031 -1.171 -0 -1.2 0
1.931 0.034 -1.198 -0 -1.2 0
2.007 0.035 -1.225 -0 -1.2 0
2.083 0.033 -1.252 -0 -1.2 0
2.168 0.033 -1.282 -0 -1.2 0
2.28 0.044 -1.322 -0 -1.2 0
2.374 0.041 -1.356 -0 -1.2 0
2.479 0.041 -1.393 -0 -1.2 0
2.601 0.044 -1.436 -0 -1.2 0
2.723 0.044 -1.48 -0 -1.2 0
2.856 0.042 -1.527 -0 -1.2 0
3.024 0.051 -1.586 -0 -1.2 0
3.195 0.053 -1.647 -0 -1.2 0
3.391 0.059 -1.716 -0 -1.2 0
3.617 0.066 -1.797 -0 -1.2 0
3.871 0.074 -1.887 -0 -1.2 0
4.135 0.076 -1.981 -0 -1.2 0
4.427 0.076 -2.084 -0 -1.2 0
4.785 0.081 -2.212 -0 -1.2 0
5.191 0.084 -2.356 -0 -1.2 0
5.644 0.083 -2.517 -0 -1.2 0
6.256 0.095 -2.734 -0 -1.2 0
7.027 0.113 -3.009 -0 -1.2 0
7.727 0.091 -3.257 -0 -1.2 0
8.325 0.029 -3.469 -0 -1.2 0
9.194 -0.021 -3.777 -0 -1.2 0
13.441 0.231 -5.287 -0 -1.2 0
17.755 0.331 -6.819 -0 -1.2 0
18.078 0.023 -6.933 -0 -1.2 0
19.45 -0.249 -7.418 -0 -1.2 0
19.442 -0.607 -7.413 -0 -1.2 0
19.448 -0.965 -7.412 -0 -1.2 0
19.438 -1.323 -7.407 -0 -1.2 0
19.489 -1.683 -7.422 -0 -1.2 0
19.514 -2.043 -7.429 -0 -1.2 0
19.515 -2.404 -7.428 -0 -1.2 0
19.52 -2.765 -7.427 -0 -1.2 0
19.537 -3.129 -7.431 -0 -1.2 0
19.53 -3.492 -7.425 -0 -1.2 0
19.535 -3.858 -7.425 -0 -1.2 0
19.543 -4.226 -7.426 -0 -1.2 0
19.536 -4.593 -7.421 -0 -1.2 0
13.75 -3.812 -5.37 -0 -1.2 0
19.503 -5.33 -7.404 -0 -1.2 0
13.635 -4.311 -5.326 -0 -1.2 0
13.837 -4.627 -5.397 -0 -1.2 0
8.961 -3.546 -3.672 -0 -1.2 0
9.001 -3.734 -3.684 -0 -1.2 0
8.659 -3.804 -3.563 -0 -1.2 0
8.685 -3.985 -3.571 -0 -1.2 0
8.636 -4.144 -3.552 -0 -1.2 0
11.064 -5.239 -4.407 -0 -1.2 0
10.677 -5.315 -4.269 -0 -1.2 0
10.536 -5.479 -4.218 -0 -1.2 0
6.902 -4.098 -2.937 -0 -1.2 0
6.661 -4.135 -2.851 -0 -1.2 0
8.472 -5.16 -3.488 -0 -1.2 0
8.378 -5.301 -3.453 -0 -1.2 0
8.359 -5.48 -3.445 -0 -1.2 0
8.37 -5.678 -3.448 -0 -1.2 0
8.384 -5.884 -3.451 -0 -1.2 0
8.419 -6.105 -3.462 -0 -1.2 0
8.474 -6.345 -3.48 -0 -1.2 0
8.555 -6.609 -3.507 -0 -1.2 0
8.614 -6.866 -3.527 -0 -1.2 0
8.637 -7.106 -3.533 -0 -1.2 0
8.646 -7.342 -3.535 -0 -1.2 0
10.168 -8.733 -4.067 -0 -1.2 0
6.088 -5.804 -2.637 -0 -1.2 0
8.551 -7.99 -3.497 -0 -1.2 0
9.476 -9.025 -3.819 -0 -1.2 0
8.865 -8.775 -3.604 -0 -1.2 0
6.868 -7.236 -2.904 -0 -1.2 0
6.314 -6.935 -2.71 -0 -1.2 0
5.759 -6.602 -2.514 -0 -1.2 0
7.144 -8.197 -2.997 -0 -1.2 0
1.11 0.031 -0.937 -0 -1.2 0
1.147 0.033 -0.952 -0 -1.2 0
1.178 0.028 -0.964 -0 -1.2 0
1.217 0.028 -0.979 -0 -1.2 0
1.263 0.034 -0.997 -0 -1.2 0
1.302 0.032 -1.013 -0 -1.2 0
1.348 0.035 -1.031 -0 -1.2 0
1.388 0.03 -1.047 -0 -1.2 0
1.428 0.025 -1.063 -0 -1.2 0
1.483 0.031 -1.085 -0 -1.2 0
1.531 0.028 -1.103 -0 -1.2 0
1.58 0.024 -1.123 -0 -1.2 0
1.651 0.036 -1.151 -0 -1.2 0
1.708 0.035 -1.174 -0 -1.2 0
1.766 0.031 -1.196 -0 -1.2 0
1.84 0.036 -1.226 -0 -1.2 0
1.913 0.039 -1.255 -0 -1.2 0
1.988 0.04 -1.285 -0 -1.2 0
2.056 0.032 -1.311 -0 -1.2 0
2.157 0.042 -1.351 -0 -1.2 0
2.249 0.043 -1.389 -0 -1.2 0
2.335 0.037 -1.422 -0 -1.2 0
2.438 0.036 -1.463 -0 -1.2 0
2.567 0.044 -1.514 -0 -1.2 0
2.679 0.039 -1.559 -0 -1.2 0
2.819 0.042 -1.614 -0 -1.2 0
2.985 0.05 -1.679 -0 -1.2 0
3.153 0.053 -1.745 -0 -1.2 0
3.356 0.061 -1.826 -0 -1.2 0
3.578 0.068 -1.914 -0 -1.2 0
3.802 0.068 -2.003 -0 -1.2 0
4.071 0.073 -2.109 -0 -1.2 0
4.396 0.082 -2.238 -0 -1.2 0
4.713 0.079 -2.363 -0 -1.2 0
5.122 0.084 -2.525 -0 -1.2 0
5.587 0.086 -2.709 -0 -1.2 0
6.172 0.095 -2.941 -0 -1.2 0
6.824 0.093 -3.199 -0 -1.2 0
7.597 0.087 -3.504 -0 -1.2 0
8.085 0.011 -3.697 -0 -1.2 0
8.703 -0.066 -3.941 -0 -1.2 0
8.793 -0.22 -3.974 -0 -1.2 0
8.788 -0.385 -3.971 -0 -1.2 0
8.771 -0.55 -3.963 -0 -1.2 0
8.76 -0.713 -3.957 -0 -1.2 0
8.738 -0.876 -3.947 -0 -1.2 0
8.713 -1.037 -3.935 -0 -1.2 0
8.704 -1.199 -3.93 -0 -1.2 0
8.673 -1.359 -3.917 -0 -1.2 0
8.678 -1.52 -3.917 -0 -1.2 0
8.679 -1.681 -3.916 -0 -1.2 0
8.669 -1.842 -3.91 -0 -1.2 0
8.637 -2 -3.896 -0 -1.2 0
8.631 -2.162 -3.892 -0 -1.2 0
8.613 -2.321 -3.884 -0 -1.2 0
8.63 -2.486 -3.889 -0 -1.2 0
8.551 -2.636 -3.857 -0 -1.2 0
8.653 -2.819 -3.896 -0 -1.2 0
8.651 -2.985 -3.893 -0 -1.2 0
8.638 -3.15 -3.887 -0 -1.2 0
8.623 -3.314 -3.879 -0 -1.2 0
8.586 -3.473 -3.863 -0 -1.2 0
8.528 -3.627 -3.838 -0 -1.2 0
8.478 -3.781 -3.817 -0 -1.2 0
8.433 -3.937 -3.798 -0 -1.2 0
8.413 -4.103 -3.789 -0 -1.2 0
8.311 -4.238 -3.747 -0 -1.2 0
8.094 -4.324 -3.66 -0 -1.2 0
7.469 -4.23 -3.414 -0 -1.2 0
7.417 -4.368 -3.392 -0 -1.2 0
8.259 -4.925 -3.72 -0 -1.2 0
8.256 -5.106 -3.717 -0 -1.2 0
8.231 -5.28 -3.706 -0 -1.2 0
11.618 -7.292 -5.027 -0 -1.2 0
11.344 -7.409 -4.917 -0 -1.2 0
11.052 -7.508 -4.801 -0 -1.2 0
12.445 -8.627 -5.342 -0 -1.2 0
19.457 -13.391 -8.073 -0 -1.2 0
12.242 -9.115 -5.258 -0 -1.2 0
19.472 -14.4 -8.069 -0 -1.2 0
11.006 -8.873 -4.771 -0 -1.2 0
10.641 -8.899 -4.626 -0 -1.2 0
6.105 -5.705 -2.86 -0 -1.2 0
11.273 -9.999 -4.865 -0 -1.2 0
6.661 -6.513 -3.073 -0 -1.2 0
6.696 -6.74 -3.085 -0 -1.2 0
6.762 -7.003 -3.109 -0 -1.2 0
6.573 -7.042 -3.033 -0 -1.2 0
10.143 -10.656 -4.412 -0 -1.2 0
10.577 -11.425 -4.577 -0 -1.2 0
5.932 -7.044 -2.78 -0 -1.2 0
1.095 0.031 -0.957 -0 -1.2 0
1.132 0.033 -0.974 -0 -1.2 0
1.163 0.028 -0.987 -0 -1.2 0
1.207 0.035 -1.006 -0 -1.2 0
1.246 0.034 -1.023 -0 -1.2 0
1.284 0.032 -1.04 -0 -1.2 0
1.323 0.029 -1.057 -0 -1.2 0
1.37 0.03 -1.077 -0 -1.2 0
1.416 0.031 -1.097 -0 -1.2 0
1.463 0.03 -1.118 -0 -1.2 0
1.518 0.034 -1.141 -0 -1.2 0
1.566 0.03 -1.162 -0 -1.2 0
1.621 0.03 -1.187 -0 -1.2 0
1.685 0.034 -1.214 -0 -1.2 0
1.75 0.036 -1.242 -0 -1.2 0
1.815 0.035 -1.271 -0 -1.2 0
1.888 0.038 -1.302 -0 -1.2 0
1.954 0.034 -1.33 -0 -1.2 0
2.028 0.032 -1.363 -0 -1.2 0
2.119 0.036 -1.402 -0 -1.2 0
2.236 0.051 -1.453 -0 -1.2 0
2.304 0.036 -1.483 -0 -1.2 0
2.413 0.04 -1.53 -0 -1.2 0
2.532 0.043 -1.582 -0 -1.2 0
2.652 0.043 -1.635 -0 -1.2 0
2.789 0.045 -1.694 -0 -1.2 0
2.945 0.05 -1.761 -0 -1.2 0
3.127 0.058 -1.841 -0 -1.2 0
3.311 0.06 -1.92 -0 -1.2 0
3.521 0.065 -2.013 -0 -1.2 0
3.751 0.068 -2.112 -0 -1.2 0
4.016 0.072 -2.227 -0 -1.2 0
4.345 0.085 -2.37 -0 -1.2 0
4.684 0.087 -2.518 -0 -1.2 0
5.061 0.085 -2.682 -0 -1.2 0
5.547 0.093 -2.892 -0 -1.2 0
6.098 0.095 -3.133 -0 -1.2 0
6.722 0.09 -3.403 -0 -1.2 0
7.475 0.082 -3.731 -0 -1.2 0
7.857 -0.006 -3.896 -0 -1.2 0
8.521 -0.075 -4.184 -0 -1.2 0
8.546 -0.234 -4.192 -0 -1.2 0
8.54 -0.397 -4.188 -0 -1.2 0
8.533 -0.558 -4.183 -0 -1.2 0
8.523 -0.719 -4.177 -0 -1.2 0
8.501 -0.88 -4.165 -0 -1.2 0
8.503 -1.039 -4.164 -0 -1.2 0
8.485 -1.198 -4.155 -0 -1.2 0
8.465 -1.357 -4.144 -0 -1.2 0
8.451 -1.515 -4.137 -0 -1.2 0
8.453 -1.674 -4.136 -0 -1.2 0
8.425 -1.832 -4.122 -0 -1.2 0
8.403 -1.989 -4.111 -0 -1.2 0
8.424 -2.151 -4.118 -0 -1.2 0
8.425 -2.311 -4.117 -0 -1.2 0
8.424 -2.472 -4.114 -0 -1.2 0
8.437 -2.637 -4.118 -0 -1.2 0
8.43 -2.798 -4.113 -0 -1.2 0
8.42 -2.961 -4.106 -0 -1.2 0
8.389 -3.118 -4.091 -0 -1.2 0
8.392 -3.284 -4.091 -0 -1.2 0
8.357 -3.441 -4.074 -0 -1.2 0
8.353 -3.609 -4.071 -0 -1.2 0
8.348 -3.777 -4.066 -0 -1.2 0
8.34 -3.945 -4.061 -0 -1.2 0
8.328 -4.113 -4.054 -0 -1.2 0
8.314 -4.283 -4.046 -0 -1.2 0
8.313 -4.459 -4.044 -0 -1.2 0
8.379 -4.666 -4.07 -0 -1.2 0
8.288 -4.807 -4.028 -0 -1.2 0
8.185 -4.941 -3.983 -0 -1.2 0
19.25 -10.648 -8.726 -0 -1.2 0
19.253 -11.092 -8.722 -0 -1.2 0
8.287 -5.558 -4.019 -0 -1.2 0
11.416 -7.536 -5.357 -0 -1.2 0
18.848 -12.226 -8.533 -0 -1.2 0
19.332 -12.99 -8.735 -0 -1.2 0
11.83 -8.644 -5.524 -0 -1.2 0
6.282 -5.23 -3.152 -0 -1.2 0
10.545 -8.361 -4.969 -0 -1.2 0
12.243 -9.871 -5.689 -0 -1.2 0
6.712 -6.053 -3.33 -0 -1.2 0
6.431 -6.02 -3.207 -0 -1.2 0
6.558 -6.306 -3.26 -0 -1.2 0
6.883 -6.77 -3.396 -0 -1.2 0
10.853 -10.425 -5.079 -0 -1.2 0
6.797 -7.112 -3.354 -0 -1.2 0
6.554 -7.101 -3.249 -0 -1.2 0
6.959 -7.707 -3.418 -0 -1.2 0
6.745 -7.728 -3.325 -0 -1.2 0
6.358 -7.563 -3.158 -0 -1.2 0
1.079 0.03 -0.98 -0 -1.2 0
1.116 0.032 -0.997 -0 -1.2 0
1.147 0.027 -1.011 -0 -1.2 0
1.184 0.027 -1.029 -0 -1.2 0
1.228 0.033 -1.051 -0 -1.2 0
1.266 0.031 -1.069 -0 -1.2 0
1.305 0.028 -1.087 -0 -1.2 0
1.35 0.029 -1.108 -0 -1.2 0
1.396 0.031 -1.13 -0 -1.2 0
1.443 0.03 -1.151 -0 -1.2 0
1.497 0.033 -1.178 -0 -1.2 0
1.551 0.036 -1.203 -0 -1.2 0
1.606 0.035 -1.229 -0 -1.2 0
1.661 0.034 -1.255 -0 -1.2 0
1.725 0.035 -1.286 -0 -1.2 0
1.797 0.04 -1.32 -0 -1.2 0
1.861 0.038 -1.35 -0 -1.2 0
1.934 0.039 -1.385 -0 -1.2 0
2.023 0.046 -1.427 -0 -1.2 0
2.088 0.036 -1.458 -0 -1.2 0
2.187 0.042 -1.506 -0 -1.2 0
2.278 0.04 -1.549 -0 -1.2 0
2.395 0.048 -1.604 -0 -1.2 0
2.496 0.042 -1.652 -0 -1.2 0
2.621 0.046 -1.712 -0 -1.2 0
2.757 0.048 -1.776 -0 -1.2 0
2.902 0.049 -1.845 -0 -1.2 0
3.09 0.061 -1.934 -0 -1.2 0
3.28 0.066 -2.024 -0 -1.2 0
3.504 0.077 -2.131 -0 -1.2 0
3.704 0.07 -2.225 -0 -1.2 0
3.975 0.077 -2.355 -0 -1.2 0
4.29 0.086 -2.504 -0 -1.2 0
4.643 0.092 -2.672 -0 -1.2 0
5.031 0.094 -2.855 -0 -1.2 0
5.474 0.094 -3.066 -0 -1.2 0
5.999 0.092 -3.315 -0 -1.2 0
6.641 0.092 -3.619 -0 -1.2 0
7.382 0.083 -3.972 -0 -1.2 0
7.866 0.009 -4.201 -0 -1.2 0
8.377 -0.08 -4.441 -0 -1.2 0
8.545 -0.223 -4.52 -0 -1.2 0
8.603 -0.383 -4.545 -0 -1.2 0
8.596 -0.548 -4.54 -0 -1.2 0
8.596 -0.712 -4.537 -0 -1.2 0
18.995 -0.606 -9.475 -0 -1.2 0
19.001 -0.969 -9.472 -0 -1.2 0
18.976 -1.334 -9.456 -0 -1.2 0
19.214 -1.706 -9.564 -0 -1.2 0
19.312 -2.081 -9.606 -0 -1.2 0
19.323 -2.454 -9.606 -0 -1.2 0
19.337 -2.827 -9.608 -0 -1.2 0
19.325 -3.201 -9.598 -0 -1.2 0
19.372 -3.582 -9.615 -0 -1.2 0
19.278 -3.945 -9.566 -0 -1.2 0
19.08 -4.289 -9.467 -0 -1.2 0
19.082 -4.665 -9.464 -0 -1.2 0
19.087 -5.043 -9.461 -0 -1.2 0
19.184 -5.445 -9.502 -0 -1.2 0
12.68 -4.215 -6.431 -0 -1.2 0
19.768 -6.374 -9.767 -0 -1.2 0
19.772 -6.777 -9.764 -0 -1.2 0
19.385 -7.065 -9.576 -0 -1.2 0
8.539 -3.882 -4.47 -0 -1.2 0
8.512 -4.051 -4.455 -0 -1.2 0
8.499 -4.224 -4.446 -0 -1.2 0
8.526 -4.416 -4.456 -0 -1.2 0
8.364 -4.532 -4.378 -0 -1.2 0
10.85 -5.804 -5.542 -0 -1.2 0
8.343 -4.89 -4.363 -0 -1.2 0
12.506 -7.09 -6.311 -0 -1.2 0
11.826 -7.032 -5.989 -0 -1.2 0
11.666 -7.221 -5.911 -0 -1.2 0
11.359 -7.327 -5.763 -0 -1.2 0
11.292 -7.561 -5.729 -0 -1.2 0
11.205 -7.786 -5.684 -0 -1.2 0
6.263 -4.96 -3.376 -0 -1.2 0
6.381 -5.195 -3.429 -0 -1.2 0
6.424 -5.389 -3.447 -0 -1.2 0
6.41 -5.548 -3.437 -0 -1.2 0
6.339 -5.669 -3.403 -0 -1.2 0
6.55 -6.003 -3.499 -0 -1.2 0
6.569 -6.202 -3.505 -0 -1.2 0
6.48 -6.32 -3.461 -0 -1.2 0
6.498 -6.527 -3.467 -0 -1.2 0
7.277 -7.411 -3.825 -0 -1.2 0
7.148 -7.522 -3.763 -0 -1.2 0
6.434 -7.077 -3.43 -0 -1.2 0
6.217 -7.077 -3.327 -0 -1.2 0
6.457 -7.533 -3.435 -0 -1.2 0
6.4 -7.703 -3.405 -0 -1.2 0
1.067 0.037 -1.006 -0 -1.2 0
1.097 0.032 -1.021 -0 -1.2 0
1.133 0.033 -1.04 -0 -1.2 0
1.163 0.027 -1.056 -0 -1.2 0
1.207 0.033 -1.079 -0 -1.2 0
1.244 0.031 -1.099 -0 -1.2 0
1.289 0.034 -1.121 -0 -1.2 0
1.334 0.036 -1.145 -0 -1.2 0
1.372 0.03 -1.164 -0 -1.2 0
1.425 0.035 -1.192 -0 -1.2 0
1.471 0.033 -1.215 -0 -1.2 0
1.532 0.04 -1.248 -0 -1.2 0
1.578 0.034 -1.272 -0 -1.2 0
1.633 0.033 -1.3 -0 -1.2 0
1.702 0.041 -1.336 -0 -1.2 0
1.765 0.039 -1.368 -0 -1.2 0
1.836 0.042 -1.406 -0 -1.2 0
1.9 0.038 -1.439 -0 -1.2 0
1.98 0.04 -1.48 -0 -1.2 0
2.076 0.048 -1.53 -0 -1.2 0
2.157 0.046 -1.572 -0 -1.2 0
2.239 0.039 -1.615 -0 -1.2 0
2.345 0.043 -1.67 -0 -1.2 0
