# .PCD v.7 - Point Cloud Data file format
FIELDS x y z vp_x vp_y vp_z
SIZE 4 4 4 4 4 4
TYPE F F F F F F
COUNT 1 1 1 1 1 1
WIDTH 1558
HEIGHT 1
VIEWPOINT 0 -1.20005 0 1 0 0 0
POINTS 1558
DATA ascii
-1.247 -0.764 -3.104 -0 -1.2 0
-1.252 -0.824 -3.118 -0 -1.2 0
-1.244 -0.887 -3.104 -0 -1.2 0
-1.232 -0.948 -3.08 -0 -1.2 0
-1.232 -1.009 -3.083 -0 -1.2 0
-1.234 -1.069 -3.094 -0 -1.2 0
-1.243 -1.13 -3.123 -0 -1.2 0
-1.248 -1.192 -3.142 -0 -1.2 0
-1.239 -1.252 -3.122 -0 -1.2 0
-1.239 -1.314 -3.128 -0 -1.2 0
-1.236 -1.374 -3.126 -0 -1.2 0
-1.257 -1.442 -3.186 -0 -1.2 0
-1.256 -1.506 -3.19 -0 -1.2 0
-1.248 -1.567 -3.174 -0 -1.2 0
-1.233 -1.625 -3.14 -0 -1.2 0
-1.238 -1.691 -3.159 -0 -1.2 0
-1.247 -1.76 -3.186 -0 -1.2 0
-1.264 -1.836 -3.24 -0 -1.2 0
-0.464 -0.05 -0.874 -0 -1.2 0
-0.477 -0.058 -0.905 -0 -1.2 0
-0.493 -0.059 -0.942 -0 -1.2 0
-0.512 -0.055 -0.987 -0 -1.2 0
-0.532 -0.053 -1.033 -0 -1.2 0
-0.545 -0.063 -1.064 -0 -1.2 0
-0.565 -0.063 -1.111 -0 -1.2 0
-0.585 -0.065 -1.157 -0 -1.2 0
-0.601 -0.073 -1.196 -0 -1.2 0
-0.625 -0.072 -1.251 -0 -1.2 0
-0.644 -0.078 -1.298 -0 -1.2 0
-0.665 -0.085 -1.346 -0 -1.2 0
-0.688 -0.089 -1.402 -0 -1.2 0
-0.712 -0.095 -1.458 -0 -1.2 0
-0.74 -0.098 -1.522 -0 -1.2 0
-0.77 -0.098 -1.596 -0 -1.2 0
-0.802 -0.101 -1.669 -0 -1.2 0
-0.837 -0.101 -1.751 -0 -1.2 0
-0.865 -0.112 -1.817 -0 -1.2 0
-0.9 -0.119 -1.9 -0 -1.2 0
-0.947 -0.116 -2.01 -0 -1.2 0
-0.987 -0.126 -2.102 -0 -1.2 0
-1.033 -0.13 -2.212 -0 -1.2 0
-1.077 -0.143 -2.314 -0 -1.2 0
-1.128 -0.151 -2.434 -0 -1.2 0
-1.191 -0.156 -2.581 -0 -1.2 0
-1.249 -0.169 -2.719 -0 -1.2 0
-1.316 -0.181 -2.875 -0 -1.2 0
-1.39 -0.194 -3.049 -0 -1.2 0
-1.479 -0.204 -3.261 -0 -1.2 0
-1.585 -0.214 -3.509 -0 -1.2 0
-1.691 -0.231 -3.756 -0 -1.2 0
-1.815 -0.25 -4.051 -0 -1.2 0
-1.964 -0.269 -4.4 -0 -1.2 0
-2.135 -0.292 -4.803 -0 -1.2 0
-2.335 -0.321 -5.271 -0 -1.2 0
-2.577 -0.356 -5.841 -0 -1.2 0
-2.883 -0.395 -6.557 -0 -1.2 0
-3.27 -0.446 -7.466 -0 -1.2 0
-3.758 -0.515 -8.615 -0 -1.2 0
-4.418 -0.607 -10.167 -0 -1.2 0
-1.443 -1.006 -3.239 -0 -1.2 0
-1.426 -1.07 -3.204 -0 -1.2 0
-1.42 -1.135 -3.195 -0 -1.2 0
-1.426 -1.199 -3.213 -0 -1.2 0
-1.416 -1.262 -3.194 -0 -1.2 0
-1.417 -1.326 -3.201 -0 -1.2 0
-1.417 -1.39 -3.207 -0 -1.2 0
-1.417 -1.456 -3.211 -0 -1.2 0
-1.412 -1.519 -3.207 -0 -1.2 0
-1.403 -1.582 -3.191 -0 -1.2 0
-1.414 -1.651 -3.22 -0 -1.2 0
-4.469 -6.215 -10.721 -0 -1.2 0
-4.397 -6.382 -10.564 -0 -1.2 0
-4.617 -8.96 -11.282 -0 -1.2 0
-4.572 -9.2 -11.195 -0 -1.2 0
-4.411 -9.232 -10.822 -0 -1.2 0
-0.501 -0.051 -0.841 -0 -1.2 0
-0.515 -0.059 -0.871 -0 -1.2 0
-0.532 -0.06 -0.908 -0 -1.2 0
-0.553 -0.056 -0.952 -0 -1.2 0
-0.571 -0.06 -0.989 -0 -1.2 0
-0.588 -0.065 -1.027 -0 -1.2 0
-0.61 -0.065 -1.073 -0 -1.2 0
-0.631 -0.066 -1.118 -0 -1.2 0
-0.649 -0.075 -1.157 -0 -1.2 0
-0.674 -0.073 -1.212 -0 -1.2 0
-0.692 -0.085 -1.25 -0 -1.2 0
-0.717 -0.087 -1.305 -0 -1.2 0
-0.747 -0.086 -1.367 -0 -1.2 0
-0.773 -0.092 -1.423 -0 -1.2 0
-0.803 -0.095 -1.486 -0 -1.2 0
-0.832 -0.1 -1.55 -0 -1.2 0
-0.866 -0.102 -1.623 -0 -1.2 0
-0.901 -0.107 -1.696 -0 -1.2 0
-0.938 -0.111 -1.777 -0 -1.2 0
-0.984 -0.11 -1.876 -0 -1.2 0
-1.026 -0.115 -1.966 -0 -1.2 0
-1.074 -0.12 -2.066 -0 -1.2 0
-1.116 -0.132 -2.157 -0 -1.2 0
-1.171 -0.138 -2.276 -0 -1.2 0
-1.218 -0.154 -2.377 -0 -1.2 0
-1.277 -0.165 -2.503 -0 -1.2 0
-1.353 -0.169 -2.665 -0 -1.2 0
-1.425 -0.182 -2.82 -0 -1.2 0
-1.501 -0.198 -2.983 -0 -1.2 0
-1.606 -0.203 -3.208 -0 -1.2 0
-1.724 -0.211 -3.461 -0 -1.2 0
-1.839 -0.23 -3.705 -0 -1.2 0
-1.974 -0.249 -3.994 -0 -1.2 0
-2.126 -0.271 -4.32 -0 -1.2 0
-2.329 -0.29 -4.754 -0 -1.2 0
-2.543 -0.32 -5.215 -0 -1.2 0
-2.793 -0.359 -5.749 -0 -1.2 0
-3.143 -0.395 -6.499 -0 -1.2 0
-3.54 -0.453 -7.35 -0 -1.2 0
-4.077 -0.521 -8.498 -0 -1.2 0
-4.722 -0.624 -9.882 -0 -1.2 0
-4.733 -0.816 -9.918 -0 -1.2 0
-4.73 -1.012 -9.924 -0 -1.2 0
-4.733 -1.207 -9.944 -0 -1.2 0
-4.731 -1.402 -9.952 -0 -1.2 0
-4.731 -1.598 -9.966 -0 -1.2 0
-4.73 -1.794 -9.978 -0 -1.2 0
-4.739 -1.994 -10.012 -0 -1.2 0
-4.739 -2.193 -10.027 -0 -1.2 0
-4.658 -2.371 -9.866 -0 -1.2 0
-4.806 -2.615 -10.198 -0 -1.2 0
-4.81 -2.822 -10.22 -0 -1.2 0
-4.816 -3.031 -10.247 -0 -1.2 0
-4.82 -3.243 -10.271 -0 -1.2 0
-4.815 -3.451 -10.274 -0 -1.2 0
-4.816 -3.665 -10.291 -0 -1.2 0
-4.815 -3.88 -10.304 -0 -1.2 0
-4.809 -4.094 -10.305 -0 -1.2 0
-4.806 -4.311 -10.311 -0 -1.2 0
-4.815 -4.54 -10.348 -0 -1.2 0
-4.823 -4.773 -10.382 -0 -1.2 0
-4.837 -5.013 -10.429 -0 -1.2 0
-4.834 -5.242 -10.436 -0 -1.2 0
-4.839 -5.484 -10.465 -0 -1.2 0
-4.843 -5.728 -10.49 -0 -1.2 0
-4.841 -5.97 -10.502 -0 -1.2 0
-4.845 -6.222 -10.526 -0 -1.2 0
-4.841 -6.472 -10.537 -0 -1.2 0
-4.848 -6.737 -10.569 -0 -1.2 0
-4.848 -6.999 -10.587 -0 -1.2 0
-4.849 -7.269 -10.608 -0 -1.2 0
-4.851 -7.548 -10.631 -0 -1.2 0
-4.858 -7.837 -10.665 -0 -1.2 0
-4.858 -8.124 -10.685 -0 -1.2 0
-4.863 -8.426 -10.715 -0 -1.2 0
-4.864 -8.73 -10.739 -0 -1.2 0
-4.824 -8.975 -10.673 -0 -1.2 0
-4.646 -8.989 -10.293 -0 -1.2 0
-4.492 -9.031 -9.969 -0 -1.2 0
-4.406 -9.182 -9.793 -0 -1.2 0
-4.263 -9.225 -9.492 -0 -1.2 0
-0.535 -0.059 -0.8 -0 -1.2 0
-0.553 -0.06 -0.836 -0 -1.2 0
-0.572 -0.061 -0.872 -0 -1.2 0
-0.594 -0.057 -0.916 -0 -1.2 0
-0.617 -0.055 -0.96 -0 -1.2 0
-0.632 -0.066 -0.991 -0 -1.2 0
-0.655 -0.066 -1.035 -0 -1.2 0
-0.678 -0.067 -1.08 -0 -1.2 0
-0.701 -0.071 -1.125 -0 -1.2 0
-0.72 -0.08 -1.163 -0 -1.2 0
-0.752 -0.076 -1.225 -0 -1.2 0
-0.775 -0.083 -1.271 -0 -1.2 0
-0.803 -0.088 -1.325 -0 -1.2 0
-0.83 -0.093 -1.379 -0 -1.2 0
-0.862 -0.097 -1.441 -0 -1.2 0
-0.902 -0.092 -1.52 -0 -1.2 0
-0.934 -0.1 -1.584 -0 -1.2 0
-0.976 -0.101 -1.663 -0 -1.2 0
-1.016 -0.105 -1.743 -0 -1.2 0
-1.061 -0.107 -1.832 -0 -1.2 0
-1.103 -0.117 -1.913 -0 -1.2 0
-1.157 -0.119 -2.019 -0 -1.2 0
-1.203 -0.131 -2.109 -0 -1.2 0
-1.258 -0.141 -2.217 -0 -1.2 0
-1.326 -0.144 -2.35 -0 -1.2 0
-1.38 -0.162 -2.458 -0 -1.2 0
-1.453 -0.172 -2.601 -0 -1.2 0
-1.543 -0.177 -2.777 -0 -1.2 0
-1.629 -0.19 -2.947 -0 -1.2 0
-1.743 -0.198 -3.169 -0 -1.2 0
-1.86 -0.21 -3.4 -0 -1.2 0
-1.992 -0.225 -3.657 -0 -1.2 0
-2.133 -0.247 -3.933 -0 -1.2 0
-2.319 -0.263 -4.298 -0 -1.2 0
-2.514 -0.291 -4.681 -0 -1.2 0
-2.758 -0.318 -5.16 -0 -1.2 0
-3.043 -0.354 -5.721 -0 -1.2 0
-3.392 -0.399 -6.405 -0 -1.2 0
-3.833 -0.454 -7.268 -0 -1.2 0
-4.468 -0.518 -8.513 -0 -1.2 0
-4.646 -0.673 -8.87 -0 -1.2 0
-4.64 -0.851 -8.868 -0 -1.2 0
-4.636 -1.029 -8.873 -0 -1.2 0
-4.64 -1.207 -8.894 -0 -1.2 0
-4.644 -1.386 -8.911 -0 -1.2 0
-4.641 -1.564 -8.916 -0 -1.2 0
-4.637 -1.743 -8.918 -0 -1.2 0
-4.64 -1.924 -8.936 -0 -1.2 0
-4.637 -2.105 -8.941 -0 -1.2 0
-4.584 -2.273 -8.847 -0 -1.2 0
-4.628 -2.468 -8.945 -0 -1.2 0
-4.866 -2.731 -9.428 -0 -1.2 0
-4.862 -2.924 -9.429 -0 -1.2 0
-4.851 -3.116 -9.42 -0 -1.2 0
-4.842 -3.309 -9.416 -0 -1.2 0
-4.837 -3.507 -9.417 -0 -1.2 0
-4.826 -3.701 -9.407 -0 -1.2 0
-4.813 -3.895 -9.393 -0 -1.2 0
-4.807 -4.096 -9.393 -0 -1.2 0
-4.795 -4.295 -9.383 -0 -1.2 0
-4.786 -4.496 -9.376 -0 -1.2 0
-4.741 -4.673 -9.299 -0 -1.2 0
-4.749 -4.891 -9.329 -0 -1.2 0
-4.748 -5.105 -9.337 -0 -1.2 0
-4.764 -5.338 -9.384 -0 -1.2 0
-4.767 -5.563 -9.402 -0 -1.2 0
-4.766 -5.789 -9.416 -0 -1.2 0
-4.772 -6.026 -9.442 -0 -1.2 0
-4.768 -6.256 -9.448 -0 -1.2 0
-4.701 -6.421 -9.328 -0 -1.2 0
-4.771 -6.744 -9.484 -0 -1.2 0
-4.78 -7.003 -9.516 -0 -1.2 0
-4.777 -7.256 -9.527 -0 -1.2 0
-4.78 -7.52 -9.548 -0 -1.2 0
-4.787 -7.798 -9.579 -0 -1.2 0
-4.791 -8.079 -9.605 -0 -1.2 0
-4.79 -8.357 -9.617 -0 -1.2 0
-4.748 -8.58 -9.55 -0 -1.2 0
-4.74 -8.861 -9.551 -0 -1.2 0
-4.609 -8.942 -9.302 -0 -1.2 0
-4.428 -8.924 -8.945 -0 -1.2 0
-4.364 -9.107 -8.832 -0 -1.2 0
-4.215 -9.127 -8.542 -0 -1.2 0
-4.117 -9.237 -8.356 -0 -1.2 0
-0.578 -0.053 -0.77 -0 -1.2 0
-0.594 -0.06 -0.799 -0 -1.2 0
-0.617 -0.055 -0.841 -0 -1.2 0
-0.638 -0.057 -0.876 -0 -1.2 0
-0.662 -0.055 -0.919 -0 -1.2 0
-0.682 -0.06 -0.956 -0 -1.2 0
-0.703 -0.066 -0.994 -0 -1.2 0
-0.731 -0.062 -1.044 -0 -1.2 0
-0.753 -0.071 -1.082 -0 -1.2 0
-0.781 -0.07 -1.134 -0 -1.2 0
-0.811 -0.07 -1.187 -0 -1.2 0
-0.836 -0.079 -1.232 -0 -1.2 0
-0.866 -0.083 -1.285 -0 -1.2 0
-0.904 -0.079 -1.353 -0 -1.2 0
-0.929 -0.092 -1.399 -0 -1.2 0
-0.973 -0.089 -1.477 -0 -1.2 0
-1.003 -0.101 -1.531 -0 -1.2 0
-1.046 -0.102 -1.609 -0 -1.2 0
-1.091 -0.106 -1.687 -0 -1.2 0
-1.143 -0.105 -1.783 -0 -1.2 0
-1.188 -0.115 -1.862 -0 -1.2 0
-1.237 -0.124 -1.95 -0 -1.2 0
-1.291 -0.133 -2.047 -0 -1.2 0
-1.354 -0.139 -2.16 -0 -1.2 0
-1.426 -0.142 -2.291 -0 -1.2 0
-1.499 -0.151 -2.421 -0 -1.2 0
-1.577 -0.163 -2.562 -0 -1.2 0
-1.675 -0.169 -2.736 -0 -1.2 0
-1.772 -0.181 -2.91 -0 -1.2 0
-1.884 -0.192 -3.11 -0 -1.2 0
-2.015 -0.204 -3.346 -0 -1.2 0
-2.165 -0.217 -3.615 -0 -1.2 0
-2.321 -0.238 -3.895 -0 -1.2 0
-2.506 -0.261 -4.226 -0 -1.2 0
-2.735 -0.282 -4.636 -0 -1.2 0
-2.997 -0.312 -5.107 -0 -1.2 0
-3.304 -0.35 -5.656 -0 -1.2 0
-3.707 -0.391 -6.38 -0 -1.2 0
-4.179 -0.45 -7.226 -0 -1.2 0
-4.498 -0.562 -7.802 -0 -1.2 0
-4.493 -0.723 -7.803 -0 -1.2 0
-4.483 -0.883 -7.791 -0 -1.2 0
-4.466 -1.044 -7.77 -0 -1.2 0
-4.466 -1.203 -7.78 -0 -1.2 0
-4.466 -1.364 -7.788 -0 -1.2 0
-4.465 -1.524 -7.794 -0 -1.2 0
-4.466 -1.685 -7.806 -0 -1.2 0
-4.457 -1.845 -7.797 -0 -1.2 0
-4.456 -2.008 -7.804 -0 -1.2 0
-4.449 -2.169 -7.801 -0 -1.2 0
-4.44 -2.33 -7.793 -0 -1.2 0
-4.526 -2.521 -7.957 -0 -1.2 0
-4.534 -2.692 -7.979 -0 -1.2 0
-4.568 -2.876 -8.051 -0 -1.2 0
-4.663 -3.089 -8.23 -0 -1.2 0
-4.674 -3.273 -8.26 -0 -1.2 0
-4.669 -3.451 -8.262 -0 -1.2 0
-4.668 -3.632 -8.269 -0 -1.2 0
-4.693 -3.83 -8.325 -0 -1.2 0
-4.703 -4.024 -8.351 -0 -1.2 0
-4.714 -4.22 -8.383 -0 -1.2 0
-4.737 -4.43 -8.436 -0 -1.2 0
-4.673 -4.578 -8.328 -0 -1.2 0
-4.679 -4.78 -8.351 -0 -1.2 0
-4.683 -4.982 -8.368 -0 -1.2 0
-4.681 -5.183 -8.375 -0 -1.2 0
-4.685 -5.394 -8.394 -0 -1.2 0
-4.687 -5.606 -8.409 -0 -1.2 0
-4.692 -5.824 -8.429 -0 -1.2 0
-4.694 -6.045 -8.445 -0 -1.2 0
-4.66 -6.23 -8.393 -0 -1.2 0
-4.662 -6.457 -8.408 -0 -1.2 0
-5.079 -7.186 -9.192 -0 -1.2 0
-5.079 -7.443 -9.207 -0 -1.2 0
-5.064 -7.687 -9.193 -0 -1.2 0
-4.971 -7.83 -9.035 -0 -1.2 0
-5.051 -8.211 -9.197 -0 -1.2 0
-5.024 -8.453 -9.162 -0 -1.2 0
-4.86 -8.492 -8.873 -0 -1.2 0
-4.684 -8.498 -8.556 -0 -1.2 0
-4.672 -8.762 -8.548 -0 -1.2 0
-4.583 -8.903 -8.398 -0 -1.2 0
-4.415 -8.9 -8.096 -0 -1.2 0
-4.272 -8.933 -7.844 -0 -1.2 0
-4.156 -9.004 -7.64 -0 -1.2 0
-4.084 -9.159 -7.52 -0 -1.2 0
-0.617 -0.047 -0.737 -0 -1.2 0
-0.638 -0.048 -0.773 -0 -1.2 0
-0.655 -0.056 -0.802 -0 -1.2 0
-0.68 -0.053 -0.843 -0 -1.2 0
-0.698 -0.062 -0.872 -0 -1.2 0
-0.724 -0.061 -0.915 -0 -1.2 0
-0.75 -0.062 -0.957 -0 -1.2 0
-0.771 -0.069 -0.994 -0 -1.2 0
-0.802 -0.067 -1.045 -0 -1.2 0
-0.833 -0.066 -1.096 -0 -1.2 0
-0.86 -0.072 -1.14 -0 -1.2 0
-0.891 -0.075 -1.192 -0 -1.2 0
-0.927 -0.074 -1.251 -0 -1.2 0
-0.954 -0.085 -1.297 -0 -1.2 0
-0.99 -0.088 -1.356 -0 -1.2 0
-1.032 -0.09 -1.425 -0 -1.2 0
-1.073 -0.093 -1.493 -0 -1.2 0
-1.11 -0.103 -1.555 -0 -1.2 0
-1.156 -0.107 -1.631 -0 -1.2 0
-1.213 -0.107 -1.725 -0 -1.2 0
-1.265 -0.112 -1.81 -0 -1.2 0
-1.327 -0.115 -1.913 -0 -1.2 0
-1.383 -0.125 -2.007 -0 -1.2 0
-1.436 -0.141 -2.094 -0 -1.2 0
-1.518 -0.142 -2.23 -0 -1.2 0
-1.601 -0.149 -2.367 -0 -1.2 0
-1.674 -0.165 -2.488 -0 -1.2 0
-1.776 -0.171 -2.658 -0 -1.2 0
-1.879 -0.184 -2.83 -0 -1.2 0
-2.003 -0.194 -3.034 -0 -1.2 0
-2.143 -0.205 -3.265 -0 -1.2 0
-2.313 -0.215 -3.547 -0 -1.2 0
-2.478 -0.237 -3.82 -0 -1.2 0
-2.665 -0.262 -4.128 -0 -1.2 0
-2.911 -0.285 -4.538 -0 -1.2 0
-3.195 -0.313 -5.008 -0 -1.2 0
-3.515 -0.353 -5.538 -0 -1.2 0
-3.954 -0.394 -6.264 -0 -1.2 0
-4.459 -0.453 -7.102 -0 -1.2 0
-4.514 -0.598 -7.198 -0 -1.2 0
-4.504 -0.75 -7.189 -0 -1.2 0
-4.503 -0.902 -7.195 -0 -1.2 0
-4.517 -1.054 -7.225 -0 -1.2 0
-4.509 -1.206 -7.218 -0 -1.2 0
-4.509 -1.358 -7.226 -0 -1.2 0
-4.513 -1.511 -7.24 -0 -1.2 0
-4.506 -1.663 -7.235 -0 -1.2 0
-4.512 -1.818 -7.253 -0 -1.2 0
-4.507 -1.972 -7.25 -0 -1.2 0
-4.515 -2.128 -7.272 -0 -1.2 0
-4.431 -2.263 -7.14 -0 -1.2 0
-4.564 -2.456 -7.369 -0 -1.2 0
-4.594 -2.626 -7.425 -0 -1.2 0
-4.591 -2.787 -7.428 -0 -1.2 0
-4.592 -2.951 -7.438 -0 -1.2 0
-4.591 -3.116 -7.445 -0 -1.2 0
-4.589 -3.281 -7.448 -0 -1.2 0
-4.59 -3.45 -7.459 -0 -1.2 0
-4.589 -3.619 -7.465 -0 -1.2 0
-4.592 -3.793 -7.479 -0 -1.2 0
-4.593 -3.968 -7.488 -0 -1.2 0
-4.588 -4.14 -7.487 -0 -1.2 0
-4.59 -4.32 -7.498 -0 -1.2 0
-4.59 -4.501 -7.508 -0 -1.2 0
-4.598 -4.691 -7.53 -0 -1.2 0
-4.605 -4.883 -7.549 -0 -1.2 0
-4.608 -5.076 -7.564 -0 -1.2 0
-4.605 -5.267 -7.568 -0 -1.2 0
-4.604 -5.464 -7.577 -0 -1.2 0
-4.61 -5.671 -7.597 -0 -1.2 0
-4.61 -5.875 -7.606 -0 -1.2 0
-4.616 -6.091 -7.626 -0 -1.2 0
-4.62 -6.308 -7.643 -0 -1.2 0
-4.616 -6.524 -7.648 -0 -1.2 0
-4.62 -6.751 -7.663 -0 -1.2 0
-4.616 -6.975 -7.667 -0 -1.2 0
-4.613 -7.205 -7.673 -0 -1.2 0
-4.616 -7.449 -7.689 -0 -1.2 0
-4.611 -7.69 -7.693 -0 -1.2 0
-4.609 -7.939 -7.7 -0 -1.2 0
-4.606 -8.196 -7.709 -0 -1.2 0
-4.581 -8.423 -7.677 -0 -1.2 0
-4.562 -8.665 -7.656 -0 -1.2 0
-4.518 -8.875 -7.597 -0 -1.2 0
-4.355 -8.872 -7.326 -0 -1.2 0
-4.215 -8.902 -7.096 -0 -1.2 0
-4.166 -9.097 -7.024 -0 -1.2 0
-4.022 -9.108 -6.788 -0 -1.2 0
-0.652 -0.047 -0.7 -0 -1.2 0
-0.675 -0.048 -0.733 -0 -1.2 0
-0.702 -0.043 -0.775 -0 -1.2 0
-0.719 -0.052 -0.803 -0 -1.2 0
-0.747 -0.05 -0.844 -0 -1.2 0
-0.774 -0.049 -0.886 -0 -1.2 0
-0.797 -0.056 -0.921 -0 -1.2 0
-0.824 -0.058 -0.965 -0 -1.2 0
-0.853 -0.061 -1.007 -0 -1.2 0
-0.88 -0.066 -1.05 -0 -1.2 0
-0.914 -0.067 -1.1 -0 -1.2 0
-0.946 -0.07 -1.151 -0 -1.2 0
-0.98 -0.074 -1.202 -0 -1.2 0
-1.013 -0.081 -1.254 -0 -1.2 0
-1.052 -0.084 -1.312 -0 -1.2 0
-1.096 -0.086 -1.379 -0 -1.2 0
-1.134 -0.093 -1.439 -0 -1.2 0
-1.173 -0.104 -1.499 -0 -1.2 0
-1.222 -0.108 -1.575 -0 -1.2 0
-1.282 -0.107 -1.665 -0 -1.2 0
-1.331 -0.118 -1.741 -0 -1.2 0
-1.397 -0.119 -1.842 -0 -1.2 0
-1.467 -0.122 -1.95 -0 -1.2 0
-1.528 -0.136 -2.043 -0 -1.2 0
-1.615 -0.137 -2.176 -0 -1.2 0
-1.692 -0.15 -2.295 -0 -1.2 0
-1.78 -0.161 -2.428 -0 -1.2 0
-1.883 -0.17 -2.587 -0 -1.2 0
-2.008 -0.175 -2.778 -0 -1.2 0
-2.134 -0.188 -2.971 -0 -1.2 0
-2.275 -0.203 -3.188 -0 -1.2 0
-2.445 -0.217 -3.448 -0 -1.2 0
-2.641 -0.232 -3.749 -0 -1.2 0
-2.843 -0.258 -4.058 -0 -1.2 0
-3.082 -0.286 -4.427 -0 -1.2 0
-3.404 -0.31 -4.92 -0 -1.2 0
-3.748 -0.351 -5.446 -0 -1.2 0
-4.189 -0.396 -6.124 -0 -1.2 0
-4.45 -0.494 -6.527 -0 -1.2 0
-4.452 -0.637 -6.536 -0 -1.2 0
-4.448 -0.779 -6.535 -0 -1.2 0
-4.442 -0.92 -6.533 -0 -1.2 0
-4.452 -1.062 -6.553 -0 -1.2 0
-4.448 -1.204 -6.554 -0 -1.2 0
-4.444 -1.346 -6.553 -0 -1.2 0
-4.444 -1.488 -6.56 -0 -1.2 0
-4.442 -1.63 -6.563 -0 -1.2 0
-4.45 -1.774 -6.581 -0 -1.2 0
-4.446 -1.918 -6.58 -0 -1.2 0
-4.445 -2.063 -6.585 -0 -1.2 0
-4.39 -2.194 -6.506 -0 -1.2 0
-4.392 -2.339 -6.515 -0 -1.2 0
-4.881 -2.639 -7.276 -0 -1.2 0
-4.867 -2.797 -7.262 -0 -1.2 0
-4.853 -2.955 -7.246 -0 -1.2 0
-4.853 -3.119 -7.252 -0 -1.2 0
-4.846 -3.282 -7.249 -0 -1.2 0
-4.863 -3.458 -7.282 -0 -1.2 0
-4.853 -3.623 -7.273 -0 -1.2 0
-4.784 -3.755 -7.173 -0 -1.2 0
-4.837 -3.958 -7.263 -0 -1.2 0
-4.826 -4.127 -7.254 -0 -1.2 0
-4.829 -4.305 -7.266 -0 -1.2 0
-4.805 -4.468 -7.236 -0 -1.2 0
-4.599 -4.497 -6.921 -0 -1.2 0
-4.528 -4.618 -6.818 -0 -1.2 0
-4.531 -4.797 -6.829 -0 -1.2 0
-4.536 -4.981 -6.845 -0 -1.2 0
-4.529 -5.158 -6.843 -0 -1.2 0
-4.535 -5.349 -6.859 -0 -1.2 0
-4.534 -5.537 -6.864 -0 -1.2 0
-4.535 -5.732 -6.875 -0 -1.2 0
-4.539 -5.933 -6.889 -0 -1.2 0
-4.544 -6.141 -6.905 -0 -1.2 0
-4.46 -6.252 -6.783 -0 -1.2 0
-4.741 -6.797 -7.234 -0 -1.2 0
-4.736 -7.017 -7.236 -0 -1.2 0
-4.729 -7.239 -7.234 -0 -1.2 0
-4.719 -7.463 -7.228 -0 -1.2 0
-4.709 -7.694 -7.224 -0 -1.2 0
-4.693 -7.921 -7.209 -0 -1.2 0
-4.682 -8.161 -7.202 -0 -1.2 0
-4.673 -8.409 -7.197 -0 -1.2 0
-4.523 -8.438 -6.97 -0 -1.2 0
-4.497 -8.666 -6.94 -0 -1.2 0
-4.445 -8.854 -6.867 -0 -1.2 0
-4.283 -8.847 -6.619 -0 -1.2 0
-4.145 -8.874 -6.41 -0 -1.2 0
-4.119 -9.11 -6.381 -0 -1.2 0
-3.953 -9.071 -6.124 -0 -1.2 0
-0.693 -0.041 -0.664 -0 -1.2 0
-0.713 -0.048 -0.692 -0 -1.2 0
-0.741 -0.044 -0.731 -0 -1.2 0
-0.765 -0.047 -0.766 -0 -1.2 0
-0.794 -0.045 -0.806 -0 -1.2 0
-0.818 -0.05 -0.84 -0 -1.2 0
-0.843 -0.057 -0.875 -0 -1.2 0
-0.877 -0.053 -0.923 -0 -1.2 0
-0.911 -0.051 -0.971 -0 -1.2 0
-0.941 -0.056 -1.013 -0 -1.2 0
-0.966 -0.069 -1.049 -0 -1.2 0
-1.005 -0.066 -1.106 -0 -1.2 0
-1.046 -0.066 -1.162 -0 -1.2 0
-1.076 -0.078 -1.205 -0 -1.2 0
-1.127 -0.072 -1.277 -0 -1.2 0
-1.163 -0.083 -1.328 -0 -1.2 0
-1.204 -0.09 -1.386 -0 -1.2 0
-1.256 -0.093 -1.46 -0 -1.2 0
-1.302 -0.102 -1.526 -0 -1.2 0
-1.365 -0.101 -1.615 -0 -1.2 0
-1.418 -0.111 -1.69 -0 -1.2 0
-1.487 -0.114 -1.787 -0 -1.2 0
-1.561 -0.117 -1.893 -0 -1.2 0
-1.642 -0.121 -2.006 -0 -1.2 0
-1.718 -0.133 -2.114 -0 -1.2 0
-1.815 -0.137 -2.252 -0 -1.2 0
-1.908 -0.149 -2.383 -0 -1.2 0
-2.029 -0.154 -2.554 -0 -1.2 0
-2.161 -0.161 -2.741 -0 -1.2 0
-2.277 -0.182 -2.905 -0 -1.2 0
-2.449 -0.189 -3.149 -0 -1.2 0
-2.628 -0.204 -3.401 -0 -1.2 0
-2.836 -0.221 -3.695 -0 -1.2 0
-3.06 -0.245 -4.014 -0 -1.2 0
-3.332 -0.272 -4.397 -0 -1.2 0
-3.665 -0.3 -4.87 -0 -1.2 0
-4.063 -0.337 -5.433 -0 -1.2 0
-4.403 -0.406 -5.915 -0 -1.2 0
-4.407 -0.539 -5.925 -0 -1.2 0
-4.409 -0.671 -5.934 -0 -1.2 0
-4.411 -0.805 -5.941 -0 -1.2 0
-4.411 -0.937 -5.946 -0 -1.2 0
-4.41 -1.07 -5.949 -0 -1.2 0
-4.413 -1.204 -5.959 -0 -1.2 0
-4.415 -1.337 -5.966 -0 -1.2 0
-4.409 -1.47 -5.962 -0 -1.2 0
-4.409 -1.603 -5.967 -0 -1.2 0
-4.424 -1.74 -5.992 -0 -1.2 0
-4.415 -1.873 -5.984 -0 -1.2 0
-4.414 -2.01 -5.99 -0 -1.2 0
-4.374 -2.137 -5.937 -0 -1.2 0
-4.332 -2.262 -5.883 -0 -1.2 0
-4.482 -2.441 -6.1 -0 -1.2 0
-4.482 -2.584 -6.107 -0 -1.2 0
-4.481 -2.725 -6.11 -0 -1.2 0
-4.484 -2.87 -6.12 -0 -1.2 0
-4.486 -3.016 -6.127 -0 -1.2 0
-4.491 -3.165 -6.14 -0 -1.2 0
-4.489 -3.312 -6.143 -0 -1.2 0
-4.486 -3.459 -6.143 -0 -1.2 0
-4.492 -3.614 -6.157 -0 -1.2 0
-4.49 -3.767 -6.161 -0 -1.2 0
-4.493 -3.924 -6.17 -0 -1.2 0
-4.494 -4.081 -6.177 -0 -1.2 0
-4.498 -4.244 -6.189 -0 -1.2 0
-4.5 -4.409 -6.197 -0 -1.2 0
-4.489 -4.565 -6.189 -0 -1.2 0
-4.487 -4.731 -6.193 -0 -1.2 0
-4.489 -4.903 -6.2 -0 -1.2 0
-4.494 -5.081 -6.213 -0 -1.2 0
-4.495 -5.259 -6.223 -0 -1.2 0
-4.495 -5.441 -6.229 -0 -1.2 0
-4.498 -5.627 -6.239 -0 -1.2 0
-4.498 -5.816 -6.246 -0 -1.2 0
-4.5 -6.011 -6.257 -0 -1.2 0
-4.452 -6.155 -6.194 -0 -1.2 0
-4.445 -6.346 -6.191 -0 -1.2 0
-4.762 -6.938 -6.66 -0 -1.2 0
-4.755 -7.154 -6.657 -0 -1.2 0
-4.753 -7.384 -6.665 -0 -1.2 0
-4.763 -7.634 -6.687 -0 -1.2 0
-4.768 -7.886 -6.704 -0 -1.2 0
-4.784 -8.161 -6.735 -0 -1.2 0
-4.761 -8.386 -6.711 -0 -1.2 0
-4.6 -8.399 -6.484 -0 -1.2 0
-4.457 -8.433 -6.284 -0 -1.2 0
-4.457 -8.701 -6.294 -0 -1.2 0
-4.365 -8.817 -6.169 -0 -1.2 0
-4.21 -8.816 -5.949 -0 -1.2 0
-4.11 -8.909 -5.811 -0 -1.2 0
-4.024 -9.029 -5.695 -0 -1.2 0
-0.717 -0.055 -0.611 -0 -1.2 0
-0.751 -0.043 -0.655 -0 -1.2 0
-0.777 -0.045 -0.688 -0 -1.2 0
-0.801 -0.048 -0.721 -0 -1.2 0
-0.832 -0.046 -0.761 -0 -1.2 0
-0.857 -0.051 -0.794 -0 -1.2 0
-0.887 -0.052 -0.834 -0 -1.2 0
-0.919 -0.054 -0.874 -0 -1.2 0
-0.959 -0.046 -0.928 -0 -1.2 0
-0.986 -0.057 -0.963 -0 -1.2 0
-1.017 -0.064 -1.004 -0 -1.2 0
-1.059 -0.062 -1.06 -0 -1.2 0
-1.096 -0.067 -1.108 -0 -1.2 0
-1.138 -0.069 -1.164 -0 -1.2 0
-1.181 -0.073 -1.22 -0 -1.2 0
-1.224 -0.08 -1.277 -0 -1.2 0
-1.278 -0.079 -1.348 -0 -1.2 0
-1.327 -0.085 -1.412 -0 -1.2 0
-1.37 -0.098 -1.471 -0 -1.2 0
-1.436 -0.099 -1.557 -0 -1.2 0
-1.502 -0.102 -1.644 -0 -1.2 0
-1.569 -0.108 -1.733 -0 -1.2 0
-1.642 -0.115 -1.828 -0 -1.2 0
-1.721 -0.123 -1.932 -0 -1.2 0
-1.812 -0.128 -2.051 -0 -1.2 0
-1.914 -0.133 -2.186 -0 -1.2 0
-2.023 -0.14 -2.329 -0 -1.2 0
-2.15 -0.146 -2.495 -0 -1.2 0
-2.283 -0.156 -2.671 -0 -1.2 0
-2.421 -0.171 -2.854 -0 -1.2 0
-2.573 -0.189 -3.053 -0 -1.2 0
-2.772 -0.201 -3.315 -0 -1.2 0
-2.984 -0.22 -3.593 -0 -1.2 0
-3.256 -0.236 -3.951 -0 -1.2 0
-3.54 -0.264 -4.324 -0 -1.2 0
-3.902 -0.291 -4.802 -0 -1.2 0
-4.325 -0.328 -5.359 -0 -1.2 0
-4.361 -0.448 -5.409 -0 -1.2 0
-4.365 -0.574 -5.419 -0 -1.2 0
-4.355 -0.701 -5.411 -0 -1.2 0
-4.352 -0.827 -5.41 -0 -1.2 0
-4.37 -0.951 -5.438 -0 -1.2 0
-4.363 -1.077 -5.432 -0 -1.2 0
-4.361 -1.202 -5.433 -0 -1.2 0
-4.363 -1.329 -5.441 -0 -1.2 0
-4.358 -1.453 -5.438 -0 -1.2 0
-4.351 -1.578 -5.434 -0 -1.2 0
-4.368 -1.708 -5.46 -0 -1.2 0
-4.359 -1.833 -5.452 -0 -1.2 0
-4.355 -1.96 -5.45 -0 -1.2 0
-4.361 -2.09 -5.462 -0 -1.2 0
-4.282 -2.199 -5.363 -0 -1.2 0
-4.393 -2.358 -5.513 -0 -1.2 0
-4.43 -2.503 -5.567 -0 -1.2 0
-4.436 -2.638 -5.579 -0 -1.2 0
-4.435 -2.774 -5.582 -0 -1.2 0
-4.439 -2.911 -5.591 -0 -1.2 0
-4.434 -3.047 -5.589 -0 -1.2 0
-4.429 -3.183 -5.585 -0 -1.2 0
-4.432 -3.326 -5.596 -0 -1.2 0
-4.429 -3.467 -5.596 -0 -1.2 0
-4.43 -3.611 -5.602 -0 -1.2 0
-4.428 -3.756 -5.605 -0 -1.2 0
-4.432 -3.906 -5.613 -0 -1.2 0
-4.433 -4.056 -5.62 -0 -1.2 0
-4.432 -4.209 -5.623 -0 -1.2 0
-4.435 -4.365 -5.632 -0 -1.2 0
-4.435 -4.523 -5.639 -0 -1.2 0
-4.44 -4.686 -5.65 -0 -1.2 0
-4.437 -4.846 -5.65 -0 -1.2 0
-4.437 -5.013 -5.656 -0 -1.2 0
-4.434 -5.181 -5.659 -0 -1.2 0
-4.436 -5.354 -5.665 -0 -1.2 0
-4.434 -5.529 -5.668 -0 -1.2 0
-4.435 -5.711 -5.677 -0 -1.2 0
-4.443 -5.905 -5.693 -0 -1.2 0
-4.44 -6.089 -5.695 -0 -1.2 0
-4.438 -6.282 -5.698 -0 -1.2 0
-4.443 -6.488 -5.712 -0 -1.2 0
-4.445 -6.694 -5.722 -0 -1.2 0
-4.445 -6.904 -5.727 -0 -1.2 0
-4.437 -7.108 -5.723 -0 -1.2 0
-4.438 -7.334 -5.733 -0 -1.2 0
-4.442 -7.569 -5.744 -0 -1.2 0
-4.441 -7.804 -5.751 -0 -1.2 0
-4.441 -8.05 -5.76 -0 -1.2 0
-4.437 -8.298 -5.762 -0 -1.2 0
-4.396 -8.491 -5.714 -0 -1.2 0
-4.378 -8.727 -5.697 -0 -1.2 0
-4.262 -8.797 -5.548 -0 -1.2 0
-4.102 -8.781 -5.338 -0 -1.2 0
-0.758 -0.043 -0.58 -0 -1.2 0
-0.785 -0.044 -0.613 -0 -1.2 0
-0.811 -0.046 -0.644 -0 -1.2 0
-0.837 -0.049 -0.676 -0 -1.2 0
-0.868 -0.048 -0.714 -0 -1.2 0
-0.895 -0.053 -0.748 -0 -1.2 0
-0.927 -0.053 -0.786 -0 -1.2 0
-0.964 -0.05 -0.832 -0 -1.2 0
-0.991 -0.06 -0.866 -0 -1.2 0
-1.028 -0.06 -0.912 -0 -1.2 0
-1.067 -0.061 -0.958 -0 -1.2 0
-1.1 -0.069 -1 -0 -1.2 0
-1.139 -0.074 -1.047 -0 -1.2 0
-1.188 -0.071 -1.108 -0 -1.2 0
-1.233 -0.076 -1.162 -0 -1.2 0
-1.284 -0.078 -1.225 -0 -1.2 0
-1.329 -0.086 -1.28 -0 -1.2 0
-1.385 -0.088 -1.35 -0 -1.2 0
-1.437 -0.098 -1.413 -0 -1.2 0
-1.505 -0.098 -1.497 -0 -1.2 0
-1.563 -0.109 -1.568 -0 -1.2 0
-1.639 -0.112 -1.661 -0 -1.2 0
-1.721 -0.116 -1.761 -0 -1.2 0
-1.815 -0.117 -1.877 -0 -1.2 0
-1.915 -0.12 -2 -0 -1.2 0
-2.011 -0.132 -2.117 -0 -1.2 0
-2.118 -0.142 -2.249 -0 -1.2 0
-2.25 -0.148 -2.411 -0 -1.2 0
-2.389 -0.159 -2.582 -0 -1.2 0
-2.522 -0.18 -2.745 -0 -1.2 0
-2.692 -0.194 -2.955 -0 -1.2 0
-2.881 -0.212 -3.186 -0 -1.2 0
-3.134 -0.223 -3.496 -0 -1.2 0
-3.399 -0.245 -3.821 -0 -1.2 0
-3.707 -0.27 -4.201 -0 -1.2 0
-4.086 -0.3 -4.665 -0 -1.2 0
-4.313 -0.374 -4.945 -0 -1.2 0
-4.306 -0.495 -4.941 -0 -1.2 0
-4.317 -0.613 -4.957 -0 -1.2 0
-4.314 -0.733 -4.956 -0 -1.2 0
-4.309 -0.852 -4.954 -0 -1.2 0
-4.323 -0.97 -4.973 -0 -1.2 0
-4.302 -1.09 -4.952 -0 -1.2 0
-4.307 -1.208 -4.961 -0 -1.2 0
-4.316 -1.327 -4.975 -0 -1.2 0
-4.311 -1.446 -4.973 -0 -1.2 0
-4.306 -1.565 -4.968 -0 -1.2 0
-4.31 -1.685 -4.978 -0 -1.2 0
-4.302 -1.804 -4.971 -0 -1.2 0
-4.304 -1.926 -4.977 -0 -1.2 0
-4.306 -2.047 -4.982 -0 -1.2 0
-4.243 -2.153 -4.908 -0 -1.2 0
-4.248 -2.276 -4.918 -0 -1.2 0
-4.443 -2.458 -5.161 -0 -1.2 0
-4.444 -2.586 -5.167 -0 -1.2 0
-4.437 -2.714 -5.162 -0 -1.2 0
-4.436 -2.844 -5.164 -0 -1.2 0
-4.427 -2.972 -5.156 -0 -1.2 0
-4.422 -3.102 -5.153 -0 -1.2 0
-4.415 -3.233 -5.149 -0 -1.2 0
-4.407 -3.365 -5.143 -0 -1.2 0
-4.41 -3.503 -5.15 -0 -1.2 0
-4.404 -3.639 -5.147 -0 -1.2 0
-4.403 -3.778 -5.149 -0 -1.2 0
-4.395 -3.916 -5.143 -0 -1.2 0
-4.39 -4.057 -5.142 -0 -1.2 0
-4.39 -4.203 -5.145 -0 -1.2 0
-4.393 -4.354 -5.152 -0 -1.2 0
-4.383 -4.497 -5.144 -0 -1.2 0
-4.382 -4.651 -5.147 -0 -1.2 0
-4.379 -4.806 -5.148 -0 -1.2 0
-4.386 -4.971 -5.16 -0 -1.2 0
-4.384 -5.132 -5.163 -0 -1.2 0
-4.386 -5.3 -5.169 -0 -1.2 0
-4.379 -5.464 -5.166 -0 -1.2 0
-4.386 -5.646 -5.18 -0 -1.2 0
-4.386 -5.824 -5.184 -0 -1.2 0
-4.387 -6.008 -5.191 -0 -1.2 0
-4.331 -6.131 -5.125 -0 -1.2 0
-4.317 -6.305 -5.114 -0 -1.2 0
-4.39 -6.591 -5.211 -0 -1.2 0
-4.39 -6.795 -5.216 -0 -1.2 0
-4.388 -7 -5.218 -0 -1.2 0
-4.391 -7.221 -5.227 -0 -1.2 0
-4.38 -7.43 -5.221 -0 -1.2 0
-4.385 -7.668 -5.234 -0 -1.2 0
-4.382 -7.901 -5.236 -0 -1.2 0
-4.388 -8.158 -5.25 -0 -1.2 0
-4.364 -8.373 -5.227 -0 -1.2 0
-4.345 -8.605 -5.21 -0 -1.2 0
-4.297 -8.793 -5.156 -0 -1.2 0
-0.792 -0.046 -0.536 -0 -1.2 0
-0.819 -0.047 -0.567 -0 -1.2 0
-0.856 -0.036 -0.61 -0 -1.2 0
-0.873 -0.052 -0.63 -0 -1.2 0
-0.901 -0.056 -0.661 -0 -1.2 0
-0.94 -0.05 -0.705 -0 -1.2 0
-0.972 -0.051 -0.742 -0 -1.2 0
-1.006 -0.054 -0.78 -0 -1.2 0
-1.045 -0.052 -0.825 -0 -1.2 0
-1.08 -0.057 -0.864 -0 -1.2 0
-1.114 -0.064 -0.903 -0 -1.2 0
-1.148 -0.073 -0.943 -0 -1.2 0
-1.188 -0.078 -0.989 -0 -1.2 0
-1.24 -0.075 -1.048 -0 -1.2 0
-1.281 -0.084 -1.094 -0 -1.2 0
-1.333 -0.087 -1.155 -0 -1.2 0
-1.387 -0.091 -1.215 -0 -1.2 0
-1.44 -0.097 -1.276 -0 -1.2 0
-1.499 -0.103 -1.343 -0 -1.2 0
-1.577 -0.099 -1.432 -0 -1.2 0
-1.643 -0.106 -1.508 -0 -1.2 0
-1.716 -0.114 -1.592 -0 -1.2 0
-1.802 -0.118 -1.689 -0 -1.2 0
-1.9 -0.119 -1.801 -0 -1.2 0
-1.992 -0.13 -1.907 -0 -1.2 0
-2.104 -0.135 -2.034 -0 -1.2 0
-2.216 -0.147 -2.162 -0 -1.2 0
-2.354 -0.152 -2.32 -0 -1.2 0
-2.499 -0.164 -2.485 -0 -1.2 0
-2.65 -0.18 -2.659 -0 -1.2 0
-2.829 -0.196 -2.861 -0 -1.2 0
-3.038 -0.212 -3.102 -0 -1.2 0
-3.289 -0.228 -3.387 -0 -1.2 0
-3.572 -0.248 -3.71 -0 -1.2 0
-3.881 -0.279 -4.063 -0 -1.2 0
-4.262 -0.312 -4.499 -0 -1.2 0
-4.276 -0.423 -4.517 -0 -1.2 0
-4.282 -0.536 -4.526 -0 -1.2 0
-4.286 -0.649 -4.534 -0 -1.2 0
-4.277 -0.763 -4.526 -0 -1.2 0
-4.279 -0.876 -4.53 -0 -1.2 0
-4.28 -0.989 -4.534 -0 -1.2 0
-4.278 -1.102 -4.536 -0 -1.2 0
-4.277 -1.215 -4.536 -0 -1.2 0
-4.287 -1.329 -4.55 -0 -1.2 0
-4.276 -1.441 -4.54 -0 -1.2 0
-4.277 -1.555 -4.544 -0 -1.2 0
-4.269 -1.667 -4.538 -0 -1.2 0
-4.281 -1.784 -4.553 -0 -1.2 0
-4.271 -1.897 -4.545 -0 -1.2 0
-4.273 -2.012 -4.549 -0 -1.2 0
-4.241 -2.121 -4.516 -0 -1.2 0
-4.208 -2.228 -4.48 -0 -1.2 0
-4.651 -2.475 -4.991 -0 -1.2 0
-4.826 -2.661 -5.195 -0 -1.2 0
-4.818 -2.792 -5.19 -0 -1.2 0
-4.657 -2.867 -5.006 -0 -1.2 0
-4.812 -3.062 -5.188 -0 -1.2 0
-4.813 -3.202 -5.192 -0 -1.2 0
-4.68 -3.279 -5.042 -0 -1.2 0
-4.784 -3.468 -5.165 -0 -1.2 0
-4.779 -3.608 -5.163 -0 -1.2 0
-4.613 -3.659 -4.974 -0 -1.2 0
-4.636 -3.814 -5.004 -0 -1.2 0
-4.73 -4.015 -5.116 -0 -1.2 0
-4.647 -4.109 -5.022 -0 -1.2 0
-4.694 -4.29 -5.08 -0 -1.2 0
-4.625 -4.393 -5.005 -0 -1.2 0
-4.474 -4.432 -4.833 -0 -1.2 0
-4.346 -4.483 -4.688 -0 -1.2 0
-4.345 -4.632 -4.69 -0 -1.2 0
-4.343 -4.781 -4.691 -0 -1.2 0
-4.344 -4.936 -4.696 -0 -1.2 0
-4.347 -5.098 -4.704 -0 -1.2 0
-4.344 -5.255 -4.703 -0 -1.2 0
-4.344 -5.42 -4.707 -0 -1.2 0
-4.346 -5.591 -4.714 -0 -1.2 0
-4.351 -5.77 -4.724 -0 -1.2 0
-4.353 -5.95 -4.729 -0 -1.2 0
-4.342 -6.12 -4.721 -0 -1.2 0
-4.272 -6.223 -4.643 -0 -1.2 0
-4.591 -6.809 -5.02 -0 -1.2 0
-4.583 -7.008 -5.015 -0 -1.2 0
-4.582 -7.222 -5.018 -0 -1.2 0
-4.571 -7.431 -5.012 -0 -1.2 0
-4.568 -7.655 -5.013 -0 -1.2 0
-4.561 -7.881 -5.009 -0 -1.2 0
-4.554 -8.115 -5.007 -0 -1.2 0
-4.543 -8.351 -5 -0 -1.2 0
-4.401 -8.377 -4.838 -0 -1.2 0
-4.288 -8.45 -4.712 -0 -1.2 0
-0.826 -0.041 -0.497 -0 -1.2 0
-0.854 -0.042 -0.526 -0 -1.2 0
-0.887 -0.037 -0.563 -0 -1.2 0
-0.91 -0.047 -0.587 -0 -1.2 0
-0.945 -0.046 -0.623 -0 -1.2 0
-0.979 -0.046 -0.66 -0 -1.2 0
-1.008 -0.053 -0.691 -0 -1.2 0
-1.042 -0.056 -0.728 -0 -1.2 0
-1.078 -0.06 -0.766 -0 -1.2 0
-1.113 -0.065 -0.804 -0 -1.2 0
-1.154 -0.067 -0.848 -0 -1.2 0
-1.19 -0.075 -0.886 -0 -1.2 0
-1.231 -0.081 -0.93 -0 -1.2 0
-1.286 -0.078 -0.988 -0 -1.2 0
-1.334 -0.083 -1.039 -0 -1.2 0
-1.382 -0.09 -1.091 -0 -1.2 0
-1.443 -0.089 -1.157 -0 -1.2 0
-1.499 -0.096 -1.215 -0 -1.2 0
-1.561 -0.102 -1.282 -0 -1.2 0
-1.635 -0.103 -1.361 -0 -1.2 0
-1.717 -0.103 -1.448 -0 -1.2 0
-1.786 -0.115 -1.523 -0 -1.2 0
-1.874 -0.119 -1.617 -0 -1.2 0
-1.97 -0.124 -1.719 -0 -1.2 0
-2.079 -0.128 -1.835 -0 -1.2 0
-2.194 -0.135 -1.959 -0 -1.2 0
-2.311 -0.146 -2.084 -0 -1.2 0
-2.447 -0.156 -2.229 -0 -1.2 0
-2.597 -0.168 -2.39 -0 -1.2 0
-2.769 -0.18 -2.572 -0 -1.2 0
-2.953 -0.197 -2.769 -0 -1.2 0
-3.158 -0.217 -2.988 -0 -1.2 0
-3.45 -0.225 -3.3 -0 -1.2 0
-3.731 -0.251 -3.599 -0 -1.2 0
-4.045 -0.284 -3.936 -0 -1.2 0
-4.236 -0.355 -4.142 -0 -1.2 0
-4.23 -0.465 -4.137 -0 -1.2 0
-4.236 -0.573 -4.145 -0 -1.2 0
-4.234 -0.681 -4.145 -0 -1.2 0
-4.223 -0.79 -4.136 -0 -1.2 0
-4.225 -0.898 -4.14 -0 -1.2 0
-4.233 -1.005 -4.15 -0 -1.2 0
-4.233 -1.113 -4.152 -0 -1.2 0
-4.231 -1.221 -4.152 -0 -1.2 0
-4.242 -1.329 -4.165 -0 -1.2 0
-4.231 -1.436 -4.155 -0 -1.2 0
-4.232 -1.545 -4.159 -0 -1.2 0
-4.225 -1.652 -4.153 -0 -1.2 0
-4.23 -1.762 -4.161 -0 -1.2 0
-4.235 -1.873 -4.167 -0 -1.2 0
-4.224 -1.98 -4.157 -0 -1.2 0
-4.225 -2.091 -4.161 -0 -1.2 0
-4.158 -2.185 -4.091 -0 -1.2 0
-4.211 -2.311 -4.149 -0 -1.2 0
-4.567 -2.535 -4.534 -0 -1.2 0
-4.569 -2.658 -4.537 -0 -1.2 0
-4.562 -2.779 -4.533 -0 -1.2 0
-4.553 -2.901 -4.526 -0 -1.2 0
-4.556 -3.028 -4.531 -0 -1.2 0
-4.558 -3.157 -4.535 -0 -1.2 0
-4.557 -3.285 -4.536 -0 -1.2 0
-4.555 -3.414 -4.536 -0 -1.2 0
-4.558 -3.548 -4.542 -0 -1.2 0
-4.552 -3.678 -4.538 -0 -1.2 0
-4.582 -3.832 -4.574 -0 -1.2 0
-4.58 -3.969 -4.573 -0 -1.2 0
-4.569 -4.103 -4.563 -0 -1.2 0
-4.561 -4.24 -4.558 -0 -1.2 0
-4.565 -4.387 -4.565 -0 -1.2 0
-4.427 -4.431 -4.419 -0 -1.2 0
-4.29 -4.468 -4.273 -0 -1.2 0
-4.301 -4.622 -4.288 -0 -1.2 0
-4.299 -4.767 -4.288 -0 -1.2 0
-4.294 -4.913 -4.285 -0 -1.2 0
-4.293 -5.065 -4.288 -0 -1.2 0
-4.295 -5.224 -4.293 -0 -1.2 0
-4.301 -5.39 -4.301 -0 -1.2 0
-4.297 -5.551 -4.301 -0 -1.2 0
-4.297 -5.72 -4.304 -0 -1.2 0
-4.3 -5.896 -4.309 -0 -1.2 0
-4.3 -6.075 -4.313 -0 -1.2 0
-4.218 -6.159 -4.226 -0 -1.2 0
-4.58 -6.795 -4.625 -0 -1.2 0
-4.623 -7.056 -4.674 -0 -1.2 0
-5.703 -8.717 -5.857 -0 -1.2 0
-4.737 -7.653 -4.807 -0 -1.2 0
-4.55 -7.621 -4.607 -0 -1.2 0
-4.561 -7.872 -4.624 -0 -1.2 0
-4.717 -8.356 -4.799 -0 -1.2 0
-4.546 -8.346 -4.616 -0 -1.2 0
-4.399 -8.365 -4.46 -0 -1.2 0
-0.855 -0.043 -0.452 -0 -1.2 0
-0.884 -0.044 -0.481 -0 -1.2 0
-0.919 -0.04 -0.516 -0 -1.2 0
-0.942 -0.05 -0.54 -0 -1.2 0
-0.978 -0.049 -0.574 -0 -1.2 0
-1.014 -0.048 -0.61 -0 -1.2 0
-1.032 -0.068 -0.628 -0 -1.2 0
-1.073 -0.064 -0.67 -0 -1.2 0
-1.116 -0.063 -0.713 -0 -1.2 0
-1.158 -0.063 -0.754 -0 -1.2 0
-1.195 -0.07 -0.792 -0 -1.2 0
-1.232 -0.079 -0.829 -0 -1.2 0
-1.274 -0.084 -0.871 -0 -1.2 0
-1.325 -0.086 -0.921 -0 -1.2 0
-1.374 -0.091 -0.97 -0 -1.2 0
-1.424 -0.098 -1.021 -0 -1.2 0
-1.487 -0.098 -1.084 -0 -1.2 0
-1.551 -0.1 -1.148 -0 -1.2 0
-1.615 -0.106 -1.211 -0 -1.2 0
-1.693 -0.107 -1.288 -0 -1.2 0
-1.764 -0.114 -1.36 -0 -1.2 0
-1.848 -0.119 -1.444 -0 -1.2 0
-1.946 -0.12 -1.542 -0 -1.2 0
-2.039 -0.129 -1.635 -0 -1.2 0
-2.137 -0.14 -1.734 -0 -1.2 0
-2.265 -0.143 -1.861 -0 -1.2 0
-2.385 -0.155 -1.981 -0 -1.2 0
-2.526 -0.164 -2.122 -0 -1.2 0
-2.668 -0.182 -2.264 -0 -1.2 0
-2.858 -0.19 -2.454 -0 -1.2 0
-3.056 -0.204 -2.652 -0 -1.2 0
-3.267 -0.225 -2.864 -0 -1.2 0
-3.529 -0.244 -3.126 -0 -1.2 0
-3.853 -0.262 -3.45 -0 -1.2 0
-4.164 -0.298 -3.761 -0 -1.2 0
-4.208 -0.395 -3.805 -0 -1.2 0
-4.201 -0.501 -3.801 -0 -1.2 0
-4.201 -0.605 -3.8 -0 -1.2 0
-4.199 -0.709 -3.8 -0 -1.2 0
-4.195 -0.813 -3.798 -0 -1.2 0
-4.19 -0.916 -3.794 -0 -1.2 0
-4.191 -1.019 -3.797 -0 -1.2 0
-4.19 -1.122 -3.798 -0 -1.2 0
-4.189 -1.225 -3.798 -0 -1.2 0
-4.193 -1.329 -3.803 -0 -1.2 0
-4.189 -1.432 -3.801 -0 -1.2 0
-4.191 -1.535 -3.804 -0 -1.2 0
-4.184 -1.638 -3.798 -0 -1.2 0
-4.197 -1.744 -3.813 -0 -1.2 0
-4.188 -1.847 -3.806 -0 -1.2 0
-4.191 -1.954 -3.811 -0 -1.2 0
-4.193 -2.06 -3.814 -0 -1.2 0
-4.132 -2.151 -3.753 -0 -1.2 0
-4.117 -2.253 -3.741 -0 -1.2 0
-4.254 -2.401 -3.879 -0 -1.2 0
-4.243 -2.507 -3.87 -0 -1.2 0
-4.252 -2.622 -3.88 -0 -1.2 0
-4.246 -2.732 -3.875 -0 -1.2 0
-4.244 -2.844 -3.875 -0 -1.2 0
-4.248 -2.96 -3.881 -0 -1.2 0
-4.25 -3.078 -3.885 -0 -1.2 0
-4.252 -3.195 -3.888 -0 -1.2 0
-4.25 -3.314 -3.888 -0 -1.2 0
-4.249 -3.433 -3.887 -0 -1.2 0
-4.251 -3.557 -3.891 -0 -1.2 0
-4.245 -3.677 -3.888 -0 -1.2 0
-4.243 -3.802 -3.889 -0 -1.2 0
-4.247 -3.932 -3.894 -0 -1.2 0
-4.242 -4.058 -3.89 -0 -1.2 0
-4.242 -4.19 -3.892 -0 -1.2 0
-4.247 -4.328 -3.898 -0 -1.2 0
-4.242 -4.462 -3.896 -0 -1.2 0
-4.242 -4.601 -3.897 -0 -1.2 0
-4.245 -4.748 -3.903 -0 -1.2 0
-4.252 -4.9 -3.912 -0 -1.2 0
-4.257 -5.054 -3.919 -0 -1.2 0
-4.248 -5.198 -3.911 -0 -1.2 0
-4.248 -5.354 -3.913 -0 -1.2 0
-4.25 -5.518 -3.918 -0 -1.2 0
-4.245 -5.678 -3.915 -0 -1.2 0
-4.242 -5.844 -3.915 -0 -1.2 0
-4.242 -6.017 -3.917 -0 -1.2 0
-4.212 -6.161 -3.889 -0 -1.2 0
-4.222 -6.356 -3.902 -0 -1.2 0
-4.249 -6.582 -3.932 -0 -1.2 0
-4.246 -6.775 -3.932 -0 -1.2 0
-4.256 -6.991 -3.945 -0 -1.2 0
-4.255 -7.203 -3.948 -0 -1.2 0
-4.261 -7.431 -3.957 -0 -1.2 0
-4.272 -7.675 -3.97 -0 -1.2 0
-4.274 -7.914 -3.975 -0 -1.2 0
-0.891 -0.038 -0.408 -0 -1.2 0
-0.915 -0.046 -0.431 -0 -1.2 0
-0.946 -0.048 -0.459 -0 -1.2 0
-0.988 -0.039 -0.498 -0 -1.2 0
-1.013 -0.05 -0.521 -0 -1.2 0
-1.043 -0.057 -0.55 -0 -1.2 0
-1.075 -0.063 -0.579 -0 -1.2 0
-1.118 -0.06 -0.619 -0 -1.2 0
-1.161 -0.059 -0.66 -0 -1.2 0
-1.193 -0.07 -0.689 -0 -1.2 0
-1.238 -0.072 -0.731 -0 -1.2 0
-1.276 -0.081 -0.766 -0 -1.2 0
-1.326 -0.082 -0.814 -0 -1.2 0
-1.378 -0.084 -0.861 -0 -1.2 0
-1.43 -0.089 -0.909 -0 -1.2 0
-1.488 -0.091 -0.964 -0 -1.2 0
-1.54 -0.1 -1.012 -0 -1.2 0
-1.613 -0.099 -1.079 -0 -1.2 0
-1.673 -0.109 -1.135 -0 -1.2 0
-1.746 -0.113 -1.203 -0 -1.2 0
-1.833 -0.114 -1.284 -0 -1.2 0
-1.906 -0.126 -1.353 -0 -1.2 0
-2.008 -0.127 -1.447 -0 -1.2 0
-2.118 -0.129 -1.55 -0 -1.2 0
-2.22 -0.14 -1.645 -0 -1.2 0
-2.331 -0.153 -1.747 -0 -1.2 0
-2.47 -0.16 -1.876 -0 -1.2 0
-2.609 -0.172 -2.005 -0 -1.2 0
-2.756 -0.189 -2.142 -0 -1.2 0
-2.952 -0.198 -2.325 -0 -1.2 0
-3.157 -0.213 -2.516 -0 -1.2 0
-3.391 -0.23 -2.733 -0 -1.2 0
-3.654 -0.251 -2.978 -0 -1.2 0
-3.968 -0.274 -3.271 -0 -1.2 0
-4.196 -0.328 -3.482 -0 -1.2 0
-4.19 -0.43 -3.478 -0 -1.2 0
-4.183 -0.532 -3.472 -0 -1.2 0
-4.175 -0.633 -3.466 -0 -1.2 0
-4.172 -0.733 -3.464 -0 -1.2 0
-4.176 -0.832 -3.468 -0 -1.2 0
-4.171 -0.931 -3.465 -0 -1.2 0
-4.172 -1.03 -3.467 -0 -1.2 0
-4.172 -1.129 -3.467 -0 -1.2 0
-4.17 -1.228 -3.467 -0 -1.2 0
-4.175 -1.328 -3.472 -0 -1.2 0
-4.171 -1.427 -3.469 -0 -1.2 0
-4.166 -1.526 -3.465 -0 -1.2 0
-4.166 -1.625 -3.467 -0 -1.2 0
-4.188 -1.729 -3.488 -0 -1.2 0
-4.172 -1.827 -3.474 -0 -1.2 0
-4.168 -1.928 -3.472 -0 -1.2 0
-4.163 -2.028 -3.468 -0 -1.2 0
-4.144 -2.125 -3.451 -0 -1.2 0
-4.093 -2.213 -3.405 -0 -1.2 0
-4.157 -2.335 -3.465 -0 -1.2 0
-4.232 -2.463 -3.537 -0 -1.2 0
-4.222 -2.566 -3.527 -0 -1.2 0
-4.229 -2.677 -3.536 -0 -1.2 0
-4.222 -2.783 -3.53 -0 -1.2 0
-4.221 -2.892 -3.53 -0 -1.2 0
-4.218 -3.002 -3.528 -0 -1.2 0
-4.226 -3.119 -3.537 -0 -1.2 0
-4.227 -3.233 -3.538 -0 -1.2 0
-4.226 -3.347 -3.539 -0 -1.2 0
-4.23 -3.466 -3.544 -0 -1.2 0
-4.226 -3.582 -3.541 -0 -1.2 0
-4.226 -3.704 -3.542 -0 -1.2 0
-4.224 -3.825 -3.542 -0 -1.2 0
-4.228 -3.952 -3.547 -0 -1.2 0
-4.222 -4.075 -3.542 -0 -1.2 0
-4.222 -4.204 -3.543 -0 -1.2 0
-4.219 -4.333 -3.543 -0 -1.2 0
-4.221 -4.469 -3.545 -0 -1.2 0
-4.22 -4.605 -3.546 -0 -1.2 0
-4.225 -4.749 -3.55 -0 -1.2 0
-4.219 -4.887 -3.548 -0 -1.2 0
-4.218 -5.032 -3.548 -0 -1.2 0
-4.22 -5.184 -3.551 -0 -1.2 0
-4.22 -5.337 -3.552 -0 -1.2 0
-4.222 -5.498 -3.556 -0 -1.2 0
-4.217 -5.654 -3.552 -0 -1.2 0
-4.219 -5.823 -3.557 -0 -1.2 0
-4.219 -5.995 -3.558 -0 -1.2 0
-4.216 -6.168 -3.556 -0 -1.2 0
-4.209 -6.342 -3.551 -0 -1.2 0
-4.21 -6.53 -3.554 -0 -1.2 0
-4.213 -6.728 -3.559 -0 -1.2 0
-4.216 -6.934 -3.564 -0 -1.2 0
-4.206 -7.128 -3.556 -0 -1.2 0
-4.206 -7.345 -3.559 -0 -1.2 0
-4.203 -7.564 -3.558 -0 -1.2 0
-0.919 -0.04 -0.361 -0 -1.2 0
-0.95 -0.041 -0.387 -0 -1.2 0
-0.97 -0.057 -0.405 -0 -1.2 0
-1 -0.06 -0.432 -0 -1.2 0
-1.038 -0.059 -0.465 -0 -1.2 0
-1.07 -0.065 -0.492 -0 -1.2 0
-1.108 -0.066 -0.525 -0 -1.2 0
-1.146 -0.069 -0.558 -0 -1.2 0
-1.191 -0.067 -0.598 -0 -1.2 0
-1.224 -0.079 -0.626 -0 -1.2 0
-1.262 -0.086 -0.659 -0 -1.2 0
-1.315 -0.084 -0.705 -0 -1.2 0
-1.361 -0.089 -0.745 -0 -1.2 0
-1.414 -0.091 -0.791 -0 -1.2 0
-1.467 -0.096 -0.837 -0 -1.2 0
-1.521 -0.104 -0.883 -0 -1.2 0
-1.574 -0.112 -0.93 -0 -1.2 0
-1.642 -0.115 -0.989 -0 -1.2 0
-1.717 -0.117 -1.054 -0 -1.2 0
-1.8 -0.117 -1.126 -0 -1.2 0
-1.875 -0.126 -1.192 -0 -1.2 0
-1.965 -0.13 -1.27 -0 -1.2 0
-2.07 -0.131 -1.362 -0 -1.2 0
-2.162 -0.144 -1.441 -0 -1.2 0
-2.289 -0.145 -1.552 -0 -1.2 0
-2.41 -0.155 -1.656 -0 -1.2 0
-2.524 -0.172 -1.755 -0 -1.2 0
-2.696 -0.175 -1.906 -0 -1.2 0
-2.848 -0.193 -2.037 -0 -1.2 0
-3.036 -0.205 -2.201 -0 -1.2 0
-3.254 -0.219 -2.39 -0 -1.2 0
-3.48 -0.241 -2.586 -0 -1.2 0
-3.751 -0.262 -2.823 -0 -1.2 0
-4.061 -0.289 -3.092 -0 -1.2 0
-4.16 -0.366 -3.178 -0 -1.2 0
-4.154 -0.464 -3.174 -0 -1.2 0
-4.162 -0.56 -3.181 -0 -1.2 0
-4.145 -0.658 -3.167 -0 -1.2 0
-4.15 -0.754 -3.172 -0 -1.2 0
-4.146 -0.851 -3.169 -0 -1.2 0
-4.141 -0.946 -3.165 -0 -1.2 0
-4.142 -1.042 -3.167 -0 -1.2 0
-4.143 -1.137 -3.167 -0 -1.2 0
-4.141 -1.233 -3.166 -0 -1.2 0
-4.146 -1.328 -3.171 -0 -1.2 0
-4.142 -1.423 -3.169 -0 -1.2 0
-4.145 -1.519 -3.171 -0 -1.2 0
-4.138 -1.614 -3.166 -0 -1.2 0
-4.138 -1.711 -3.167 -0 -1.2 0
-4.137 -1.808 -3.166 -0 -1.2 0
-4.133 -1.905 -3.164 -0 -1.2 0
-4.138 -2.003 -3.167 -0 -1.2 0
-4.139 -2.101 -3.17 -0 -1.2 0
-4.074 -2.183 -3.113 -0 -1.2 0
-4.065 -2.279 -3.107 -0 -1.2 0
-4.189 -2.417 -3.215 -0 -1.2 0
-4.193 -2.52 -3.218 -0 -1.2 0
-4.188 -2.622 -3.215 -0 -1.2 0
-4.196 -2.73 -3.222 -0 -1.2 0
-4.188 -2.833 -3.216 -0 -1.2 0
-4.193 -2.941 -3.221 -0 -1.2 0
-4.189 -3.047 -3.218 -0 -1.2 0
-4.19 -3.157 -3.22 -0 -1.2 0
-4.19 -3.269 -3.221 -0 -1.2 0
-4.189 -3.381 -3.22 -0 -1.2 0
-4.186 -3.493 -3.218 -0 -1.2 0
-4.188 -3.609 -3.221 -0 -1.2 0
-4.187 -3.727 -3.221 -0 -1.2 0
-4.186 -3.845 -3.221 -0 -1.2 0
-4.189 -3.97 -3.223 -0 -1.2 0
-4.183 -4.09 -3.219 -0 -1.2 0
-4.183 -4.215 -3.22 -0 -1.2 0
-4.186 -4.346 -3.223 -0 -1.2 0
-4.181 -4.474 -3.22 -0 -1.2 0
-4.181 -4.607 -3.219 -0 -1.2 0
-4.184 -4.748 -3.223 -0 -1.2 0
-4.184 -4.888 -3.225 -0 -1.2 0
-4.177 -5.025 -3.219 -0 -1.2 0
-4.179 -5.174 -3.222 -0 -1.2 0
-4.172 -5.319 -3.216 -0 -1.2 0
-4.181 -5.483 -3.225 -0 -1.2 0
-4.181 -5.642 -3.225 -0 -1.2 0
-4.183 -5.81 -3.228 -0 -1.2 0
-4.176 -5.972 -3.223 -0 -1.2 0
-4.166 -6.135 -3.216 -0 -1.2 0
-4.171 -6.32 -3.221 -0 -1.2 0
-4.171 -6.506 -3.221 -0 -1.2 0
-4.168 -6.694 -3.22 -0 -1.2 0
-4.165 -6.891 -3.219 -0 -1.2 0
-4.165 -7.097 -3.22 -0 -1.2 0
-4.16 -7.304 -3.217 -0 -1.2 0
-0.933 -0.055 -0.303 -0 -1.2 0
-0.971 -0.05 -0.333 -0 -1.2 0
-1.002 -0.052 -0.359 -0 -1.2 0
-1.022 -0.069 -0.376 -0 -1.2 0
-1.061 -0.067 -0.406 -0 -1.2 0
-1.093 -0.072 -0.433 -0 -1.2 0
-1.139 -0.068 -0.47 -0 -1.2 0
-1.179 -0.071 -0.502 -0 -1.2 0
-1.218 -0.075 -0.535 -0 -1.2 0
-1.258 -0.081 -0.567 -0 -1.2 0
-1.305 -0.083 -0.605 -0 -1.2 0
-1.345 -0.092 -0.637 -0 -1.2 0
-1.392 -0.096 -0.675 -0 -1.2 0
-1.46 -0.09 -0.731 -0 -1.2 0
-1.508 -0.099 -0.77 -0 -1.2 0
-1.563 -0.107 -0.815 -0 -1.2 0
-1.625 -0.11 -0.865 -0 -1.2 0
-1.688 -0.118 -0.915 -0 -1.2 0
-1.751 -0.128 -0.967 -0 -1.2 0
-1.843 -0.125 -1.042 -0 -1.2 0
-1.921 -0.133 -1.104 -0 -1.2 0
-2.014 -0.137 -1.18 -0 -1.2 0
-2.107 -0.145 -1.256 -0 -1.2 0
-2.216 -0.151 -1.343 -0 -1.2 0
-2.331 -0.159 -1.438 -0 -1.2 0
-2.456 -0.168 -1.539 -0 -1.2 0
-2.595 -0.177 -1.651 -0 -1.2 0
-2.75 -0.188 -1.778 -0 -1.2 0
-2.921 -0.2 -1.916 -0 -1.2 0
-3.092 -0.219 -2.055 -0 -1.2 0
-3.308 -0.235 -2.231 -0 -1.2 0
-3.556 -0.252 -2.432 -0 -1.2 0
-3.827 -0.275 -2.652 -0 -1.2 0
-4.107 -0.309 -2.88 -0 -1.2 0
-4.124 -0.4 -2.894 -0 -1.2 0
-4.118 -0.495 -2.888 -0 -1.2 0
-4.134 -0.586 -2.901 -0 -1.2 0
-4.124 -0.68 -2.893 -0 -1.2 0
-4.114 -0.774 -2.885 -0 -1.2 0
-4.109 -0.867 -2.883 -0 -1.2 0
-4.12 -0.958 -2.89 -0 -1.2 0
-4.114 -1.05 -2.886 -0 -1.2 0
-4.113 -1.143 -2.886 -0 -1.2 0
-4.113 -1.235 -2.885 -0 -1.2 0
-4.117 -1.327 -2.889 -0 -1.2 0
-4.114 -1.419 -2.887 -0 -1.2 0
-4.109 -1.511 -2.882 -0 -1.2 0
-4.11 -1.603 -2.884 -0 -1.2 0
-4.111 -1.696 -2.885 -0 -1.2 0
-4.109 -1.79 -2.883 -0 -1.2 0
-4.1 -1.882 -2.876 -0 -1.2 0
-4.103 -1.977 -2.88 -0 -1.2 0
-4.099 -2.071 -2.875 -0 -1.2 0
-4.062 -2.156 -2.845 -0 -1.2 0
-4.039 -2.245 -2.828 -0 -1.2 0
-4.091 -2.356 -2.87 -0 -1.2 0
-4.156 -2.475 -2.923 -0 -1.2 0
-4.159 -2.576 -2.926 -0 -1.2 0
-4.161 -2.677 -2.927 -0 -1.2 0
-4.161 -2.779 -2.928 -0 -1.2 0
-4.16 -2.882 -2.927 -0 -1.2 0
-4.15 -2.982 -2.918 -0 -1.2 0
-4.153 -3.088 -2.921 -0 -1.2 0
-4.161 -3.199 -2.929 -0 -1.2 0
-4.161 -3.307 -2.928 -0 -1.2 0
-4.151 -3.413 -2.921 -0 -1.2 0
-4.155 -3.526 -2.924 -0 -1.2 0
-4.156 -3.639 -2.925 -0 -1.2 0
-4.156 -3.755 -2.925 -0 -1.2 0
-4.147 -3.866 -2.917 -0 -1.2 0
-4.15 -3.988 -2.92 -0 -1.2 0
-4.15 -4.109 -2.921 -0 -1.2 0
-4.149 -4.232 -2.92 -0 -1.2 0
-4.145 -4.356 -2.918 -0 -1.2 0
-4.147 -4.486 -2.919 -0 -1.2 0
-4.146 -4.618 -2.918 -0 -1.2 0
-4.148 -4.755 -2.921 -0 -1.2 0
-4.149 -4.893 -2.921 -0 -1.2 0
-4.147 -5.033 -2.92 -0 -1.2 0
-4.148 -5.181 -2.921 -0 -1.2 0
-4.147 -5.329 -2.92 -0 -1.2 0
-4.143 -5.478 -2.918 -0 -1.2 0
-4.148 -5.642 -2.922 -0 -1.2 0
-4.143 -5.801 -2.919 -0 -1.2 0
-4.142 -5.967 -2.918 -0 -1.2 0
-4.137 -6.135 -2.914 -0 -1.2 0
-4.119 -6.29 -2.899 -0 -1.2 0
-4.135 -6.495 -2.913 -0 -1.2 0
-4.136 -6.689 -2.914 -0 -1.2 0
-4.133 -6.884 -2.912 -0 -1.2 0
-4.121 -7.072 -2.902 -0 -1.2 0
-0.978 -0.034 -0.265 -0 -1.2 0
-0.999 -0.048 -0.28 -0 -1.2 0
-1.038 -0.044 -0.309 -0 -1.2 0
-1.065 -0.054 -0.33 -0 -1.2 0
-1.099 -0.059 -0.355 -0 -1.2 0
-1.132 -0.065 -0.38 -0 -1.2 0
-1.173 -0.066 -0.411 -0 -1.2 0
-1.219 -0.063 -0.446 -0 -1.2 0
-1.254 -0.073 -0.472 -0 -1.2 0
-1.301 -0.074 -0.508 -0 -1.2 0
-1.343 -0.081 -0.539 -0 -1.2 0
-1.392 -0.084 -0.575 -0 -1.2 0
-1.44 -0.09 -0.612 -0 -1.2 0
-1.489 -0.098 -0.65 -0 -1.2 0
-1.56 -0.093 -0.702 -0 -1.2 0
-1.609 -0.104 -0.739 -0 -1.2 0
-1.68 -0.105 -0.793 -0 -1.2 0
-1.745 -0.112 -0.842 -0 -1.2 0
-1.817 -0.118 -0.896 -0 -1.2 0
-1.889 -0.126 -0.951 -0 -1.2 0
-1.977 -0.131 -1.016 -0 -1.2 0
-2.065 -0.138 -1.083 -0 -1.2 0
-2.176 -0.14 -1.166 -0 -1.2 0
-2.279 -0.148 -1.244 -0 -1.2 0
-2.414 -0.15 -1.347 -0 -1.2 0
-2.534 -0.162 -1.437 -0 -1.2 0
-2.671 -0.174 -1.539 -0 -1.2 0
-2.838 -0.183 -1.665 -0 -1.2 0
-3.021 -0.192 -1.803 -0 -1.2 0
-3.197 -0.212 -1.935 -0 -1.2 0
-3.412 -0.23 -2.098 -0 -1.2 0
-3.659 -0.249 -2.284 -0 -1.2 0
-3.93 -0.273 -2.488 -0 -1.2 0
-4.131 -0.323 -2.639 -0 -1.2 0
-4.102 -0.42 -2.617 -0 -1.2 0
-4.11 -0.509 -2.623 -0 -1.2 0
-4.118 -0.599 -2.629 -0 -1.2 0
-4.101 -0.691 -2.616 -0 -1.2 0
-4.099 -0.781 -2.613 -0 -1.2 0
-4.094 -0.87 -2.611 -0 -1.2 0
-4.105 -0.959 -2.618 -0 -1.2 0
-4.098 -1.049 -2.614 -0 -1.2 0
-4.099 -1.138 -2.614 -0 -1.2 0
-4.098 -1.227 -2.612 -0 -1.2 0
-4.095 -1.316 -2.611 -0 -1.2 0
-4.091 -1.405 -2.608 -0 -1.2 0
-4.095 -1.494 -2.611 -0 -1.2 0
-4.097 -1.585 -2.612 -0 -1.2 0
-4.097 -1.675 -2.613 -0 -1.2 0
-4.105 -1.766 -2.618 -0 -1.2 0
-4.095 -1.855 -2.61 -0 -1.2 0
-4.091 -1.946 -2.608 -0 -1.2 0
-4.087 -2.037 -2.605 -0 -1.2 0
-4.081 -2.127 -2.599 -0 -1.2 0
-4.019 -2.203 -2.554 -0 -1.2 0
-4.026 -2.298 -2.558 -0 -1.2 0
-4.373 -2.502 -2.82 -0 -1.2 0
-4.369 -2.602 -2.816 -0 -1.2 0
-4.37 -2.705 -2.816 -0 -1.2 0
-4.362 -2.805 -2.811 -0 -1.2 0
-4.368 -2.913 -2.815 -0 -1.2 0
-4.357 -3.014 -2.807 -0 -1.2 0
-4.352 -3.119 -2.803 -0 -1.2 0
-4.346 -3.225 -2.799 -0 -1.2 0
-4.353 -3.339 -2.804 -0 -1.2 0
-4.335 -3.441 -2.791 -0 -1.2 0
-4.331 -3.551 -2.787 -0 -1.2 0
-4.326 -3.662 -2.783 -0 -1.2 0
-4.318 -3.774 -2.777 -0 -1.2 0
-4.315 -3.89 -2.775 -0 -1.2 0
-4.311 -4.008 -2.771 -0 -1.2 0
-4.305 -4.126 -2.767 -0 -1.2 0
-4.296 -4.244 -2.761 -0 -1.2 0
-4.3 -4.374 -2.763 -0 -1.2 0
-4.247 -4.461 -2.723 -0 -1.2 0
-4.139 -4.504 -2.642 -0 -1.2 0
-4.137 -4.632 -2.64 -0 -1.2 0
-4.14 -4.768 -2.642 -0 -1.2 0
-4.139 -4.906 -2.642 -0 -1.2 0
-4.137 -5.044 -2.64 -0 -1.2 0
-4.137 -5.189 -2.64 -0 -1.2 0
-4.135 -5.335 -2.638 -0 -1.2 0
-4.131 -5.483 -2.634 -0 -1.2 0
-4.141 -5.651 -2.642 -0 -1.2 0
-4.13 -5.801 -2.634 -0 -1.2 0
-4.134 -5.973 -2.637 -0 -1.2 0
-4.122 -6.132 -2.628 -0 -1.2 0
-4.057 -6.228 -2.578 -0 -1.2 0
-4.195 -6.591 -2.682 -0 -1.2 0
-4.187 -6.776 -2.676 -0 -1.2 0
-4.177 -6.964 -2.668 -0 -1.2 0
-0.99 -0.045 -0.206 -0 -1.2 0
-1.024 -0.046 -0.229 -0 -1.2 0
-1.051 -0.055 -0.249 -0 -1.2 0
-1.084 -0.059 -0.273 -0 -1.2 0
-1.125 -0.058 -0.301 -0 -1.2 0
-1.153 -0.069 -0.321 -0 -1.2 0
-1.195 -0.071 -0.35 -0 -1.2 0
-1.243 -0.067 -0.384 -0 -1.2 0
-1.285 -0.071 -0.413 -0 -1.2 0
-1.334 -0.071 -0.447 -0 -1.2 0
-1.369 -0.084 -0.473 -0 -1.2 0
-1.425 -0.082 -0.513 -0 -1.2 0
-1.468 -0.092 -0.542 -0 -1.2 0
-1.533 -0.09 -0.587 -0 -1.2 0
-1.597 -0.09 -0.633 -0 -1.2 0
-1.656 -0.097 -0.674 -0 -1.2 0
-1.722 -0.102 -0.72 -0 -1.2 0
-1.795 -0.104 -0.772 -0 -1.2 0
-1.854 -0.118 -0.813 -0 -1.2 0
-1.951 -0.115 -0.881 -0 -1.2 0
-2.033 -0.124 -0.939 -0 -1.2 0
-2.123 -0.132 -1.002 -0 -1.2 0
-2.222 -0.14 -1.072 -0 -1.2 0
-2.343 -0.142 -1.157 -0 -1.2 0
-2.458 -0.152 -1.238 -0 -1.2 0
-2.589 -0.162 -1.33 -0 -1.2 0
-2.728 -0.174 -1.427 -0 -1.2 0
-2.892 -0.183 -1.542 -0 -1.2 0
-3.078 -0.193 -1.674 -0 -1.2 0
-3.275 -0.208 -1.812 -0 -1.2 0
-3.487 -0.227 -1.961 -0 -1.2 0
-3.741 -0.245 -2.139 -0 -1.2 0
-4.011 -0.271 -2.329 -0 -1.2 0
-4.078 -0.346 -2.376 -0 -1.2 0
-4.072 -0.435 -2.372 -0 -1.2 0
-4.065 -0.524 -2.367 -0 -1.2 0
-4.073 -0.61 -2.372 -0 -1.2 0
-4.063 -0.699 -2.365 -0 -1.2 0
-4.06 -0.785 -2.363 -0 -1.2 0
-4.065 -0.872 -2.365 -0 -1.2 0
-4.067 -0.958 -2.367 -0 -1.2 0
-4.061 -1.045 -2.362 -0 -1.2 0
-4.061 -1.131 -2.362 -0 -1.2 0
-4.06 -1.217 -2.361 -0 -1.2 0
-4.057 -1.303 -2.359 -0 -1.2 0
-4.062 -1.39 -2.362 -0 -1.2 0
-4.057 -1.475 -2.359 -0 -1.2 0
-4.051 -1.561 -2.355 -0 -1.2 0
-4.053 -1.648 -2.355 -0 -1.2 0
-4.069 -1.739 -2.366 -0 -1.2 0
-4.051 -1.824 -2.354 -0 -1.2 0
-4.057 -1.912 -2.357 -0 -1.2 0
-4.053 -2 -2.354 -0 -1.2 0
-4.055 -2.09 -2.356 -0 -1.2 0
-3.985 -2.16 -2.307 -0 -1.2 0
-3.977 -2.248 -2.301 -0 -1.2 0
-4.396 -2.468 -2.595 -0 -1.2 0
-4.644 -2.651 -2.769 -0 -1.2 0
-4.637 -2.755 -2.764 -0 -1.2 0
-4.629 -2.859 -2.757 -0 -1.2 0
-4.432 -2.888 -2.619 -0 -1.2 0
-4.63 -3.078 -2.758 -0 -1.2 0
-4.624 -3.186 -2.753 -0 -1.2 0
-4.632 -3.302 -2.758 -0 -1.2 0
-4.57 -3.385 -2.715 -0 -1.2 0
-4.619 -3.526 -2.75 -0 -1.2 0
-4.613 -3.639 -2.746 -0 -1.2 0
-4.422 -3.647 -2.61 -0 -1.2 0
-4.348 -3.719 -2.559 -0 -1.2 0
-4.622 -4.008 -2.751 -0 -1.2 0
-4.544 -4.082 -2.695 -0 -1.2 0
-4.537 -4.202 -2.69 -0 -1.2 0
-4.556 -4.343 -2.704 -0 -1.2 0
-4.564 -4.481 -2.709 -0 -1.2 0
-4.343 -4.445 -2.554 -0 -1.2 0
-4.192 -4.454 -2.447 -0 -1.2 0
-4.11 -4.513 -2.39 -0 -1.2 0
-4.107 -4.641 -2.387 -0 -1.2 0
-4.108 -4.774 -2.389 -0 -1.2 0
-4.108 -4.91 -2.387 -0 -1.2 0
-4.111 -5.052 -2.389 -0 -1.2 0
-4.105 -5.19 -2.384 -0 -1.2 0
-4.108 -5.34 -2.386 -0 -1.2 0
-4.108 -5.494 -2.387 -0 -1.2 0
-4.105 -5.647 -2.385 -0 -1.2 0
-4.1 -5.802 -2.38 -0 -1.2 0
-4.103 -5.972 -2.382 -0 -1.2 0
-4.09 -6.129 -2.372 -0 -1.2 0
-4.029 -6.23 -2.33 -0 -1.2 0
-4.46 -6.984 -2.631 -0 -1.2 0
-4.387 -7.092 -2.579 -0 -1.2 0
-1.006 -0.051 -0.153 -0 -1.2 0
-1.041 -0.052 -0.175 -0 -1.2 0
-1.076 -0.054 -0.197 -0 -1.2 0
-1.11 -0.058 -0.221 -0 -1.2 0
-1.138 -0.069 -0.239 -0 -1.2 0
-1.18 -0.068 -0.266 -0 -1.2 0
-1.223 -0.07 -0.294 -0 -1.2 0
-1.264 -0.071 -0.322 -0 -1.2 0
-1.314 -0.07 -0.354 -0 -1.2 0
-1.35 -0.081 -0.378 -0 -1.2 0
-1.408 -0.077 -0.415 -0 -1.2 0
-1.458 -0.081 -0.449 -0 -1.2 0
-1.509 -0.086 -0.481 -0 -1.2 0
-1.561 -0.094 -0.515 -0 -1.2 0
-1.62 -0.098 -0.554 -0 -1.2 0
-1.693 -0.096 -0.602 -0 -1.2 0
-1.753 -0.104 -0.642 -0 -1.2 0
-1.829 -0.107 -0.691 -0 -1.2 0
-1.904 -0.114 -0.74 -0 -1.2 0
-1.996 -0.114 -0.799 -0 -1.2 0
-2.08 -0.123 -0.855 -0 -1.2 0
-2.18 -0.127 -0.92 -0 -1.2 0
-2.281 -0.135 -0.986 -0 -1.2 0
-2.389 -0.143 -1.057 -0 -1.2 0
-2.514 -0.151 -1.14 -0 -1.2 0
-2.648 -0.16 -1.227 -0 -1.2 0
-2.783 -0.174 -1.315 -0 -1.2 0
-2.942 -0.186 -1.419 -0 -1.2 0
-3.149 -0.191 -1.555 -0 -1.2 0
-3.349 -0.205 -1.686 -0 -1.2 0
-3.568 -0.225 -1.828 -0 -1.2 0
-3.81 -0.246 -1.987 -0 -1.2 0
-4.053 -0.278 -2.146 -0 -1.2 0
-4.048 -0.366 -2.142 -0 -1.2 0
-4.041 -0.453 -2.138 -0 -1.2 0
-4.042 -0.538 -2.138 -0 -1.2 0
-4.042 -0.623 -2.138 -0 -1.2 0
-4.04 -0.708 -2.136 -0 -1.2 0
-4.037 -0.792 -2.134 -0 -1.2 0
-4.032 -0.877 -2.13 -0 -1.2 0
-4.043 -0.96 -2.137 -0 -1.2 0
-4.028 -1.044 -2.127 -0 -1.2 0
-4.028 -1.128 -2.128 -0 -1.2 0
-4.028 -1.211 -2.127 -0 -1.2 0
-4.025 -1.295 -2.125 -0 -1.2 0
-4.039 -1.379 -2.133 -0 -1.2 0
-4.026 -1.461 -2.125 -0 -1.2 0
-4.02 -1.545 -2.121 -0 -1.2 0
-4.038 -1.631 -2.132 -0 -1.2 0
-4.038 -1.716 -2.132 -0 -1.2 0
-4.029 -1.8 -2.125 -0 -1.2 0
-4.026 -1.885 -2.123 -0 -1.2 0
-4.031 -1.972 -2.127 -0 -1.2 0
