# .PCD v.7 - Point Cloud Data file format
FIELDS x y z vp_x vp_y vp_z
SIZE 4 4 4 4 4 4
TYPE F F F F F F
COUNT 1 1 1 1 1 1
WIDTH 1607
HEIGHT 1
VIEWPOINT 0 -1.20013 0 1 0 0 0
POINTS 1607
DATA ascii
-3.067 -3.28 2.114 -0 -1.2 0
-3.068 -3.371 2.12 -0 -1.2 0
-3.061 -3.458 2.119 -0 -1.2 0
-3.06 -3.55 2.122 -0 -1.2 0
-3.063 -3.649 2.129 -0 -1.2 0
-3.058 -3.744 2.13 -0 -1.2 0
-3.057 -3.844 2.134 -0 -1.2 0
-3.055 -3.946 2.136 -0 -1.2 0
-3.05 -4.049 2.139 -0 -1.2 0
-3.063 -4.17 2.153 -0 -1.2 0
-3.054 -4.274 2.151 -0 -1.2 0
-3.055 -4.392 2.158 -0 -1.2 0
-3.066 -4.524 2.171 -0 -1.2 0
-3.057 -4.638 2.17 -0 -1.2 0
-3.055 -4.766 2.175 -0 -1.2 0
-3.053 -4.896 2.179 -0 -1.2 0
-0.947 0 0.484 -0 -1.2 0
-0.968 -0.013 0.501 -0 -1.2 0
-1.006 -0.006 0.53 -0 -1.2 0
-1.038 -0.006 0.556 -0 -1.2 0
-1.071 -0.007 0.582 -0 -1.2 0
-1.104 -0.01 0.608 -0 -1.2 0
-1.138 -0.014 0.634 -0 -1.2 0
-1.184 -0.007 0.669 -0 -1.2 0
-1.224 -0.007 0.701 -0 -1.2 0
-1.264 -0.009 0.732 -0 -1.2 0
-1.319 -0.001 0.774 -0 -1.2 0
-1.366 -0.001 0.811 -0 -1.2 0
-1.414 -0.002 0.849 -0 -1.2 0
-1.462 -0.005 0.886 -0 -1.2 0
-1.518 -0.004 0.93 -0 -1.2 0
-1.574 -0.007 0.973 -0 -1.2 0
-1.63 -0.011 1.018 -0 -1.2 0
-1.693 -0.012 1.067 -0 -1.2 0
-1.765 -0.011 1.122 -0 -1.2 0
-1.829 -0.017 1.173 -0 -1.2 0
-1.922 -0.01 1.245 -0 -1.2 0
-2.002 -0.013 1.308 -0 -1.2 0
-2.097 -0.013 1.381 -0 -1.2 0
-2.199 -0.012 1.461 -0 -1.2 0
-2.302 -0.016 1.542 -0 -1.2 0
-2.405 -0.024 1.622 -0 -1.2 0
-2.532 -0.026 1.721 -0 -1.2 0
-2.674 -0.027 1.832 -0 -1.2 0
-2.839 -0.025 1.96 -0 -1.2 0
-3.035 -0.019 2.114 -0 -1.2 0
-3.056 -0.082 2.132 -0 -1.2 0
-3.061 -0.151 2.139 -0 -1.2 0
-3.072 -0.217 2.151 -0 -1.2 0
-3.067 -0.288 2.15 -0 -1.2 0
-3.061 -0.358 2.149 -0 -1.2 0
-3.069 -0.424 2.158 -0 -1.2 0
-3.069 -0.493 2.162 -0 -1.2 0
-3.076 -0.559 2.17 -0 -1.2 0
-3.065 -0.629 2.165 -0 -1.2 0
-3.063 -0.696 2.166 -0 -1.2 0
-3.059 -0.764 2.166 -0 -1.2 0
-3.061 -0.83 2.172 -0 -1.2 0
-3.063 -0.897 2.176 -0 -1.2 0
-3.064 -0.963 2.18 -0 -1.2 0
-3.065 -1.029 2.183 -0 -1.2 0
-3.056 -1.095 2.179 -0 -1.2 0
-3.062 -1.161 2.187 -0 -1.2 0
-3.059 -1.228 2.188 -0 -1.2 0
-3.056 -1.294 2.189 -0 -1.2 0
-3.052 -1.361 2.189 -0 -1.2 0
-3.054 -1.428 2.194 -0 -1.2 0
-3.055 -1.496 2.198 -0 -1.2 0
-3.048 -1.562 2.195 -0 -1.2 0
-3.048 -1.63 2.198 -0 -1.2 0
-3.038 -1.697 2.195 -0 -1.2 0
-2.967 -1.75 2.141 -0 -1.2 0
-2.98 -1.82 2.154 -0 -1.2 0
-2.998 -1.893 2.172 -0 -1.2 0
-3.077 -1.985 2.239 -0 -1.2 0
-3.079 -2.057 2.243 -0 -1.2 0
-3.078 -2.129 2.246 -0 -1.2 0
-3.078 -2.202 2.249 -0 -1.2 0
-3.076 -2.275 2.251 -0 -1.2 0
-3.073 -2.348 2.251 -0 -1.2 0
-3.069 -2.422 2.252 -0 -1.2 0
-3.071 -2.499 2.257 -0 -1.2 0
-3.064 -2.574 2.256 -0 -1.2 0
-3.072 -2.656 2.264 -0 -1.2 0
-3.069 -2.735 2.267 -0 -1.2 0
-3.067 -2.814 2.269 -0 -1.2 0
-3.062 -2.894 2.269 -0 -1.2 0
-3.071 -2.983 2.28 -0 -1.2 0
-3.057 -3.059 2.272 -0 -1.2 0
-3.056 -3.145 2.276 -0 -1.2 0
-3.06 -3.236 2.283 -0 -1.2 0
-3.062 -3.329 2.289 -0 -1.2 0
-3.056 -3.416 2.289 -0 -1.2 0
-3.056 -3.509 2.293 -0 -1.2 0
-3.053 -3.603 2.295 -0 -1.2 0
-3.049 -3.698 2.297 -0 -1.2 0
-3.043 -3.794 2.296 -0 -1.2 0
-3.048 -3.902 2.306 -0 -1.2 0
-3.045 -4.005 2.308 -0 -1.2 0
-3.046 -4.115 2.314 -0 -1.2 0
-3.045 -4.227 2.318 -0 -1.2 0
-3.041 -4.339 2.321 -0 -1.2 0
-3.054 -4.471 2.336 -0 -1.2 0
-3.046 -4.585 2.335 -0 -1.2 0
-3.052 -4.721 2.347 -0 -1.2 0
-3.045 -4.843 2.347 -0 -1.2 0
-3.045 -4.981 2.354 -0 -1.2 0
-0.922 0.001 0.525 -0 -1.2 0
-0.953 0.002 0.552 -0 -1.2 0
-0.985 0.002 0.578 -0 -1.2 0
-1.016 0.002 0.605 -0 -1.2 0
-1.048 0 0.631 -0 -1.2 0
-1.075 -0.008 0.654 -0 -1.2 0
-1.12 0 0.691 -0 -1.2 0
-1.152 -0.004 0.718 -0 -1.2 0
-1.197 0 0.757 -0 -1.2 0
-1.237 -0.001 0.789 -0 -1.2 0
-1.283 0.001 0.828 -0 -1.2 0
-1.33 0.001 0.867 -0 -1.2 0
-1.376 0 0.906 -0 -1.2 0
-1.423 -0.002 0.945 -0 -1.2 0
-1.477 -0.002 0.99 -0 -1.2 0
-1.531 -0.004 1.036 -0 -1.2 0
-1.587 -0.008 1.082 -0 -1.2 0
-1.655 -0.005 1.139 -0 -1.2 0
-1.717 -0.008 1.191 -0 -1.2 0
-1.794 -0.006 1.256 -0 -1.2 0
-1.871 -0.007 1.319 -0 -1.2 0
-1.962 -0.002 1.396 -0 -1.2 0
-2.047 -0.005 1.467 -0 -1.2 0
-2.147 -0.006 1.551 -0 -1.2 0
-2.247 -0.009 1.634 -0 -1.2 0
-2.362 -0.01 1.731 -0 -1.2 0
-2.47 -0.019 1.822 -0 -1.2 0
-2.623 -0.014 1.949 -0 -1.2 0
-2.777 -0.016 2.078 -0 -1.2 0
-2.968 -0.009 2.237 -0 -1.2 0
-3.04 -0.055 2.3 -0 -1.2 0
-3.045 -0.125 2.308 -0 -1.2 0
-3.049 -0.195 2.314 -0 -1.2 0
-3.043 -0.267 2.313 -0 -1.2 0
-3.046 -0.336 2.318 -0 -1.2 0
-3.054 -0.404 2.328 -0 -1.2 0
-3.054 -0.474 2.332 -0 -1.2 0
-3.053 -0.543 2.334 -0 -1.2 0
-3.043 -0.614 2.329 -0 -1.2 0
-3.041 -0.683 2.33 -0 -1.2 0
-3.044 -0.751 2.336 -0 -1.2 0
-3.047 -0.819 2.342 -0 -1.2 0
-3.049 -0.887 2.347 -0 -1.2 0
-3.042 -0.955 2.345 -0 -1.2 0
-3.042 -1.023 2.348 -0 -1.2 0
-3.041 -1.091 2.35 -0 -1.2 0
-3.032 -1.158 2.345 -0 -1.2 0
-3.036 -1.227 2.354 -0 -1.2 0
-3.041 -1.295 2.36 -0 -1.2 0
-3.029 -1.363 2.353 -0 -1.2 0
-3.039 -1.432 2.364 -0 -1.2 0
-3.04 -1.501 2.369 -0 -1.2 0
-3.033 -1.569 2.366 -0 -1.2 0
-3.025 -1.637 2.363 -0 -1.2 0
-3.015 -1.705 2.358 -0 -1.2 0
-2.968 -1.764 2.321 -0 -1.2 0
-2.973 -1.835 2.328 -0 -1.2 0
-2.99 -1.91 2.346 -0 -1.2 0
-13.153 -4.974 10.993 -0 -1.2 0
-12.316 -5.027 10.296 -0 -1.2 0
-12.594 -5.423 10.547 -0 -1.2 0
-11.326 -5.267 9.479 -0 -1.2 0
-14.279 -7.074 12.035 -0 -1.2 0
-12.125 -6.482 10.206 -0 -1.2 0
-10.787 -6.167 9.071 -0 -1.2 0
-11.89 -6.998 10.034 -0 -1.2 0
-12.838 -7.811 10.865 -0 -1.2 0
-9.581 -6.365 8.072 -0 -1.2 0
-10.135 -6.949 8.562 -0 -1.2 0
-10.813 -7.951 9.178 -0 -1.2 0
-12.57 -9.431 10.718 -0 -1.2 0
-11.474 -9.042 9.783 -0 -1.2 0
-11.625 -9.496 9.93 -0 -1.2 0
-10.907 -9.655 9.338 -0 -1.2 0
-10.849 -9.957 9.304 -0 -1.2 0
-9.508 -9.17 8.144 -0 -1.2 0
-9.938 -9.87 8.537 -0 -1.2 0
-10.765 -10.974 9.282 -0 -1.2 0
-10.028 -10.651 8.649 -0 -1.2 0
-10.23 -11.215 8.845 -0 -1.2 0
-10.224 -11.591 8.858 -0 -1.2 0
-9.778 -12.293 8.519 -0 -1.2 0
-3.462 -5.644 2.919 -0 -1.2 0
-0.893 0.002 0.569 -0 -1.2 0
-0.923 0.003 0.596 -0 -1.2 0
-0.954 0.004 0.624 -0 -1.2 0
-0.979 -0.002 0.647 -0 -1.2 0
-1.015 0.001 0.68 -0 -1.2 0
-1.052 0.005 0.713 -0 -1.2 0
-1.078 -0.004 0.737 -0 -1.2 0
-1.122 0.002 0.775 -0 -1.2 0
-1.166 0.008 0.815 -0 -1.2 0
-1.204 0.005 0.849 -0 -1.2 0
-1.248 0.007 0.89 -0 -1.2 0
-1.287 0.003 0.925 -0 -1.2 0
-1.326 -0.003 0.961 -0 -1.2 0
-1.385 0.004 1.012 -0 -1.2 0
-1.431 0 1.054 -0 -1.2 0
-1.49 0.002 1.107 -0 -1.2 0
-1.556 0.008 1.166 -0 -1.2 0
-1.603 -0.002 1.209 -0 -1.2 0
-1.67 -0.002 1.27 -0 -1.2 0
-1.744 0 1.336 -0 -1.2 0
-1.812 -0.005 1.397 -0 -1.2 0
-1.894 -0.004 1.471 -0 -1.2 0
-1.989 0 1.557 -0 -1.2 0
-2.079 -0.003 1.639 -0 -1.2 0
-2.176 -0.006 1.727 -0 -1.2 0
-2.288 -0.007 1.827 -0 -1.2 0
-2.4 -0.013 1.928 -0 -1.2 0
-2.541 -0.011 2.055 -0 -1.2 0
-2.696 -0.009 2.195 -0 -1.2 0
-2.896 0.002 2.375 -0 -1.2 0
-3.081 0 2.542 -0 -1.2 0
-3.297 -0.002 2.736 -0 -1.2 0
-3.535 -0.006 2.951 -0 -1.2 0
-3.876 0.009 3.257 -0 -1.2 0
-4.29 0.027 3.63 -0 -1.2 0
-4.817 0.054 4.104 -0 -1.2 0
-5.492 0.09 4.709 -0 -1.2 0
-6.308 0.122 5.444 -0 -1.2 0
-7.422 0.167 6.445 -0 -1.2 0
-9.086 0.242 7.941 -0 -1.2 0
-10.803 0.246 9.489 -0 -1.2 0
-11.645 0.08 10.255 -0 -1.2 0
-14.081 0.002 12.455 -0 -1.2 0
-14.027 -0.329 12.421 -0 -1.2 0
-16.406 -3.281 14.71 -0 -1.2 0
-13.712 -4.577 12.345 -0 -1.2 0
-13.519 -4.861 12.186 -0 -1.2 0
-12.21 -5.105 11.017 -0 -1.2 0
-10.453 -4.793 9.418 -0 -1.2 0
-11.766 -5.558 10.638 -0 -1.2 0
-14.153 -6.829 12.851 -0 -1.2 0
-12.288 -6.394 11.151 -0 -1.2 0
-11.223 -6.231 10.182 -0 -1.2 0
-10.739 -6.298 9.75 -0 -1.2 0
-9.68 -6.313 8.795 -0 -1.2 0
-10.945 -7.302 9.984 -0 -1.2 0
-11.366 -7.865 10.391 -0 -1.2 0
-9.747 -7.18 8.898 -0 -1.2 0
-11.29 -8.478 10.352 -0 -1.2 0
-8.873 -7.16 8.11 -0 -1.2 0
-9.435 -7.833 8.649 -0 -1.2 0
-11.334 -9.544 10.443 -0 -1.2 0
-8.712 -7.863 7.999 -0 -1.2 0
-12.807 -11.468 11.864 -0 -1.2 0
-8.857 -8.556 8.163 -0 -1.2 0
-10.372 -10.188 9.607 -0 -1.2 0
-10.009 -10.218 9.283 -0 -1.2 0
-9.591 -10.178 8.904 -0 -1.2 0
-11.631 -12.541 10.858 -0 -1.2 0
-10.683 -12.007 9.978 -0 -1.2 0
-10.07 -11.767 9.412 -0 -1.2 0
-11.208 -13.422 10.519 -0 -1.2 0
-3.461 -5.628 3.158 -0 -1.2 0
-3.369 -5.668 3.076 -0 -1.2 0
-0.869 0.01 0.614 -0 -1.2 0
-0.894 0.005 0.637 -0 -1.2 0
-0.924 0.005 0.666 -0 -1.2 0
-0.959 0.011 0.699 -0 -1.2 0
-0.989 0.01 0.729 -0 -1.2 0
-1.019 0.007 0.758 -0 -1.2 0
-1.05 0.002 0.788 -0 -1.2 0
-1.092 0.01 0.829 -0 -1.2 0
-1.124 0.003 0.859 -0 -1.2 0
-1.166 0.007 0.9 -0 -1.2 0
-1.209 0.009 0.941 -0 -1.2 0
-1.247 0.004 0.978 -0 -1.2 0
-1.285 -0.001 1.015 -0 -1.2 0
-1.342 0.005 1.069 -0 -1.2 0
-1.386 0.001 1.112 -0 -1.2 0
-1.449 0.009 1.173 -0 -1.2 0
-1.507 0.01 1.229 -0 -1.2 0
-1.558 0.004 1.279 -0 -1.2 0
-1.624 0.005 1.341 -0 -1.2 0
-1.696 0.006 1.411 -0 -1.2 0
-1.768 0.006 1.481 -0 -1.2 0
-1.847 0.006 1.557 -0 -1.2 0
-1.927 0.002 1.634 -0 -1.2 0
-2.028 0.007 1.731 -0 -1.2 0
-2.128 0.007 1.828 -0 -1.2 0
-2.222 0 1.92 -0 -1.2 0
-2.338 -0.003 2.031 -0 -1.2 0
-2.475 -0.001 2.163 -0 -1.2 0
-2.639 0.006 2.322 -0 -1.2 0
-2.819 0.012 2.495 -0 -1.2 0
-3.006 0.011 2.675 -0 -1.2 0
-3.208 0.007 2.87 -0 -1.2 0
-3.452 0.007 3.106 -0 -1.2 0
-3.79 0.024 3.431 -0 -1.2 0
-4.184 0.041 3.811 -0 -1.2 0
-4.716 0.074 4.322 -0 -1.2 0
-5.37 0.109 4.952 -0 -1.2 0
-6.154 0.139 5.706 -0 -1.2 0
-7.276 0.192 6.788 -0 -1.2 0
-8.974 0.282 8.421 -0 -1.2 0
-9.976 0.197 9.393 -0 -1.2 0
-11.021 0.068 10.408 -0 -1.2 0
-14.05 0.055 13.332 -0 -1.2 0
-14.386 -0.611 13.689 -0 -1.2 0
-13.363 -4.58 12.9 -0 -1.2 0
-12.749 -4.745 12.316 -0 -1.2 0
-12.275 -4.924 11.868 -0 -1.2 0
-13.524 -6.016 13.128 -0 -1.2 0
-11.2 -5.467 10.857 -0 -1.2 0
-10.918 -5.648 10.594 -0 -1.2 0
-10.847 -5.911 10.538 -0 -1.2 0
-10.947 -6.254 10.652 -0 -1.2 0
-10.894 -6.53 10.615 -0 -1.2 0
-11.024 -6.905 10.759 -0 -1.2 0
-11.391 -7.423 11.139 -0 -1.2 0
-9.246 -6.497 9.023 -0 -1.2 0
-7.021 -5.402 6.822 -0 -1.2 0
-7.117 -5.672 6.927 -0 -1.2 0
-8.554 -6.859 8.373 -0 -1.2 0
-9.329 -7.671 9.162 -0 -1.2 0
-9.353 -7.982 9.2 -0 -1.2 0
-8.447 -7.585 8.306 -0 -1.2 0
-8.365 -7.797 8.238 -0 -1.2 0
-8.172 -7.915 8.057 -0 -1.2 0
-12.947 -12.356 12.887 -0 -1.2 0
-6.532 -6.996 6.43 -0 -1.2 0
-6.401 -7.106 6.308 -0 -1.2 0
-7.149 -8.073 7.076 -0 -1.2 0
-10.549 -11.805 10.545 -0 -1.2 0
-10.249 -11.897 10.261 -0 -1.2 0
-10.017 -12.052 10.044 -0 -1.2 0
-10.145 -12.61 10.196 -0 -1.2 0
-10.468 -13.42 10.547 -0 -1.2 0
-10.162 -13.503 10.256 -0 -1.2 0
-3.298 -5.719 3.244 -0 -1.2 0
-0.84 0.012 0.653 -0 -1.2 0
-0.859 0 0.672 -0 -1.2 0
-0.892 0.006 0.707 -0 -1.2 0
-0.922 0.006 0.737 -0 -1.2 0
-0.961 0.017 0.777 -0 -1.2 0
-0.991 0.014 0.807 -0 -1.2 0
-1.02 0.01 0.838 -0 -1.2 0
-1.05 0.005 0.869 -0 -1.2 0
-1.091 0.011 0.912 -0 -1.2 0
-1.133 0.014 0.955 -0 -1.2 0
-1.175 0.017 0.998 -0 -1.2 0
-1.211 0.011 1.036 -0 -1.2 0
-1.253 0.011 1.079 -0 -1.2 0
-1.296 0.007 1.124 -0 -1.2 0
-1.346 0.008 1.174 -0 -1.2 0
-1.401 0.011 1.232 -0 -1.2 0
-1.456 0.012 1.29 -0 -1.2 0
-1.519 0.015 1.354 -0 -1.2 0
-1.576 0.011 1.412 -0 -1.2 0
-1.645 0.014 1.484 -0 -1.2 0
-1.721 0.017 1.563 -0 -1.2 0
-1.805 0.021 1.649 -0 -1.2 0
-1.875 0.013 1.722 -0 -1.2 0
-1.965 0.014 1.815 -0 -1.2 0
-2.064 0.013 1.917 -0 -1.2 0
-2.155 0.005 2.011 -0 -1.2 0
-2.267 0.003 2.126 -0 -1.2 0
-2.411 0.012 2.276 -0 -1.2 0
-2.564 0.015 2.434 -0 -1.2 0
-2.725 0.015 2.599 -0 -1.2 0
-2.899 0.013 2.779 -0 -1.2 0
-3.121 0.019 3.008 -0 -1.2 0
-3.357 0.02 3.253 -0 -1.2 0
-3.697 0.041 3.603 -0 -1.2 0
-4.113 0.067 4.031 -0 -1.2 0
-4.593 0.089 4.526 -0 -1.2 0
-5.245 0.129 5.199 -0 -1.2 0
-6.017 0.162 5.994 -0 -1.2 0
-7.143 0.223 7.155 -0 -1.2 0
-8.784 0.312 8.846 -0 -1.2 0
-9.344 0.169 9.431 -0 -1.2 0
-10.54 0.071 10.673 -0 -1.2 0
-13.893 0.102 14.136 -0 -1.2 0
-13.695 -0.257 13.95 -0 -1.2 0
-10.927 -2.623 11.21 -0 -1.2 0
-10.817 -2.883 11.111 -0 -1.2 0
-10.76 -3.148 11.064 -0 -1.2 0
-10.726 -3.419 11.044 -0 -1.2 0
-10.71 -3.693 11.041 -0 -1.2 0
-10.711 -3.972 11.057 -0 -1.2 0
-10.694 -4.249 11.054 -0 -1.2 0
-11.792 -5.52 12.253 -0 -1.2 0
-12.678 -6.549 13.222 -0 -1.2 0
-13.166 -7.127 13.756 -0 -1.2 0
-12.991 -7.415 13.589 -0 -1.2 0
-7.05 -4.93 7.323 -0 -1.2 0
-12.806 -9.217 13.491 -0 -1.2 0
-6.56 -5.659 6.854 -0 -1.2 0
-6.665 -5.946 6.977 -0 -1.2 0
-7.49 -6.793 7.873 -0 -1.2 0
-8.194 -7.602 8.642 -0 -1.2 0
-6.354 -6.353 6.677 -0 -1.2 0
-6.988 -7.123 7.372 -0 -1.2 0
-7.39 -7.733 7.819 -0 -1.2 0
-6.686 -7.34 7.071 -0 -1.2 0
-7.227 -8.117 7.67 -0 -1.2 0
-6.176 -7.327 6.543 -0 -1.2 0
-7.6 -9.068 8.104 -0 -1.2 0
-10.124 -12.132 10.869 -0 -1.2 0
-6.535 -8.758 6.988 -0 -1.2 0
-6.838 -10.715 7.401 -0 -1.2 0
-5.693 -9.392 6.15 -0 -1.2 0
-0.808 0.013 0.693 -0 -1.2 0
-0.836 0.014 0.723 -0 -1.2 0
-0.863 0.015 0.754 -0 -1.2 0
-0.891 0.014 0.785 -0 -1.2 0
-0.92 0.012 0.816 -0 -1.2 0
-0.953 0.016 0.853 -0 -1.2 0
-0.986 0.018 0.891 -0 -1.2 0
-1.015 0.013 0.923 -0 -1.2 0
-1.049 0.012 0.961 -0 -1.2 0
-1.084 0.01 1 -0 -1.2 0
-1.13 0.019 1.05 -0 -1.2 0
-1.165 0.013 1.089 -0 -1.2 0
-1.206 0.013 1.134 -0 -1.2 0
-1.252 0.014 1.187 -0 -1.2 0
-1.305 0.02 1.245 -0 -1.2 0
-1.347 0.013 1.291 -0 -1.2 0
-1.401 0.015 1.351 -0 -1.2 0
-1.455 0.012 1.412 -0 -1.2 0
-1.521 0.018 1.486 -0 -1.2 0
-1.594 0.024 1.566 -0 -1.2 0
-1.662 0.023 1.641 -0 -1.2 0
-1.735 0.024 1.723 -0 -1.2 0
-1.81 0.02 1.805 -0 -1.2 0
-1.903 0.024 1.909 -0 -1.2 0
-1.99 0.02 2.007 -0 -1.2 0
-2.079 0.012 2.105 -0 -1.2 0
-2.198 0.016 2.238 -0 -1.2 0
-2.319 0.015 2.373 -0 -1.2 0
-2.46 0.016 2.529 -0 -1.2 0
-2.626 0.022 2.714 -0 -1.2 0
-2.8 0.022 2.908 -0 -1.2 0
-3.014 0.028 3.144 -0 -1.2 0
-3.241 0.029 3.398 -0 -1.2 0
-3.568 0.051 3.76 -0 -1.2 0
-4.009 0.089 4.247 -0 -1.2 0
-4.443 0.103 4.729 -0 -1.2 0
-5.024 0.132 5.373 -0 -1.2 0
-5.827 0.18 6.263 -0 -1.2 0
-6.823 0.225 7.369 -0 -1.2 0
-8.455 0.327 9.177 -0 -1.2 0
-8.705 0.142 9.465 -0 -1.2 0
-9.937 0.063 10.837 -0 -1.2 0
-10.31 -0.16 11.265 -0 -1.2 0
-10.353 -0.425 11.326 -0 -1.2 0
-10.346 -0.694 11.332 -0 -1.2 0
-10.349 -0.961 11.35 -0 -1.2 0
-10.348 -1.23 11.364 -0 -1.2 0
-10.365 -1.499 11.397 -0 -1.2 0
-10.365 -1.77 11.412 -0 -1.2 0
-10.362 -2.041 11.422 -0 -1.2 0
-10.382 -2.315 11.459 -0 -1.2 0
-10.446 -2.598 11.545 -0 -1.2 0
-10.446 -2.875 11.56 -0 -1.2 0
-10.49 -3.161 11.623 -0 -1.2 0
-10.47 -3.438 11.616 -0 -1.2 0
-10.467 -3.719 11.627 -0 -1.2 0
-10.493 -4.01 11.671 -0 -1.2 0
-9.318 -3.94 10.363 -0 -1.2 0
-10.514 -4.594 11.726 -0 -1.2 0
-9.259 -4.435 10.323 -0 -1.2 0
-10.572 -5.206 11.824 -0 -1.2 0
-10.573 -5.506 11.84 -0 -1.2 0
-10.589 -5.818 11.875 -0 -1.2 0
-9.611 -5.661 10.779 -0 -1.2 0
-10.652 -6.469 11.979 -0 -1.2 0
-10.854 -6.895 12.226 -0 -1.2 0
-9.444 -6.426 10.633 -0 -1.2 0
-6.545 -5.193 7.347 -0 -1.2 0
-6.462 -5.345 7.262 -0 -1.2 0
-6.641 -5.676 7.478 -0 -1.2 0
-6.796 -6.006 7.668 -0 -1.2 0
-6.679 -6.144 7.546 -0 -1.2 0
-6.418 -6.164 7.256 -0 -1.2 0
-7.338 -7.147 8.33 -0 -1.2 0
-6.293 -6.506 7.135 -0 -1.2 0
-6.111 -6.57 6.937 -0 -1.2 0
-7.095 -7.717 8.091 -0 -1.2 0
-5.927 -6.848 6.747 -0 -1.2 0
-6.758 -7.919 7.727 -0 -1.2 0
-5.916 -7.301 6.758 -0 -1.2 0
-6.549 -8.233 7.511 -0 -1.2 0
-6.104 -8.004 7.005 -0 -1.2 0
-6.915 -9.223 7.971 -0 -1.2 0
-9.372 -12.537 10.878 -0 -1.2 0
-6.001 -8.686 6.927 -0 -1.2 0
-5.342 -8.1 6.163 -0 -1.2 0
-5.919 -9.148 6.86 -0 -1.2 0
-6.706 -10.56 7.809 -0 -1.2 0
-5.491 -9.124 6.382 -0 -1.2 0
-5.231 -9.026 6.089 -0 -1.2 0
-0.778 0.015 0.73 -0 -1.2 0
-0.804 0.016 0.761 -0 -1.2 0
-0.83 0.017 0.793 -0 -1.2 0
-0.857 0.016 0.825 -0 -1.2 0
-0.884 0.015 0.857 -0 -1.2 0
-0.922 0.024 0.9 -0 -1.2 0
-0.938 0.008 0.922 -0 -1.2 0
-0.972 0.009 0.96 -0 -1.2 0
-1.009 0.015 1.006 -0 -1.2 0
-1.048 0.019 1.051 -0 -1.2 0
-1.086 0.021 1.098 -0 -1.2 0
-1.125 0.022 1.143 -0 -1.2 0
-1.165 0.021 1.19 -0 -1.2 0
-1.205 0.017 1.238 -0 -1.2 0
-1.255 0.023 1.298 -0 -1.2 0
-1.307 0.026 1.36 -0 -1.2 0
-1.359 0.027 1.421 -0 -1.2 0
-1.411 0.026 1.483 -0 -1.2 0
-1.469 0.026 1.552 -0 -1.2 0
-1.533 0.028 1.629 -0 -1.2 0
-1.599 0.027 1.706 -0 -1.2 0
-1.675 0.031 1.797 -0 -1.2 0
-1.746 0.027 1.883 -0 -1.2 0
-1.831 0.028 1.983 -0 -1.2 0
-1.921 0.027 2.089 -0 -1.2 0
-2.011 0.023 2.198 -0 -1.2 0
-2.109 0.017 2.314 -0 -1.2 0
-2.224 0.015 2.452 -0 -1.2 0
-2.36 0.018 2.613 -0 -1.2 0
-2.527 0.026 2.81 -0 -1.2 0
-2.675 0.019 2.988 -0 -1.2 0
-2.886 0.029 3.239 -0 -1.2 0
-3.118 0.034 3.515 -0 -1.2 0
-3.432 0.057 3.887 -0 -1.2 0
-3.875 0.102 4.411 -0 -1.2 0
-4.28 0.113 4.893 -0 -1.2 0
-4.808 0.134 5.52 -0 -1.2 0
-5.579 0.184 6.436 -0 -1.2 0
-6.499 0.222 7.528 -0 -1.2 0
-7.857 0.29 9.14 -0 -1.2 0
-8.226 0.133 9.589 -0 -1.2 0
-9.538 0.076 11.154 -0 -1.2 0
-9.956 -0.14 11.662 -0 -1.2 0
-18.416 -0.305 21.741 -0 -1.2 0
-16.536 -0.834 19.533 -0 -1.2 0
-16.319 -1.279 19.299 -0 -1.2 0
-12.155 -3.902 14.485 -0 -1.2 0
-8.595 -3.566 10.23 -0 -1.2 0
-11.261 -4.652 13.463 -0 -1.2 0
-8.921 -4.169 10.65 -0 -1.2 0
-10.717 -5.729 12.874 -0 -1.2 0
-9.235 -5.364 11.09 -0 -1.2 0
-8.713 -5.387 10.469 -0 -1.2 0
-11.558 -7.143 13.952 -0 -1.2 0
-12.479 -8.013 15.095 -0 -1.2 0
-6.661 -4.996 8.007 -0 -1.2 0
-9.399 -6.901 11.369 -0 -1.2 0
-9.846 -7.496 11.933 -0 -1.2 0
-9.945 -7.889 12.073 -0 -1.2 0
-6.532 -5.773 7.895 -0 -1.2 0
-6.029 -5.618 7.288 -0 -1.2 0
-6.239 -5.992 7.558 -0 -1.2 0
-6.307 -6.268 7.654 -0 -1.2 0
-7.25 -7.305 8.834 -0 -1.2 0
-7.174 -7.506 8.754 -0 -1.2 0
-6.051 -6.727 7.374 -0 -1.2 0
-6.994 -7.876 8.559 -0 -1.2 0
-6.933 -8.091 8.499 -0 -1.2 0
-7.836 -9.321 9.64 -0 -1.2 0
-5.818 -7.437 7.136 -0 -1.2 0
-5.777 -7.639 7.098 -0 -1.2 0
-5.623 -7.709 6.919 -0 -1.2 0
-6.034 -8.465 7.45 -0 -1.2 0
-6.765 -9.674 8.385 -0 -1.2 0
-5.237 -7.979 6.474 -0 -1.2 0
-5.188 -8.169 6.426 -0 -1.2 0
-5.043 -8.227 6.257 -0 -1.2 0
-6.069 -10.004 7.576 -0 -1.2 0
-5.439 -9.369 6.791 -0 -1.2 0
-5.284 -9.429 6.609 -0 -1.2 0
-0.746 0.016 0.765 -0 -1.2 0
-0.776 0.025 0.803 -0 -1.2 0
-0.801 0.025 0.836 -0 -1.2 0
-0.822 0.018 0.863 -0 -1.2 0
-0.853 0.022 0.902 -0 -1.2 0
-0.879 0.02 0.936 -0 -1.2 0
-0.91 0.022 0.975 -0 -1.2 0
-0.936 0.017 1.009 -0 -1.2 0
-0.973 0.023 1.055 -0 -1.2 0
-1.005 0.02 1.096 -0 -1.2 0
-1.042 0.023 1.143 -0 -1.2 0
-1.079 0.024 1.191 -0 -1.2 0
-1.117 0.022 1.239 -0 -1.2 0
-1.161 0.025 1.295 -0 -1.2 0
-1.205 0.025 1.35 -0 -1.2 0
-1.254 0.028 1.412 -0 -1.2 0
-1.303 0.029 1.476 -0 -1.2 0
-1.353 0.028 1.54 -0 -1.2 0
-1.409 0.028 1.611 -0 -1.2 0
-1.465 0.026 1.683 -0 -1.2 0
-1.538 0.033 1.776 -0 -1.2 0
-1.613 0.038 1.87 -0 -1.2 0
-1.681 0.034 1.958 -0 -1.2 0
-1.756 0.031 2.053 -0 -1.2 0
-1.836 0.027 2.156 -0 -1.2 0
-1.93 0.026 2.275 -0 -1.2 0
-2.017 0.017 2.386 -0 -1.2 0
-2.127 0.016 2.529 -0 -1.2 0
-2.269 0.024 2.708 -0 -1.2 0
-2.423 0.03 2.904 -0 -1.2 0
-2.584 0.031 3.109 -0 -1.2 0
-2.775 0.036 3.352 -0 -1.2 0
-3.009 0.046 3.65 -0 -1.2 0
-3.286 0.06 4.004 -0 -1.2 0
-3.693 0.099 4.519 -0 -1.2 0
-4.081 0.112 5.014 -0 -1.2 0
-4.568 0.129 5.635 -0 -1.2 0
-5.296 0.178 6.561 -0 -1.2 0
-6.123 0.208 7.613 -0 -1.2 0
-7.284 0.254 9.091 -0 -1.2 0
-7.798 0.131 9.753 -0 -1.2 0
-9.205 0.097 11.55 -0 -1.2 0
-15.759 0.074 19.909 -0 -1.2 0
-15.757 -0.368 19.932 -0 -1.2 0
-16.009 -0.807 20.279 -0 -1.2 0
-15.801 -1.257 20.038 -0 -1.2 0
-17.46 -1.764 22.183 -0 -1.2 0
-17.45 -2.259 22.198 -0 -1.2 0
-17.446 -2.754 22.221 -0 -1.2 0
-17.443 -3.251 22.244 -0 -1.2 0
-17.422 -3.747 22.246 -0 -1.2 0
-17.42 -4.249 22.272 -0 -1.2 0
-17.412 -4.75 22.291 -0 -1.2 0
-17.405 -5.256 22.311 -0 -1.2 0
-17.399 -5.763 22.331 -0 -1.2 0
-7.723 -3.399 9.857 -0 -1.2 0
-8.543 -3.897 10.93 -0 -1.2 0
-8.021 -3.965 10.269 -0 -1.2 0
-10.816 -5.292 13.909 -0 -1.2 0
-10.927 -5.669 14.071 -0 -1.2 0
-8.964 -5.404 11.553 -0 -1.2 0
-8.032 -5.21 10.353 -0 -1.2 0
-8.136 -5.523 10.504 -0 -1.2 0
-10.208 -6.981 13.228 -0 -1.2 0
-9.145 -6.974 11.871 -0 -1.2 0
-8.485 -6.837 11.022 -0 -1.2 0
-11.488 -9.267 14.99 -0 -1.2 0
-5.51 -5.203 7.136 -0 -1.2 0
-9.043 -8.166 11.809 -0 -1.2 0
-10.268 -9.497 13.446 -0 -1.2 0
-6.263 -6.446 8.167 -0 -1.2 0
-5.786 -6.257 7.548 -0 -1.2 0
-8.274 -8.802 10.865 -0 -1.2 0
-9.237 -10.063 12.163 -0 -1.2 0
-6.865 -8.032 9.024 -0 -1.2 0
-6.799 -8.245 8.952 -0 -1.2 0
-5.554 -7.167 7.303 -0 -1.2 0
-5.608 -7.468 7.388 -0 -1.2 0
-4.958 -6.948 6.532 -0 -1.2 0
-4.818 -7.002 6.356 -0 -1.2 0
-4.812 -7.219 6.36 -0 -1.2 0
-6.592 -9.813 8.775 -0 -1.2 0
-4.918 -7.838 6.53 -0 -1.2 0
-7.064 -11.155 9.454 -0 -1.2 0
-5.466 -9.163 7.304 -0 -1.2 0
-4.841 -8.5 6.468 -0 -1.2 0
-5.109 -9.203 6.85 -0 -1.2 0
-5.046 -9.401 6.782 -0 -1.2 0
-0.71 0.018 0.803 -0 -1.2 0
-0.734 0.019 0.836 -0 -1.2 0
-0.759 0.02 0.868 -0 -1.2 0
-0.784 0.019 0.902 -0 -1.2 0
-0.813 0.024 0.942 -0 -1.2 0
-0.833 0.015 0.97 -0 -1.2 0
-0.862 0.017 1.011 -0 -1.2 0
-0.897 0.025 1.059 -0 -1.2 0
-0.922 0.018 1.094 -0 -1.2 0
-0.963 0.028 1.149 -0 -1.2 0
-0.987 0.019 1.184 -0 -1.2 0
-1.029 0.025 1.239 -0 -1.2 0
-1.065 0.024 1.289 -0 -1.2 0
-1.106 0.027 1.346 -0 -1.2 0
-1.147 0.027 1.403 -0 -1.2 0
-1.184 0.02 1.454 -0 -1.2 0
-1.242 0.031 1.533 -0 -1.2 0
-1.284 0.025 1.591 -0 -1.2 0
-1.342 0.03 1.671 -0 -1.2 0
-1.401 0.033 1.752 -0 -1.2 0
-1.385 -0.028 1.733 -0 -1.2 0
-1.394 -0.067 1.748 -0 -1.2 0
-1.393 -0.114 1.75 -0 -1.2 0
-1.397 -0.158 1.756 -0 -1.2 0
-1.405 -0.198 1.77 -0 -1.2 0
-1.402 -0.246 1.769 -0 -1.2 0
-1.437 -0.269 1.819 -0 -1.2 0
-1.478 -0.29 1.878 -0 -1.2 0
-1.36 -0.4 1.722 -0 -1.2 0
-2.303 0.032 2.993 -0 -1.2 0
-2.445 0.027 3.188 -0 -1.2 0
-2.638 0.038 3.454 -0 -1.2 0
-2.85 0.044 3.745 -0 -1.2 0
-3.096 0.052 4.084 -0 -1.2 0
-3.5 0.1 4.637 -0 -1.2 0
-3.836 0.102 5.098 -0 -1.2 0
-4.289 0.118 5.72 -0 -1.2 0
-4.988 0.172 6.68 -0 -1.2 0
-5.758 0.2 7.738 -0 -1.2 0
-6.729 0.223 9.072 -0 -1.2 0
-7.271 0.116 9.825 -0 -1.2 0
-8.882 0.128 12.041 -0 -1.2 0
-16.091 0.188 21.958 -0 -1.2 0
-15.406 -0.322 21.046 -0 -1.2 0
-15.229 -0.781 20.828 -0 -1.2 0
-16.099 -1.239 22.053 -0 -1.2 0
-14.455 -1.654 19.815 -0 -1.2 0
-14.694 -2.099 20.169 -0 -1.2 0
-16.074 -2.673 22.102 -0 -1.2 0
-16.078 -3.154 22.135 -0 -1.2 0
-16.07 -3.636 22.153 -0 -1.2 0
-16.063 -4.12 22.172 -0 -1.2 0
-16.057 -4.607 22.192 -0 -1.2 0
-16.051 -5.095 22.213 -0 -1.2 0
-16.047 -5.588 22.236 -0 -1.2 0
-16.036 -6.083 22.25 -0 -1.2 0
-10.813 -4.798 14.986 -0 -1.2 0
-9.263 -4.56 12.84 -0 -1.2 0
-10.045 -5.171 13.952 -0 -1.2 0
-10.409 -5.99 14.501 -0 -1.2 0
-10.126 -6.189 14.123 -0 -1.2 0
-10.705 -7.931 15.021 -0 -1.2 0
-6.301 -5.338 8.808 -0 -1.2 0
-6.299 -5.561 8.819 -0 -1.2 0
-5.312 -5.247 7.444 -0 -1.2 0
-6.107 -6.098 8.586 -0 -1.2 0
-6.122 -6.583 8.637 -0 -1.2 0
-5.546 -6.284 7.826 -0 -1.2 0
-5.717 -6.677 8.084 -0 -1.2 0
-9.697 -10.974 13.813 -0 -1.2 0
-9.689 -11.377 13.825 -0 -1.2 0
-7.235 -9.082 10.314 -0 -1.2 0
-7.422 -9.619 10.603 -0 -1.2 0
-9.368 -12.287 13.436 -0 -1.2 0
-6.154 -8.728 8.805 -0 -1.2 0
-4.579 -6.988 6.535 -0 -1.2 0
-4.599 -7.242 6.578 -0 -1.2 0
-4.354 -7.134 6.235 -0 -1.2 0
-4.703 -7.867 6.758 -0 -1.2 0
-4.543 -7.881 6.539 -0 -1.2 0
-4.392 -7.901 6.333 -0 -1.2 0
-4.847 -8.888 7.017 -0 -1.2 0
-4.767 -9.044 6.915 -0 -1.2 0
-5.712 -10.982 8.33 -0 -1.2 0
-0.676 0.019 0.836 -0 -1.2 0
-0.699 0.02 0.87 -0 -1.2 0
-0.718 0.014 0.899 -0 -1.2 0
-0.745 0.02 0.939 -0 -1.2 0
-0.772 0.025 0.979 -0 -1.2 0
-0.792 0.017 1.009 -0 -1.2 0
-0.821 0.018 1.051 -0 -1.2 0
-0.849 0.02 1.092 -0 -1.2 0
-0.878 0.02 1.135 -0 -1.2 0
-0.906 0.017 1.177 -0 -1.2 0
-0.94 0.02 1.227 -0 -1.2 0
-0.974 0.021 1.278 -0 -1.2 0
-1.012 0.026 1.335 -0 -1.2 0
-1.057 0.034 1.401 -0 -1.2 0
-1.092 0.029 1.452 -0 -1.2 0
-1.141 0.037 1.525 -0 -1.2 0
-1.181 0.033 1.584 -0 -1.2 0
-1.181 -0.01 1.588 -0 -1.2 0
-1.17 -0.064 1.574 -0 -1.2 0
-1.169 -0.108 1.576 -0 -1.2 0
-1.162 -0.156 1.568 -0 -1.2 0
-1.166 -0.195 1.575 -0 -1.2 0
-1.163 -0.238 1.574 -0 -1.2 0
-1.16 -0.28 1.572 -0 -1.2 0
-1.162 -0.319 1.577 -0 -1.2 0
-1.163 -0.357 1.581 -0 -1.2 0
-1.158 -0.399 1.576 -0 -1.2 0
-1.164 -0.433 1.587 -0 -1.2 0
-1.159 -0.474 1.582 -0 -1.2 0
-1.164 -0.509 1.592 -0 -1.2 0
-1.196 -0.531 1.64 -0 -1.2 0
-1.348 -0.497 1.864 -0 -1.2 0
-1.408 -0.515 1.954 -0 -1.2 0
-2.974 0.068 4.239 -0 -1.2 0
-3.253 0.077 4.653 -0 -1.2 0
-3.633 0.102 5.214 -0 -1.2 0
-4.036 0.111 5.811 -0 -1.2 0
-4.685 0.163 6.769 -0 -1.2 0
-5.245 0.153 7.6 -0 -1.2 0
-6.253 0.203 9.089 -0 -1.2 0
-6.79 0.105 9.892 -0 -1.2 0
-8.317 0.123 12.155 -0 -1.2 0
-14.872 -0.285 21.893 -0 -1.2 0
-14.882 -0.746 21.935 -0 -1.2 0
-14.876 -1.209 21.954 -0 -1.2 0
-14.871 -1.673 21.974 -0 -1.2 0
-14.861 -2.136 21.989 -0 -1.2 0
-14.858 -2.602 22.013 -0 -1.2 0
-14.845 -3.068 22.021 -0 -1.2 0
-14.843 -3.537 22.048 -0 -1.2 0
-14.832 -4.006 22.06 -0 -1.2 0
-14.816 -4.476 22.065 -0 -1.2 0
-14.817 -4.952 22.095 -0 -1.2 0
-14.809 -5.429 22.111 -0 -1.2 0
-14.8 -5.909 22.127 -0 -1.2 0
-14.792 -6.393 22.145 -0 -1.2 0
-8.588 -4.457 12.834 -0 -1.2 0
-6.808 -3.99 10.168 -0 -1.2 0
-14.915 -7.934 22.422 -0 -1.2 0
-6.746 -4.421 10.102 -0 -1.2 0
-6.134 -4.544 9.203 -0 -1.2 0
-10.499 -7.371 15.844 -0 -1.2 0
-6.857 -5.439 10.328 -0 -1.2 0
-4.971 -4.608 7.484 -0 -1.2 0
-6.008 -5.795 9.092 -0 -1.2 0
-5.951 -5.98 9.018 -0 -1.2 0
-6.016 -6.271 9.132 -0 -1.2 0
-6.057 -6.55 9.21 -0 -1.2 0
-4.975 -5.778 7.56 -0 -1.2 0
-5.101 -6.11 7.768 -0 -1.2 0
-5.242 -6.472 7.998 -0 -1.2 0
-5.325 -6.789 8.141 -0 -1.2 0
-8.785 -11.292 13.541 -0 -1.2 0
-6.522 -8.967 10.046 -0 -1.2 0
-4.955 -7.309 7.623 -0 -1.2 0
-4.987 -7.594 7.687 -0 -1.2 0
-4.952 -7.801 7.649 -0 -1.2 0
-4.916 -8.007 7.609 -0 -1.2 0
-4.181 -7.194 6.47 -0 -1.2 0
-4.895 -8.51 7.607 -0 -1.2 0
-4.457 -8.1 6.934 -0 -1.2 0
-4.508 -8.447 7.031 -0 -1.2 0
-4.381 -8.504 6.845 -0 -1.2 0
-5.461 -10.685 8.579 -0 -1.2 0
-5.316 -10.777 8.37 -0 -1.2 0
-0.641 0.021 0.868 -0 -1.2 0
-0.659 0.015 0.898 -0 -1.2 0
-0.685 0.023 0.938 -0 -1.2 0
-0.707 0.022 0.973 -0 -1.2 0
-0.729 0.021 1.009 -0 -1.2 0
-0.756 0.025 1.051 -0 -1.2 0
-0.782 0.027 1.094 -0 -1.2 0
-0.801 0.016 1.124 -0 -1.2 0
-0.828 0.016 1.167 -0 -1.2 0
-0.859 0.02 1.218 -0 -1.2 0
-0.891 0.022 1.269 -0 -1.2 0
-0.923 0.023 1.32 -0 -1.2 0
-0.956 0.023 1.372 -0 -1.2 0
-0.998 0.031 1.438 -0 -1.2 0
-1.035 0.031 1.498 -0 -1.2 0
-1.068 0.024 1.552 -0 -1.2 0
-1.05 -0.037 1.525 -0 -1.2 0
-1.049 -0.08 1.527 -0 -1.2 0
-1.043 -0.127 1.52 -0 -1.2 0
-1.041 -0.168 1.519 -0 -1.2 0
-1.039 -0.21 1.519 -0 -1.2 0
-1.036 -0.251 1.518 -0 -1.2 0
-1.042 -0.284 1.531 -0 -1.2 0
-1.045 -0.32 1.535 -0 -1.2 0
-1.041 -0.361 1.532 -0 -1.2 0
-1.041 -0.397 1.535 -0 -1.2 0
-1.047 -0.43 1.546 -0 -1.2 0
-1.042 -0.47 1.54 -0 -1.2 0
-1.047 -0.503 1.55 -0 -1.2 0
-1.061 -0.529 1.576 -0 -1.2 0
-1.382 -0.397 2.08 -0 -1.2 0
-1.381 -0.444 2.083 -0 -1.2 0
-1.386 -0.488 2.093 -0 -1.2 0
-1.433 -0.514 2.169 -0 -1.2 0
-3.063 0.073 4.739 -0 -1.2 0
-3.381 0.085 5.247 -0 -1.2 0
-3.762 0.097 5.857 -0 -1.2 0
-4.334 0.139 6.771 -0 -1.2 0
-4.632 0.073 7.252 -0 -1.2 0
-5.623 0.142 8.833 -0 -1.2 0
-6.467 0.119 10.184 -0 -1.2 0
-7.542 0.079 11.908 -0 -1.2 0
-10.162 0.161 16.094 -0 -1.2 0
-13.783 -0.287 21.919 -0 -1.2 0
-13.776 -0.738 21.935 -0 -1.2 0
-13.765 -1.19 21.946 -0 -1.2 0
-13.76 -1.643 21.966 -0 -1.2 0
-13.746 -2.096 21.971 -0 -1.2 0
-14.212 -2.599 22.75 -0 -1.2 0
-13.683 -2.998 21.928 -0 -1.2 0
-13.665 -3.452 21.93 -0 -1.2 0
-13.656 -3.909 21.942 -0 -1.2 0
-13.656 -4.369 21.973 -0 -1.2 0
-13.643 -4.829 21.98 -0 -1.2 0
-13.635 -5.293 21.997 -0 -1.2 0
-13.632 -5.761 22.023 -0 -1.2 0
-13.615 -6.229 22.026 -0 -1.2 0
-8.08 -4.426 13.053 -0 -1.2 0
-13.564 -7.163 22.001 -0 -1.2 0
-13.35 -7.546 21.685 -0 -1.2 0
-9.985 -6.28 16.219 -0 -1.2 0
-9.846 -6.568 16.015 -0 -1.2 0
-6.672 -5.552 10.871 -0 -1.2 0
-6.648 -5.791 10.847 -0 -1.2 0
-5.75 -5.381 9.386 -0 -1.2 0
-5.733 -5.595 9.371 -0 -1.2 0
-4.733 -5 7.734 -0 -1.2 0
-4.63 -5.105 7.577 -0 -1.2 0
-6.781 -7.254 11.154 -0 -1.2 0
-5.453 -6.277 8.966 -0 -1.2 0
-6.637 -7.692 10.95 -0 -1.2 0
-4.317 -5.575 7.106 -0 -1.2 0
-5.573 -7.133 9.214 -0 -1.2 0
-5.481 -7.284 9.074 -0 -1.2 0
-6.369 -8.592 10.58 -0 -1.2 0
-7.68 -10.51 12.798 -0 -1.2 0
-6.3 -9.128 10.503 -0 -1.2 0
-8.141 -11.895 13.624 -0 -1.2 0
-5.494 -8.664 9.184 -0 -1.2 0
-6.329 -10.507 10.635 -0 -1.2 0
-3.817 -7.202 6.407 -0 -1.2 0
-3.937 -7.636 6.628 -0 -1.2 0
-3.919 -7.848 6.611 -0 -1.2 0
-3.669 -7.653 6.199 -0 -1.2 0
-5.527 -11.361 9.407 -0 -1.2 0
-5.8 -12.274 9.903 -0 -1.2 0
-0.598 0.014 0.896 -0 -1.2 0
-0.618 0.015 0.931 -0 -1.2 0
-0.638 0.016 0.967 -0 -1.2 0
-0.664 0.023 1.01 -0 -1.2 0
-0.685 0.021 1.046 -0 -1.2 0
-0.706 0.019 1.083 -0 -1.2 0
-0.73 0.021 1.126 -0 -1.2 0
-0.756 0.022 1.17 -0 -1.2 0
-0.781 0.022 1.215 -0 -1.2 0
-0.811 0.026 1.267 -0 -1.2 0
-0.837 0.023 1.312 -0 -1.2 0
-0.867 0.024 1.364 -0 -1.2 0
-0.897 0.023 1.417 -0 -1.2 0
-0.932 0.025 1.478 -0 -1.2 0
-0.967 0.026 1.539 -0 -1.2 0
-0.981 0 1.565 -0 -1.2 0
-0.949 -0.077 1.514 -0 -1.2 0
-0.952 -0.114 1.523 -0 -1.2 0
-0.955 -0.15 1.531 -0 -1.2 0
-0.948 -0.196 1.522 -0 -1.2 0
-0.951 -0.232 1.528 -0 -1.2 0
-0.953 -0.268 1.534 -0 -1.2 0
-0.95 -0.308 1.531 -0 -1.2 0
-0.946 -0.348 1.529 -0 -1.2 0
-0.947 -0.383 1.533 -0 -1.2 0
-0.948 -0.419 1.536 -0 -1.2 0
-0.948 -0.453 1.539 -0 -1.2 0
-0.948 -0.488 1.541 -0 -1.2 0
-0.952 -0.52 1.55 -0 -1.2 0
-1.063 -0.489 1.741 -0 -1.2 0
-1.334 -0.375 2.207 -0 -1.2 0
-1.334 -0.423 2.211 -0 -1.2 0
-1.329 -0.473 2.205 -0 -1.2 0
-1.373 -0.501 2.282 -0 -1.2 0
-2.849 0.064 4.822 -0 -1.2 0
-3.152 0.077 5.349 -0 -1.2 0
-3.515 0.092 5.982 -0 -1.2 0
-4.002 0.119 6.83 -0 -1.2 0
-4.181 0.028 7.151 -0 -1.2 0
-4.311 -0.086 7.384 -0 -1.2 0
-5.833 0.072 10.028 -0 -1.2 0
-7.663 0.178 13.216 -0 -1.2 0
-9.209 0.117 15.919 -0 -1.2 0
-11.355 0.008 19.672 -0 -1.2 0
-12.571 -0.31 21.816 -0 -1.2 0
-14.006 -0.707 24.346 -0 -1.2 0
-12.552 -1.188 21.841 -0 -1.2 0
-13.962 -1.686 24.335 -0 -1.2 0
-12.548 -2.07 21.892 -0 -1.2 0
-13.95 -2.669 24.379 -0 -1.2 0
-12.504 -2.951 21.872 -0 -1.2 0
-12.478 -3.391 21.857 -0 -1.2 0
-12.474 -3.837 21.878 -0 -1.2 0
-12.553 -4.306 22.048 -0 -1.2 0
-12.589 -4.771 22.14 -0 -1.2 0
-12.581 -5.228 22.157 -0 -1.2 0
-12.554 -5.681 22.143 -0 -1.2 0
-12.433 -6.097 21.958 -0 -1.2 0
-12.419 -6.556 21.962 -0 -1.2 0
-12.415 -7.022 21.985 -0 -1.2 0
-5.356 -3.859 9.458 -0 -1.2 0
-7.928 -5.491 14.055 -0 -1.2 0
-13.037 -8.829 23.191 -0 -1.2 0
-6.575 -5.519 11.694 -0 -1.2 0
-6.525 -5.749 11.621 -0 -1.2 0
-6.449 -5.961 11.504 -0 -1.2 0
-6.399 -6.19 11.432 -0 -1.2 0
-6.191 -6.286 11.074 -0 -1.2 0
-8.251 -8.372 14.809 -0 -1.2 0
-4.524 -5.281 8.099 -0 -1.2 0
-5.845 -6.765 10.501 -0 -1.2 0
-5.185 -6.362 9.325 -0 -1.2 0
-5.138 -6.552 9.255 -0 -1.2 0
-5.042 -6.688 9.097 -0 -1.2 0
-4.719 -6.558 8.524 -0 -1.2 0
-5.161 -7.325 9.346 -0 -1.2 0
-5.088 -7.495 9.231 -0 -1.2 0
-6.477 -10.279 11.838 -0 -1.2 0
-5.071 -8.566 9.272 -0 -1.2 0
-6.735 -11.812 12.391 -0 -1.2 0
-4.452 -8.443 8.181 -0 -1.2 0
-3.919 -7.808 7.211 -0 -1.2 0
-5.812 -11.44 10.755 -0 -1.2 0
-3.693 -7.908 6.822 -0 -1.2 0
-5.117 -10.901 9.507 -0 -1.2 0
-5.092 -11.218 9.483 -0 -1.2 0
-5.775 -13.013 10.795 -0 -1.2 0
-0.565 0.023 0.932 -0 -1.2 0
-0.581 0.017 0.962 -0 -1.2 0
-0.603 0.025 1.005 -0 -1.2 0
-0.619 0.017 1.035 -0 -1.2 0
-0.639 0.016 1.072 -0 -1.2 0
-0.662 0.021 1.116 -0 -1.2 0
-0.678 0.01 1.148 -0 -1.2 0
-0.706 0.018 1.198 -0 -1.2 0
-0.729 0.018 1.244 -0 -1.2 0
-0.762 0.028 1.303 -0 -1.2 0
-0.786 0.025 1.349 -0 -1.2 0
-0.811 0.021 1.396 -0 -1.2 0
-0.843 0.026 1.457 -0 -1.2 0
-0.876 0.028 1.519 -0 -1.2 0
-0.905 0.024 1.574 -0 -1.2 0
-0.879 -0.049 1.531 -0 -1.2 0
-0.878 -0.09 1.533 -0 -1.2 0
-0.877 -0.13 1.534 -0 -1.2 0
-0.872 -0.176 1.526 -0 -1.2 0
-0.874 -0.211 1.533 -0 -1.2 0
-0.876 -0.247 1.539 -0 -1.2 0
-0.873 -0.286 1.537 -0 -1.2 0
-0.87 -0.325 1.533 -0 -1.2 0
-0.876 -0.357 1.546 -0 -1.2 0
-0.872 -0.395 1.541 -0 -1.2 0
-0.872 -0.43 1.544 -0 -1.2 0
-0.872 -0.465 1.547 -0 -1.2 0
-0.872 -0.498 1.549 -0 -1.2 0
-0.876 -0.53 1.558 -0 -1.2 0
-1.231 -0.338 2.215 -0 -1.2 0
-1.272 -0.36 2.296 -0 -1.2 0
-1.272 -0.409 2.299 -0 -1.2 0
-1.271 -0.458 2.302 -0 -1.2 0
-1.284 -0.5 2.329 -0 -1.2 0
-2.672 0.069 4.917 -0 -1.2 0
-2.939 0.077 5.421 -0 -1.2 0
-3.28 0.092 6.065 -0 -1.2 0
-3.724 0.117 6.903 -0 -1.2 0
-3.958 0.047 7.351 -0 -1.2 0
-4.472 0.032 8.325 -0 -1.2 0
-5.438 0.079 10.152 -0 -1.2 0
-7.177 0.194 13.436 -0 -1.2 0
-8.579 0.131 16.092 -0 -1.2 0
-10.76 0.047 20.226 -0 -1.2 0
-11.49 -0.3 21.634 -0 -1.2 0
-11.483 -0.727 21.649 -0 -1.2 0
-11.496 -1.154 21.702 -0 -1.2 0
-11.468 -1.582 21.677 -0 -1.2 0
-11.464 -2.011 21.7 -0 -1.2 0
-11.443 -2.439 21.689 -0 -1.2 0
-11.469 -2.875 21.769 -0 -1.2 0
-11.445 -3.304 21.754 -0 -1.2 0
-11.437 -3.739 21.767 -0 -1.2 0
-11.425 -4.174 21.773 -0 -1.2 0
-11.423 -4.613 21.8 -0 -1.2 0
-9.045 -4.235 17.275 -0 -1.2 0
-9.055 -4.592 17.316 -0 -1.2 0
-11.389 -5.941 21.827 -0 -1.2 0
-11.377 -6.389 21.833 -0 -1.2 0
-7.686 -4.982 14.752 -0 -1.2 0
-11.29 -7.261 21.73 -0 -1.2 0
-8.884 -6.313 17.111 -0 -1.2 0
-7.238 -5.648 13.95 -0 -1.2 0
-6.264 -5.298 12.082 -0 -1.2 0
-6.253 -5.557 12.078 -0 -1.2 0
-6.21 -6.067 12.032 -0 -1.2 0
-7.494 -7.429 14.557 -0 -1.2 0
-5.444 -5.942 10.576 -0 -1.2 0
-5.403 -6.153 10.511 -0 -1.2 0
-5.355 -6.358 10.435 -0 -1.2 0
-4.245 -5.469 8.273 -0 -1.2 0
-3.557 -4.932 6.934 -0 -1.2 0
-4.473 -6.141 8.749 -0 -1.2 0
-5.415 -7.48 10.625 -0 -1.2 0
-4.669 -6.842 9.171 -0 -1.2 0
-5.459 -8.103 10.752 -0 -1.2 0
-4.71 -7.394 9.285 -0 -1.2 0
-3.587 -6.087 7.07 -0 -1.2 0
-3.158 -5.668 6.23 -0 -1.2 0
-3.366 -6.164 6.656 -0 -1.2 0
-2.991 -5.776 5.92 -0 -1.2 0
-5.471 -10.009 10.904 -0 -1.2 0
-4.264 -8.308 8.504 -0 -1.2 0
-5.394 -10.577 10.798 -0 -1.2 0
-4.849 -9.942 9.722 -0 -1.2 0
-3.241 -7.226 6.493 -0 -1.2 0
-5.184 -11.288 10.45 -0 -1.2 0
-4.839 -10.968 9.774 -0 -1.2 0
-4.792 -11.238 9.702 -0 -1.2 0
-4.229 -10.382 8.579 -0 -1.2 0
-0.526 0.017 0.954 -0 -1.2 0
-0.544 0.019 0.991 -0 -1.2 0
-0.562 0.019 1.028 -0 -1.2 0
-0.58 0.019 1.065 -0 -1.2 0
-0.598 0.018 1.103 -0 -1.2 0
-0.62 0.023 1.146 -0 -1.2 0
-0.645 0.032 1.199 -0 -1.2 0
-0.664 0.026 1.237 -0 -1.2 0
-0.686 0.026 1.283 -0 -1.2 0
-0.712 0.03 1.337 -0 -1.2 0
-0.735 0.027 1.384 -0 -1.2 0
-0.762 0.028 1.438 -0 -1.2 0
-0.793 0.033 1.501 -0 -1.2 0
-0.82 0.03 1.556 -0 -1.2 0
-0.842 0.021 1.604 -0 -1.2 0
-0.812 -0.062 1.547 -0 -1.2 0
-0.811 -0.102 1.548 -0 -1.2 0
-0.809 -0.143 1.548 -0 -1.2 0
-0.811 -0.178 1.555 -0 -1.2 0
-0.809 -0.218 1.554 -0 -1.2 0
-0.808 -0.257 1.552 -0 -1.2 0
-0.809 -0.292 1.558 -0 -1.2 0
-0.81 -0.327 1.562 -0 -1.2 0
-0.806 -0.366 1.559 -0 -1.2 0
-0.808 -0.401 1.563 -0 -1.2 0
-0.808 -0.435 1.566 -0 -1.2 0
-0.803 -0.473 1.56 -0 -1.2 0
-0.803 -0.507 1.562 -0 -1.2 0
-0.84 -0.512 1.639 -0 -1.2 0
-1.168 -0.323 2.299 -0 -1.2 0
-1.198 -0.352 2.364 -0 -1.2 0
-1.194 -0.404 2.359 -0 -1.2 0
-1.198 -0.449 2.37 -0 -1.2 0
-1.214 -0.49 2.407 -0 -1.2 0
-2.506 0.078 5.021 -0 -1.2 0
-2.746 0.083 5.516 -0 -1.2 0
-3.069 0.101 6.18 -0 -1.2 0
-3.437 0.11 6.936 -0 -1.2 0
-3.642 0.038 7.364 -0 -1.2 0
-4.133 0.029 8.372 -0 -1.2 0
-5.012 0.074 10.178 -0 -1.2 0
-6.521 0.173 13.275 -0 -1.2 0
-7.911 0.135 16.138 -0 -1.2 0
-10.039 0.073 20.521 -0 -1.2 0
-10.509 -0.288 21.513 -0 -1.2 0
-10.506 -0.705 21.537 -0 -1.2 0
-10.491 -1.123 21.537 -0 -1.2 0
-10.491 -1.542 21.566 -0 -1.2 0
-10.488 -1.961 21.588 -0 -1.2 0
-10.477 -2.38 21.595 -0 -1.2 0
-10.475 -2.803 21.623 -0 -1.2 0
-10.466 -3.225 21.634 -0 -1.2 0
-10.462 -3.651 21.658 -0 -1.2 0
-10.443 -4.073 21.647 -0 -1.2 0
-10.437 -4.502 21.665 -0 -1.2 0
-4.718 -2.836 9.782 -0 -1.2 0
-4.695 -3.023 9.746 -0 -1.2 0
-4.7 -3.223 9.771 -0 -1.2 0
-4.699 -3.422 9.782 -0 -1.2 0
-4.457 -3.494 9.29 -0 -1.2 0
-4.403 -3.657 9.192 -0 -1.2 0
-4.47 -3.891 9.345 -0 -1.2 0
-4.339 -4.003 9.085 -0 -1.2 0
-4.3 -4.169 9.015 -0 -1.2 0
-4.849 -4.782 10.189 -0 -1.2 0
-4.896 -5.044 10.303 -0 -1.2 0
-5.766 -6.016 12.162 -0 -1.2 0
-6.989 -7.731 14.801 -0 -1.2 0
-7.974 -9.059 16.922 -0 -1.2 0
-4.04 -5.537 8.58 -0 -1.2 0
-7.134 -9.312 15.211 -0 -1.2 0
-3.397 -5.185 7.229 -0 -1.2 0
-3.428 -5.408 7.31 -0 -1.2 0
-4.346 -6.805 9.297 -0 -1.2 0
-4.354 -7.062 9.334 -0 -1.2 0
-4.293 -7.226 9.218 -0 -1.2 0
-4.247 -7.413 9.139 -0 -1.2 0
-3.035 -5.79 6.528 -0 -1.2 0
-2.908 -5.775 6.267 -0 -1.2 0
-2.808 -5.792 6.06 -0 -1.2 0
-3.489 -7.165 7.561 -0 -1.2 0
-3.332 -7.117 7.234 -0 -1.2 0
-4.449 -9.454 9.699 -0 -1.2 0
-3.124 -7.183 6.811 -0 -1.2 0
-3.046 -7.255 6.654 -0 -1.2 0
-3.556 -8.564 7.796 -0 -1.2 0
-4.096 -10.031 9.014 -0 -1.2 0
-4.011 -10.175 8.848 -0 -1.2 0
-3.119 -8.418 6.889 -0 -1.2 0
-0.489 0.026 0.989 -0 -1.2 0
-0.509 0.034 1.033 -0 -1.2 0
-0.52 0.021 1.058 -0 -1.2 0
-0.539 0.028 1.102 -0 -1.2 0
-0.553 0.019 1.134 -0 -1.2 0
-0.577 0.03 1.186 -0 -1.2 0
-0.594 0.026 1.225 -0 -1.2 0
-0.611 0.022 1.265 -0 -1.2 0
-0.632 0.022 1.312 -0 -1.2 0
-0.659 0.032 1.373 -0 -1.2 0
-0.677 0.024 1.414 -0 -1.2 0
-0.705 0.03 1.476 -0 -1.2 0
-0.729 0.03 1.532 -0 -1.2 0
-0.757 0.033 1.596 -0 -1.2 0
-0.765 0.002 1.614 -0 -1.2 0
-0.75 -0.06 1.586 -0 -1.2 0
-0.749 -0.1 1.587 -0 -1.2 0
-0.748 -0.141 1.587 -0 -1.2 0
-0.75 -0.175 1.595 -0 -1.2 0
-0.748 -0.215 1.593 -0 -1.2 0
-0.742 -0.26 1.584 -0 -1.2 0
-0.744 -0.293 1.589 -0 -1.2 0
-0.745 -0.328 1.594 -0 -1.2 0
-0.742 -0.367 1.59 -0 -1.2 0
-0.738 -0.406 1.585 -0 -1.2 0
-0.743 -0.436 1.597 -0 -1.2 0
-0.739 -0.473 1.59 -0 -1.2 0
-0.738 -0.507 1.592 -0 -1.2 0
-0.777 -0.51 1.68 -0 -1.2 0
-1.08 -0.319 2.351 -0 -1.2 0
-1.104 -0.351 2.407 -0 -1.2 0
-1.104 -0.4 2.412 -0 -1.2 0
-1.108 -0.446 2.423 -0 -1.2 0
-1.115 -0.491 2.442 -0 -1.2 0
-2.329 0.091 5.146 -0 -1.2 0
-2.547 0.094 5.64 -0 -1.2 0
-2.847 0.113 6.316 -0 -1.2 0
-3.162 0.114 7.03 -0 -1.2 0
-3.357 0.045 7.475 -0 -1.2 0
-3.765 0.024 8.4 -0 -1.2 0
-3.906 -0.1 8.728 -0 -1.2 0
-3.913 -0.265 8.754 -0 -1.2 0
-3.921 -0.431 8.786 -0 -1.2 0
-3.933 -0.598 8.825 -0 -1.2 0
-3.936 -0.766 8.843 -0 -1.2 0
-3.928 -0.934 8.84 -0 -1.2 0
-3.925 -1.102 8.844 -0 -1.2 0
-3.924 -1.271 8.854 -0 -1.2 0
-3.929 -1.441 8.88 -0 -1.2 0
-3.95 -1.614 8.939 -0 -1.2 0
-3.969 -1.789 8.996 -0 -1.2 0
-4.008 -1.971 9.095 -0 -1.2 0
-4.012 -2.148 9.118 -0 -1.2 0
-4.034 -2.332 9.184 -0 -1.2 0
-4.029 -2.51 9.183 -0 -1.2 0
-4.021 -2.687 9.179 -0 -1.2 0
-4.02 -2.869 9.192 -0 -1.2 0
-4.01 -3.047 9.182 -0 -1.2 0
-4.003 -3.228 9.179 -0 -1.2 0
-4.005 -3.416 9.199 -0 -1.2 0
-3.996 -3.598 9.19 -0 -1.2 0
-3.996 -3.788 9.204 -0 -1.2 0
-3.998 -3.982 9.224 -0 -1.2 0
-3.999 -4.176 9.24 -0 -1.2 0
-3.998 -4.373 9.253 -0 -1.2 0
-3.999 -4.575 9.272 -0 -1.2 0
-3.978 -4.756 9.234 -0 -1.2 0
-3.939 -4.925 9.159 -0 -1.2 0
-3.962 -5.153 9.227 -0 -1.2 0
-4.01 -5.418 9.358 -0 -1.2 0
-3.992 -5.615 9.332 -0 -1.2 0
-3.795 -5.601 8.885 -0 -1.2 0
-3.354 -5.266 7.863 -0 -1.2 0
-6.517 -9.579 15.339 -0 -1.2 0
-4.052 -6.606 9.543 -0 -1.2 0
-4.107 -6.927 9.689 -0 -1.2 0
-6.08 -10.104 14.388 -0 -1.2 0
-3.234 -6.087 7.652 -0 -1.2 0
-2.794 -5.585 6.619 -0 -1.2 0
-2.743 -5.682 6.51 -0 -1.2 0
-5.884 -11.349 14.037 -0 -1.2 0
-5.02 -10.193 11.998 -0 -1.2 0
-3.108 -6.944 7.429 -0 -1.2 0
-5 -10.881 12.002 -0 -1.2 0
-3.118 -7.43 7.49 -0 -1.2 0
-2.984 -7.388 7.181 -0 -1.2 0
-2.964 -7.587 7.153 -0 -1.2 0
-2.894 -7.675 7 -0 -1.2 0
-3.371 -9.055 8.183 -0 -1.2 0
-3.028 -8.797 7.388 -0 -1.2 0
-0.448 0.021 1.008 -0 -1.2 0
-0.467 0.03 1.051 -0 -1.2 0
-0.479 0.023 1.084 -0 -1.2 0
-0.498 0.03 1.128 -0 -1.2 0
-0.51 0.022 1.161 -0 -1.2 0
-0.53 0.027 1.207 -0 -1.2 0
-0.551 0.036 1.26 -0 -1.2 0
-0.564 0.025 1.294 -0 -1.2 0
-0.584 0.025 1.341 -0 -1.2 0
-0.609 0.035 1.403 -0 -1.2 0
-0.631 0.038 1.459 -0 -1.2 0
-0.651 0.033 1.507 -0 -1.2 0
-0.677 0.039 1.572 -0 -1.2 0
-0.703 0.042 1.637 -0 -1.2 0
-0.709 0.01 1.656 -0 -1.2 0
-0.696 -0.051 1.627 -0 -1.2 0
-0.691 -0.096 1.62 -0 -1.2 0
-0.694 -0.132 1.628 -0 -1.2 0
-0.693 -0.172 1.628 -0 -1.2 0
-0.691 -0.212 1.628 -0 -1.2 0
-0.689 -0.251 1.625 -0 -1.2 0
-0.686 -0.29 1.623 -0 -1.2 0
-0.691 -0.321 1.636 -0 -1.2 0
-0.685 -0.364 1.623 -0 -1.2 0
-0.685 -0.398 1.627 -0 -1.2 0
-0.682 -0.436 1.621 -0 -1.2 0
-0.681 -0.47 1.623 -0 -1.2 0
-0.684 -0.501 1.634 -0 -1.2 0
-0.716 -0.506 1.714 -0 -1.2 0
-0.982 -0.327 2.36 -0 -1.2 0
-1 -0.361 2.408 -0 -1.2 0
-1.007 -0.404 2.429 -0 -1.2 0
-1.008 -0.451 2.432 -0 -1.2 0
-1.014 -0.495 2.452 -0 -1.2 0
-2.151 0.099 5.231 -0 -1.2 0
-2.364 0.109 5.759 -0 -1.2 0
-2.636 0.126 6.435 -0 -1.2 0
-2.918 0.122 7.132 -0 -1.2 0
-3.1 0.055 7.592 -0 -1.2 0
-3.466 0.032 8.504 -0 -1.2 0
-3.622 -0.083 8.9 -0 -1.2 0
-3.658 -0.243 9 -0 -1.2 0
-3.67 -0.41 9.043 -0 -1.2 0
-3.672 -0.579 9.064 -0 -1.2 0
-3.656 -0.752 9.036 -0 -1.2 0
-3.665 -0.92 9.069 -0 -1.2 0
-3.668 -1.09 9.091 -0 -1.2 0
-3.674 -1.261 9.12 -0 -1.2 0
-3.668 -1.432 9.118 -0 -1.2 0
-3.66 -1.604 9.113 -0 -1.2 0
-3.656 -1.775 9.115 -0 -1.2 0
-3.636 -1.944 9.077 -0 -1.2 0
-3.632 -2.116 9.083 -0 -1.2 0
-3.628 -2.289 9.085 -0 -1.2 0
-3.707 -2.493 9.297 -0 -1.2 0
-3.721 -2.68 9.348 -0 -1.2 0
-3.717 -2.86 9.35 -0 -1.2 0
-3.689 -3.029 9.295 -0 -1.2 0
-3.675 -3.206 9.274 -0 -1.2 0
-3.663 -3.383 9.258 -0 -1.2 0
-3.654 -3.563 9.25 -0 -1.2 0
-3.65 -3.749 9.255 -0 -1.2 0
-3.656 -3.944 9.284 -0 -1.2 0
-5.729 -5.86 14.583 -0 -1.2 0
-5.606 -6.059 14.295 -0 -1.2 0
-5.552 -6.313 14.18 -0 -1.2 0
-5.449 -6.517 13.939 -0 -1.2 0
-3.475 -4.748 8.899 -0 -1.2 0
-6.972 -8.82 17.903 -0 -1.2 0
-6.722 -8.932 17.29 -0 -1.2 0
-3.525 -5.623 9.088 -0 -1.2 0
-5.451 -8.432 14.093 -0 -1.2 0
-6.037 -9.599 15.64 -0 -1.2 0
-5.719 -9.516 14.843 -0 -1.2 0
-5.625 -9.744 14.626 -0 -1.2 0
-3.243 -6.294 8.438 -0 -1.2 0
-2.75 -5.692 7.169 -0 -1.2 0
-2.658 -5.724 6.944 -0 -1.2 0
-2.565 -5.744 6.712 -0 -1.2 0
-2.431 -5.679 6.374 -0 -1.2 0
-2.702 -6.398 7.106 -0 -1.2 0
-2.802 -6.81 7.384 -0 -1.2 0
-2.811 -7.055 7.427 -0 -1.2 0
-2.468 -6.529 6.533 -0 -1.2 0
-3.414 -8.909 9.069 -0 -1.2 0
-2.71 -7.532 7.212 -0 -1.2 0
-3.299 -9.236 8.808 -0 -1.2 0
-2.973 -8.71 7.958 -0 -1.2 0
-3.003 -9.082 8.062 -0 -1.2 0
-3.13 -9.736 8.426 -0 -1.2 0
-0.413 0.029 1.039 -0 -1.2 0
-0.424 0.024 1.071 -0 -1.2 0
-0.441 0.032 1.116 -0 -1.2 0
-0.452 0.025 1.148 -0 -1.2 0
-0.469 0.031 1.195 -0 -1.2 0
-0.484 0.029 1.235 -0 -1.2 0
-0.498 0.024 1.275 -0 -1.2 0
-0.518 0.033 1.33 -0 -1.2 0
-0.536 0.033 1.378 -0 -1.2 0
-0.556 0.037 1.433 -0 -1.2 0
-0.578 0.04 1.489 -0 -1.2 0
-0.598 0.041 1.546 -0 -1.2 0
-0.619 0.041 1.604 -0 -1.2 0
-0.64 0.038 1.662 -0 -1.2 0
-0.66 0.034 1.721 -0 -1.2 0
-0.639 -0.044 1.668 -0 -1.2 0
-0.641 -0.08 1.677 -0 -1.2 0
-0.64 -0.12 1.678 -0 -1.2 0
-0.64 -0.161 1.677 -0 -1.2 0
-0.638 -0.201 1.676 -0 -1.2 0
-0.636 -0.241 1.674 -0 -1.2 0
-0.636 -0.276 1.68 -0 -1.2 0
-0.638 -0.312 1.686 -0 -1.2 0
-0.635 -0.351 1.682 -0 -1.2 0
-0.635 -0.385 1.686 -0 -1.2 0
-0.63 -0.427 1.671 -0 -1.2 0
-0.632 -0.458 1.683 -0 -1.2 0
-0.632 -0.493 1.684 -0 -1.2 0
-0.645 -0.514 1.721 -0 -1.2 0
-0.901 -0.322 2.411 -0 -1.2 0
-0.905 -0.366 2.424 -0 -1.2 0
-0.904 -0.413 2.428 -0 -1.2 0
-0.907 -0.458 2.439 -0 -1.2 0
-0.926 -0.492 2.495 -0 -1.2 0
-1.974 0.11 5.329 -0 -1.2 0
-2.176 0.124 5.883 -0 -1.2 0
-2.426 0.142 6.568 -0 -1.2 0
-2.672 0.132 7.247 -0 -1.2 0
-2.791 0.047 7.583 -0 -1.2 0
-3.184 0.048 8.664 -0 -1.2 0
-4.186 0.201 11.408 -0 -1.2 0
-5.26 0.271 14.358 -0 -1.2 0
-6.181 0.2 16.9 -0 -1.2 0
-7.748 0.139 21.217 -0 -1.2 0
-7.738 -0.254 21.22 -0 -1.2 0
-7.748 -0.646 21.282 -0 -1.2 0
-7.726 -1.041 21.252 -0 -1.2 0
-7.787 -1.438 21.451 -0 -1.2 0
-7.78 -2.236 21.501 -0 -1.2 0
-7.708 -2.624 21.332 -0 -1.2 0
-7.701 -3.023 21.345 -0 -1.2 0
-3.34 -2.112 9.268 -0 -1.2 0
-3.305 -2.274 9.187 -0 -1.2 0
-3.293 -2.444 9.168 -0 -1.2 0
-3.29 -2.618 9.174 -0 -1.2 0
-3.283 -2.791 9.168 -0 -1.2 0
-3.268 -2.96 9.141 -0 -1.2 0
-3.225 -3.113 9.037 -0 -1.2 0
-3.268 -3.319 9.17 -0 -1.2 0
-3.259 -3.495 9.161 -0 -1.2 0
-3.263 -3.681 9.186 -0 -1.2 0
-3.252 -3.86 9.171 -0 -1.2 0
-3.256 -4.051 9.198 -0 -1.2 0
-3.25 -4.236 9.196 -0 -1.2 0
-3.251 -4.431 9.215 -0 -1.2 0
-3.242 -4.618 9.206 -0 -1.2 0
-3.229 -4.802 9.184 -0 -1.2 0
-3.236 -5.011 9.22 -0 -1.2 0
-3.225 -5.204 9.207 -0 -1.2 0
-3.217 -5.401 9.201 -0 -1.2 0
-3.216 -5.612 9.217 -0 -1.2 0
-3.211 -5.821 9.219 -0 -1.2 0
-3.211 -6.039 9.235 -0 -1.2 0
-3.211 -6.265 9.255 -0 -1.2 0
-3.204 -6.483 9.253 -0 -1.2 0
-3.057 -6.458 8.845 -0 -1.2 0
-2.407 -5.499 6.98 -0 -1.2 0
-2.615 -6.079 7.598 -0 -1.2 0
-2.641 -6.338 7.693 -0 -1.2 0
-2.509 -6.278 7.324 -0 -1.2 0
-2.474 -6.412 7.239 -0 -1.2 0
-2.596 -6.895 7.613 -0 -1.2 0
-2.645 -7.238 7.776 -0 -1.2 0
-3.329 -9.133 9.816 -0 -1.2 0
-3.288 -9.344 9.721 -0 -1.2 0
-3.249 -9.559 9.63 -0 -1.2 0
-2.321 -7.369 6.894 -0 -1.2 0
-2.225 -7.341 6.629 -0 -1.2 0
-2.641 -8.794 7.891 -0 -1.2 0
-2.85 -9.727 8.546 -0 -1.2 0
-0.37 0.031 1.064 -0 -1.2 0
-0.383 0.033 1.103 -0 -1.2 0
-0.395 0.034 1.142 -0 -1.2 0
-0.41 0.041 1.188 -0 -1.2 0
-0.421 0.032 1.221 -0 -1.2 0
-0.436 0.036 1.269 -0 -1.2 0
-0.449 0.032 1.309 -0 -1.2 0
-0.462 0.028 1.35 -0 -1.2 0
-0.48 0.035 1.407 -0 -1.2 0
-0.499 0.039 1.462 -0 -1.2 0
-0.517 0.042 1.52 -0 -1.2 0
-0.533 0.037 1.571 -0 -1.2 0
-0.552 0.038 1.629 -0 -1.2 0
-0.576 0.046 1.702 -0 -1.2 0
-0.595 0.042 1.762 -0 -1.2 0
-0.587 -0.016 1.741 -0 -1.2 0
-0.583 -0.062 1.734 -0 -1.2 0
-0.582 -0.103 1.736 -0 -1.2 0
-0.582 -0.144 1.735 -0 -1.2 0
-0.58 -0.185 1.734 -0 -1.2 0
-0.578 -0.225 1.733 -0 -1.2 0
-0.576 -0.265 1.73 -0 -1.2 0
-0.58 -0.297 1.744 -0 -1.2 0
-0.575 -0.34 1.731 -0 -1.2 0
-0.575 -0.375 1.735 -0 -1.2 0
-0.573 -0.414 1.731 -0 -1.2 0
-0.572 -0.449 1.733 -0 -1.2 0
-0.568 -0.486 1.726 -0 -1.2 0
-0.583 -0.505 1.772 -0 -1.2 0
-0.786 -0.339 2.39 -0 -1.2 0
-0.786 -0.385 2.394 -0 -1.2 0
-0.789 -0.429 2.405 -0 -1.2 0
-0.792 -0.473 2.416 -0 -1.2 0
-0.818 -0.498 2.501 -0 -1.2 0
-1.789 0.13 5.465 -0 -1.2 0
-1.967 0.14 6.017 -0 -1.2 0
-2.191 0.158 6.71 -0 -1.2 0
-2.397 0.141 7.351 -0 -1.2 0
-2.491 0.05 7.654 -0 -1.2 0
-2.531 -0.074 7.786 -0 -1.2 0
-3.844 0.246 11.841 -0 -1.2 0
-4.783 0.309 14.752 -0 -1.2 0
-5.602 0.236 17.308 -0 -1.2 0
-6.836 0.145 21.15 -0 -1.2 0
-6.826 -0.242 21.152 -0 -1.2 0
-6.829 -0.628 21.194 -0 -1.2 0
-6.823 -1.016 21.212 -0 -1.2 0
-6.816 -1.404 21.222 -0 -1.2 0
-6.81 -1.793 21.237 -0 -1.2 0
-6.801 -2.182 21.245 -0 -1.2 0
-6.797 -2.574 21.265 -0 -1.2 0
-6.791 -2.966 21.278 -0 -1.2 0
-6.781 -3.358 21.286 -0 -1.2 0
-3.003 -2.279 9.448 -0 -1.2 0
-6.766 -4.15 21.308 -0 -1.2 0
-5.056 -3.681 15.954 -0 -1.2 0
-5.302 -4.125 16.756 -0 -1.2 0
-6.746 -5.357 21.352 -0 -1.2 0
-6.743 -5.767 21.375 -0 -1.2 0
-6.736 -6.178 21.391 -0 -1.2 0
-6.727 -6.592 21.399 -0 -1.2 0
-6.715 -7.007 21.4 -0 -1.2 0
-2.972 -3.905 9.492 -0 -1.2 0
-3.323 -4.452 10.633 -0 -1.2 0
-3.294 -4.64 10.559 -0 -1.2 0
-3.258 -4.818 10.464 -0 -1.2 0
-5.057 -7.561 16.295 -0 -1.2 0
-3.016 -5.378 9.758 -0 -1.2 0
-2.761 -5.216 8.952 -0 -1.2 0
-2.788 -5.463 9.058 -0 -1.2 0
-2.813 -5.714 9.158 -0 -1.2 0
-2.671 -5.686 8.714 -0 -1.2 0
-2.619 -5.801 8.562 -0 -1.2 0
-2.479 -5.75 8.124 -0 -1.2 0
-3.101 -7.172 10.18 -0 -1.2 0
-2.138 -5.464 7.037 -0 -1.2 0
-2.489 -6.396 8.21 -0 -1.2 0
-4.044 -10.067 13.362 -0 -1.2 0
-2.224 -6.23 7.371 -0 -1.2 0
-2.254 -6.512 7.49 -0 -1.2 0
-3.715 -10.379 12.367 -0 -1.2 0
-4.057 -11.638 13.541 -0 -1.2 0
-3.944 -11.747 13.199 -0 -1.2 0
-3.127 -9.871 10.496 -0 -1.2 0
-3.294 -10.698 11.088 -0 -1.2 0
-2.081 -7.393 7.028 -0 -1.2 0
-2.359 -8.512 7.989 -0 -1.2 0
-2.704 -10.27 9.217 -0 -1.2 0
-0.33 0.032 1.086 -0 -1.2 0
-0.343 0.041 1.131 -0 -1.2 0
-0.353 0.035 1.165 -0 -1.2 0
-0.366 0.042 1.211 -0 -1.2 0
-0.376 0.034 1.245 -0 -1.2 0
-0.389 0.038 1.293 -0 -1.2 0
-0.403 0.041 1.341 -0 -1.2 0
-0.417 0.042 1.39 -0 -1.2 0
-0.431 0.042 1.439 -0 -1.2 0
-0.445 0.04 1.49 -0 -1.2 0
-0.461 0.044 1.547 -0 -1.2 0
-0.478 0.045 1.605 -0 -1.2 0
-0.495 0.045 1.664 -0 -1.2 0
-0.514 0.048 1.731 -0 -1.2 0
-0.533 0.049 1.799 -0 -1.2 0
-0.55 0.042 1.86 -0 -1.2 0
-0.538 -0.025 1.822 -0 -1.2 0
-0.537 -0.068 1.823 -0 -1.2 0
-0.533 -0.114 1.815 -0 -1.2 0
-0.532 -0.156 1.814 -0 -1.2 0
-0.53 -0.197 1.813 -0 -1.2 0
-0.532 -0.234 1.82 -0 -1.2 0
-0.53 -0.274 1.817 -0 -1.2 0
-0.527 -0.315 1.814 -0 -1.2 0
-0.526 -0.354 1.809 -0 -1.2 0
-0.525 -0.39 1.813 -0 -1.2 0
-0.525 -0.426 1.816 -0 -1.2 0
-0.522 -0.465 1.809 -0 -1.2 0
-0.525 -0.497 1.82 -0 -1.2 0
-0.594 -0.455 2.059 -0 -1.2 0
-0.663 -0.422 2.3 -0 -1.2 0
-0.662 -0.465 2.302 -0 -1.2 0
-0.691 -0.482 2.407 -0 -1.2 0
-1.478 0.138 5.118 -0 -1.2 0
-1.61 0.146 5.58 -0 -1.2 0
-1.774 0.16 6.156 -0 -1.2 0
-1.97 0.177 6.849 -0 -1.2 0
-2.17 0.169 7.553 -0 -1.2 0
-2.225 0.06 7.755 -0 -1.2 0
-2.281 -0.054 7.965 -0 -1.2 0
-3.476 0.278 12.139 -0 -1.2 0
-4.299 0.335 15.033 -0 -1.2 0
-5.728 0.453 20.052 -0 -1.2 0
-6.007 0.149 21.066 -0 -1.2 0
-5.995 -0.233 21.058 -0 -1.2 0
-5.997 -0.613 21.101 -0 -1.2 0
-5.994 -0.995 21.128 -0 -1.2 0
-5.987 -1.377 21.139 -0 -1.2 0
-5.981 -1.76 21.153 -0 -1.2 0
-5.973 -2.144 21.161 -0 -1.2 0
-5.969 -2.529 21.182 -0 -1.2 0
-5.963 -2.915 21.195 -0 -1.2 0
-5.955 -3.303 21.203 -0 -1.2 0
-5.948 -3.692 21.214 -0 -1.2 0
-4.617 -3.42 16.503 -0 -1.2 0
-4.43 -3.623 15.864 -0 -1.2 0
-5.93 -4.874 21.262 -0 -1.2 0
-5.922 -5.273 21.274 -0 -1.2 0
-3.232 -3.602 11.646 -0 -1.2 0
