# .PCD v.7 - Point Cloud Data file format
FIELDS x y z vp_x vp_y vp_z
SIZE 4 4 4 4 4 4
TYPE F F F F F F
COUNT 1 1 1 1 1 1
WIDTH 1495
HEIGHT 1
VIEWPOINT 0 -1.20012 0 1 0 0 0
POINTS 1495
DATA ascii
29.623 -6.429 0.939 -0 -1.2 0
29.525 -6.943 0.942 -0 -1.2 0
29.419 -7.456 0.943 -0 -1.2 0
29.304 -7.966 0.946 -0 -1.2 0
29.179 -8.475 0.949 -0 -1.2 0
29.046 -8.981 0.951 -0 -1.2 0
28.903 -9.486 0.954 -0 -1.2 0
28.753 -9.987 0.956 -0 -1.2 0
28.593 -10.485 0.959 -0 -1.2 0
28.425 -10.982 0.961 -0 -1.2 0
28.248 -11.474 0.963 -0 -1.2 0
27.869 -12.45 0.968 -0 -1.2 0
27.667 -12.933 0.97 -0 -1.2 0
27.456 -13.413 0.971 -0 -1.2 0
27.01 -14.36 0.975 -0 -1.2 0
26.774 -14.827 0.977 -0 -1.2 0
26.53 -15.291 0.979 -0 -1.2 0
25.476 -17.1 0.985 -0 -1.2 0
24.902 -17.975 0.988 -0 -1.2 0
24.603 -18.406 0.989 -0 -1.2 0
23.336 -20.073 0.993 -0 -1.2 0
23.002 -20.475 0.995 -0 -1.2 0
30.131 -2.024 -0.576 -0 -1.2 0
30.111 -2.548 -0.574 -0 -1.2 0
30.081 -3.07 -0.573 -0 -1.2 0
30.042 -3.592 -0.571 -0 -1.2 0
29.994 -4.114 -0.569 -0 -1.2 0
29.937 -4.635 -0.567 -0 -1.2 0
29.87 -5.154 -0.566 -0 -1.2 0
29.795 -5.672 -0.565 -0 -1.2 0
29.711 -6.189 -0.563 -0 -1.2 0
29.617 -6.704 -0.562 -0 -1.2 0
29.515 -7.218 -0.56 -0 -1.2 0
29.403 -7.729 -0.559 -0 -1.2 0
29.284 -8.239 -0.558 -0 -1.2 0
29.155 -8.746 -0.557 -0 -1.2 0
29.017 -9.252 -0.556 -0 -1.2 0
28.551 -10.752 -0.554 -0 -1.2 0
28.377 -11.245 -0.553 -0 -1.2 0
28.007 -12.225 -0.551 -0 -1.2 0
26.931 -14.61 -0.548 -0 -1.2 0
26.443 -15.537 -0.548 -0 -1.2 0
26.187 -15.994 -0.547 -0 -1.2 0
25.924 -16.446 -0.547 -0 -1.2 0
25.084 -17.774 -0.547 -0 -1.2 0
23.206 -20.29 -0.548 -0 -1.2 0
22.522 -21.082 -0.549 -0 -1.2 0
21.81 -21.851 -0.551 -0 -1.2 0
21.445 -22.227 -0.551 -0 -1.2 0
30.128 -1.506 -1.613 -0 -1.2 0
30.117 -2.029 -1.612 -0 -1.2 0
30.096 -2.553 -1.609 -0 -1.2 0
30.066 -3.075 -1.607 -0 -1.2 0
30.027 -3.597 -1.604 -0 -1.2 0
29.978 -4.118 -1.601 -0 -1.2 0
29.921 -4.64 -1.598 -0 -1.2 0
29.855 -5.159 -1.595 -0 -1.2 0
29.78 -5.677 -1.59 -0 -1.2 0
29.696 -6.194 -1.587 -0 -1.2 0
29.602 -6.709 -1.583 -0 -1.2 0
29.501 -7.222 -1.577 -0 -1.2 0
29.389 -7.734 -1.573 -0 -1.2 0
29.269 -8.243 -1.568 -0 -1.2 0
29.14 -8.751 -1.563 -0 -1.2 0
29.002 -9.256 -1.557 -0 -1.2 0
28.855 -9.759 -1.552 -0 -1.2 0
28.7 -10.258 -1.545 -0 -1.2 0
28.536 -10.756 -1.539 -0 -1.2 0
28.363 -11.25 -1.532 -0 -1.2 0
27.992 -12.229 -1.518 -0 -1.2 0
27.372 -13.672 -1.495 -0 -1.2 0
27.148 -14.146 -1.487 -0 -1.2 0
26.917 -14.614 -1.48 -0 -1.2 0
26.677 -15.08 -1.471 -0 -1.2 0
22.853 -20.692 -1.341 -0 -1.2 0
22.508 -21.086 -1.329 -0 -1.2 0
22.156 -21.473 -1.317 -0 -1.2 0
21.797 -21.854 -1.306 -0 -1.2 0
21.432 -22.23 -1.294 -0 -1.2 0
30.081 -0.985 -2.635 -0 -1.2 0
30.078 -1.508 -2.633 -0 -1.2 0
30.067 -2.031 -2.632 -0 -1.2 0
30.046 -2.555 -2.629 -0 -1.2 0
30.016 -3.077 -2.625 -0 -1.2 0
29.978 -3.599 -2.621 -0 -1.2 0
29.929 -4.121 -2.617 -0 -1.2 0
29.872 -4.642 -2.612 -0 -1.2 0
29.806 -5.161 -2.607 -0 -1.2 0
29.731 -5.679 -2.601 -0 -1.2 0
29.647 -6.196 -2.593 -0 -1.2 0
29.553 -6.711 -2.587 -0 -1.2 0
29.451 -7.224 -2.578 -0 -1.2 0
29.341 -7.736 -2.57 -0 -1.2 0
29.22 -8.245 -2.561 -0 -1.2 0
29.091 -8.753 -2.551 -0 -1.2 0
28.954 -9.258 -2.542 -0 -1.2 0
28.807 -9.761 -2.53 -0 -1.2 0
28.652 -10.261 -2.52 -0 -1.2 0
28.489 -10.758 -2.508 -0 -1.2 0
28.316 -11.252 -2.495 -0 -1.2 0
28.135 -11.744 -2.482 -0 -1.2 0
27.945 -12.231 -2.469 -0 -1.2 0
27.748 -12.715 -2.455 -0 -1.2 0
27.542 -13.197 -2.441 -0 -1.2 0
27.326 -13.674 -2.426 -0 -1.2 0
27.103 -14.148 -2.411 -0 -1.2 0
26.872 -14.616 -2.394 -0 -1.2 0
26.633 -15.082 -2.378 -0 -1.2 0
26.385 -15.543 -2.361 -0 -1.2 0
21.761 -21.856 -2.049 -0 -1.2 0
21.397 -22.231 -2.024 -0 -1.2 0
29.939 0.583 -3.73 -0 -1.2 0
29.984 -1.509 -3.73 -0 -1.2 0
29.952 -2.556 -3.725 -0 -1.2 0
29.922 -3.078 -3.72 -0 -1.2 0
29.883 -3.601 -3.716 -0 -1.2 0
29.835 -4.122 -3.709 -0 -1.2 0
29.778 -4.643 -3.702 -0 -1.2 0
29.713 -5.162 -3.695 -0 -1.2 0
29.637 -5.681 -3.686 -0 -1.2 0
29.554 -6.197 -3.677 -0 -1.2 0
29.461 -6.712 -3.666 -0 -1.2 0
29.359 -7.226 -3.654 -0 -1.2 0
29.248 -7.737 -3.643 -0 -1.2 0
29.129 -8.247 -3.629 -0 -1.2 0
29.001 -8.754 -3.615 -0 -1.2 0
28.863 -9.26 -3.6 -0 -1.2 0
28.717 -9.762 -3.584 -0 -1.2 0
28.563 -10.262 -3.567 -0 -1.2 0
28.399 -10.759 -3.549 -0 -1.2 0
28.228 -11.253 -3.531 -0 -1.2 0
28.047 -11.745 -3.512 -0 -1.2 0
27.858 -12.232 -3.492 -0 -1.2 0
27.66 -12.716 -3.471 -0 -1.2 0
27.454 -13.198 -3.449 -0 -1.2 0
27.24 -13.675 -3.427 -0 -1.2 0
27.018 -14.149 -3.403 -0 -1.2 0
26.787 -14.617 -3.378 -0 -1.2 0
26.549 -15.083 -3.353 -0 -1.2 0
26.302 -15.544 -3.327 -0 -1.2 0
24.95 -17.78 -3.186 -0 -1.2 0
24.657 -18.214 -3.154 -0 -1.2 0
24.356 -18.641 -3.124 -0 -1.2 0
23.41 -19.89 -3.025 -0 -1.2 0
23.08 -20.296 -2.99 -0 -1.2 0
22.744 -20.695 -2.955 -0 -1.2 0
22.399 -21.088 -2.92 -0 -1.2 0
22.05 -21.475 -2.884 -0 -1.2 0
21.692 -21.857 -2.847 -0 -1.2 0
21.328 -22.232 -2.809 -0 -1.2 0
29.86 -1.509 -4.741 -0 -1.2 0
29.828 -2.556 -4.735 -0 -1.2 0
29.799 -3.078 -4.729 -0 -1.2 0
29.761 -3.601 -4.723 -0 -1.2 0
29.713 -4.122 -4.716 -0 -1.2 0
29.656 -4.643 -4.707 -0 -1.2 0
29.591 -5.162 -4.698 -0 -1.2 0
29.516 -5.681 -4.687 -0 -1.2 0
29.432 -6.197 -4.675 -0 -1.2 0
29.34 -6.712 -4.661 -0 -1.2 0
29.238 -7.226 -4.646 -0 -1.2 0
29.128 -7.737 -4.631 -0 -1.2 0
29.008 -8.247 -4.613 -0 -1.2 0
28.881 -8.754 -4.595 -0 -1.2 0
28.744 -9.26 -4.576 -0 -1.2 0
28.599 -9.762 -4.555 -0 -1.2 0
28.445 -10.262 -4.533 -0 -1.2 0
27.931 -11.745 -4.461 -0 -1.2 0
27.743 -12.232 -4.434 -0 -1.2 0
27.547 -12.716 -4.407 -0 -1.2 0
27.341 -13.198 -4.379 -0 -1.2 0
27.128 -13.675 -4.349 -0 -1.2 0
26.906 -14.149 -4.318 -0 -1.2 0
26.677 -14.617 -4.285 -0 -1.2 0
26.44 -15.083 -4.252 -0 -1.2 0
26.194 -15.544 -4.218 -0 -1.2 0
23.949 -19.063 -3.907 -0 -1.2 0
23.313 -19.89 -3.818 -0 -1.2 0
22.985 -20.296 -3.773 -0 -1.2 0
22.65 -20.695 -3.727 -0 -1.2 0
22.308 -21.088 -3.679 -0 -1.2 0
21.959 -21.475 -3.631 -0 -1.2 0
21.603 -21.857 -3.582 -0 -1.2 0
21.241 -22.232 -3.532 -0 -1.2 0
29.676 -2.555 -5.705 -0 -1.2 0
29.647 -3.077 -5.699 -0 -1.2 0
29.608 -3.6 -5.692 -0 -1.2 0
29.561 -4.121 -5.684 -0 -1.2 0
29.505 -4.642 -5.673 -0 -1.2 0
29.439 -5.161 -5.661 -0 -1.2 0
29.365 -5.68 -5.648 -0 -1.2 0
29.282 -6.196 -5.633 -0 -1.2 0
29.19 -6.711 -5.617 -0 -1.2 0
28.979 -7.736 -5.58 -0 -1.2 0
28.733 -8.753 -5.537 -0 -1.2 0
28.597 -9.259 -5.513 -0 -1.2 0
28.299 -10.261 -5.462 -0 -1.2 0
27.968 -11.252 -5.404 -0 -1.2 0
27.788 -11.744 -5.373 -0 -1.2 0
27.602 -12.231 -5.34 -0 -1.2 0
27.201 -13.197 -5.271 -0 -1.2 0
26.769 -14.148 -5.196 -0 -1.2 0
26.541 -14.616 -5.157 -0 -1.2 0
26.304 -15.082 -5.116 -0 -1.2 0
26.06 -15.543 -5.074 -0 -1.2 0
25.807 -16 -5.03 -0 -1.2 0
25.547 -16.452 -4.986 -0 -1.2 0
23.826 -19.062 -4.689 -0 -1.2 0
23.514 -19.478 -4.636 -0 -1.2 0
23.194 -19.889 -4.581 -0 -1.2 0
22.868 -20.295 -4.525 -0 -1.2 0
22.534 -20.694 -4.467 -0 -1.2 0
22.193 -21.087 -4.409 -0 -1.2 0
21.846 -21.475 -4.35 -0 -1.2 0
21.493 -21.856 -4.288 -0 -1.2 0
21.133 -22.231 -4.227 -0 -1.2 0
29.488 0.062 -6.749 -0 -1.2 0
29.507 -1.506 -6.752 -0 -1.2 0
29.496 -2.029 -6.749 -0 -1.2 0
29.476 -2.553 -6.744 -0 -1.2 0
29.446 -3.075 -6.738 -0 -1.2 0
29.408 -3.597 -6.73 -0 -1.2 0
29.361 -4.119 -6.72 -0 -1.2 0
29.305 -4.64 -6.708 -0 -1.2 0
29.24 -5.159 -6.694 -0 -1.2 0
29.084 -6.194 -6.661 -0 -1.2 0
28.993 -6.709 -6.641 -0 -1.2 0
28.783 -7.734 -6.598 -0 -1.2 0
28.666 -8.243 -6.573 -0 -1.2 0
28.54 -8.751 -6.547 -0 -1.2 0
28.405 -9.256 -6.518 -0 -1.2 0
27.779 -11.25 -6.387 -0 -1.2 0
26.808 -13.672 -6.184 -0 -1.2 0
26.588 -14.146 -6.138 -0 -1.2 0
26.361 -14.614 -6.091 -0 -1.2 0
24.835 -17.341 -5.773 -0 -1.2 0
24.553 -17.778 -5.714 -0 -1.2 0
23.969 -18.638 -5.592 -0 -1.2 0
23.666 -19.06 -5.529 -0 -1.2 0
23.355 -19.476 -5.465 -0 -1.2 0
23.038 -19.888 -5.399 -0 -1.2 0
22.713 -20.293 -5.33 -0 -1.2 0
22.382 -20.692 -5.262 -0 -1.2 0
22.043 -21.086 -5.192 -0 -1.2 0
21.699 -21.473 -5.12 -0 -1.2 0
21.347 -21.854 -5.047 -0 -1.2 0
20.989 -22.23 -4.972 -0 -1.2 0
29.288 -1.503 -7.71 -0 -1.2 0
29.276 -2.026 -7.708 -0 -1.2 0
29.256 -2.55 -7.702 -0 -1.2 0
29.226 -3.072 -7.695 -0 -1.2 0
29.189 -3.594 -7.686 -0 -1.2 0
29.142 -4.115 -7.674 -0 -1.2 0
28.949 -5.674 -7.627 -0 -1.2 0
27.018 -12.71 -7.158 -0 -1.2 0
24.37 -17.775 -6.516 -0 -1.2 0
24.084 -18.208 -6.447 -0 -1.2 0
23.79 -18.635 -6.375 -0 -1.2 0
23.489 -19.058 -6.302 -0 -1.2 0
23.181 -19.474 -6.228 -0 -1.2 0
22.866 -19.885 -6.152 -0 -1.2 0
22.544 -20.291 -6.073 -0 -1.2 0
22.215 -20.69 -5.994 -0 -1.2 0
21.879 -21.083 -5.912 -0 -1.2 0
21.536 -21.471 -5.829 -0 -1.2 0
21.188 -21.852 -5.744 -0 -1.2 0
20.832 -22.228 -5.658 -0 -1.2 0
29.035 -0.993 -8.668 -0 -1.2 0
29.031 -1.516 -8.667 -0 -1.2 0
29.02 -2.039 -8.664 -0 -1.2 0
29 -2.563 -8.658 -0 -1.2 0
28.97 -3.085 -8.651 -0 -1.2 0
28.933 -3.607 -8.64 -0 -1.2 0
28.886 -4.128 -8.627 -0 -1.2 0
28.831 -4.65 -8.613 -0 -1.2 0
28.767 -5.169 -8.594 -0 -1.2 0
28.693 -5.687 -8.574 -0 -1.2 0
28.316 -7.744 -8.47 -0 -1.2 0
28.199 -8.253 -8.438 -0 -1.2 0
26.152 -14.155 -7.872 -0 -1.2 0
25.458 -15.55 -7.679 -0 -1.2 0
25.211 -16.007 -7.611 -0 -1.2 0
24.957 -16.459 -7.541 -0 -1.2 0
24.694 -16.906 -7.469 -0 -1.2 0
24.425 -17.349 -7.394 -0 -1.2 0
24.148 -17.786 -7.317 -0 -1.2 0
23.864 -18.219 -7.238 -0 -1.2 0
23.572 -18.646 -7.157 -0 -1.2 0
23.273 -19.068 -7.074 -0 -1.2 0
22.967 -19.484 -6.989 -0 -1.2 0
22.654 -19.895 -6.903 -0 -1.2 0
22.335 -20.301 -6.815 -0 -1.2 0
22.009 -20.7 -6.724 -0 -1.2 0
21.676 -21.093 -6.632 -0 -1.2 0
21.336 -21.48 -6.537 -0 -1.2 0
20.99 -21.861 -6.441 -0 -1.2 0
20.638 -22.237 -6.343 -0 -1.2 0
28.721 -1.533 -9.691 -0 -1.2 0
28.709 -2.056 -9.688 -0 -1.2 0
28.688 -2.58 -9.682 -0 -1.2 0
28.659 -3.102 -9.673 -0 -1.2 0
28.383 -5.704 -9.589 -0 -1.2 0
26.669 -12.254 -9.053 -0 -1.2 0
26.076 -13.696 -8.866 -0 -1.2 0
24.15 -17.363 -8.26 -0 -1.2 0
23.877 -17.8 -8.174 -0 -1.2 0
23.595 -18.233 -8.085 -0 -1.2 0
23.306 -18.66 -7.994 -0 -1.2 0
23.01 -19.082 -7.9 -0 -1.2 0
22.707 -19.498 -7.805 -0 -1.2 0
22.398 -19.909 -7.707 -0 -1.2 0
22.081 -20.314 -7.608 -0 -1.2 0
21.758 -20.713 -7.506 -0 -1.2 0
21.429 -21.106 -7.401 -0 -1.2 0
21.092 -21.493 -7.295 -0 -1.2 0
20.749 -21.874 -7.187 -0 -1.2 0
20.4 -22.249 -7.076 -0 -1.2 0
28.385 -2.072 -10.628 -0 -1.2 0
28.364 -2.596 -10.623 -0 -1.2 0
28.335 -3.118 -10.613 -0 -1.2 0
28.196 -4.682 -10.567 -0 -1.2 0
25.772 -13.711 -9.725 -0 -1.2 0
23.595 -17.813 -8.96 -0 -1.2 0
23.315 -18.246 -8.863 -0 -1.2 0
23.029 -18.673 -8.762 -0 -1.2 0
22.737 -19.094 -8.66 -0 -1.2 0
22.437 -19.51 -8.554 -0 -1.2 0
22.13 -19.921 -8.446 -0 -1.2 0
21.817 -20.326 -8.336 -0 -1.2 0
21.497 -20.725 -8.224 -0 -1.2 0
21.171 -21.117 -8.109 -0 -1.2 0
20.839 -21.504 -7.991 -0 -1.2 0
20.5 -21.885 -7.872 -0 -1.2 0
20.154 -22.26 -7.75 -0 -1.2 0
23.813 -16.947 -9.947 -0 -1.2 0
23.552 -17.39 -9.845 -0 -1.2 0
23.283 -17.826 -9.741 -0 -1.2 0
23.008 -18.259 -9.634 -0 -1.2 0
22.725 -18.685 -9.524 -0 -1.2 0
22.435 -19.107 -9.412 -0 -1.2 0
22.138 -19.522 -9.296 -0 -1.2 0
21.835 -19.933 -9.179 -0 -1.2 0
21.526 -20.338 -9.058 -0 -1.2 0
21.21 -20.736 -8.935 -0 -1.2 0
20.887 -21.129 -8.81 -0 -1.2 0
20.559 -21.516 -8.681 -0 -1.2 0
20.223 -21.896 -8.551 -0 -1.2 0
19.882 -22.271 -8.418 -0 -1.2 0
27.414 -4.71 -12.496 -0 -1.2 0
26.553 -9.324 -12.137 -0 -1.2 0
22.645 -18.269 -10.467 -0 -1.2 0
22.366 -18.695 -10.347 -0 -1.2 0
22.081 -19.117 -10.224 -0 -1.2 0
21.789 -19.532 -10.098 -0 -1.2 0
21.49 -19.943 -9.969 -0 -1.2 0
21.184 -20.347 -9.838 -0 -1.2 0
20.873 -20.746 -9.703 -0 -1.2 0
20.555 -21.138 -9.567 -0 -1.2 0
20.23 -21.525 -9.426 -0 -1.2 0
19.9 -21.905 -9.284 -0 -1.2 0
19.564 -22.28 -9.139 -0 -1.2 0
22.538 -17.845 -11.372 -0 -1.2 0
22.27 -18.278 -11.246 -0 -1.2 0
21.996 -18.704 -11.116 -0 -1.2 0
21.715 -19.125 -10.985 -0 -1.2 0
21.426 -19.541 -10.848 -0 -1.2 0
21.132 -19.951 -10.71 -0 -1.2 0
20.831 -20.355 -10.568 -0 -1.2 0
20.524 -20.754 -10.422 -0 -1.2 0
20.211 -21.146 -10.275 -0 -1.2 0
19.891 -21.532 -10.124 -0 -1.2 0
19.566 -21.913 -9.97 -0 -1.2 0
19.234 -22.287 -9.813 -0 -1.2 0
25.903 -8.332 -14.063 -0 -1.2 0
23.347 -15.622 -12.771 -0 -1.2 0
21.867 -18.286 -12.013 -0 -1.2 0
21.597 -18.712 -11.874 -0 -1.2 0
21.32 -19.133 -11.732 -0 -1.2 0
21.036 -19.548 -11.587 -0 -1.2 0
20.747 -19.959 -11.439 -0 -1.2 0
20.451 -20.363 -11.286 -0 -1.2 0
20.149 -20.761 -11.13 -0 -1.2 0
19.841 -21.154 -10.972 -0 -1.2 0
19.526 -21.54 -10.81 -0 -1.2 0
19.206 -21.92 -10.645 -0 -1.2 0
18.881 -22.294 -10.477 -0 -1.2 0
21.922 -17.415 -13.11 -0 -1.2 0
21.67 -17.851 -12.969 -0 -1.2 0
21.412 -18.283 -12.824 -0 -1.2 0
21.147 -18.71 -12.674 -0 -1.2 0
20.876 -19.131 -12.522 -0 -1.2 0
20.598 -19.546 -12.365 -0 -1.2 0
20.315 -19.956 -12.205 -0 -1.2 0
20.025 -20.361 -12.042 -0 -1.2 0
19.729 -20.759 -11.875 -0 -1.2 0
19.427 -21.151 -11.704 -0 -1.2 0
19.12 -21.538 -11.531 -0 -1.2 0
18.806 -21.918 -11.354 -0 -1.2 0
18.488 -22.292 -11.174 -0 -1.2 0
24.926 -7.811 -15.984 -0 -1.2 0
24.463 -9.835 -15.706 -0 -1.2 0
23.72 -12.303 -15.254 -0 -1.2 0
21.46 -17.407 -13.87 -0 -1.2 0
21.215 -17.843 -13.718 -0 -1.2 0
20.962 -18.276 -13.563 -0 -1.2 0
20.704 -18.702 -13.404 -0 -1.2 0
20.439 -19.123 -13.242 -0 -1.2 0
20.168 -19.539 -13.075 -0 -1.2 0
19.891 -19.949 -12.904 -0 -1.2 0
19.608 -20.354 -12.73 -0 -1.2 0
19.318 -20.752 -12.552 -0 -1.2 0
19.024 -21.144 -12.37 -0 -1.2 0
18.723 -21.531 -12.185 -0 -1.2 0
18.417 -21.911 -11.995 -0 -1.2 0
18.104 -22.286 -11.804 -0 -1.2 0
24.134 -8.821 -16.727 -0 -1.2 0
24.018 -9.326 -16.649 -0 -1.2 0
23.895 -9.828 -16.567 -0 -1.2 0
23.004 -12.78 -15.975 -0 -1.2 0
22.07 -15.144 -15.35 -0 -1.2 0
21.429 -16.513 -14.922 -0 -1.2 0
21.203 -16.959 -14.77 -0 -1.2 0
20.969 -17.401 -14.614 -0 -1.2 0
20.729 -17.838 -14.454 -0 -1.2 0
20.483 -18.27 -14.289 -0 -1.2 0
20.231 -18.697 -14.12 -0 -1.2 0
19.973 -19.118 -13.947 -0 -1.2 0
19.709 -19.533 -13.77 -0 -1.2 0
19.439 -19.944 -13.589 -0 -1.2 0
19.162 -20.348 -13.404 -0 -1.2 0
18.88 -20.747 -13.214 -0 -1.2 0
18.593 -21.139 -13.022 -0 -1.2 0
18.299 -21.526 -12.825 -0 -1.2 0
18.001 -21.906 -12.624 -0 -1.2 0
17.696 -22.281 -12.42 -0 -1.2 0
23.371 -9.322 -17.552 -0 -1.2 0
23.252 -9.825 -17.465 -0 -1.2 0
23.125 -10.324 -17.373 -0 -1.2 0
22.851 -11.314 -17.173 -0 -1.2 0
21.073 -16.058 -15.874 -0 -1.2 0
20.859 -16.509 -15.718 -0 -1.2 0
20.638 -16.956 -15.556 -0 -1.2 0
20.412 -17.398 -15.39 -0 -1.2 0
20.179 -17.835 -15.221 -0 -1.2 0
19.94 -18.267 -15.046 -0 -1.2 0
19.696 -18.693 -14.867 -0 -1.2 0
19.445 -19.115 -14.683 -0 -1.2 0
19.188 -19.53 -14.496 -0 -1.2 0
18.925 -19.941 -14.304 -0 -1.2 0
18.657 -20.346 -14.108 -0 -1.2 0
18.383 -20.744 -13.907 -0 -1.2 0
18.103 -21.137 -13.703 -0 -1.2 0
17.818 -21.523 -13.495 -0 -1.2 0
17.528 -21.904 -13.282 -0 -1.2 0
17.232 -22.278 -13.065 -0 -1.2 0
22.735 -9.321 -18.37 -0 -1.2 0
22.619 -9.824 -18.278 -0 -1.2 0
22.497 -10.323 -18.18 -0 -1.2 0
22.368 -10.82 -18.078 -0 -1.2 0
22.231 -11.313 -17.97 -0 -1.2 0
21.619 -13.257 -17.484 -0 -1.2 0
21.091 -14.675 -17.065 -0 -1.2 0
20.903 -15.14 -16.916 -0 -1.2 0
20.707 -15.601 -16.761 -0 -1.2 0
20.506 -16.057 -16.601 -0 -1.2 0
20.298 -16.508 -16.437 -0 -1.2 0
20.084 -16.955 -16.267 -0 -1.2 0
19.864 -17.397 -16.093 -0 -1.2 0
19.638 -17.834 -15.914 -0 -1.2 0
19.406 -18.266 -15.73 -0 -1.2 0
19.169 -18.693 -15.541 -0 -1.2 0
18.925 -19.114 -15.348 -0 -1.2 0
18.675 -19.53 -15.152 -0 -1.2 0
18.42 -19.94 -14.949 -0 -1.2 0
18.16 -20.345 -14.743 -0 -1.2 0
17.894 -20.743 -14.533 -0 -1.2 0
17.623 -21.136 -14.317 -0 -1.2 0
17.345 -21.522 -14.098 -0 -1.2 0
17.064 -21.903 -13.875 -0 -1.2 0
16.776 -22.278 -13.647 -0 -1.2 0
22.062 -9.323 -19.171 -0 -1.2 0
21.951 -9.825 -19.075 -0 -1.2 0
21.832 -10.324 -18.972 -0 -1.2 0
21.707 -10.822 -18.865 -0 -1.2 0
21.575 -11.315 -18.751 -0 -1.2 0
21.437 -11.806 -18.632 -0 -1.2 0
21.292 -12.294 -18.507 -0 -1.2 0
20.983 -13.258 -18.241 -0 -1.2 0
20.819 -13.735 -18.1 -0 -1.2 0
20.649 -14.208 -17.953 -0 -1.2 0
20.472 -14.676 -17.801 -0 -1.2 0
20.289 -15.142 -17.644 -0 -1.2 0
20.101 -15.602 -17.482 -0 -1.2 0
19.905 -16.058 -17.314 -0 -1.2 0
19.704 -16.51 -17.141 -0 -1.2 0
19.497 -16.956 -16.964 -0 -1.2 0
19.284 -17.399 -16.782 -0 -1.2 0
19.066 -17.835 -16.594 -0 -1.2 0
18.841 -18.268 -16.401 -0 -1.2 0
18.611 -18.694 -16.203 -0 -1.2 0
18.374 -19.116 -16.001 -0 -1.2 0
18.133 -19.531 -15.794 -0 -1.2 0
17.886 -19.942 -15.583 -0 -1.2 0
17.634 -20.346 -15.366 -0 -1.2 0
17.376 -20.745 -15.146 -0 -1.2 0
17.113 -21.137 -14.92 -0 -1.2 0
16.844 -21.524 -14.69 -0 -1.2 0
16.571 -21.904 -14.456 -0 -1.2 0
16.293 -22.279 -14.219 -0 -1.2 0
21.305 -9.328 -20.006 -0 -1.2 0
21.197 -9.83 -19.904 -0 -1.2 0
21.083 -10.329 -19.798 -0 -1.2 0
20.962 -10.826 -19.684 -0 -1.2 0
20.836 -11.32 -19.564 -0 -1.2 0
20.703 -11.811 -19.439 -0 -1.2 0
20.564 -12.298 -19.307 -0 -1.2 0
20.418 -12.781 -19.171 -0 -1.2 0
20.266 -13.263 -19.028 -0 -1.2 0
20.109 -13.739 -18.881 -0 -1.2 0
19.945 -14.212 -18.727 -0 -1.2 0
19.775 -14.681 -18.567 -0 -1.2 0
19.599 -15.146 -18.402 -0 -1.2 0
19.417 -15.606 -18.232 -0 -1.2 0
19.229 -16.063 -18.057 -0 -1.2 0
19.036 -16.514 -17.876 -0 -1.2 0
18.836 -16.961 -17.689 -0 -1.2 0
18.631 -17.403 -17.497 -0 -1.2 0
18.421 -17.839 -17.301 -0 -1.2 0
18.204 -18.272 -17.099 -0 -1.2 0
17.982 -18.698 -16.892 -0 -1.2 0
17.755 -19.12 -16.68 -0 -1.2 0
17.521 -19.535 -16.463 -0 -1.2 0
17.284 -19.946 -16.241 -0 -1.2 0
17.04 -20.35 -16.014 -0 -1.2 0
16.792 -20.748 -15.783 -0 -1.2 0
16.539 -21.141 -15.547 -0 -1.2 0
16.28 -21.527 -15.307 -0 -1.2 0
16.016 -21.908 -15.061 -0 -1.2 0
15.749 -22.283 -14.812 -0 -1.2 0
20.669 -8.831 -20.851 -0 -1.2 0
20.572 -9.336 -20.751 -0 -1.2 0
20.468 -9.838 -20.645 -0 -1.2 0
20.358 -10.337 -20.533 -0 -1.2 0
20.243 -10.834 -20.415 -0 -1.2 0
20.121 -11.328 -20.29 -0 -1.2 0
19.993 -11.819 -20.16 -0 -1.2 0
19.858 -12.306 -20.024 -0 -1.2 0
19.718 -12.789 -19.881 -0 -1.2 0
19.572 -13.271 -19.733 -0 -1.2 0
19.42 -13.747 -19.579 -0 -1.2 0
19.262 -14.22 -19.419 -0 -1.2 0
19.098 -14.688 -19.253 -0 -1.2 0
18.928 -15.154 -19.082 -0 -1.2 0
18.753 -15.614 -18.905 -0 -1.2 0
18.571 -16.07 -18.721 -0 -1.2 0
18.385 -16.521 -18.533 -0 -1.2 0
18.193 -16.968 -18.339 -0 -1.2 0
17.995 -17.41 -18.14 -0 -1.2 0
17.792 -17.846 -17.935 -0 -1.2 0
17.583 -18.279 -17.725 -0 -1.2 0
17.369 -18.705 -17.51 -0 -1.2 0
17.15 -19.126 -17.289 -0 -1.2 0
16.926 -19.542 -17.063 -0 -1.2 0
16.696 -19.952 -16.833 -0 -1.2 0
16.461 -20.357 -16.598 -0 -1.2 0
16.222 -20.755 -16.356 -0 -1.2 0
15.977 -21.147 -16.112 -0 -1.2 0
15.727 -21.534 -15.861 -0 -1.2 0
15.473 -21.914 -15.606 -0 -1.2 0
15.214 -22.289 -15.347 -0 -1.2 0
19.912 -8.841 -21.566 -0 -1.2 0
19.818 -9.346 -21.463 -0 -1.2 0
19.718 -9.848 -21.354 -0 -1.2 0
19.612 -10.347 -21.238 -0 -1.2 0
19.5 -10.845 -21.116 -0 -1.2 0
19.382 -11.338 -20.987 -0 -1.2 0
19.259 -11.829 -20.852 -0 -1.2 0
19.129 -12.316 -20.711 -0 -1.2 0
18.994 -12.799 -20.565 -0 -1.2 0
18.852 -13.28 -20.411 -0 -1.2 0
18.705 -13.757 -20.252 -0 -1.2 0
18.553 -14.23 -20.087 -0 -1.2 0
18.394 -14.698 -19.915 -0 -1.2 0
18.231 -15.163 -19.738 -0 -1.2 0
18.062 -15.623 -19.554 -0 -1.2 0
17.886 -16.079 -19.365 -0 -1.2 0
17.706 -16.531 -19.17 -0 -1.2 0
17.52 -16.977 -18.969 -0 -1.2 0
17.33 -17.419 -18.763 -0 -1.2 0
17.134 -17.855 -18.552 -0 -1.2 0
16.933 -18.288 -18.334 -0 -1.2 0
16.726 -18.714 -18.112 -0 -1.2 0
16.515 -19.135 -17.883 -0 -1.2 0
16.298 -19.55 -17.65 -0 -1.2 0
16.077 -19.961 -17.411 -0 -1.2 0
15.85 -20.365 -17.168 -0 -1.2 0
15.619 -20.763 -16.918 -0 -1.2 0
15.383 -21.155 -16.665 -0 -1.2 0
15.143 -21.542 -16.405 -0 -1.2 0
14.898 -21.922 -16.141 -0 -1.2 0
14.648 -22.296 -15.873 -0 -1.2 0
19.064 -8.851 -22.308 -0 -1.2 0
18.974 -9.356 -22.202 -0 -1.2 0
18.878 -9.858 -22.089 -0 -1.2 0
18.776 -10.357 -21.97 -0 -1.2 0
18.668 -10.854 -21.843 -0 -1.2 0
18.555 -11.347 -21.71 -0 -1.2 0
18.436 -11.838 -21.57 -0 -1.2 0
18.312 -12.325 -21.425 -0 -1.2 0
18.182 -12.808 -21.272 -0 -1.2 0
18.046 -13.289 -21.114 -0 -1.2 0
17.905 -13.765 -20.949 -0 -1.2 0
17.759 -14.238 -20.779 -0 -1.2 0
17.607 -14.707 -20.6 -0 -1.2 0
17.45 -15.172 -20.417 -0 -1.2 0
17.287 -15.632 -20.227 -0 -1.2 0
17.12 -16.088 -20.032 -0 -1.2 0
16.947 -16.539 -19.831 -0 -1.2 0
16.769 -16.985 -19.623 -0 -1.2 0
16.586 -17.427 -19.41 -0 -1.2 0
16.398 -17.863 -19.191 -0 -1.2 0
16.204 -18.296 -18.966 -0 -1.2 0
16.006 -18.722 -18.735 -0 -1.2 0
15.803 -19.143 -18.499 -0 -1.2 0
15.596 -19.558 -18.258 -0 -1.2 0
15.384 -19.968 -18.01 -0 -1.2 0
15.167 -20.372 -17.758 -0 -1.2 0
14.946 -20.77 -17.501 -0 -1.2 0
14.719 -21.163 -17.238 -0 -1.2 0
14.489 -21.549 -16.97 -0 -1.2 0
14.253 -21.929 -16.696 -0 -1.2 0
14.014 -22.303 -16.419 -0 -1.2 0
18.25 -8.858 -22.969 -0 -1.2 0
18.163 -9.363 -22.858 -0 -1.2 0
18.071 -9.865 -22.742 -0 -1.2 0
17.973 -10.364 -22.62 -0 -1.2 0
17.87 -10.861 -22.489 -0 -1.2 0
17.761 -11.354 -22.352 -0 -1.2 0
17.647 -11.845 -22.209 -0 -1.2 0
17.528 -12.332 -22.059 -0 -1.2 0
17.403 -12.815 -21.903 -0 -1.2 0
17.272 -13.296 -21.74 -0 -1.2 0
17.137 -13.772 -21.57 -0 -1.2 0
16.997 -14.245 -21.393 -0 -1.2 0
16.851 -14.713 -21.211 -0 -1.2 0
16.7 -15.178 -21.022 -0 -1.2 0
16.545 -15.638 -20.827 -0 -1.2 0
16.384 -16.094 -20.625 -0 -1.2 0
16.218 -16.545 -20.418 -0 -1.2 0
16.047 -16.991 -20.204 -0 -1.2 0
15.872 -17.433 -19.985 -0 -1.2 0
15.691 -17.87 -19.759 -0 -1.2 0
15.507 -18.302 -19.528 -0 -1.2 0
15.317 -18.728 -19.289 -0 -1.2 0
15.122 -19.149 -19.046 -0 -1.2 0
14.922 -19.564 -18.798 -0 -1.2 0
14.719 -19.974 -18.544 -0 -1.2 0
14.511 -20.378 -18.284 -0 -1.2 0
14.298 -20.776 -18.018 -0 -1.2 0
14.081 -21.168 -17.748 -0 -1.2 0
13.86 -21.554 -17.471 -0 -1.2 0
13.635 -21.934 -17.19 -0 -1.2 0
13.406 -22.308 -16.904 -0 -1.2 0
17.409 -8.863 -23.6 -0 -1.2 0
17.326 -9.368 -23.488 -0 -1.2 0
17.237 -9.87 -23.368 -0 -1.2 0
17.144 -10.369 -23.242 -0 -1.2 0
17.045 -10.866 -23.108 -0 -1.2 0
16.941 -11.359 -22.968 -0 -1.2 0
16.832 -11.85 -22.821 -0 -1.2 0
16.717 -12.337 -22.667 -0 -1.2 0
16.598 -12.82 -22.505 -0 -1.2 0
16.473 -13.301 -22.338 -0 -1.2 0
16.344 -13.777 -22.163 -0 -1.2 0
16.21 -14.25 -21.982 -0 -1.2 0
16.07 -14.718 -21.795 -0 -1.2 0
15.926 -15.183 -21.601 -0 -1.2 0
15.777 -15.643 -21.401 -0 -1.2 0
15.623 -16.099 -21.193 -0 -1.2 0
15.465 -16.55 -20.98 -0 -1.2 0
15.301 -16.997 -20.761 -0 -1.2 0
15.134 -17.439 -20.535 -0 -1.2 0
14.961 -17.875 -20.303 -0 -1.2 0
14.784 -18.307 -20.065 -0 -1.2 0
14.602 -18.733 -19.822 -0 -1.2 0
14.417 -19.154 -19.571 -0 -1.2 0
14.227 -19.569 -19.316 -0 -1.2 0
14.032 -19.979 -19.054 -0 -1.2 0
13.834 -20.383 -18.787 -0 -1.2 0
13.63 -20.781 -18.514 -0 -1.2 0
13.423 -21.173 -18.236 -0 -1.2 0
13.212 -21.559 -17.952 -0 -1.2 0
12.996 -21.939 -17.664 -0 -1.2 0
12.777 -22.313 -17.369 -0 -1.2 0
16.503 -8.867 -24.233 -0 -1.2 0
16.423 -9.372 -24.117 -0 -1.2 0
16.339 -9.874 -23.995 -0 -1.2 0
16.25 -10.373 -23.865 -0 -1.2 0
16.156 -10.87 -23.728 -0 -1.2 0
16.057 -11.363 -23.585 -0 -1.2 0
15.953 -11.854 -23.433 -0 -1.2 0
15.844 -12.341 -23.274 -0 -1.2 0
15.731 -12.824 -23.11 -0 -1.2 0
15.612 -13.305 -22.938 -0 -1.2 0
15.489 -13.781 -22.758 -0 -1.2 0
15.361 -14.254 -22.572 -0 -1.2 0
15.229 -14.722 -22.38 -0 -1.2 0
15.091 -15.187 -22.181 -0 -1.2 0
14.95 -15.647 -21.975 -0 -1.2 0
14.804 -16.103 -21.762 -0 -1.2 0
14.653 -16.554 -21.544 -0 -1.2 0
14.499 -17 -21.318 -0 -1.2 0
14.339 -17.442 -21.086 -0 -1.2 0
14.175 -17.878 -20.848 -0 -1.2 0
14.007 -18.31 -20.604 -0 -1.2 0
13.834 -18.736 -20.354 -0 -1.2 0
13.658 -19.157 -20.097 -0 -1.2 0
13.478 -19.572 -19.834 -0 -1.2 0
13.292 -19.982 -19.565 -0 -1.2 0
13.103 -20.386 -19.291 -0 -1.2 0
12.911 -20.784 -19.011 -0 -1.2 0
12.714 -21.175 -18.725 -0 -1.2 0
12.514 -21.561 -18.434 -0 -1.2 0
12.309 -21.941 -18.136 -0 -1.2 0
12.101 -22.315 -17.834 -0 -1.2 0
15.726 -8.363 -24.887 -0 -1.2 0
15.655 -8.87 -24.776 -0 -1.2 0
15.58 -9.374 -24.658 -0 -1.2 0
15.499 -9.876 -24.533 -0 -1.2 0
15.415 -10.375 -24.401 -0 -1.2 0
15.325 -10.872 -24.261 -0 -1.2 0
15.231 -11.365 -24.113 -0 -1.2 0
15.132 -11.856 -23.958 -0 -1.2 0
15.028 -12.343 -23.797 -0 -1.2 0
14.92 -12.826 -23.628 -0 -1.2 0
14.808 -13.307 -23.453 -0 -1.2 0
14.69 -13.783 -23.269 -0 -1.2 0
14.568 -14.256 -23.079 -0 -1.2 0
14.443 -14.724 -22.883 -0 -1.2 0
14.312 -15.189 -22.679 -0 -1.2 0
14.178 -15.649 -22.468 -0 -1.2 0
14.039 -16.105 -22.251 -0 -1.2 0
13.895 -16.556 -22.027 -0 -1.2 0
13.748 -17.002 -21.796 -0 -1.2 0
13.596 -17.444 -21.56 -0 -1.2 0
13.44 -17.88 -21.316 -0 -1.2 0
13.28 -18.312 -21.066 -0 -1.2 0
13.116 -18.738 -20.81 -0 -1.2 0
12.948 -19.158 -20.547 -0 -1.2 0
12.777 -19.573 -20.279 -0 -1.2 0
12.601 -19.983 -20.004 -0 -1.2 0
12.421 -20.387 -19.723 -0 -1.2 0
12.238 -20.785 -19.437 -0 -1.2 0
12.051 -21.177 -19.145 -0 -1.2 0
11.861 -21.563 -18.847 -0 -1.2 0
11.667 -21.943 -18.543 -0 -1.2 0
11.468 -22.317 -18.234 -0 -1.2 0
14.918 -7.855 -25.509 -0 -1.2 0
14.856 -8.364 -25.403 -0 -1.2 0
14.789 -8.871 -25.291 -0 -1.2 0
14.717 -9.375 -25.171 -0 -1.2 0
14.641 -9.877 -25.043 -0 -1.2 0
14.56 -10.376 -24.907 -0 -1.2 0
14.475 -10.873 -24.765 -0 -1.2 0
14.385 -11.366 -24.614 -0 -1.2 0
14.291 -11.857 -24.457 -0 -1.2 0
14.193 -12.344 -24.291 -0 -1.2 0
14.091 -12.827 -24.12 -0 -1.2 0
13.984 -13.308 -23.94 -0 -1.2 0
13.873 -13.784 -23.754 -0 -1.2 0
13.757 -14.257 -23.559 -0 -1.2 0
13.639 -14.725 -23.359 -0 -1.2 0
13.515 -15.19 -23.151 -0 -1.2 0
13.387 -15.65 -22.935 -0 -1.2 0
13.255 -16.106 -22.714 -0 -1.2 0
13.12 -16.557 -22.485 -0 -1.2 0
12.979 -17.003 -22.25 -0 -1.2 0
12.836 -17.445 -22.008 -0 -1.2 0
12.689 -17.881 -21.76 -0 -1.2 0
12.537 -18.312 -21.504 -0 -1.2 0
12.382 -18.738 -21.242 -0 -1.2 0
12.223 -19.159 -20.975 -0 -1.2 0
12.061 -19.574 -20.7 -0 -1.2 0
11.894 -19.984 -20.42 -0 -1.2 0
11.725 -20.388 -20.134 -0 -1.2 0
11.551 -20.786 -19.84 -0 -1.2 0
11.374 -21.178 -19.542 -0 -1.2 0
11.193 -21.564 -19.238 -0 -1.2 0
11.009 -21.944 -18.928 -0 -1.2 0
10.822 -22.318 -18.612 -0 -1.2 0
13.975 -7.856 -26.025 -0 -1.2 0
13.916 -8.365 -25.917 -0 -1.2 0
13.854 -8.872 -25.802 -0 -1.2 0
13.786 -9.377 -25.68 -0 -1.2 0
13.715 -9.879 -25.549 -0 -1.2 0
13.639 -10.378 -25.411 -0 -1.2 0
13.559 -10.875 -25.265 -0 -1.2 0
13.475 -11.368 -25.112 -0 -1.2 0
13.386 -11.859 -24.951 -0 -1.2 0
13.294 -12.346 -24.782 -0 -1.2 0
13.198 -12.829 -24.606 -0 -1.2 0
13.098 -13.31 -24.423 -0 -1.2 0
12.994 -13.785 -24.232 -0 -1.2 0
12.886 -14.258 -24.034 -0 -1.2 0
12.774 -14.726 -23.829 -0 -1.2 0
12.658 -15.191 -23.617 -0 -1.2 0
12.538 -15.651 -23.398 -0 -1.2 0
12.415 -16.107 -23.171 -0 -1.2 0
12.288 -16.558 -22.938 -0 -1.2 0
12.157 -17.004 -22.698 -0 -1.2 0
12.022 -17.446 -22.45 -0 -1.2 0
11.883 -17.882 -22.196 -0 -1.2 0
11.742 -18.314 -21.936 -0 -1.2 0
11.596 -18.74 -21.668 -0 -1.2 0
11.447 -19.161 -21.395 -0 -1.2 0
11.294 -19.575 -21.115 -0 -1.2 0
11.138 -19.985 -20.828 -0 -1.2 0
10.979 -20.389 -20.536 -0 -1.2 0
10.816 -20.787 -20.237 -0 -1.2 0
10.651 -21.179 -19.932 -0 -1.2 0
10.481 -21.565 -19.622 -0 -1.2 0
10.309 -21.945 -19.305 -0 -1.2 0
10.133 -22.319 -18.983 -0 -1.2 0
13.112 -7.346 -26.584 -0 -1.2 0
13.06 -7.857 -26.482 -0 -1.2 0
13.005 -8.366 -26.373 -0 -1.2 0
12.946 -8.873 -26.256 -0 -1.2 0
12.883 -9.378 -26.131 -0 -1.2 0
12.816 -9.88 -25.998 -0 -1.2 0
12.745 -10.379 -25.857 -0 -1.2 0
12.67 -10.876 -25.708 -0 -1.2 0
12.591 -11.369 -25.552 -0 -1.2 0
12.509 -11.86 -25.389 -0 -1.2 0
12.423 -12.347 -25.216 -0 -1.2 0
12.333 -12.83 -25.037 -0 -1.2 0
12.239 -13.311 -24.851 -0 -1.2 0
12.141 -13.787 -24.657 -0 -1.2 0
12.04 -14.26 -24.455 -0 -1.2 0
11.936 -14.727 -24.246 -0 -1.2 0
11.827 -15.192 -24.03 -0 -1.2 0
11.715 -15.652 -23.807 -0 -1.2 0
11.599 -16.108 -23.576 -0 -1.2 0
11.48 -16.559 -23.338 -0 -1.2 0
11.358 -17.005 -23.094 -0 -1.2 0
11.231 -17.447 -22.842 -0 -1.2 0
11.102 -17.883 -22.584 -0 -1.2 0
10.969 -18.315 -22.318 -0 -1.2 0
10.833 -18.741 -22.046 -0 -1.2 0
10.694 -19.162 -21.767 -0 -1.2 0
10.551 -19.576 -21.482 -0 -1.2 0
10.405 -19.986 -21.191 -0 -1.2 0
10.256 -20.39 -20.893 -0 -1.2 0
10.103 -20.788 -20.589 -0 -1.2 0
9.949 -21.18 -20.278 -0 -1.2 0
9.79 -21.566 -19.962 -0 -1.2 0
9.629 -21.946 -19.639 -0 -1.2 0
9.465 -22.32 -19.311 -0 -1.2 0
12.163 -7.347 -27.017 -0 -1.2 0
12.115 -7.858 -26.914 -0 -1.2 0
12.063 -8.367 -26.803 -0 -1.2 0
12.008 -8.874 -26.684 -0 -1.2 0
11.949 -9.379 -26.557 -0 -1.2 0
11.887 -9.881 -26.422 -0 -1.2 0
11.821 -10.38 -26.278 -0 -1.2 0
11.751 -10.877 -26.128 -0 -1.2 0
11.679 -11.37 -25.968 -0 -1.2 0
11.602 -11.861 -25.801 -0 -1.2 0
11.522 -12.348 -25.627 -0 -1.2 0
11.438 -12.831 -25.445 -0 -1.2 0
11.351 -13.311 -25.255 -0 -1.2 0
11.26 -13.787 -25.058 -0 -1.2 0
11.166 -14.26 -24.853 -0 -1.2 0
11.069 -14.728 -24.64 -0 -1.2 0
10.968 -15.193 -24.42 -0 -1.2 0
10.863 -15.653 -24.192 -0 -1.2 0
10.756 -16.109 -23.958 -0 -1.2 0
10.645 -16.56 -23.716 -0 -1.2 0
10.531 -17.006 -23.467 -0 -1.2 0
10.414 -17.448 -23.212 -0 -1.2 0
10.294 -17.883 -22.949 -0 -1.2 0
10.17 -18.315 -22.679 -0 -1.2 0
10.044 -18.741 -22.402 -0 -1.2 0
9.915 -19.162 -22.119 -0 -1.2 0
9.783 -19.577 -21.829 -0 -1.2 0
9.647 -19.987 -21.532 -0 -1.2 0
9.509 -20.391 -21.229 -0 -1.2 0
9.367 -20.789 -20.92 -0 -1.2 0
9.223 -21.181 -20.604 -0 -1.2 0
9.076 -21.566 -20.282 -0 -1.2 0
8.926 -21.946 -19.953 -0 -1.2 0
8.774 -22.32 -19.62 -0 -1.2 0
11.125 -7.348 -27.446 -0 -1.2 0
11.081 -7.859 -27.341 -0 -1.2 0
11.034 -8.367 -27.229 -0 -1.2 0
10.983 -8.874 -27.107 -0 -1.2 0
10.929 -9.379 -26.978 -0 -1.2 0
10.872 -9.881 -26.841 -0 -1.2 0
10.812 -10.38 -26.695 -0 -1.2 0
10.747 -10.877 -26.541 -0 -1.2 0
10.681 -11.37 -26.38 -0 -1.2 0
10.61 -11.861 -26.21 -0 -1.2 0
10.536 -12.348 -26.033 -0 -1.2 0
10.46 -12.831 -25.848 -0 -1.2 0
10.38 -13.312 -25.655 -0 -1.2 0
10.297 -13.788 -25.453 -0 -1.2 0
10.211 -14.261 -25.245 -0 -1.2 0
10.121 -14.729 -25.029 -0 -1.2 0
10.029 -15.193 -24.805 -0 -1.2 0
9.933 -15.653 -24.575 -0 -1.2 0
9.835 -16.109 -24.336 -0 -1.2 0
9.734 -16.56 -24.09 -0 -1.2 0
9.629 -17.006 -23.837 -0 -1.2 0
9.522 -17.448 -23.577 -0 -1.2 0
9.412 -17.884 -23.31 -0 -1.2 0
9.299 -18.316 -23.036 -0 -1.2 0
9.182 -18.742 -22.754 -0 -1.2 0
9.064 -19.162 -22.466 -0 -1.2 0
8.942 -19.577 -22.171 -0 -1.2 0
8.819 -19.987 -21.87 -0 -1.2 0
8.692 -20.391 -21.561 -0 -1.2 0
8.562 -20.789 -21.247 -0 -1.2 0
8.43 -21.181 -20.925 -0 -1.2 0
8.295 -21.567 -20.598 -0 -1.2 0
8.158 -21.947 -20.265 -0 -1.2 0
8.019 -22.32 -19.925 -0 -1.2 0
10.182 -6.835 -27.906 -0 -1.2 0
10.145 -7.348 -27.809 -0 -1.2 0
10.105 -7.858 -27.703 -0 -1.2 0
10.062 -8.367 -27.588 -0 -1.2 0
10.015 -8.874 -27.465 -0 -1.2 0
9.966 -9.379 -27.334 -0 -1.2 0
9.913 -9.881 -27.195 -0 -1.2 0
9.857 -10.38 -27.047 -0 -1.2 0
9.799 -10.877 -26.891 -0 -1.2 0
9.738 -11.37 -26.727 -0 -1.2 0
9.673 -11.861 -26.555 -0 -1.2 0
9.606 -12.348 -26.375 -0 -1.2 0
9.536 -12.831 -26.188 -0 -1.2 0
9.463 -13.312 -25.992 -0 -1.2 0
9.387 -13.788 -25.789 -0 -1.2 0
9.308 -14.261 -25.577 -0 -1.2 0
9.226 -14.729 -25.358 -0 -1.2 0
9.142 -15.193 -25.131 -0 -1.2 0
9.055 -15.653 -24.897 -0 -1.2 0
8.965 -16.109 -24.655 -0 -1.2 0
8.872 -16.56 -24.406 -0 -1.2 0
8.777 -17.006 -24.15 -0 -1.2 0
8.679 -17.448 -23.885 -0 -1.2 0
8.578 -17.884 -23.614 -0 -1.2 0
8.475 -18.316 -23.337 -0 -1.2 0
8.369 -18.742 -23.051 -0 -1.2 0
8.261 -19.162 -22.759 -0 -1.2 0
8.149 -19.577 -22.46 -0 -1.2 0
8.036 -19.987 -22.155 -0 -1.2 0
7.921 -20.391 -21.841 -0 -1.2 0
7.802 -20.789 -21.523 -0 -1.2 0
7.682 -21.181 -21.197 -0 -1.2 0
7.559 -21.567 -20.866 -0 -1.2 0
7.433 -21.947 -20.528 -0 -1.2 0
7.306 -22.32 -20.183 -0 -1.2 0
9.199 -6.834 -28.229 -0 -1.2 0
9.165 -7.347 -28.13 -0 -1.2 0
9.129 -7.858 -28.023 -0 -1.2 0
9.089 -8.367 -27.907 -0 -1.2 0
9.047 -8.874 -27.783 -0 -1.2 0
9.002 -9.379 -27.65 -0 -1.2 0
8.954 -9.881 -27.509 -0 -1.2 0
8.904 -10.38 -27.359 -0 -1.2 0
8.852 -10.877 -27.201 -0 -1.2 0
8.795 -11.37 -27.036 -0 -1.2 0
8.737 -11.861 -26.862 -0 -1.2 0
8.676 -12.348 -26.68 -0 -1.2 0
8.612 -12.831 -26.489 -0 -1.2 0
8.546 -13.312 -26.291 -0 -1.2 0
8.477 -13.787 -26.085 -0 -1.2 0
8.406 -14.26 -25.871 -0 -1.2 0
8.332 -14.728 -25.649 -0 -1.2 0
8.255 -15.193 -25.42 -0 -1.2 0
8.176 -15.653 -25.183 -0 -1.2 0
8.094 -16.109 -24.938 -0 -1.2 0
8.011 -16.56 -24.685 -0 -1.2 0
7.924 -17.006 -24.425 -0 -1.2 0
7.836 -17.448 -24.159 -0 -1.2 0
7.744 -17.884 -23.884 -0 -1.2 0
7.65 -18.315 -23.602 -0 -1.2 0
7.554 -18.741 -23.314 -0 -1.2 0
7.456 -19.162 -23.018 -0 -1.2 0
7.356 -19.577 -22.716 -0 -1.2 0
7.253 -19.987 -22.406 -0 -1.2 0
7.148 -20.391 -22.09 -0 -1.2 0
7.042 -20.789 -21.767 -0 -1.2 0
6.933 -21.181 -21.438 -0 -1.2 0
6.821 -21.566 -21.101 -0 -1.2 0
6.708 -21.946 -20.759 -0 -1.2 0
6.593 -22.32 -20.411 -0 -1.2 0
8.137 -6.833 -28.539 -0 -1.2 0
8.106 -7.346 -28.439 -0 -1.2 0
8.074 -7.857 -28.33 -0 -1.2 0
8.039 -8.366 -28.213 -0 -1.2 0
8.001 -8.873 -28.087 -0 -1.2 0
7.961 -9.378 -27.953 -0 -1.2 0
7.918 -9.88 -27.81 -0 -1.2 0
7.874 -10.379 -27.66 -0 -1.2 0
7.827 -10.876 -27.499 -0 -1.2 0
7.778 -11.369 -27.332 -0 -1.2 0
7.725 -11.86 -27.156 -0 -1.2 0
7.671 -12.347 -26.972 -0 -1.2 0
7.614 -12.83 -26.779 -0 -1.2 0
7.556 -13.311 -26.578 -0 -1.2 0
7.495 -13.787 -26.37 -0 -1.2 0
7.431 -14.259 -26.154 -0 -1.2 0
7.365 -14.727 -25.929 -0 -1.2 0
7.297 -15.192 -25.697 -0 -1.2 0
7.227 -15.652 -25.457 -0 -1.2 0
7.155 -16.108 -25.21 -0 -1.2 0
7.08 -16.559 -24.954 -0 -1.2 0
7.004 -17.005 -24.692 -0 -1.2 0
6.925 -17.447 -24.421 -0 -1.2 0
6.844 -17.883 -24.144 -0 -1.2 0
6.761 -18.315 -23.859 -0 -1.2 0
6.676 -18.741 -23.567 -0 -1.2 0
6.589 -19.161 -23.268 -0 -1.2 0
6.499 -19.576 -22.962 -0 -1.2 0
6.409 -19.986 -22.648 -0 -1.2 0
6.316 -20.39 -22.328 -0 -1.2 0
6.221 -20.788 -22.002 -0 -1.2 0
6.124 -21.18 -21.669 -0 -1.2 0
6.026 -21.566 -21.329 -0 -1.2 0
5.925 -21.946 -20.982 -0 -1.2 0
5.823 -22.319 -20.63 -0 -1.2 0
7.29 -0.062 -29.303 -0 -1.2 0
7.164 -6.317 -28.882 -0 -1.2 0
7.139 -6.832 -28.789 -0 -1.2 0
7.112 -7.345 -28.688 -0 -1.2 0
7.084 -7.855 -28.578 -0 -1.2 0
7.052 -8.364 -28.46 -0 -1.2 0
7.019 -8.871 -28.334 -0 -1.2 0
6.984 -9.376 -28.198 -0 -1.2 0
6.946 -9.878 -28.054 -0 -1.2 0
6.905 -10.377 -27.901 -0 -1.2 0
6.864 -10.874 -27.74 -0 -1.2 0
6.82 -11.367 -27.571 -0 -1.2 0
6.774 -11.858 -27.394 -0 -1.2 0
6.726 -12.345 -27.207 -0 -1.2 0
6.676 -12.828 -27.013 -0 -1.2 0
6.623 -13.309 -26.811 -0 -1.2 0
6.57 -13.785 -26.601 -0 -1.2 0
6.514 -14.258 -26.382 -0 -1.2 0
6.455 -14.726 -26.156 -0 -1.2 0
6.395 -15.191 -25.921 -0 -1.2 0
6.333 -15.651 -25.679 -0 -1.2 0
6.27 -16.107 -25.43 -0 -1.2 0
6.204 -16.557 -25.172 -0 -1.2 0
6.135 -17.003 -24.907 -0 -1.2 0
6.066 -17.445 -24.634 -0 -1.2 0
5.995 -17.881 -24.354 -0 -1.2 0
5.921 -18.313 -24.066 -0 -1.2 0
5.847 -18.739 -23.771 -0 -1.2 0
5.769 -19.16 -23.469 -0 -1.2 0
5.69 -19.575 -23.16 -0 -1.2 0
5.611 -19.985 -22.844 -0 -1.2 0
5.529 -20.389 -22.522 -0 -1.2 0
5.445 -20.787 -22.192 -0 -1.2 0
5.36 -21.178 -21.856 -0 -1.2 0
5.273 -21.564 -21.513 -0 -1.2 0
5.184 -21.944 -21.163 -0 -1.2 0
5.094 -22.318 -20.807 -0 -1.2 0
6.156 -6.314 -29.097 -0 -1.2 0
6.134 -6.829 -29.004 -0 -1.2 0
6.11 -7.342 -28.902 -0 -1.2 0
6.084 -7.853 -28.792 -0 -1.2 0
6.057 -8.362 -28.673 -0 -1.2 0
6.028 -8.869 -28.545 -0 -1.2 0
5.996 -9.374 -28.408 -0 -1.2 0
5.963 -9.876 -28.263 -0 -1.2 0
5.929 -10.374 -28.109 -0 -1.2 0
5.892 -10.871 -27.947 -0 -1.2 0
5.854 -11.364 -27.777 -0 -1.2 0
5.814 -11.855 -27.597 -0 -1.2 0
5.772 -12.342 -27.41 -0 -1.2 0
5.728 -12.825 -27.215 -0 -1.2 0
5.683 -13.306 -27.01 -0 -1.2 0
5.636 -13.782 -26.798 -0 -1.2 0
5.588 -14.255 -26.579 -0 -1.2 0
5.537 -14.723 -26.351 -0 -1.2 0
5.485 -15.188 -26.114 -0 -1.2 0
5.431 -15.648 -25.87 -0 -1.2 0
5.375 -16.104 -25.618 -0 -1.2 0
5.318 -16.555 -25.359 -0 -1.2 0
5.259 -17.001 -25.092 -0 -1.2 0
5.199 -17.443 -24.816 -0 -1.2 0
5.138 -17.879 -24.534 -0 -1.2 0
5.073 -18.311 -24.244 -0 -1.2 0
5.009 -18.737 -23.947 -0 -1.2 0
4.942 -19.158 -23.643 -0 -1.2 0
4.874 -19.573 -23.332 -0 -1.2 0
4.804 -19.982 -23.012 -0 -1.2 0
4.734 -20.386 -22.687 -0 -1.2 0
4.661 -20.784 -22.355 -0 -1.2 0
4.587 -21.176 -22.016 -0 -1.2 0
4.513 -21.562 -21.67 -0 -1.2 0
4.436 -21.942 -21.318 -0 -1.2 0
4.358 -22.316 -20.959 -0 -1.2 0
5.217 -0.055 -29.71 -0 -1.2 0
5.208 -2.147 -29.711 -0 -1.2 0
5.131 -5.793 -29.368 -0 -1.2 0
5.114 -6.309 -29.284 -0 -1.2 0
5.095 -6.824 -29.19 -0 -1.2 0
5.075 -7.337 -29.088 -0 -1.2 0
5.053 -7.848 -28.976 -0 -1.2 0
5.029 -8.357 -28.856 -0 -1.2 0
5.004 -8.864 -28.727 -0 -1.2 0
4.978 -9.369 -28.59 -0 -1.2 0
4.949 -9.871 -28.445 -0 -1.2 0
4.92 -10.37 -28.289 -0 -1.2 0
4.889 -10.867 -28.126 -0 -1.2 0
4.857 -11.36 -27.954 -0 -1.2 0
4.823 -11.851 -27.774 -0 -1.2 0
4.787 -12.338 -27.586 -0 -1.2 0
4.751 -12.821 -27.388 -0 -1.2 0
4.712 -13.302 -27.183 -0 -1.2 0
4.672 -13.778 -26.97 -0 -1.2 0
4.631 -14.251 -26.748 -0 -1.2 0
4.588 -14.719 -26.519 -0 -1.2 0
4.544 -15.184 -26.281 -0 -1.2 0
4.499 -15.644 -26.035 -0 -1.2 0
4.453 -16.1 -25.781 -0 -1.2 0
4.405 -16.551 -25.52 -0 -1.2 0
4.355 -16.997 -25.251 -0 -1.2 0
4.305 -17.439 -24.974 -0 -1.2 0
4.252 -17.875 -24.69 -0 -1.2 0
4.199 -18.307 -24.398 -0 -1.2 0
4.145 -18.733 -24.099 -0 -1.2 0
4.088 -19.154 -23.793 -0 -1.2 0
4.032 -19.569 -23.479 -0 -1.2 0
3.973 -19.979 -23.158 -0 -1.2 0
3.914 -20.383 -22.83 -0 -1.2 0
3.852 -20.781 -22.496 -0 -1.2 0
3.791 -21.173 -22.155 -0 -1.2 0
3.728 -21.559 -21.807 -0 -1.2 0
3.664 -21.939 -21.451 -0 -1.2 0
3.598 -22.313 -21.09 -0 -1.2 0
4.231 -0.049 -29.849 -0 -1.2 0
4.153 -5.788 -29.507 -0 -1.2 0
4.138 -6.304 -29.422 -0 -1.2 0
4.122 -6.819 -29.327 -0 -1.2 0
4.104 -7.332 -29.225 -0 -1.2 0
4.086 -7.843 -29.113 -0 -1.2 0
4.067 -8.352 -28.992 -0 -1.2 0
4.045 -8.859 -28.864 -0 -1.2 0
4.024 -9.364 -28.725 -0 -1.2 0
4 -9.866 -28.578 -0 -1.2 0
3.976 -10.365 -28.422 -0 -1.2 0
3.95 -10.862 -28.259 -0 -1.2 0
3.922 -11.355 -28.086 -0 -1.2 0
3.895 -11.847 -27.905 -0 -1.2 0
3.865 -12.334 -27.716 -0 -1.2 0
3.834 -12.817 -27.517 -0 -1.2 0
3.802 -13.298 -27.311 -0 -1.2 0
3.769 -13.774 -27.096 -0 -1.2 0
3.735 -14.247 -26.874 -0 -1.2 0
3.7 -14.715 -26.643 -0 -1.2 0
3.664 -15.18 -26.403 -0 -1.2 0
3.626 -15.64 -26.157 -0 -1.2 0
3.588 -16.096 -25.901 -0 -1.2 0
3.548 -16.547 -25.639 -0 -1.2 0
3.508 -16.993 -25.369 -0 -1.2 0
3.466 -17.435 -25.09 -0 -1.2 0
3.424 -17.871 -24.805 -0 -1.2 0
3.38 -18.303 -24.512 -0 -1.2 0
3.334 -18.729 -24.21 -0 -1.2 0
3.289 -19.15 -23.903 -0 -1.2 0
3.242 -19.565 -23.588 -0 -1.2 0
3.194 -19.975 -23.265 -0 -1.2 0
3.145 -20.379 -22.936 -0 -1.2 0
3.096 -20.777 -22.6 -0 -1.2 0
3.044 -21.169 -22.256 -0 -1.2 0
2.993 -21.555 -21.906 -0 -1.2 0
2.941 -21.935 -21.55 -0 -1.2 0
2.887 -22.309 -21.187 -0 -1.2 0
3.177 -5.264 -29.69 -0 -1.2 0
3.166 -5.782 -29.613 -0 -1.2 0
3.155 -6.298 -29.528 -0 -1.2 0
3.141 -6.813 -29.433 -0 -1.2 0
3.127 -7.326 -29.33 -0 -1.2 0
3.112 -7.837 -29.217 -0 -1.2 0
3.096 -8.346 -29.097 -0 -1.2 0
3.079 -8.853 -28.966 -0 -1.2 0
3.061 -9.358 -28.828 -0 -1.2 0
3.043 -9.86 -28.681 -0 -1.2 0
3.022 -10.359 -28.524 -0 -1.2 0
3.002 -10.856 -28.36 -0 -1.2 0
2.981 -11.349 -28.186 -0 -1.2 0
2.958 -11.841 -28.005 -0 -1.2 0
2.935 -12.328 -27.814 -0 -1.2 0
2.91 -12.811 -27.616 -0 -1.2 0
2.885 -13.292 -27.409 -0 -1.2 0
2.859 -13.768 -27.193 -0 -1.2 0
2.832 -14.241 -26.97 -0 -1.2 0
2.804 -14.709 -26.737 -0 -1.2 0
2.775 -15.174 -26.498 -0 -1.2 0
2.746 -15.634 -26.25 -0 -1.2 0
2.716 -16.09 -25.994 -0 -1.2 0
2.685 -16.541 -25.73 -0 -1.2 0
2.653 -16.987 -25.458 -0 -1.2 0
2.62 -17.429 -25.179 -0 -1.2 0
2.587 -17.866 -24.892 -0 -1.2 0
2.553 -18.298 -24.598 -0 -1.2 0
2.518 -18.724 -24.296 -0 -1.2 0
2.481 -19.145 -23.987 -0 -1.2 0
2.445 -19.56 -23.671 -0 -1.2 0
2.407 -19.97 -23.346 -0 -1.2 0
2.369 -20.374 -23.016 -0 -1.2 0
2.331 -20.772 -22.679 -0 -1.2 0
2.292 -21.164 -22.334 -0 -1.2 0
2.251 -21.55 -21.983 -0 -1.2 0
2.21 -21.931 -21.624 -0 -1.2 0
2.168 -22.305 -21.26 -0 -1.2 0
2.119 -4.206 -29.796 -0 -1.2 0
2.115 -4.729 -29.778 -0 -1.2 0
2.111 -5.256 -29.769 -0 -1.2 0
2.102 -5.774 -29.693 -0 -1.2 0
2.093 -6.29 -29.608 -0 -1.2 0
2.083 -6.805 -29.512 -0 -1.2 0
2.072 -7.318 -29.409 -0 -1.2 0
2.06 -7.829 -29.296 -0 -1.2 0
2.049 -8.339 -29.175 -0 -1.2 0
2.036 -8.846 -29.044 -0 -1.2 0
2.023 -9.351 -28.906 -0 -1.2 0
2.009 -9.853 -28.758 -0 -1.2 0
1.995 -10.352 -28.601 -0 -1.2 0
1.98 -10.849 -28.437 -0 -1.2 0
1.965 -11.342 -28.262 -0 -1.2 0
1.948 -11.833 -28.08 -0 -1.2 0
1.931 -12.32 -27.889 -0 -1.2 0
1.914 -12.803 -27.69 -0 -1.2 0
1.896 -13.284 -27.483 -0 -1.2 0
1.877 -13.761 -27.266 -0 -1.2 0
1.858 -14.234 -27.042 -0 -1.2 0
1.838 -14.702 -26.809 -0 -1.2 0
1.818 -15.167 -26.569 -0 -1.2 0
1.797 -15.627 -26.319 -0 -1.2 0
1.776 -16.083 -26.063 -0 -1.2 0
1.754 -16.534 -25.799 -0 -1.2 0
1.732 -16.981 -25.526 -0 -1.2 0
1.709 -17.423 -25.246 -0 -1.2 0
1.685 -17.859 -24.958 -0 -1.2 0
1.661 -18.291 -24.663 -0 -1.2 0
1.637 -18.717 -24.36 -0 -1.2 0
1.612 -19.138 -24.05 -0 -1.2 0
1.587 -19.554 -23.732 -0 -1.2 0
1.561 -19.964 -23.408 -0 -1.2 0
1.534 -20.368 -23.076 -0 -1.2 0
1.507 -20.766 -22.737 -0 -1.2 0
1.48 -21.158 -22.392 -0 -1.2 0
1.452 -21.545 -22.039 -0 -1.2 0
1.424 -21.925 -21.681 -0 -1.2 0
1.395 -22.299 -21.314 -0 -1.2 0
1.153 0.496 -30.052 -0 -1.2 0
1.151 -0.027 -30.075 -0 -1.2 0
1.098 -5.766 -29.731 -0 -1.2 0
1.091 -6.282 -29.646 -0 -1.2 0
1.084 -6.797 -29.55 -0 -1.2 0
1.077 -7.31 -29.447 -0 -1.2 0
1.069 -7.821 -29.334 -0 -1.2 0
1.061 -8.33 -29.213 -0 -1.2 0
1.053 -8.837 -29.083 -0 -1.2 0
1.044 -9.342 -28.943 -0 -1.2 0
1.035 -9.844 -28.795 -0 -1.2 0
1.025 -10.344 -28.638 -0 -1.2 0
1.015 -10.841 -28.473 -0 -1.2 0
1.005 -11.334 -28.299 -0 -1.2 0
0.995 -11.825 -28.116 -0 -1.2 0
0.984 -12.312 -27.925 -0 -1.2 0
0.974 -12.795 -27.725 -0 -1.2 0
0.963 -13.277 -27.517 -0 -1.2 0
0.951 -13.753 -27.3 -0 -1.2 0
0.94 -14.226 -27.076 -0 -1.2 0
0.928 -14.694 -26.843 -0 -1.2 0
0.915 -15.159 -26.602 -0 -1.2 0
0.902 -15.62 -26.353 -0 -1.2 0
0.889 -16.076 -26.096 -0 -1.2 0
0.876 -16.527 -25.831 -0 -1.2 0
0.863 -16.973 -25.558 -0 -1.2 0
0.849 -17.415 -25.277 -0 -1.2 0
0.835 -17.852 -24.989 -0 -1.2 0
0.821 -18.284 -24.693 -0 -1.2 0
0.806 -18.71 -24.39 -0 -1.2 0
0.791 -19.131 -24.079 -0 -1.2 0
0.776 -19.547 -23.761 -0 -1.2 0
0.761 -19.957 -23.436 -0 -1.2 0
0.745 -20.361 -23.104 -0 -1.2 0
0.729 -20.76 -22.764 -0 -1.2 0
0.713 -21.152 -22.418 -0 -1.2 0
0.698 -21.538 -22.065 -0 -1.2 0
0.682 -21.918 -21.706 -0 -1.2 0
0.665 -22.293 -21.339 -0 -1.2 0
0.077 -6.729 -29.569 -0 -1.2 0
0.073 -7.242 -29.466 -0 -1.2 0
0.068 -7.753 -29.355 -0 -1.2 0
0.064 -8.263 -29.234 -0 -1.2 0
0.06 -8.77 -29.104 -0 -1.2 0
0.055 -9.276 -28.966 -0 -1.2 0
0.052 -9.778 -28.819 -0 -1.2 0
0.048 -10.278 -28.663 -0 -1.2 0
0.043 -10.775 -28.499 -0 -1.2 0
0.039 -11.269 -28.325 -0 -1.2 0
0.03 -12.248 -27.953 -0 -1.2 0
0.026 -12.731 -27.755 -0 -1.2 0
0.013 -14.163 -27.107 -0 -1.2 0
0.009 -14.632 -26.876 -0 -1.2 0
0.004 -15.098 -26.635 -0 -1.2 0
0 -15.559 -26.387 -0 -1.2 0
-0.003 -16.015 -26.13 -0 -1.2 0
-0.007 -16.467 -25.866 -0 -1.2 0
-0.012 -16.914 -25.594 -0 -1.2 0
-0.017 -17.357 -25.315 -0 -1.2 0
-0.02 -17.794 -25.027 -0 -1.2 0
-0.025 -18.227 -24.731 -0 -1.2 0
-0.03 -18.654 -24.429 -0 -1.2 0
-0.033 -19.076 -24.119 -0 -1.2 0
-0.038 -19.492 -23.801 -0 -1.2 0
-0.043 -19.903 -23.477 -0 -1.2 0
-0.047 -20.308 -23.145 -0 -1.2 0
-0.051 -20.707 -22.806 -0 -1.2 0
-0.055 -21.1 -22.461 -0 -1.2 0
-0.06 -21.487 -22.108 -0 -1.2 0
-0.064 -21.868 -21.749 -0 -1.2 0
-0.068 -22.243 -21.383 -0 -1.2 0
-1.017 -7.194 -29.444 -0 -1.2 0
-1.017 -7.706 -29.333 -0 -1.2 0
-1.017 -8.215 -29.213 -0 -1.2 0
-1.016 -8.723 -29.085 -0 -1.2 0
-1.015 -9.228 -28.947 -0 -1.2 0
-1.014 -9.731 -28.8 -0 -1.2 0
-1.012 -10.231 -28.645 -0 -1.2 0
-1.01 -10.729 -28.482 -0 -1.2 0
-0.996 -13.168 -27.534 -0 -1.2 0
-0.992 -13.645 -27.319 -0 -1.2 0
-0.988 -14.119 -27.096 -0 -1.2 0
-0.984 -14.588 -26.864 -0 -1.2 0
-0.979 -15.054 -26.625 -0 -1.2 0
-0.974 -15.516 -26.377 -0 -1.2 0
-0.969 -15.973 -26.122 -0 -1.2 0
-0.964 -16.425 -25.859 -0 -1.2 0
-0.958 -16.872 -25.587 -0 -1.2 0
-0.952 -17.316 -25.308 -0 -1.2 0
-0.945 -17.753 -25.021 -0 -1.2 0
-0.938 -18.186 -24.727 -0 -1.2 0
-0.931 -18.614 -24.425 -0 -1.2 0
-0.924 -19.036 -24.115 -0 -1.2 0
-0.917 -19.453 -23.798 -0 -1.2 0
-0.909 -19.864 -23.474 -0 -1.2 0
-0.901 -20.27 -23.143 -0 -1.2 0
-0.892 -20.67 -22.806 -0 -1.2 0
-0.884 -21.063 -22.461 -0 -1.2 0
-0.875 -21.451 -22.108 -0 -1.2 0
-0.866 -21.833 -21.75 -0 -1.2 0
-0.856 -22.208 -21.385 -0 -1.2 0
-2.086 -8.212 -29.14 -0 -1.2 0
-2.074 -9.226 -28.875 -0 -1.2 0
-2.059 -10.228 -28.573 -0 -1.2 0
-2.032 -11.712 -28.057 -0 -1.2 0
-2.023 -12.2 -27.868 -0 -1.2 0
-2.012 -12.683 -27.671 -0 -1.2 0
-2 -13.165 -27.465 -0 -1.2 0
-1.989 -13.643 -27.25 -0 -1.2 0
-1.976 -14.117 -27.027 -0 -1.2 0
-1.963 -14.586 -26.796 -0 -1.2 0
-1.949 -15.052 -26.557 -0 -1.2 0
-1.92 -15.97 -26.054 -0 -1.2 0
-1.904 -16.423 -25.791 -0 -1.2 0
-1.888 -16.87 -25.52 -0 -1.2 0
-1.871 -17.313 -25.241 -0 -1.2 0
-1.855 -17.751 -24.955 -0 -1.2 0
-1.837 -18.184 -24.661 -0 -1.2 0
-1.818 -18.612 -24.36 -0 -1.2 0
-1.799 -19.034 -24.051 -0 -1.2 0
-1.78 -19.451 -23.735 -0 -1.2 0
-1.76 -19.862 -23.412 -0 -1.2 0
-1.74 -20.268 -23.081 -0 -1.2 0
-1.718 -20.668 -22.744 -0 -1.2 0
-1.697 -21.061 -22.4 -0 -1.2 0
-1.675 -21.449 -22.048 -0 -1.2 0
-1.652 -21.831 -21.69 -0 -1.2 0
-1.63 -22.206 -21.326 -0 -1.2 0
-3.178 -8.718 -28.897 -0 -1.2 0
-3.124 -10.724 -28.297 -0 -1.2 0
-3.108 -11.218 -28.125 -0 -1.2 0
-3.092 -11.71 -27.945 -0 -1.2 0
-3.056 -12.682 -27.56 -0 -1.2 0
-3.037 -13.164 -27.354 -0 -1.2 0
-3.015 -13.641 -27.14 -0 -1.2 0
-2.949 -15.05 -26.45 -0 -1.2 0
-2.926 -15.511 -26.203 -0 -1.2 0
-2.9 -15.969 -25.949 -0 -1.2 0
-2.874 -16.421 -25.686 -0 -1.2 0
-2.848 -16.868 -25.416 -0 -1.2 0
-2.821 -17.312 -25.138 -0 -1.2 0
-2.792 -17.749 -24.853 -0 -1.2 0
-2.763 -18.183 -24.56 -0 -1.2 0
-2.733 -18.61 -24.259 -0 -1.2 0
-2.702 -19.033 -23.952 -0 -1.2 0
-2.67 -19.449 -23.636 -0 -1.2 0
-2.638 -19.861 -23.314 -0 -1.2 0
-2.605 -20.266 -22.985 -0 -1.2 0
-2.57 -20.666 -22.649 -0 -1.2 0
-2.536 -21.06 -22.305 -0 -1.2 0
-2.5 -21.448 -21.956 -0 -1.2 0
-2.463 -21.829 -21.599 -0 -1.2 0
-4.202 -12.197 -27.59 -0 -1.2 0
-4.055 -14.583 -26.528 -0 -1.2 0
-4.022 -15.049 -26.29 -0 -1.2 0
-3.987 -15.511 -26.045 -0 -1.2 0
-3.951 -15.968 -25.793 -0 -1.2 0
-3.915 -16.42 -25.531 -0 -1.2 0
-3.877 -16.868 -25.262 -0 -1.2 0
-3.838 -17.311 -24.986 -0 -1.2 0
-3.798 -17.748 -24.702 -0 -1.2 0
-3.756 -18.182 -24.411 -0 -1.2 0
-3.714 -18.609 -24.112 -0 -1.2 0
-3.625 -19.449 -23.492 -0 -1.2 0
-3.579 -19.86 -23.171 -0 -1.2 0
-3.532 -20.266 -22.843 -0 -1.2 0
-3.484 -20.665 -22.509 -0 -1.2 0
-3.435 -21.059 -22.167 -0 -1.2 0
-3.385 -21.447 -21.819 -0 -1.2 0
-5.276 -11.709 -27.583 -0 -1.2 0
-4.777 -17.311 -24.808 -0 -1.2 0
-4.725 -17.749 -24.526 -0 -1.2 0
-4.673 -18.182 -24.236 -0 -1.2 0
-4.506 -19.449 -23.323 -0 -1.2 0
-4.448 -19.861 -23.005 -0 -1.2 0
-4.388 -20.266 -22.679 -0 -1.2 0
-4.265 -21.06 -22.008 -0 -1.2 0
-6.469 -9.728 -28.001 -0 -1.2 0
-5.591 -18.184 -24.024 -0 -1.2 0
-5.458 -19.034 -23.427 -0 -1.2 0
-5.318 -19.862 -22.802 -0 -1.2 0
-5.245 -20.268 -22.479 -0 -1.2 0
-7.644 -9.228 -27.838 -0 -1.2 0
-7.608 -9.73 -27.697 -0 -1.2 0
-6.638 -17.753 -24.043 -0 -1.2 0
-6.562 -18.186 -23.759 -0 -1.2 0
-6.153 -20.27 -22.23 -0 -1.2 0
-5.884 -21.451 -21.23 -0 -1.2 0
-6.573 -21.836 -20.634 -0 -1.2 0
-8.113 -19.047 -22.586 -0 -1.2 0
-7.902 -19.875 -21.981 -0 -1.2 0
-10.674 -9.75 -26.613 -0 -1.2 0
-8.74 -19.88 -21.643 -0 -1.2 0
-9.884 -18.636 -22.173 -0 -1.2 0
-12.469 -10.262 -25.615 -0 -1.2 0
-13.49 -9.211 -25.214 -0 -1.2 0
-13.285 -11.256 -24.805 -0 -1.2 0
-13.203 -11.748 -24.644 -0 -1.2 0
-13.116 -12.236 -24.474 -0 -1.2 0
-12.931 -13.201 -24.113 -0 -1.2 0
-12.514 -15.086 -23.303 -0 -1.2 0
-12.399 -15.547 -23.083 -0 -1.2 0
-12.16 -16.456 -22.621 -0 -1.2 0
-11.775 -17.783 -21.875 -0 -1.2 0
-14.216 -8.591 -24.432 -0 -1.2 0
-14.469 -9.266 -24.864 -0 -1.2 0
-14.397 -9.768 -24.735 -0 -1.2 0
-14.243 -10.765 -24.456 -0 -1.2 0
-14.159 -11.259 -24.304 -0 -1.2 0
-14.071 -11.751 -24.146 -0 -1.2 0
-13.979 -12.238 -23.979 -0 -1.2 0
-13.883 -12.722 -23.805 -0 -1.2 0
-13.454 -14.623 -23.039 -0 -1.2 0
-13.337 -15.089 -22.829 -0 -1.2 0
-11.114 -21.48 -18.887 -0 -1.2 0
-15.343 -9.268 -24.32 -0 -1.2 0
-15.268 -9.77 -24.194 -0 -1.2 0
-15.188 -10.27 -24.06 -0 -1.2 0
-15.104 -10.767 -23.919 -0 -1.2 0
-15.015 -11.261 -23.771 -0 -1.2 0
-14.824 -12.24 -23.452 -0 -1.2 0
-14.721 -12.724 -23.281 -0 -1.2 0
-14.143 -15.091 -22.325 -0 -1.2 0
-13.882 -16.008 -21.893 -0 -1.2 0
-13.307 -17.787 -20.95 -0 -1.2 0
-16.232 -9.263 -23.728 -0 -1.2 0
-16.154 -9.765 -23.605 -0 -1.2 0
-16.069 -10.265 -23.474 -0 -1.2 0
-15.979 -10.762 -23.336 -0 -1.2 0
-15.885 -11.256 -23.191 -0 -1.2 0
-15.786 -11.748 -23.038 -0 -1.2 0
-15.682 -12.235 -22.879 -0 -1.2 0
-15.574 -12.719 -22.713 -0 -1.2 0
-15.461 -13.201 -22.54 -0 -1.2 0
-15.342 -13.677 -22.36 -0 -1.2 0
-14.96 -15.086 -21.778 -0 -1.2 0
-14.824 -15.547 -21.571 -0 -1.2 0
