# .PCD v.7 - Point Cloud Data file format
FIELDS x y z vp_x vp_y vp_z
SIZE 4 4 4 4 4 4
TYPE F F F F F F
COUNT 1 1 1 1 1 1
WIDTH 1513
HEIGHT 1
VIEWPOINT 0 -1.20012 0 1 0 0 0
POINTS 1513
DATA ascii
-6.999 -8.4 28.192 -0 -1.2 0
-6.958 -8.906 28.067 -0 -1.2 0
-6.915 -9.411 27.932 -0 -1.2 0
-6.871 -9.913 27.79 -0 -1.2 0
-6.824 -10.411 27.639 -0 -1.2 0
-6.775 -10.908 27.479 -0 -1.2 0
-6.724 -11.401 27.31 -0 -1.2 0
-6.671 -11.891 27.134 -0 -1.2 0
-6.616 -12.378 26.949 -0 -1.2 0
-6.559 -12.861 26.756 -0 -1.2 0
-6.5 -13.341 26.555 -0 -1.2 0
-6.439 -13.817 26.346 -0 -1.2 0
-6.376 -14.29 26.128 -0 -1.2 0
-6.311 -14.757 25.903 -0 -1.2 0
-6.245 -15.222 25.67 -0 -1.2 0
-6.176 -15.681 25.429 -0 -1.2 0
-6.105 -16.137 25.18 -0 -1.2 0
-6.032 -16.587 24.923 -0 -1.2 0
-5.958 -17.033 24.66 -0 -1.2 0
-5.882 -17.474 24.388 -0 -1.2 0
-5.804 -17.91 24.108 -0 -1.2 0
-5.725 -18.341 23.823 -0 -1.2 0
-5.643 -18.767 23.529 -0 -1.2 0
-5.56 -19.187 23.228 -0 -1.2 0
-5.475 -19.602 22.92 -0 -1.2 0
-5.389 -20.011 22.605 -0 -1.2 0
-5.3 -20.415 22.283 -0 -1.2 0
-5.211 -20.812 21.954 -0 -1.2 0
-5.119 -21.204 21.619 -0 -1.2 0
-5.026 -21.589 21.277 -0 -1.2 0
-4.932 -21.968 20.929 -0 -1.2 0
-4.836 -22.342 20.574 -0 -1.2 0
-6.301 0.434 29.257 -0 -1.2 0
-6.095 -6.342 28.868 -0 -1.2 0
-6.065 -6.857 28.776 -0 -1.2 0
-6.034 -7.37 28.676 -0 -1.2 0
-6.001 -7.881 28.566 -0 -1.2 0
-5.967 -8.39 28.449 -0 -1.2 0
-5.931 -8.896 28.322 -0 -1.2 0
-5.892 -9.401 28.185 -0 -1.2 0
-5.852 -9.903 28.041 -0 -1.2 0
-5.81 -10.402 27.889 -0 -1.2 0
-5.767 -10.898 27.728 -0 -1.2 0
-5.722 -11.391 27.558 -0 -1.2 0
-5.675 -11.882 27.38 -0 -1.2 0
-5.625 -12.368 27.194 -0 -1.2 0
-5.575 -12.851 26.999 -0 -1.2 0
-5.523 -13.332 26.796 -0 -1.2 0
-5.469 -13.808 26.585 -0 -1.2 0
-5.414 -14.28 26.367 -0 -1.2 0
-5.356 -14.748 26.139 -0 -1.2 0
-5.298 -15.212 25.904 -0 -1.2 0
-5.238 -15.672 25.66 -0 -1.2 0
-5.175 -16.128 25.41 -0 -1.2 0
-5.111 -16.578 25.152 -0 -1.2 0
-5.047 -17.024 24.885 -0 -1.2 0
-4.98 -17.466 24.61 -0 -1.2 0
-4.912 -17.901 24.329 -0 -1.2 0
-4.842 -18.333 24.04 -0 -1.2 0
-4.771 -18.758 23.745 -0 -1.2 0
-4.698 -19.179 23.441 -0 -1.2 0
-4.624 -19.594 23.13 -0 -1.2 0
-4.549 -20.003 22.813 -0 -1.2 0
-4.472 -20.407 22.488 -0 -1.2 0
-4.394 -20.804 22.156 -0 -1.2 0
-4.314 -21.196 21.818 -0 -1.2 0
-4.233 -21.581 21.473 -0 -1.2 0
-4.152 -21.961 21.121 -0 -1.2 0
-4.068 -22.334 20.763 -0 -1.2 0
-5.327 0.501 29.464 -0 -1.2 0
-5.134 -6.277 29.084 -0 -1.2 0
-5.108 -6.792 28.993 -0 -1.2 0
-5.08 -7.305 28.892 -0 -1.2 0
-5.051 -7.816 28.783 -0 -1.2 0
-5.02 -8.325 28.665 -0 -1.2 0
-4.988 -8.832 28.538 -0 -1.2 0
-4.955 -9.337 28.402 -0 -1.2 0
-4.919 -9.839 28.258 -0 -1.2 0
-4.883 -10.338 28.105 -0 -1.2 0
-4.845 -10.835 27.944 -0 -1.2 0
-4.805 -11.328 27.774 -0 -1.2 0
-4.764 -11.819 27.596 -0 -1.2 0
-4.721 -12.306 27.409 -0 -1.2 0
-4.677 -12.79 27.213 -0 -1.2 0
-4.631 -13.271 27.01 -0 -1.2 0
-4.585 -13.747 26.799 -0 -1.2 0
-4.537 -14.22 26.578 -0 -1.2 0
-4.487 -14.688 26.351 -0 -1.2 0
-4.436 -15.153 26.114 -0 -1.2 0
-4.383 -15.614 25.871 -0 -1.2 0
-4.329 -16.07 25.619 -0 -1.2 0
-4.275 -16.521 25.36 -0 -1.2 0
-4.219 -16.967 25.092 -0 -1.2 0
-4.161 -17.409 24.817 -0 -1.2 0
-4.102 -17.846 24.535 -0 -1.2 0
-4.042 -18.278 24.244 -0 -1.2 0
-3.981 -18.704 23.947 -0 -1.2 0
-3.918 -19.126 23.643 -0 -1.2 0
-3.854 -19.541 23.33 -0 -1.2 0
-3.789 -19.951 23.011 -0 -1.2 0
-3.723 -20.355 22.685 -0 -1.2 0
-3.656 -20.754 22.352 -0 -1.2 0
-3.588 -21.146 22.013 -0 -1.2 0
-3.518 -21.532 21.667 -0 -1.2 0
-3.448 -21.913 21.313 -0 -1.2 0
-3.376 -22.287 20.953 -0 -1.2 0
-4.349 0.568 29.639 -0 -1.2 0
-4.167 -6.21 29.269 -0 -1.2 0
-4.145 -6.725 29.178 -0 -1.2 0
-4.121 -7.238 29.077 -0 -1.2 0
-4.095 -7.75 28.968 -0 -1.2 0
-4.069 -8.259 28.851 -0 -1.2 0
-4.041 -8.766 28.724 -0 -1.2 0
-4.011 -9.272 28.589 -0 -1.2 0
-3.981 -9.774 28.444 -0 -1.2 0
-3.95 -10.274 28.291 -0 -1.2 0
-3.916 -10.771 28.13 -0 -1.2 0
-3.882 -11.265 27.96 -0 -1.2 0
-3.847 -11.756 27.781 -0 -1.2 0
-3.811 -12.244 27.594 -0 -1.2 0
-3.774 -12.727 27.399 -0 -1.2 0
-3.735 -13.209 27.195 -0 -1.2 0
-3.694 -13.686 26.983 -0 -1.2 0
-3.654 -14.159 26.763 -0 -1.2 0
-3.611 -14.628 26.535 -0 -1.2 0
-3.568 -15.094 26.298 -0 -1.2 0
-3.524 -15.554 26.054 -0 -1.2 0
-3.479 -16.011 25.801 -0 -1.2 0
-3.432 -16.463 25.542 -0 -1.2 0
-3.385 -16.91 25.273 -0 -1.2 0
-3.336 -17.353 24.997 -0 -1.2 0
-3.287 -17.79 24.714 -0 -1.2 0
-3.237 -18.223 24.423 -0 -1.2 0
-3.186 -18.649 24.125 -0 -1.2 0
-3.133 -19.071 23.819 -0 -1.2 0
-3.079 -19.487 23.506 -0 -1.2 0
-3.026 -19.898 23.186 -0 -1.2 0
-2.97 -20.303 22.859 -0 -1.2 0
-2.914 -20.703 22.525 -0 -1.2 0
-2.857 -21.096 22.184 -0 -1.2 0
-2.799 -21.483 21.836 -0 -1.2 0
-2.74 -21.864 21.482 -0 -1.2 0
-2.681 -22.239 21.121 -0 -1.2 0
-3.133 -6.654 29.336 -0 -1.2 0
-3.113 -7.167 29.236 -0 -1.2 0
-3.091 -7.679 29.128 -0 -1.2 0
-3.068 -8.188 29.011 -0 -1.2 0
-3.045 -8.696 28.884 -0 -1.2 0
-3.021 -9.202 28.748 -0 -1.2 0
-2.995 -9.705 28.605 -0 -1.2 0
-2.969 -10.204 28.452 -0 -1.2 0
-2.941 -10.702 28.291 -0 -1.2 0
-2.914 -11.196 28.122 -0 -1.2 0
-2.884 -11.688 27.943 -0 -1.2 0
-2.855 -12.176 27.756 -0 -1.2 0
-2.824 -12.66 27.56 -0 -1.2 0
-2.793 -13.142 27.357 -0 -1.2 0
-2.761 -13.619 27.145 -0 -1.2 0
-2.727 -14.094 26.924 -0 -1.2 0
-2.693 -14.563 26.696 -0 -1.2 0
-2.657 -15.029 26.459 -0 -1.2 0
-2.622 -15.491 26.214 -0 -1.2 0
-2.585 -15.948 25.962 -0 -1.2 0
-2.548 -16.4 25.701 -0 -1.2 0
-2.51 -16.848 25.432 -0 -1.2 0
-2.471 -17.292 25.157 -0 -1.2 0
-2.431 -17.729 24.873 -0 -1.2 0
-2.391 -18.163 24.581 -0 -1.2 0
-2.35 -18.59 24.282 -0 -1.2 0
-2.308 -19.013 23.976 -0 -1.2 0
-2.266 -19.43 23.663 -0 -1.2 0
-2.223 -19.842 23.342 -0 -1.2 0
-2.179 -20.248 23.014 -0 -1.2 0
-2.134 -20.647 22.679 -0 -1.2 0
-2.088 -21.041 22.337 -0 -1.2 0
-2.043 -21.429 21.989 -0 -1.2 0
-1.997 -21.811 21.634 -0 -1.2 0
-1.949 -22.187 21.272 -0 -1.2 0
-2.2 -6.587 29.453 -0 -1.2 0
-2.182 -7.101 29.354 -0 -1.2 0
-2.164 -7.613 29.246 -0 -1.2 0
-2.145 -8.123 29.129 -0 -1.2 0
-2.126 -8.631 29.002 -0 -1.2 0
-2.105 -9.137 28.868 -0 -1.2 0
-2.085 -9.64 28.725 -0 -1.2 0
-2.064 -10.14 28.572 -0 -1.2 0
-2.042 -10.638 28.411 -0 -1.2 0
-2.019 -11.132 28.242 -0 -1.2 0
-1.996 -11.625 28.063 -0 -1.2 0
-1.973 -12.113 27.877 -0 -1.2 0
-1.948 -12.598 27.682 -0 -1.2 0
-1.923 -13.08 27.479 -0 -1.2 0
-1.897 -13.558 27.266 -0 -1.2 0
-1.871 -14.033 27.047 -0 -1.2 0
-1.844 -14.502 26.818 -0 -1.2 0
-1.817 -14.969 26.581 -0 -1.2 0
-1.789 -15.431 26.336 -0 -1.2 0
-1.76 -15.889 26.084 -0 -1.2 0
-1.732 -16.342 25.823 -0 -1.2 0
-1.702 -16.79 25.555 -0 -1.2 0
-1.672 -17.235 25.278 -0 -1.2 0
-1.642 -17.673 24.994 -0 -1.2 0
-1.611 -18.107 24.703 -0 -1.2 0
-1.58 -18.535 24.404 -0 -1.2 0
-1.547 -18.959 24.097 -0 -1.2 0
-1.515 -19.376 23.784 -0 -1.2 0
-1.482 -19.789 23.462 -0 -1.2 0
-1.448 -20.195 23.134 -0 -1.2 0
-1.415 -20.596 22.799 -0 -1.2 0
-1.38 -20.991 22.457 -0 -1.2 0
-1.346 -21.38 22.108 -0 -1.2 0
-1.31 -21.762 21.752 -0 -1.2 0
-1.275 -22.139 21.39 -0 -1.2 0
-1.264 -6.521 29.539 -0 -1.2 0
-1.249 -7.034 29.44 -0 -1.2 0
-1.235 -7.547 29.333 -0 -1.2 0
-1.219 -8.057 29.216 -0 -1.2 0
-1.205 -8.565 29.091 -0 -1.2 0
-1.189 -9.071 28.957 -0 -1.2 0
-1.173 -9.575 28.814 -0 -1.2 0
-1.157 -10.075 28.662 -0 -1.2 0
-1.14 -10.574 28.502 -0 -1.2 0
-1.123 -11.069 28.333 -0 -1.2 0
-1.105 -11.561 28.155 -0 -1.2 0
-1.088 -12.05 27.969 -0 -1.2 0
-1.069 -12.535 27.774 -0 -1.2 0
-1.052 -13.018 27.571 -0 -1.2 0
-1.033 -13.496 27.359 -0 -1.2 0
-1.013 -13.972 27.139 -0 -1.2 0
-0.994 -14.442 26.912 -0 -1.2 0
-0.974 -14.909 26.675 -0 -1.2 0
-0.954 -15.372 26.431 -0 -1.2 0
-0.934 -15.83 26.178 -0 -1.2 0
-0.914 -16.284 25.918 -0 -1.2 0
-0.893 -16.733 25.65 -0 -1.2 0
-0.871 -17.177 25.374 -0 -1.2 0
-0.851 -17.616 25.09 -0 -1.2 0
-0.828 -18.051 24.798 -0 -1.2 0
-0.807 -18.48 24.499 -0 -1.2 0
-0.784 -18.904 24.193 -0 -1.2 0
-0.762 -19.323 23.879 -0 -1.2 0
-0.739 -19.736 23.558 -0 -1.2 0
-0.716 -20.143 23.23 -0 -1.2 0
-0.694 -20.545 22.895 -0 -1.2 0
-0.67 -20.94 22.553 -0 -1.2 0
-0.646 -21.33 22.203 -0 -1.2 0
-0.623 -21.713 21.849 -0 -1.2 0
-0.599 -22.091 21.486 -0 -1.2 0
-0.255 -6.449 29.599 -0 -1.2 0
-0.245 -6.963 29.5 -0 -1.2 0
-0.234 -7.475 29.394 -0 -1.2 0
-0.223 -7.986 29.279 -0 -1.2 0
-0.212 -8.494 29.154 -0 -1.2 0
-0.202 -9.001 29.021 -0 -1.2 0
-0.191 -9.505 28.878 -0 -1.2 0
-0.179 -10.006 28.728 -0 -1.2 0
-0.169 -10.505 28.568 -0 -1.2 0
-0.157 -11 28.4 -0 -1.2 0
-0.146 -11.493 28.223 -0 -1.2 0
-0.135 -11.982 28.037 -0 -1.2 0
-0.124 -12.468 27.843 -0 -1.2 0
-0.112 -12.951 27.641 -0 -1.2 0
-0.101 -13.43 27.43 -0 -1.2 0
-0.089 -13.906 27.21 -0 -1.2 0
-0.079 -14.377 26.983 -0 -1.2 0
-0.067 -14.845 26.747 -0 -1.2 0
-0.055 -15.308 26.503 -0 -1.2 0
-0.044 -15.767 26.251 -0 -1.2 0
-0.032 -16.221 25.992 -0 -1.2 0
-0.021 -16.67 25.724 -0 -1.2 0
-0.01 -17.116 25.449 -0 -1.2 0
0.002 -17.556 25.165 -0 -1.2 0
0.013 -17.991 24.874 -0 -1.2 0
0.025 -18.421 24.576 -0 -1.2 0
0.036 -18.846 24.27 -0 -1.2 0
0.048 -19.265 23.956 -0 -1.2 0
0.06 -19.679 23.636 -0 -1.2 0
0.071 -20.087 23.308 -0 -1.2 0
0.082 -20.489 22.973 -0 -1.2 0
0.094 -20.886 22.631 -0 -1.2 0
0.106 -21.276 22.283 -0 -1.2 0
0.117 -21.661 21.927 -0 -1.2 0
0.128 -22.039 21.565 -0 -1.2 0
0.664 -6.383 29.624 -0 -1.2 0
0.671 -6.897 29.527 -0 -1.2 0
0.678 -7.41 29.421 -0 -1.2 0
0.685 -7.921 29.306 -0 -1.2 0
0.692 -8.43 29.183 -0 -1.2 0
0.698 -8.936 29.05 -0 -1.2 0
0.705 -9.441 28.908 -0 -1.2 0
0.711 -9.942 28.759 -0 -1.2 0
0.717 -10.441 28.6 -0 -1.2 0
0.723 -10.937 28.432 -0 -1.2 0
0.728 -11.43 28.257 -0 -1.2 0
0.734 -11.92 28.072 -0 -1.2 0
0.739 -12.406 27.879 -0 -1.2 0
0.744 -12.89 27.677 -0 -1.2 0
0.748 -13.369 27.467 -0 -1.2 0
0.753 -13.845 27.248 -0 -1.2 0
0.757 -14.317 27.022 -0 -1.2 0
0.761 -14.785 26.787 -0 -1.2 0
0.764 -15.249 26.543 -0 -1.2 0
0.768 -15.709 26.292 -0 -1.2 0
0.771 -16.163 26.034 -0 -1.2 0
0.775 -16.613 25.766 -0 -1.2 0
0.778 -17.059 25.492 -0 -1.2 0
0.78 -17.5 25.209 -0 -1.2 0
0.783 -17.936 24.919 -0 -1.2 0
0.785 -18.366 24.621 -0 -1.2 0
0.787 -18.792 24.316 -0 -1.2 0
0.789 -19.212 24.003 -0 -1.2 0
0.79 -19.626 23.683 -0 -1.2 0
0.791 -20.035 23.356 -0 -1.2 0
0.792 -20.438 23.022 -0 -1.2 0
0.792 -20.835 22.682 -0 -1.2 0
0.793 -21.227 22.334 -0 -1.2 0
0.794 -21.612 21.978 -0 -1.2 0
0.794 -21.991 21.618 -0 -1.2 0
1.608 -6.318 29.618 -0 -1.2 0
1.613 -6.833 29.521 -0 -1.2 0
1.617 -7.345 29.416 -0 -1.2 0
1.621 -7.856 29.303 -0 -1.2 0
1.625 -8.365 29.18 -0 -1.2 0
1.628 -8.873 29.049 -0 -1.2 0
1.629 -9.377 28.908 -0 -1.2 0
1.632 -9.879 28.759 -0 -1.2 0
1.633 -10.378 28.602 -0 -1.2 0
1.635 -10.874 28.435 -0 -1.2 0
1.635 -11.368 28.26 -0 -1.2 0
1.635 -11.858 28.076 -0 -1.2 0
1.634 -12.345 27.883 -0 -1.2 0
1.634 -12.829 27.683 -0 -1.2 0
1.632 -13.309 27.474 -0 -1.2 0
1.631 -13.785 27.257 -0 -1.2 0
1.628 -14.257 27.03 -0 -1.2 0
1.625 -14.726 26.797 -0 -1.2 0
1.622 -15.19 26.554 -0 -1.2 0
1.618 -15.651 26.305 -0 -1.2 0
1.614 -16.106 26.047 -0 -1.2 0
1.608 -16.557 25.781 -0 -1.2 0
1.603 -17.003 25.507 -0 -1.2 0
1.598 -17.444 25.226 -0 -1.2 0
1.591 -17.881 24.937 -0 -1.2 0
1.584 -18.312 24.64 -0 -1.2 0
1.577 -18.738 24.336 -0 -1.2 0
1.569 -19.159 24.024 -0 -1.2 0
1.561 -19.574 23.705 -0 -1.2 0
1.553 -19.984 23.379 -0 -1.2 0
1.544 -20.388 23.046 -0 -1.2 0
1.533 -20.785 22.706 -0 -1.2 0
1.524 -21.177 22.359 -0 -1.2 0
1.513 -21.563 22.005 -0 -1.2 0
1.503 -21.944 21.645 -0 -1.2 0
2.619 -6.296 29.568 -0 -1.2 0
2.62 -6.811 29.472 -0 -1.2 0
2.621 -7.324 29.368 -0 -1.2 0
2.621 -7.835 29.254 -0 -1.2 0
2.62 -8.344 29.132 -0 -1.2 0
2.618 -8.852 29 -0 -1.2 0
2.616 -9.356 28.861 -0 -1.2 0
2.613 -9.858 28.712 -0 -1.2 0
2.609 -10.358 28.555 -0 -1.2 0
2.604 -10.853 28.389 -0 -1.2 0
2.599 -11.348 28.214 -0 -1.2 0
2.592 -11.838 28.031 -0 -1.2 0
2.585 -12.324 27.839 -0 -1.2 0
2.577 -12.809 27.639 -0 -1.2 0
2.568 -13.289 27.43 -0 -1.2 0
2.558 -13.766 27.213 -0 -1.2 0
2.549 -14.238 26.988 -0 -1.2 0
2.537 -14.707 26.754 -0 -1.2 0
2.526 -15.171 26.513 -0 -1.2 0
2.513 -15.632 26.264 -0 -1.2 0
2.5 -16.087 26.007 -0 -1.2 0
2.485 -16.538 25.741 -0 -1.2 0
2.471 -16.985 25.468 -0 -1.2 0
2.455 -17.426 25.187 -0 -1.2 0
2.439 -17.863 24.899 -0 -1.2 0
2.422 -18.294 24.603 -0 -1.2 0
2.405 -18.721 24.299 -0 -1.2 0
2.386 -19.141 23.989 -0 -1.2 0
2.367 -19.557 23.671 -0 -1.2 0
2.347 -19.967 23.346 -0 -1.2 0
2.326 -20.371 23.013 -0 -1.2 0
2.305 -20.769 22.674 -0 -1.2 0
2.283 -21.161 22.328 -0 -1.2 0
2.26 -21.548 21.975 -0 -1.2 0
2.237 -21.928 21.615 -0 -1.2 0
3.555 -6.285 29.489 -0 -1.2 0
3.554 -6.799 29.393 -0 -1.2 0
3.551 -7.312 29.289 -0 -1.2 0
3.547 -7.823 29.175 -0 -1.2 0
3.542 -8.332 29.053 -0 -1.2 0
3.536 -8.84 28.923 -0 -1.2 0
3.529 -9.344 28.784 -0 -1.2 0
3.521 -9.846 28.635 -0 -1.2 0
3.511 -10.346 28.478 -0 -1.2 0
3.501 -10.842 28.313 -0 -1.2 0
3.489 -11.336 28.139 -0 -1.2 0
3.477 -11.827 27.955 -0 -1.2 0
3.463 -12.313 27.764 -0 -1.2 0
3.449 -12.798 27.565 -0 -1.2 0
3.434 -13.278 27.357 -0 -1.2 0
3.417 -13.755 27.14 -0 -1.2 0
3.4 -14.227 26.916 -0 -1.2 0
3.381 -14.696 26.683 -0 -1.2 0
3.361 -15.16 26.443 -0 -1.2 0
3.341 -15.621 26.194 -0 -1.2 0
3.319 -16.077 25.937 -0 -1.2 0
3.297 -16.528 25.672 -0 -1.2 0
3.273 -16.975 25.401 -0 -1.2 0
3.248 -17.416 25.121 -0 -1.2 0
3.222 -17.853 24.833 -0 -1.2 0
3.196 -18.285 24.537 -0 -1.2 0
3.168 -18.711 24.235 -0 -1.2 0
3.14 -19.132 23.926 -0 -1.2 0
3.111 -19.548 23.609 -0 -1.2 0
3.08 -19.958 23.284 -0 -1.2 0
3.049 -20.362 22.952 -0 -1.2 0
3.016 -20.76 22.615 -0 -1.2 0
2.983 -21.152 22.269 -0 -1.2 0
2.949 -21.539 21.918 -0 -1.2 0
2.914 -21.919 21.559 -0 -1.2 0
4.493 -6.273 29.38 -0 -1.2 0
4.487 -6.788 29.285 -0 -1.2 0
4.481 -7.301 29.181 -0 -1.2 0
4.474 -7.812 29.068 -0 -1.2 0
4.464 -8.321 28.946 -0 -1.2 0
4.454 -8.828 28.816 -0 -1.2 0
4.442 -9.333 28.677 -0 -1.2 0
4.429 -9.835 28.529 -0 -1.2 0
4.415 -10.335 28.373 -0 -1.2 0
4.399 -10.831 28.208 -0 -1.2 0
4.382 -11.325 28.034 -0 -1.2 0
4.363 -11.816 27.852 -0 -1.2 0
4.343 -12.302 27.662 -0 -1.2 0
4.322 -12.787 27.464 -0 -1.2 0
4.3 -13.267 27.256 -0 -1.2 0
4.276 -13.744 27.041 -0 -1.2 0
4.251 -14.216 26.817 -0 -1.2 0
4.225 -14.686 26.585 -0 -1.2 0
4.198 -15.15 26.346 -0 -1.2 0
4.169 -15.611 26.098 -0 -1.2 0
4.138 -16.067 25.842 -0 -1.2 0
4.107 -16.518 25.579 -0 -1.2 0
4.075 -16.965 25.308 -0 -1.2 0
4.041 -17.406 25.029 -0 -1.2 0
4.006 -17.843 24.743 -0 -1.2 0
3.97 -18.275 24.449 -0 -1.2 0
3.933 -18.702 24.147 -0 -1.2 0
3.894 -19.122 23.839 -0 -1.2 0
3.854 -19.538 23.523 -0 -1.2 0
3.814 -19.948 23.2 -0 -1.2 0
3.771 -20.353 22.87 -0 -1.2 0
3.728 -20.751 22.533 -0 -1.2 0
3.684 -21.144 22.189 -0 -1.2 0
3.638 -21.53 21.839 -0 -1.2 0
3.591 -21.911 21.482 -0 -1.2 0
5.496 -6.26 29.23 -0 -1.2 0
5.488 -6.775 29.135 -0 -1.2 0
5.478 -7.288 29.032 -0 -1.2 0
5.466 -7.799 28.919 -0 -1.2 0
5.453 -8.308 28.798 -0 -1.2 0
5.438 -8.816 28.668 -0 -1.2 0
5.42 -9.32 28.53 -0 -1.2 0
5.402 -9.822 28.383 -0 -1.2 0
5.383 -10.322 28.228 -0 -1.2 0
5.361 -10.818 28.063 -0 -1.2 0
5.338 -11.313 27.891 -0 -1.2 0
5.313 -11.803 27.71 -0 -1.2 0
5.286 -12.29 27.52 -0 -1.2 0
5.258 -12.775 27.323 -0 -1.2 0
5.228 -13.255 27.117 -0 -1.2 0
5.197 -13.732 26.902 -0 -1.2 0
5.165 -14.204 26.68 -0 -1.2 0
5.13 -14.674 26.45 -0 -1.2 0
5.094 -15.138 26.211 -0 -1.2 0
5.056 -15.599 25.965 -0 -1.2 0
5.018 -16.055 25.711 -0 -1.2 0
4.977 -16.506 25.449 -0 -1.2 0
4.934 -16.953 25.179 -0 -1.2 0
4.891 -17.395 24.902 -0 -1.2 0
4.846 -17.832 24.617 -0 -1.2 0
4.799 -18.264 24.325 -0 -1.2 0
4.752 -18.691 24.025 -0 -1.2 0
4.702 -19.112 23.719 -0 -1.2 0
4.651 -19.528 23.404 -0 -1.2 0
4.599 -19.938 23.083 -0 -1.2 0
4.546 -20.342 22.755 -0 -1.2 0
4.49 -20.741 22.421 -0 -1.2 0
4.434 -21.134 22.078 -0 -1.2 0
4.377 -21.52 21.73 -0 -1.2 0
4.318 -21.901 21.375 -0 -1.2 0
6.423 -6.249 29.058 -0 -1.2 0
6.411 -6.764 28.963 -0 -1.2 0
6.398 -7.277 28.86 -0 -1.2 0
6.382 -7.788 28.749 -0 -1.2 0
6.365 -8.297 28.629 -0 -1.2 0
6.346 -8.805 28.501 -0 -1.2 0
6.324 -9.31 28.362 -0 -1.2 0
6.301 -9.811 28.217 -0 -1.2 0
6.276 -10.312 28.062 -0 -1.2 0
6.249 -10.808 27.899 -0 -1.2 0
6.219 -11.302 27.728 -0 -1.2 0
6.189 -11.793 27.547 -0 -1.2 0
6.155 -12.28 27.36 -0 -1.2 0
6.121 -12.764 27.163 -0 -1.2 0
6.084 -13.245 26.958 -0 -1.2 0
6.047 -13.722 26.745 -0 -1.2 0
6.006 -14.194 26.524 -0 -1.2 0
5.965 -14.664 26.296 -0 -1.2 0
5.921 -15.128 26.059 -0 -1.2 0
5.875 -15.589 25.813 -0 -1.2 0
5.827 -16.045 25.561 -0 -1.2 0
5.778 -16.497 25.301 -0 -1.2 0
5.727 -16.944 25.033 -0 -1.2 0
5.675 -17.385 24.757 -0 -1.2 0
5.621 -17.823 24.474 -0 -1.2 0
5.565 -18.255 24.183 -0 -1.2 0
5.508 -18.682 23.886 -0 -1.2 0
5.448 -19.103 23.581 -0 -1.2 0
5.387 -19.519 23.269 -0 -1.2 0
5.324 -19.929 22.95 -0 -1.2 0
5.261 -20.334 22.624 -0 -1.2 0
5.195 -20.733 22.291 -0 -1.2 0
5.127 -21.125 21.952 -0 -1.2 0
5.058 -21.512 21.605 -0 -1.2 0
4.988 -21.893 21.252 -0 -1.2 0
7.307 -7.266 28.663 -0 -1.2 0
7.288 -7.777 28.552 -0 -1.2 0
7.267 -8.287 28.433 -0 -1.2 0
7.243 -8.794 28.305 -0 -1.2 0
7.217 -9.299 28.169 -0 -1.2 0
7.189 -9.801 28.023 -0 -1.2 0
7.159 -10.301 27.87 -0 -1.2 0
7.126 -10.798 27.708 -0 -1.2 0
7.091 -11.292 27.538 -0 -1.2 0
7.054 -11.783 27.359 -0 -1.2 0
7.016 -12.27 27.172 -0 -1.2 0
6.975 -12.755 26.977 -0 -1.2 0
6.931 -13.235 26.774 -0 -1.2 0
6.886 -13.712 26.562 -0 -1.2 0
6.839 -14.185 26.343 -0 -1.2 0
6.789 -14.654 26.116 -0 -1.2 0
6.738 -15.119 25.881 -0 -1.2 0
6.685 -15.58 25.638 -0 -1.2 0
6.629 -16.036 25.388 -0 -1.2 0
6.572 -16.487 25.129 -0 -1.2 0
6.512 -16.935 24.863 -0 -1.2 0
6.45 -17.376 24.589 -0 -1.2 0
6.387 -17.814 24.309 -0 -1.2 0
6.322 -18.246 24.02 -0 -1.2 0
6.254 -18.673 23.724 -0 -1.2 0
6.185 -19.094 23.422 -0 -1.2 0
6.114 -19.511 23.112 -0 -1.2 0
6.042 -19.921 22.795 -0 -1.2 0
5.967 -20.326 22.472 -0 -1.2 0
5.891 -20.725 22.141 -0 -1.2 0
5.812 -21.117 21.804 -0 -1.2 0
5.732 -21.505 21.461 -0 -1.2 0
5.65 -21.886 21.11 -0 -1.2 0
8.196 -8.784 28.064 -0 -1.2 0
8.165 -9.289 27.928 -0 -1.2 0
8.132 -9.791 27.785 -0 -1.2 0
8.097 -10.291 27.633 -0 -1.2 0
8.059 -10.787 27.472 -0 -1.2 0
8.018 -11.282 27.303 -0 -1.2 0
7.975 -11.772 27.126 -0 -1.2 0
7.93 -12.259 26.941 -0 -1.2 0
7.881 -12.744 26.748 -0 -1.2 0
7.831 -13.225 26.546 -0 -1.2 0
7.778 -13.702 26.337 -0 -1.2 0
7.723 -14.175 26.119 -0 -1.2 0
7.666 -14.644 25.894 -0 -1.2 0
7.607 -15.109 25.661 -0 -1.2 0
7.544 -15.57 25.42 -0 -1.2 0
7.481 -16.027 25.172 -0 -1.2 0
7.414 -16.478 24.916 -0 -1.2 0
7.345 -16.926 24.652 -0 -1.2 0
7.274 -17.367 24.382 -0 -1.2 0
7.201 -17.805 24.103 -0 -1.2 0
7.126 -18.237 23.817 -0 -1.2 0
7.048 -18.664 23.524 -0 -1.2 0
6.968 -19.086 23.225 -0 -1.2 0
6.887 -19.502 22.917 -0 -1.2 0
6.803 -19.913 22.603 -0 -1.2 0
6.717 -20.317 22.283 -0 -1.2 0
6.629 -20.716 21.955 -0 -1.2 0
6.54 -21.109 21.622 -0 -1.2 0
6.448 -21.496 21.281 -0 -1.2 0
6.354 -21.878 20.934 -0 -1.2 0
9.019 -9.771 27.532 -0 -1.2 0
8.978 -10.271 27.382 -0 -1.2 0
8.934 -10.768 27.223 -0 -1.2 0
8.888 -11.262 27.056 -0 -1.2 0
8.84 -11.753 26.88 -0 -1.2 0
8.788 -12.24 26.698 -0 -1.2 0
8.734 -12.726 26.507 -0 -1.2 0
8.677 -13.206 26.307 -0 -1.2 0
8.617 -13.684 26.099 -0 -1.2 0
8.555 -14.156 25.884 -0 -1.2 0
8.49 -14.626 25.662 -0 -1.2 0
8.423 -15.091 25.431 -0 -1.2 0
8.354 -15.552 25.192 -0 -1.2 0
8.281 -16.009 24.947 -0 -1.2 0
8.206 -16.46 24.693 -0 -1.2 0
8.129 -16.908 24.432 -0 -1.2 0
8.049 -17.35 24.164 -0 -1.2 0
7.967 -17.788 23.889 -0 -1.2 0
7.882 -18.22 23.606 -0 -1.2 0
7.795 -18.648 23.316 -0 -1.2 0
7.705 -19.069 23.019 -0 -1.2 0
7.613 -19.486 22.716 -0 -1.2 0
7.52 -19.897 22.404 -0 -1.2 0
7.423 -20.302 22.087 -0 -1.2 0
7.325 -20.701 21.763 -0 -1.2 0
7.224 -21.094 21.433 -0 -1.2 0
7.121 -21.481 21.095 -0 -1.2 0
7.016 -21.863 20.752 -0 -1.2 0
9.811 -10.746 26.944 -0 -1.2 0
9.759 -11.241 26.779 -0 -1.2 0
9.704 -11.732 26.606 -0 -1.2 0
9.646 -12.219 26.425 -0 -1.2 0
9.586 -12.704 26.236 -0 -1.2 0
9.522 -13.185 26.04 -0 -1.2 0
9.456 -13.663 25.835 -0 -1.2 0
9.387 -14.135 25.622 -0 -1.2 0
9.315 -14.606 25.401 -0 -1.2 0
9.239 -15.071 25.174 -0 -1.2 0
9.161 -15.532 24.939 -0 -1.2 0
9.081 -15.989 24.695 -0 -1.2 0
8.997 -16.441 24.445 -0 -1.2 0
8.912 -16.889 24.187 -0 -1.2 0
8.823 -17.331 23.922 -0 -1.2 0
8.732 -17.769 23.65 -0 -1.2 0
8.638 -18.201 23.37 -0 -1.2 0
8.541 -18.629 23.084 -0 -1.2 0
8.442 -19.051 22.79 -0 -1.2 0
8.341 -19.468 22.49 -0 -1.2 0
8.236 -19.879 22.183 -0 -1.2 0
8.13 -20.284 21.869 -0 -1.2 0
8.02 -20.683 21.549 -0 -1.2 0
7.908 -21.077 21.222 -0 -1.2 0
7.795 -21.465 20.889 -0 -1.2 0
7.678 -21.846 20.549 -0 -1.2 0
10.531 -12.197 26.112 -0 -1.2 0
10.464 -12.682 25.925 -0 -1.2 0
10.393 -13.163 25.731 -0 -1.2 0
10.32 -13.641 25.529 -0 -1.2 0
10.243 -14.114 25.319 -0 -1.2 0
10.164 -14.584 25.102 -0 -1.2 0
10.081 -15.05 24.877 -0 -1.2 0
9.995 -15.511 24.645 -0 -1.2 0
9.906 -15.968 24.406 -0 -1.2 0
9.815 -16.42 24.158 -0 -1.2 0
9.719 -16.868 23.905 -0 -1.2 0
9.622 -17.311 23.643 -0 -1.2 0
9.521 -17.749 23.375 -0 -1.2 0
9.417 -18.182 23.099 -0 -1.2 0
9.31 -18.61 22.816 -0 -1.2 0
9.202 -19.032 22.526 -0 -1.2 0
9.09 -19.449 22.23 -0 -1.2 0
8.975 -19.86 21.927 -0 -1.2 0
8.858 -20.266 21.618 -0 -1.2 0
8.737 -20.665 21.302 -0 -1.2 0
8.614 -21.059 20.979 -0 -1.2 0
8.489 -21.447 20.651 -0 -1.2 0
8.36 -21.829 20.316 -0 -1.2 0
11.182 -13.144 25.422 -0 -1.2 0
11.102 -13.622 25.223 -0 -1.2 0
11.019 -14.095 25.017 -0 -1.2 0
10.932 -14.565 24.803 -0 -1.2 0
10.842 -15.031 24.581 -0 -1.2 0
10.748 -15.493 24.352 -0 -1.2 0
10.652 -15.95 24.115 -0 -1.2 0
10.553 -16.402 23.872 -0 -1.2 0
10.45 -16.85 23.621 -0 -1.2 0
10.344 -17.293 23.363 -0 -1.2 0
10.235 -17.732 23.098 -0 -1.2 0
10.122 -18.164 22.826 -0 -1.2 0
10.007 -18.593 22.547 -0 -1.2 0
9.889 -19.015 22.263 -0 -1.2 0
9.767 -19.432 21.97 -0 -1.2 0
9.643 -19.844 21.671 -0 -1.2 0
9.515 -20.249 21.366 -0 -1.2 0
9.385 -20.649 21.054 -0 -1.2 0
9.253 -21.043 20.736 -0 -1.2 0
9.116 -21.432 20.412 -0 -1.2 0
8.978 -21.814 20.081 -0 -1.2 0
11.783 -14.076 24.691 -0 -1.2 0
11.69 -14.547 24.479 -0 -1.2 0
11.593 -15.013 24.262 -0 -1.2 0
11.493 -15.475 24.036 -0 -1.2 0
11.389 -15.932 23.803 -0 -1.2 0
11.282 -16.384 23.563 -0 -1.2 0
11.17 -16.833 23.316 -0 -1.2 0
11.057 -17.275 23.062 -0 -1.2 0
10.939 -17.714 22.801 -0 -1.2 0
10.818 -18.147 22.533 -0 -1.2 0
10.694 -18.576 22.258 -0 -1.2 0
10.567 -18.998 21.978 -0 -1.2 0
10.436 -19.416 21.69 -0 -1.2 0
10.303 -19.828 21.395 -0 -1.2 0
10.165 -20.234 21.095 -0 -1.2 0
10.025 -20.634 20.788 -0 -1.2 0
9.883 -21.028 20.473 -0 -1.2 0
9.736 -21.416 20.154 -0 -1.2 0
9.587 -21.799 19.829 -0 -1.2 0
12.494 -14.528 24.106 -0 -1.2 0
12.39 -14.993 23.891 -0 -1.2 0
12.282 -15.456 23.669 -0 -1.2 0
12.17 -15.913 23.441 -0 -1.2 0
12.055 -16.366 23.205 -0 -1.2 0
11.935 -16.814 22.962 -0 -1.2 0
11.813 -17.257 22.713 -0 -1.2 0
11.686 -17.696 22.457 -0 -1.2 0
11.556 -18.13 22.193 -0 -1.2 0
11.422 -18.558 21.923 -0 -1.2 0
11.285 -18.981 21.647 -0 -1.2 0
11.145 -19.399 21.364 -0 -1.2 0
11.001 -19.811 21.075 -0 -1.2 0
10.854 -20.217 20.779 -0 -1.2 0
10.704 -20.617 20.477 -0 -1.2 0
10.55 -21.012 20.169 -0 -1.2 0
10.394 -21.401 19.856 -0 -1.2 0
10.234 -21.784 19.535 -0 -1.2 0
12.528 -17.241 22.353 -0 -1.2 0
12.393 -17.68 22.101 -0 -1.2 0
12.254 -18.114 21.842 -0 -1.2 0
12.112 -18.542 21.577 -0 -1.2 0
11.966 -18.965 21.305 -0 -1.2 0
11.816 -19.383 21.028 -0 -1.2 0
11.663 -19.795 20.744 -0 -1.2 0
11.507 -20.202 20.453 -0 -1.2 0
11.346 -20.603 20.157 -0 -1.2 0
11.183 -20.997 19.855 -0 -1.2 0
11.016 -21.386 19.546 -0 -1.2 0
10.846 -21.769 19.232 -0 -1.2 0
13.094 -17.663 21.717 -0 -1.2 0
12.948 -18.097 21.464 -0 -1.2 0
12.797 -18.526 21.204 -0 -1.2 0
12.642 -18.949 20.937 -0 -1.2 0
12.483 -19.367 20.665 -0 -1.2 0
12.32 -19.78 20.386 -0 -1.2 0
12.154 -20.186 20.102 -0 -1.2 0
11.985 -20.587 19.811 -0 -1.2 0
11.811 -20.982 19.515 -0 -1.2 0
11.633 -21.371 19.212 -0 -1.2 0
11.453 -21.755 18.904 -0 -1.2 0
14.139 -16.764 21.751 -0 -1.2 0
13.991 -17.207 21.517 -0 -1.2 0
13.84 -17.647 21.275 -0 -1.2 0
13.684 -18.081 21.028 -0 -1.2 0
13.523 -18.51 20.774 -0 -1.2 0
13.359 -18.933 20.514 -0 -1.2 0
13.191 -19.352 20.247 -0 -1.2 0
13.018 -19.764 19.975 -0 -1.2 0
12.661 -20.572 19.413 -0 -1.2 0
12.478 -20.968 19.123 -0 -1.2 0
12.29 -21.357 18.827 -0 -1.2 0
14.011 -18.919 20.098 -0 -1.2 0
13.652 -19.751 19.572 -0 -1.2 0
13.467 -20.158 19.3 -0 -1.2 0
13.084 -20.954 18.739 -0 -1.2 0
13.254 -21.715 17.769 -0 -1.2 0
13.851 -21.701 17.334 -0 -1.2 0
13.647 -20.667 -18.611 -0 -1.2 0
12.803 -21.062 -18.776 -0 -1.2 0
12.61 -21.45 -18.481 -0 -1.2 0
12.414 -21.831 -18.181 -0 -1.2 0
12.542 -20.27 -19.753 -0 -1.2 0
12.368 -20.67 -19.463 -0 -1.2 0
12.19 -21.063 -19.168 -0 -1.2 0
12.009 -21.451 -18.866 -0 -1.2 0
11.823 -21.832 -18.559 -0 -1.2 0
12.3 -19.134 -20.941 -0 -1.2 0
12.146 -19.549 -20.662 -0 -1.2 0
11.987 -19.959 -20.377 -0 -1.2 0
11.825 -20.363 -20.087 -0 -1.2 0
11.658 -20.762 -19.791 -0 -1.2 0
11.489 -21.154 -19.488 -0 -1.2 0
11.316 -21.54 -19.18 -0 -1.2 0
11.14 -21.92 -18.866 -0 -1.2 0
10.961 -22.295 -18.546 -0 -1.2 0
11.626 -18.786 -21.602 -0 -1.2 0
11.484 -19.207 -21.323 -0 -1.2 0
11.338 -19.621 -21.039 -0 -1.2 0
11.189 -20.03 -20.749 -0 -1.2 0
11.036 -20.433 -20.452 -0 -1.2 0
10.879 -20.831 -20.149 -0 -1.2 0
10.72 -21.222 -19.84 -0 -1.2 0
10.558 -21.607 -19.524 -0 -1.2 0
10.392 -21.986 -19.203 -0 -1.2 0
10.222 -22.359 -18.877 -0 -1.2 0
11.164 -17.907 -22.525 -0 -1.2 0
11.038 -18.338 -22.256 -0 -1.2 0
10.909 -18.764 -21.98 -0 -1.2 0
10.777 -19.184 -21.697 -0 -1.2 0
10.641 -19.599 -21.408 -0 -1.2 0
10.502 -20.008 -21.113 -0 -1.2 0
10.36 -20.412 -20.811 -0 -1.2 0
10.215 -20.809 -20.502 -0 -1.2 0
10.067 -21.201 -20.188 -0 -1.2 0
9.915 -21.587 -19.868 -0 -1.2 0
9.761 -21.966 -19.542 -0 -1.2 0
9.603 -22.34 -19.21 -0 -1.2 0
10.526 -17.451 -23.152 -0 -1.2 0
10.412 -17.887 -22.886 -0 -1.2 0
10.297 -18.319 -22.612 -0 -1.2 0
10.177 -18.745 -22.333 -0 -1.2 0
10.055 -19.165 -22.046 -0 -1.2 0
9.93 -19.58 -21.753 -0 -1.2 0
9.801 -19.99 -21.453 -0 -1.2 0
9.67 -20.394 -21.146 -0 -1.2 0
9.536 -20.792 -20.834 -0 -1.2 0
9.399 -21.183 -20.515 -0 -1.2 0
9.258 -21.569 -20.189 -0 -1.2 0
9.115 -21.949 -19.859 -0 -1.2 0
8.97 -22.323 -19.521 -0 -1.2 0
9.942 -16.545 -24.011 -0 -1.2 0
9.844 -16.991 -23.755 -0 -1.2 0
9.744 -17.433 -23.492 -0 -1.2 0
9.641 -17.869 -23.223 -0 -1.2 0
9.535 -18.301 -22.946 -0 -1.2 0
9.426 -18.727 -22.662 -0 -1.2 0
9.313 -19.148 -22.372 -0 -1.2 0
9.198 -19.563 -22.074 -0 -1.2 0
9.081 -19.973 -21.77 -0 -1.2 0
8.96 -20.377 -21.46 -0 -1.2 0
8.837 -20.775 -21.143 -0 -1.2 0
8.712 -21.167 -20.82 -0 -1.2 0
8.583 -21.553 -20.49 -0 -1.2 0
8.452 -21.933 -20.154 -0 -1.2 0
8.32 -22.307 -19.813 -0 -1.2 0
9.223 -15.619 -24.853 -0 -1.2 0
9.142 -16.075 -24.609 -0 -1.2 0
9.057 -16.526 -24.357 -0 -1.2 0
8.97 -16.972 -24.099 -0 -1.2 0
8.88 -17.415 -23.832 -0 -1.2 0
8.787 -17.851 -23.559 -0 -1.2 0
8.692 -18.283 -23.278 -0 -1.2 0
8.595 -18.709 -22.99 -0 -1.2 0
8.494 -19.13 -22.696 -0 -1.2 0
8.391 -19.546 -22.395 -0 -1.2 0
8.285 -19.956 -22.087 -0 -1.2 0
8.178 -20.36 -21.772 -0 -1.2 0
8.067 -20.758 -21.451 -0 -1.2 0
7.953 -21.151 -21.123 -0 -1.2 0
7.839 -21.537 -20.789 -0 -1.2 0
7.721 -21.917 -20.449 -0 -1.2 0
7.6 -22.292 -20.103 -0 -1.2 0
8.509 -14.677 -25.621 -0 -1.2 0
8.441 -15.143 -25.389 -0 -1.2 0
8.371 -15.603 -25.15 -0 -1.2 0
8.299 -16.059 -24.903 -0 -1.2 0
8.224 -16.511 -24.648 -0 -1.2 0
8.147 -16.957 -24.387 -0 -1.2 0
8.066 -17.399 -24.118 -0 -1.2 0
7.984 -17.836 -23.841 -0 -1.2 0
7.899 -18.268 -23.559 -0 -1.2 0
7.812 -18.694 -23.268 -0 -1.2 0
7.722 -19.116 -22.97 -0 -1.2 0
7.63 -19.531 -22.665 -0 -1.2 0
7.535 -19.942 -22.353 -0 -1.2 0
7.439 -20.346 -22.036 -0 -1.2 0
7.34 -20.745 -21.711 -0 -1.2 0
7.239 -21.137 -21.38 -0 -1.2 0
7.135 -21.524 -21.042 -0 -1.2 0
7.03 -21.904 -20.697 -0 -1.2 0
6.922 -22.279 -20.347 -0 -1.2 0
7.616 -14.196 -26.136 -0 -1.2 0
7.559 -14.664 -25.91 -0 -1.2 0
7.501 -15.129 -25.677 -0 -1.2 0
7.441 -15.59 -25.435 -0 -1.2 0
7.379 -16.046 -25.186 -0 -1.2 0
7.313 -16.498 -24.928 -0 -1.2 0
7.246 -16.944 -24.664 -0 -1.2 0
7.177 -17.387 -24.393 -0 -1.2 0
7.106 -17.823 -24.114 -0 -1.2 0
7.032 -18.256 -23.827 -0 -1.2 0
6.955 -18.682 -23.534 -0 -1.2 0
6.878 -19.104 -23.232 -0 -1.2 0
6.798 -19.519 -22.925 -0 -1.2 0
6.716 -19.93 -22.61 -0 -1.2 0
6.632 -20.335 -22.289 -0 -1.2 0
6.545 -20.733 -21.96 -0 -1.2 0
6.457 -21.126 -21.626 -0 -1.2 0
6.367 -21.513 -21.285 -0 -1.2 0
6.276 -21.893 -20.936 -0 -1.2 0
6.181 -22.268 -20.582 -0 -1.2 0
6.878 -12.772 -26.99 -0 -1.2 0
6.836 -13.253 -26.786 -0 -1.2 0
6.793 -13.729 -26.574 -0 -1.2 0
6.746 -14.203 -26.354 -0 -1.2 0
6.698 -14.671 -26.126 -0 -1.2 0
6.648 -15.136 -25.89 -0 -1.2 0
6.597 -15.597 -25.647 -0 -1.2 0
6.543 -16.053 -25.395 -0 -1.2 0
6.487 -16.504 -25.136 -0 -1.2 0
6.429 -16.951 -24.869 -0 -1.2 0
6.37 -17.393 -24.595 -0 -1.2 0
6.308 -17.83 -24.313 -0 -1.2 0
6.244 -18.262 -24.024 -0 -1.2 0
6.179 -18.689 -23.728 -0 -1.2 0
6.112 -19.11 -23.424 -0 -1.2 0
6.042 -19.526 -23.114 -0 -1.2 0
5.971 -19.936 -22.796 -0 -1.2 0
5.898 -20.341 -22.472 -0 -1.2 0
5.823 -20.739 -22.141 -0 -1.2 0
5.747 -21.132 -21.803 -0 -1.2 0
5.669 -21.518 -21.459 -0 -1.2 0
5.589 -21.899 -21.108 -0 -1.2 0
5.507 -22.273 -20.751 -0 -1.2 0
5.988 -12.834 -27.157 -0 -1.2 0
5.953 -13.315 -26.951 -0 -1.2 0
5.916 -13.79 -26.736 -0 -1.2 0
5.878 -14.263 -26.514 -0 -1.2 0
5.838 -14.731 -26.283 -0 -1.2 0
5.795 -15.196 -26.045 -0 -1.2 0
5.752 -15.656 -25.798 -0 -1.2 0
5.705 -16.111 -25.545 -0 -1.2 0
5.659 -16.562 -25.282 -0 -1.2 0
5.61 -17.008 -25.013 -0 -1.2 0
5.559 -17.45 -24.736 -0 -1.2 0
5.507 -17.886 -24.452 -0 -1.2 0
5.452 -18.317 -24.159 -0 -1.2 0
5.397 -18.743 -23.861 -0 -1.2 0
5.339 -19.164 -23.554 -0 -1.2 0
5.281 -19.579 -23.241 -0 -1.2 0
5.219 -19.988 -22.92 -0 -1.2 0
5.158 -20.392 -22.592 -0 -1.2 0
5.094 -20.79 -22.258 -0 -1.2 0
5.029 -21.182 -21.917 -0 -1.2 0
4.962 -21.568 -21.57 -0 -1.2 0
4.894 -21.947 -21.215 -0 -1.2 0
4.824 -22.321 -20.855 -0 -1.2 0
5.019 -12.898 -27.306 -0 -1.2 0
4.992 -13.378 -27.098 -0 -1.2 0
4.963 -13.854 -26.882 -0 -1.2 0
4.932 -14.326 -26.657 -0 -1.2 0
4.9 -14.793 -26.424 -0 -1.2 0
4.867 -15.257 -26.182 -0 -1.2 0
4.831 -15.717 -25.934 -0 -1.2 0
4.794 -16.172 -25.677 -0 -1.2 0
4.757 -16.622 -25.413 -0 -1.2 0
4.718 -17.067 -25.141 -0 -1.2 0
4.676 -17.508 -24.861 -0 -1.2 0
4.634 -17.943 -24.574 -0 -1.2 0
4.591 -18.375 -24.279 -0 -1.2 0
4.546 -18.8 -23.977 -0 -1.2 0
4.499 -19.22 -23.668 -0 -1.2 0
4.452 -19.634 -23.352 -0 -1.2 0
4.402 -20.043 -23.028 -0 -1.2 0
4.352 -20.446 -22.698 -0 -1.2 0
4.3 -20.843 -22.36 -0 -1.2 0
4.247 -21.234 -22.016 -0 -1.2 0
4.193 -21.619 -21.665 -0 -1.2 0
4.138 -21.997 -21.309 -0 -1.2 0
4.08 -22.37 -20.945 -0 -1.2 0
4.121 -12.965 -27.409 -0 -1.2 0
4.101 -13.445 -27.199 -0 -1.2 0
4.078 -13.92 -26.98 -0 -1.2 0
4.055 -14.391 -26.753 -0 -1.2 0
4.031 -14.858 -26.518 -0 -1.2 0
4.005 -15.322 -26.275 -0 -1.2 0
3.978 -15.78 -26.024 -0 -1.2 0
3.95 -16.235 -25.765 -0 -1.2 0
3.921 -16.684 -25.499 -0 -1.2 0
3.891 -17.129 -25.225 -0 -1.2 0
3.859 -17.569 -24.942 -0 -1.2 0
3.826 -18.004 -24.652 -0 -1.2 0
3.792 -18.434 -24.356 -0 -1.2 0
3.757 -18.858 -24.051 -0 -1.2 0
3.721 -19.278 -23.74 -0 -1.2 0
3.683 -19.691 -23.421 -0 -1.2 0
3.645 -20.099 -23.095 -0 -1.2 0
3.606 -20.501 -22.762 -0 -1.2 0
3.565 -20.897 -22.423 -0 -1.2 0
3.522 -21.288 -22.076 -0 -1.2 0
3.48 -21.672 -21.723 -0 -1.2 0
3.436 -22.05 -21.363 -0 -1.2 0
3.391 -22.422 -20.997 -0 -1.2 0
3.248 -13.028 -27.48 -0 -1.2 0
3.234 -13.507 -27.268 -0 -1.2 0
3.218 -13.982 -27.047 -0 -1.2 0
3.203 -14.453 -26.819 -0 -1.2 0
3.186 -14.919 -26.582 -0 -1.2 0
3.167 -15.382 -26.338 -0 -1.2 0
3.148 -15.84 -26.085 -0 -1.2 0
3.129 -16.294 -25.825 -0 -1.2 0
3.108 -16.743 -25.556 -0 -1.2 0
3.086 -17.187 -25.28 -0 -1.2 0
3.063 -17.627 -24.995 -0 -1.2 0
3.04 -18.06 -24.704 -0 -1.2 0
3.015 -18.49 -24.406 -0 -1.2 0
2.989 -18.914 -24.1 -0 -1.2 0
2.962 -19.332 -23.785 -0 -1.2 0
2.936 -19.745 -23.465 -0 -1.2 0
2.908 -20.152 -23.137 -0 -1.2 0
2.878 -20.554 -22.802 -0 -1.2 0
2.848 -20.949 -22.46 -0 -1.2 0
2.818 -21.339 -22.112 -0 -1.2 0
2.786 -21.722 -21.756 -0 -1.2 0
2.753 -22.099 -21.395 -0 -1.2 0
2.72 -22.47 -21.026 -0 -1.2 0
2.296 -13.571 -27.315 -0 -1.2 0
2.289 -14.045 -27.094 -0 -1.2 0
2.28 -14.516 -26.864 -0 -1.2 0
2.271 -14.982 -26.625 -0 -1.2 0
2.262 -15.444 -26.379 -0 -1.2 0
2.251 -15.902 -26.125 -0 -1.2 0
2.24 -16.355 -25.863 -0 -1.2 0
2.228 -16.803 -25.593 -0 -1.2 0
2.215 -17.246 -25.315 -0 -1.2 0
2.203 -17.686 -25.03 -0 -1.2 0
2.189 -18.119 -24.737 -0 -1.2 0
2.175 -18.548 -24.436 -0 -1.2 0
2.159 -18.971 -24.128 -0 -1.2 0
2.143 -19.388 -23.812 -0 -1.2 0
2.127 -19.8 -23.49 -0 -1.2 0
2.11 -20.207 -23.161 -0 -1.2 0
2.092 -20.608 -22.824 -0 -1.2 0
2.074 -21.002 -22.481 -0 -1.2 0
2.054 -21.391 -22.13 -0 -1.2 0
2.036 -21.773 -21.773 -0 -1.2 0
2.015 -22.149 -21.409 -0 -1.2 0
1.994 -22.52 -21.039 -0 -1.2 0
1.43 -13.638 -27.324 -0 -1.2 0
1.429 -14.111 -27.101 -0 -1.2 0
1.427 -14.581 -26.87 -0 -1.2 0
1.426 -15.046 -26.629 -0 -1.2 0
1.423 -15.508 -26.382 -0 -1.2 0
1.421 -15.965 -26.126 -0 -1.2 0
1.418 -16.418 -25.863 -0 -1.2 0
1.415 -16.865 -25.592 -0 -1.2 0
1.411 -17.308 -25.313 -0 -1.2 0
1.407 -17.746 -25.026 -0 -1.2 0
1.402 -18.179 -24.731 -0 -1.2 0
1.397 -18.607 -24.43 -0 -1.2 0
1.392 -19.029 -24.12 -0 -1.2 0
1.385 -19.446 -23.804 -0 -1.2 0
1.38 -19.857 -23.48 -0 -1.2 0
1.373 -20.263 -23.149 -0 -1.2 0
1.366 -20.663 -22.812 -0 -1.2 0
1.358 -21.057 -22.467 -0 -1.2 0
1.35 -21.444 -22.114 -0 -1.2 0
1.342 -21.826 -21.756 -0 -1.2 0
1.332 -22.202 -21.391 -0 -1.2 0
1.324 -22.571 -21.02 -0 -1.2 0
0.562 -13.7 -27.308 -0 -1.2 0
0.568 -14.173 -27.084 -0 -1.2 0
0.574 -14.642 -26.851 -0 -1.2 0
0.58 -15.107 -26.611 -0 -1.2 0
0.585 -15.568 -26.362 -0 -1.2 0
0.591 -16.025 -26.106 -0 -1.2 0
0.596 -16.477 -25.841 -0 -1.2 0
0.602 -16.924 -25.568 -0 -1.2 0
0.606 -17.366 -25.289 -0 -1.2 0
0.61 -17.803 -25.001 -0 -1.2 0
0.616 -18.235 -24.706 -0 -1.2 0
0.62 -18.663 -24.403 -0 -1.2 0
0.624 -19.084 -24.093 -0 -1.2 0
0.628 -19.501 -23.775 -0 -1.2 0
0.632 -19.911 -23.45 -0 -1.2 0
0.635 -20.316 -23.118 -0 -1.2 0
0.639 -20.715 -22.779 -0 -1.2 0
0.642 -21.108 -22.434 -0 -1.2 0
0.645 -21.495 -22.081 -0 -1.2 0
0.648 -21.876 -21.721 -0 -1.2 0
0.651 -22.25 -21.356 -0 -1.2 0
0.653 -22.619 -20.983 -0 -1.2 0
-0.352 -13.761 -27.265 -0 -1.2 0
-0.337 -14.233 -27.04 -0 -1.2 0
-0.323 -14.702 -26.807 -0 -1.2 0
-0.309 -15.166 -26.566 -0 -1.2 0
-0.294 -15.627 -26.316 -0 -1.2 0
-0.279 -16.083 -26.06 -0 -1.2 0
-0.264 -16.534 -25.794 -0 -1.2 0
-0.25 -16.981 -25.521 -0 -1.2 0
-0.235 -17.422 -25.241 -0 -1.2 0
-0.22 -17.859 -24.952 -0 -1.2 0
-0.205 -18.29 -24.656 -0 -1.2 0
-0.19 -18.717 -24.353 -0 -1.2 0
-0.174 -19.138 -24.042 -0 -1.2 0
-0.16 -19.554 -23.724 -0 -1.2 0
-0.144 -19.963 -23.398 -0 -1.2 0
-0.129 -20.368 -23.066 -0 -1.2 0
-0.114 -20.766 -22.726 -0 -1.2 0
-0.098 -21.158 -22.38 -0 -1.2 0
-0.082 -21.544 -22.026 -0 -1.2 0
-0.067 -21.924 -21.667 -0 -1.2 0
-0.052 -22.298 -21.3 -0 -1.2 0
-0.035 -22.666 -20.927 -0 -1.2 0
-1.218 -13.78 -27.212 -0 -1.2 0
-1.197 -14.252 -26.988 -0 -1.2 0
-1.176 -14.721 -26.755 -0 -1.2 0
-1.153 -15.185 -26.513 -0 -1.2 0
-1.131 -15.645 -26.265 -0 -1.2 0
-1.108 -16.101 -26.008 -0 -1.2 0
-1.085 -16.552 -25.743 -0 -1.2 0
-1.062 -16.998 -25.471 -0 -1.2 0
-1.039 -17.439 -25.19 -0 -1.2 0
-1.014 -17.876 -24.902 -0 -1.2 0
-0.99 -18.307 -24.606 -0 -1.2 0
-0.965 -18.734 -24.303 -0 -1.2 0
-0.94 -19.154 -23.992 -0 -1.2 0
-0.915 -19.57 -23.674 -0 -1.2 0
-0.889 -19.979 -23.35 -0 -1.2 0
-0.863 -20.383 -23.018 -0 -1.2 0
-0.838 -20.782 -22.678 -0 -1.2 0
-0.811 -21.174 -22.333 -0 -1.2 0
-0.784 -21.559 -21.98 -0 -1.2 0
-0.758 -21.939 -21.62 -0 -1.2 0
-0.73 -22.313 -21.254 -0 -1.2 0
-0.703 -22.68 -20.882 -0 -1.2 0
-2.089 -13.791 -27.137 -0 -1.2 0
-2.062 -14.263 -26.913 -0 -1.2 0
-2.033 -14.732 -26.681 -0 -1.2 0
-2.002 -15.196 -26.441 -0 -1.2 0
-1.972 -15.656 -26.193 -0 -1.2 0
-1.943 -16.112 -25.936 -0 -1.2 0
-1.911 -16.563 -25.672 -0 -1.2 0
-1.879 -17.009 -25.4 -0 -1.2 0
-1.846 -17.45 -25.12 -0 -1.2 0
-1.814 -17.887 -24.832 -0 -1.2 0
-1.78 -18.318 -24.538 -0 -1.2 0
-1.746 -18.744 -24.235 -0 -1.2 0
-1.711 -19.165 -23.926 -0 -1.2 0
-1.676 -19.58 -23.609 -0 -1.2 0
-1.64 -19.989 -23.284 -0 -1.2 0
-1.604 -20.393 -22.954 -0 -1.2 0
-1.568 -20.791 -22.615 -0 -1.2 0
-1.53 -21.183 -22.27 -0 -1.2 0
-1.493 -21.569 -21.918 -0 -1.2 0
-1.455 -21.948 -21.559 -0 -1.2 0
-1.415 -22.322 -21.194 -0 -1.2 0
-1.376 -22.689 -20.823 -0 -1.2 0
-3.028 -13.803 -27.025 -0 -1.2 0
-2.992 -14.275 -26.802 -0 -1.2 0
-2.955 -14.744 -26.571 -0 -1.2 0
-2.918 -15.208 -26.331 -0 -1.2 0
-2.88 -15.668 -26.084 -0 -1.2 0
-2.841 -16.123 -25.829 -0 -1.2 0
-2.8 -16.575 -25.565 -0 -1.2 0
-2.76 -17.021 -25.294 -0 -1.2 0
-2.717 -17.461 -25.016 -0 -1.2 0
-2.675 -17.898 -24.73 -0 -1.2 0
-2.632 -18.329 -24.436 -0 -1.2 0
-2.587 -18.755 -24.134 -0 -1.2 0
-2.542 -19.175 -23.826 -0 -1.2 0
-2.496 -19.591 -23.51 -0 -1.2 0
-2.449 -20 -23.187 -0 -1.2 0
-2.402 -20.404 -22.857 -0 -1.2 0
-2.354 -20.801 -22.52 -0 -1.2 0
-2.306 -21.193 -22.176 -0 -1.2 0
-2.255 -21.579 -21.825 -0 -1.2 0
-2.205 -21.958 -21.468 -0 -1.2 0
-2.154 -22.331 -21.105 -0 -1.2 0
-2.103 -22.699 -20.734 -0 -1.2 0
-4.466 -4.274 -29.491 -0 -1.2 0
-4.448 -4.794 -29.434 -0 -1.2 0
-4.428 -5.314 -29.367 -0 -1.2 0
-4.408 -5.831 -29.291 -0 -1.2 0
-4.386 -6.348 -29.206 -0 -1.2 0
-4.361 -6.862 -29.113 -0 -1.2 0
-4.337 -7.375 -29.011 -0 -1.2 0
-4.31 -7.886 -28.899 -0 -1.2 0
-4.283 -8.395 -28.78 -0 -1.2 0
-4.254 -8.901 -28.651 -0 -1.2 0
-4.224 -9.406 -28.513 -0 -1.2 0
-4.192 -9.908 -28.367 -0 -1.2 0
-4.16 -10.407 -28.212 -0 -1.2 0
-4.126 -10.903 -28.049 -0 -1.2 0
-4.09 -11.396 -27.876 -0 -1.2 0
-4.054 -11.886 -27.696 -0 -1.2 0
-4.016 -12.374 -27.508 -0 -1.2 0
-3.977 -12.857 -27.31 -0 -1.2 0
-3.937 -13.336 -27.104 -0 -1.2 0
-3.896 -13.813 -26.891 -0 -1.2 0
-3.853 -14.285 -26.668 -0 -1.2 0
-3.81 -14.753 -26.438 -0 -1.2 0
-3.765 -15.217 -26.2 -0 -1.2 0
-3.718 -15.677 -25.954 -0 -1.2 0
-3.671 -16.132 -25.699 -0 -1.2 0
-3.623 -16.583 -25.437 -0 -1.2 0
-3.574 -17.029 -25.168 -0 -1.2 0
-3.522 -17.47 -24.89 -0 -1.2 0
-3.471 -17.907 -24.605 -0 -1.2 0
-3.418 -18.337 -24.313 -0 -1.2 0
-3.365 -18.763 -24.013 -0 -1.2 0
-3.31 -19.184 -23.705 -0 -1.2 0
-3.254 -19.599 -23.392 -0 -1.2 0
-3.197 -20.008 -23.07 -0 -1.2 0
-3.14 -20.411 -22.742 -0 -1.2 0
-3.081 -20.809 -22.406 -0 -1.2 0
-3.022 -21.201 -22.064 -0 -1.2 0
-2.961 -21.586 -21.715 -0 -1.2 0
-2.9 -21.965 -21.359 -0 -1.2 0
-2.837 -22.339 -20.996 -0 -1.2 0
-2.774 -22.706 -20.628 -0 -1.2 0
-5.503 -0.629 -29.466 -0 -1.2 0
-5.495 -1.152 -29.472 -0 -1.2 0
-5.484 -1.675 -29.468 -0 -1.2 0
-5.474 -2.197 -29.456 -0 -1.2 0
-5.46 -2.72 -29.434 -0 -1.2 0
-5.446 -3.243 -29.403 -0 -1.2 0
-5.429 -3.765 -29.363 -0 -1.2 0
-5.411 -4.286 -29.315 -0 -1.2 0
-5.391 -4.806 -29.258 -0 -1.2 0
-5.37 -5.325 -29.192 -0 -1.2 0
-5.346 -5.843 -29.116 -0 -1.2 0
-5.321 -6.359 -29.032 -0 -1.2 0
-5.295 -6.873 -28.94 -0 -1.2 0
-5.267 -7.386 -28.838 -0 -1.2 0
-5.238 -7.897 -28.727 -0 -1.2 0
-5.207 -8.406 -28.608 -0 -1.2 0
-5.174 -8.912 -28.48 -0 -1.2 0
-5.14 -9.417 -28.343 -0 -1.2 0
-5.103 -9.919 -28.198 -0 -1.2 0
-5.066 -10.418 -28.043 -0 -1.2 0
-5.027 -10.914 -27.881 -0 -1.2 0
-4.986 -11.407 -27.71 -0 -1.2 0
-4.945 -11.897 -27.531 -0 -1.2 0
-4.9 -12.384 -27.343 -0 -1.2 0
-4.856 -12.867 -27.146 -0 -1.2 0
-4.761 -13.823 -26.729 -0 -1.2 0
-4.712 -14.295 -26.509 -0 -1.2 0
-4.661 -14.764 -26.279 -0 -1.2 0
-4.608 -15.227 -26.043 -0 -1.2 0
-4.555 -15.687 -25.797 -0 -1.2 0
-4.499 -16.142 -25.545 -0 -1.2 0
-4.443 -16.593 -25.285 -0 -1.2 0
-4.385 -17.039 -25.017 -0 -1.2 0
-4.326 -17.48 -24.741 -0 -1.2 0
-4.266 -17.916 -24.458 -0 -1.2 0
-4.204 -18.347 -24.167 -0 -1.2 0
-4.14 -18.773 -23.868 -0 -1.2 0
-4.076 -19.193 -23.563 -0 -1.2 0
-4.01 -19.608 -23.251 -0 -1.2 0
-3.944 -20.017 -22.93 -0 -1.2 0
-3.875 -20.42 -22.603 -0 -1.2 0
-3.806 -20.818 -22.27 -0 -1.2 0
-3.735 -21.209 -21.93 -0 -1.2 0
-3.665 -21.595 -21.582 -0 -1.2 0
-3.592 -21.974 -21.229 -0 -1.2 0
-3.518 -22.347 -20.869 -0 -1.2 0
-3.443 -22.714 -20.502 -0 -1.2 0
-6.519 -0.641 -29.241 -0 -1.2 0
-6.511 -1.164 -29.247 -0 -1.2 0
-6.501 -1.687 -29.243 -0 -1.2 0
-6.49 -2.21 -29.231 -0 -1.2 0
-6.476 -2.732 -29.209 -0 -1.2 0
-6.46 -3.256 -29.179 -0 -1.2 0
-6.443 -3.777 -29.14 -0 -1.2 0
-6.423 -4.298 -29.092 -0 -1.2 0
-6.402 -4.818 -29.035 -0 -1.2 0
-6.377 -5.338 -28.969 -0 -1.2 0
-6.352 -5.855 -28.894 -0 -1.2 0
-6.325 -6.371 -28.811 -0 -1.2 0
-6.295 -6.886 -28.719 -0 -1.2 0
-6.264 -7.398 -28.618 -0 -1.2 0
-6.231 -7.909 -28.508 -0 -1.2 0
-6.196 -8.418 -28.389 -0 -1.2 0
-6.159 -8.924 -28.262 -0 -1.2 0
-6.121 -9.429 -28.126 -0 -1.2 0
-6.08 -9.931 -27.983 -0 -1.2 0
-6.037 -10.43 -27.83 -0 -1.2 0
-5.946 -11.419 -27.498 -0 -1.2 0
-5.899 -11.909 -27.321 -0 -1.2 0
-5.849 -12.396 -27.134 -0 -1.2 0
-5.743 -13.358 -26.736 -0 -1.2 0
-5.688 -13.835 -26.525 -0 -1.2 0
-5.632 -14.306 -26.306 -0 -1.2 0
-5.523 -14.651 -25.843 -0 -1.2 0
-5.513 -15.238 -25.843 -0 -1.2 0
-5.451 -15.698 -25.6 -0 -1.2 0
-5.387 -16.153 -25.349 -0 -1.2 0
-5.322 -16.604 -25.09 -0 -1.2 0
-5.255 -17.05 -24.824 -0 -1.2 0
-5.187 -17.49 -24.55 -0 -1.2 0
-5.116 -17.927 -24.269 -0 -1.2 0
-5.045 -18.357 -23.98 -0 -1.2 0
-4.972 -18.783 -23.684 -0 -1.2 0
-4.898 -19.203 -23.382 -0 -1.2 0
-4.821 -19.618 -23.071 -0 -1.2 0
-4.743 -20.027 -22.753 -0 -1.2 0
-4.664 -20.43 -22.429 -0 -1.2 0
-4.583 -20.827 -22.097 -0 -1.2 0
-4.502 -21.219 -21.76 -0 -1.2 0
-4.418 -21.604 -21.415 -0 -1.2 0
-4.334 -21.983 -21.063 -0 -1.2 0
-4.248 -22.356 -20.706 -0 -1.2 0
-4.16 -22.723 -20.342 -0 -1.2 0
-7.451 -0.127 -28.988 -0 -1.2 0
-7.446 -0.651 -29.003 -0 -1.2 0
-7.099 -6.277 -28.013 -0 -1.2 0
-7.075 -6.788 -27.952 -0 -1.2 0
-7.175 -7.409 -28.384 -0 -1.2 0
-7.139 -7.919 -28.275 -0 -1.2 0
-7.1 -8.428 -28.157 -0 -1.2 0
-7.059 -8.934 -28.031 -0 -1.2 0
-7.016 -9.439 -27.897 -0 -1.2 0
-6.971 -9.941 -27.754 -0 -1.2 0
-6.641 -11.153 -26.545 -0 -1.2 0
-6.77 -11.918 -27.097 -0 -1.2 0
-6.536 -13.844 -26.308 -0 -1.2 0
-6.472 -14.316 -26.09 -0 -1.2 0
-6.406 -14.784 -25.865 -0 -1.2 0
-6.339 -15.247 -25.632 -0 -1.2 0
-6.269 -15.707 -25.39 -0 -1.2 0
-6.198 -16.162 -25.141 -0 -1.2 0
-6.124 -16.613 -24.885 -0 -1.2 0
-6.049 -17.059 -24.62 -0 -1.2 0
-5.972 -17.499 -24.349 -0 -1.2 0
-5.894 -17.935 -24.07 -0 -1.2 0
-5.813 -18.366 -23.783 -0 -1.2 0
-5.731 -18.792 -23.489 -0 -1.2 0
-5.647 -19.211 -23.188 -0 -1.2 0
-5.56 -19.626 -22.88 -0 -1.2 0
-5.473 -20.035 -22.565 -0 -1.2 0
-5.384 -20.438 -22.243 -0 -1.2 0
-5.293 -20.835 -21.914 -0 -1.2 0
-5.201 -21.227 -21.578 -0 -1.2 0
-5.106 -21.612 -21.237 -0 -1.2 0
-5.011 -21.99 -20.889 -0 -1.2 0
-4.914 -22.363 -20.534 -0 -1.2 0
-4.815 -22.73 -20.173 -0 -1.2 0
-8.389 -0.146 -28.715 -0 -1.2 0
-8.385 -0.67 -28.729 -0 -1.2 0
-8.378 -1.193 -28.734 -0 -1.2 0
-8.368 -1.716 -28.731 -0 -1.2 0
-8.356 -2.239 -28.718 -0 -1.2 0
-8.341 -2.762 -28.697 -0 -1.2 0
-8.323 -3.285 -28.667 -0 -1.2 0
-8.304 -3.806 -28.629 -0 -1.2 0
-8.282 -4.327 -28.581 -0 -1.2 0
-8.257 -4.847 -28.525 -0 -1.2 0
-7.82 -10.458 -27.338 -0 -1.2 0
-7.766 -10.953 -27.18 -0 -1.2 0
-7.709 -11.447 -27.012 -0 -1.2 0
-7.397 -12.136 -25.977 -0 -1.2 0
-7.349 -12.63 -25.843 -0 -1.2 0
-7.46 -13.385 -26.262 -0 -1.2 0
-7.392 -13.861 -26.055 -0 -1.2 0
-7.321 -14.333 -25.839 -0 -1.2 0
-7.174 -15.264 -25.383 -0 -1.2 0
-7.096 -15.724 -25.145 -0 -1.2 0
-7.017 -16.179 -24.897 -0 -1.2 0
-6.936 -16.629 -24.643 -0 -1.2 0
-6.852 -17.075 -24.381 -0 -1.2 0
-6.767 -17.515 -24.112 -0 -1.2 0
-6.679 -17.951 -23.835 -0 -1.2 0
-6.59 -18.381 -23.551 -0 -1.2 0
-6.497 -18.807 -23.26 -0 -1.2 0
-6.404 -19.227 -22.961 -0 -1.2 0
-6.309 -19.641 -22.655 -0 -1.2 0
-6.211 -20.049 -22.343 -0 -1.2 0
-6.112 -20.453 -22.024 -0 -1.2 0
-6.01 -20.85 -21.698 -0 -1.2 0
-5.907 -21.241 -21.366 -0 -1.2 0
-5.802 -21.625 -21.026 -0 -1.2 0
-5.695 -22.004 -20.681 -0 -1.2 0
-5.587 -22.377 -20.329 -0 -1.2 0
-5.477 -22.743 -19.971 -0 -1.2 0
-9.398 -0.171 -28.385 -0 -1.2 0
-9.394 -0.695 -28.399 -0 -1.2 0
-9.388 -1.218 -28.404 -0 -1.2 0
-9.378 -1.741 -28.4 -0 -1.2 0
-9.366 -2.264 -28.387 -0 -1.2 0
-9.35 -2.787 -28.366 -0 -1.2 0
-9.332 -3.31 -28.336 -0 -1.2 0
-9.311 -3.831 -28.298 -0 -1.2 0
-9.288 -4.352 -28.251 -0 -1.2 0
-9.261 -4.872 -28.195 -0 -1.2 0
-9.231 -5.391 -28.131 -0 -1.2 0
-9.199 -5.909 -28.057 -0 -1.2 0
-9.164 -6.425 -27.976 -0 -1.2 0
-9.126 -6.939 -27.886 -0 -1.2 0
-8.917 -7.333 -27.267 -0 -1.2 0
-8.947 -8.977 -27.441 -0 -1.2 0
-8.896 -9.481 -27.309 -0 -1.2 0
-8.841 -9.983 -27.168 -0 -1.2 0
-8.505 -11.279 -26.205 -0 -1.2 0
-8.531 -12.446 -26.34 -0 -1.2 0
-8.387 -13.408 -25.953 -0 -1.2 0
-8.213 -13.73 -25.438 -0 -1.2 0
-8.234 -14.355 -25.534 -0 -1.2 0
-8.154 -14.823 -25.313 -0 -1.2 0
-8.072 -15.286 -25.083 -0 -1.2 0
-7.986 -15.746 -24.847 -0 -1.2 0
-7.899 -16.201 -24.602 -0 -1.2 0
-7.808 -16.651 -24.35 -0 -1.2 0
-7.716 -17.096 -24.09 -0 -1.2 0
-7.621 -17.536 -23.824 -0 -1.2 0
-7.524 -17.972 -23.55 -0 -1.2 0
-7.424 -18.402 -23.269 -0 -1.2 0
-7.323 -18.827 -22.981 -0 -1.2 0
-7.218 -19.247 -22.686 -0 -1.2 0
-7.113 -19.661 -22.383 -0 -1.2 0
-7.005 -20.069 -22.074 -0 -1.2 0
-6.894 -20.472 -21.758 -0 -1.2 0
-6.781 -20.869 -21.435 -0 -1.2 0
-6.667 -21.259 -21.107 -0 -1.2 0
-6.551 -21.644 -20.77 -0 -1.2 0
-6.431 -22.022 -20.429 -0 -1.2 0
-6.311 -22.394 -20.08 -0 -1.2 0
-6.189 -22.761 -19.726 -0 -1.2 0
-10.322 -0.719 -28.058 -0 -1.2 0
-10.315 -1.242 -28.062 -0 -1.2 0
-10.306 -1.765 -28.058 -0 -1.2 0
-10.293 -2.288 -28.046 -0 -1.2 0
-10.278 -2.811 -28.025 -0 -1.2 0
-10.259 -3.334 -27.994 -0 -1.2 0
-10.237 -3.855 -27.957 -0 -1.2 0
-10.212 -4.376 -27.91 -0 -1.2 0
-10.184 -4.896 -27.854 -0 -1.2 0
-10.152 -5.415 -27.79 -0 -1.2 0
-10.118 -5.933 -27.718 -0 -1.2 0
-10.081 -6.449 -27.638 -0 -1.2 0
-10.04 -6.963 -27.548 -0 -1.2 0
-9.996 -7.475 -27.45 -0 -1.2 0
-9.95 -7.986 -27.344 -0 -1.2 0
-9.847 -9 -27.107 -0 -1.2 0
-9.792 -9.504 -26.976 -0 -1.2 0
-9.671 -10.504 -26.689 -0 -1.2 0
-9.606 -11 -26.533 -0 -1.2 0
-9.54 -11.493 -26.37 -0 -1.2 0
-9.469 -11.982 -26.198 -0 -1.2 0
-9.395 -12.469 -26.018 -0 -1.2 0
-9.241 -13.43 -25.634 -0 -1.2 0
-9.158 -13.906 -25.43 -0 -1.2 0
-9.074 -14.377 -25.219 -0 -1.2 0
-8.986 -14.845 -25 -0 -1.2 0
-8.804 -15.767 -24.539 -0 -1.2 0
-8.708 -16.221 -24.297 -0 -1.2 0
-8.61 -16.672 -24.048 -0 -1.2 0
-8.509 -17.117 -23.792 -0 -1.2 0
-8.406 -17.556 -23.527 -0 -1.2 0
-8.3 -17.992 -23.256 -0 -1.2 0
-8.191 -18.422 -22.978 -0 -1.2 0
-8.081 -18.847 -22.692 -0 -1.2 0
-7.968 -19.266 -22.4 -0 -1.2 0
-7.851 -19.68 -22.101 -0 -1.2 0
-7.733 -20.088 -21.795 -0 -1.2 0
-7.613 -20.49 -21.483 -0 -1.2 0
-7.49 -20.887 -21.163 -0 -1.2 0
-7.365 -21.277 -20.839 -0 -1.2 0
-7.237 -21.662 -20.506 -0 -1.2 0
-7.108 -22.04 -20.169 -0 -1.2 0
-6.976 -22.412 -19.824 -0 -1.2 0
-6.842 -22.777 -19.474 -0 -1.2 0
-11.207 0.304 -27.668 -0 -1.2 0
-11.207 -0.217 -27.689 -0 -1.2 0
-11.161 -2.833 -27.668 -0 -1.2 0
-11.141 -3.356 -27.639 -0 -1.2 0
-11.118 -3.877 -27.601 -0 -1.2 0
-11.092 -4.398 -27.554 -0 -1.2 0
-11.062 -4.918 -27.5 -0 -1.2 0
-11.028 -5.437 -27.436 -0 -1.2 0
-10.993 -5.955 -27.365 -0 -1.2 0
-10.953 -6.471 -27.285 -0 -1.2 0
-10.909 -6.984 -27.196 -0 -1.2 0
-10.813 -8.008 -26.994 -0 -1.2 0
-10.76 -8.516 -26.881 -0 -1.2 0
-10.622 -8.962 -26.553 -0 -1.2 0
-10.581 -10.027 -26.492 -0 -1.2 0
-10.515 -10.526 -26.346 -0 -1.2 0
-10.445 -11.021 -26.192 -0 -1.2 0
-10.373 -11.514 -26.03 -0 -1.2 0
-10.298 -12.003 -25.859 -0 -1.2 0
-10.219 -12.489 -25.681 -0 -1.2 0
-10.137 -12.972 -25.496 -0 -1.2 0
-10.052 -13.45 -25.302 -0 -1.2 0
-9.964 -13.926 -25.101 -0 -1.2 0
-9.873 -14.397 -24.891 -0 -1.2 0
-9.779 -14.865 -24.675 -0 -1.2 0
-9.682 -15.327 -24.451 -0 -1.2 0
-9.582 -15.787 -24.219 -0 -1.2 0
-9.479 -16.241 -23.98 -0 -1.2 0
-9.373 -16.691 -23.733 -0 -1.2 0
-9.265 -17.136 -23.48 -0 -1.2 0
-9.153 -17.575 -23.219 -0 -1.2 0
-9.039 -18.011 -22.951 -0 -1.2 0
-8.922 -18.44 -22.675 -0 -1.2 0
-8.802 -18.865 -22.394 -0 -1.2 0
-8.68 -19.284 -22.105 -0 -1.2 0
-8.555 -19.698 -21.809 -0 -1.2 0
-8.427 -20.105 -21.507 -0 -1.2 0
-8.297 -20.508 -21.198 -0 -1.2 0
-8.165 -20.904 -20.883 -0 -1.2 0
-8.03 -21.294 -20.561 -0 -1.2 0
-7.892 -21.678 -20.232 -0 -1.2 0
-7.752 -22.056 -19.898 -0 -1.2 0
-7.609 -22.427 -19.558 -0 -1.2 0
-7.465 -22.793 -19.211 -0 -1.2 0
-12.137 0.282 -27.259 -0 -1.2 0
-12.139 -0.24 -27.28 -0 -1.2 0
-12.136 -0.764 -27.292 -0 -1.2 0
-12.131 -1.287 -27.296 -0 -1.2 0
-12.122 -1.81 -27.291 -0 -1.2 0
-12.109 -2.333 -27.279 -0 -1.2 0
-12.091 -2.855 -27.258 -0 -1.2 0
-12.071 -3.379 -27.228 -0 -1.2 0
-11.988 -4.94 -27.09 -0 -1.2 0
-11.953 -5.46 -27.027 -0 -1.2 0
-11.915 -5.977 -26.957 -0 -1.2 0
-11.872 -6.493 -26.877 -0 -1.2 0
-11.826 -7.007 -26.79 -0 -1.2 0
-11.776 -7.519 -26.694 -0 -1.2 0
-11.724 -8.029 -26.591 -0 -1.2 0
-11.667 -8.538 -26.478 -0 -1.2 0
-11.607 -9.044 -26.359 -0 -1.2 0
-11.543 -9.547 -26.23 -0 -1.2 0
