# .PCD v.7 - Point Cloud Data file format
FIELDS x y z vp_x vp_y vp_z
SIZE 4 4 4 4 4 4
TYPE F F F F F F
COUNT 1 1 1 1 1 1
WIDTH 1664
HEIGHT 1
VIEWPOINT 0 -1.20004 0 1 0 0 0
POINTS 1664
DATA ascii
-3.097 -1.341 7.721 -0 -1.2 0
-3.097 -1.487 7.726 -0 -1.2 0
-3.096 -1.634 7.729 -0 -1.2 0
-3.09 -1.779 7.72 -0 -1.2 0
-3.086 -1.926 7.718 -0 -1.2 0
-3.028 -2.056 7.575 -0 -1.2 0
-3.222 -2.273 8.076 -0 -1.2 0
-3.223 -2.43 8.085 -0 -1.2 0
-3.222 -2.588 8.09 -0 -1.2 0
-3.222 -2.746 8.094 -0 -1.2 0
-3.223 -2.907 8.102 -0 -1.2 0
-3.223 -3.067 8.11 -0 -1.2 0
-3.218 -3.228 8.104 -0 -1.2 0
-3.22 -3.393 8.115 -0 -1.2 0
-3.217 -3.557 8.113 -0 -1.2 0
-3.216 -3.723 8.117 -0 -1.2 0
-3.213 -3.891 8.119 -0 -1.2 0
-3.214 -4.063 8.126 -0 -1.2 0
-3.21 -4.232 8.122 -0 -1.2 0
-3.113 -4.308 7.879 -0 -1.2 0
-3.113 -4.483 7.887 -0 -1.2 0
-3.112 -4.658 7.892 -0 -1.2 0
-3.106 -4.83 7.886 -0 -1.2 0
-3.1 -5.003 7.876 -0 -1.2 0
-3.102 -5.19 7.888 -0 -1.2 0
-3.099 -5.374 7.888 -0 -1.2 0
-3.095 -5.559 7.885 -0 -1.2 0
-3.092 -5.75 7.885 -0 -1.2 0
-3.082 -5.932 7.867 -0 -1.2 0
-3.033 -6.054 7.748 -0 -1.2 0
-3.179 -6.509 8.137 -0 -1.2 0
-3.178 -6.726 8.143 -0 -1.2 0
-3.178 -6.95 8.152 -0 -1.2 0
-3.174 -7.171 8.15 -0 -1.2 0
-3.17 -7.399 8.149 -0 -1.2 0
-3.17 -7.641 8.159 -0 -1.2 0
-3.168 -7.885 8.164 -0 -1.2 0
-3.163 -8.131 8.163 -0 -1.2 0
-3.077 -8.194 7.948 -0 -1.2 0
-3.008 -8.291 7.776 -0 -1.2 0
-2.999 -8.536 7.764 -0 -1.2 0
-2.928 -8.626 7.588 -0 -1.2 0
-2.824 -8.623 7.323 -0 -1.2 0
-0.395 0.004 0.949 -0 -1.2 0
-0.407 0 0.98 -0 -1.2 0
-0.421 0.002 1.019 -0 -1.2 0
-0.435 0.002 1.057 -0 -1.2 0
-0.446 -0.004 1.089 -0 -1.2 0
-0.465 0.008 1.143 -0 -1.2 0
-0.479 0.005 1.182 -0 -1.2 0
-0.496 0.007 1.23 -0 -1.2 0
-0.511 0.002 1.27 -0 -1.2 0
-0.525 -0.004 1.31 -0 -1.2 0
-0.545 0 1.366 -0 -1.2 0
-0.562 -0.002 1.415 -0 -1.2 0
-0.577 -0.012 1.456 -0 -1.2 0
-0.597 -0.013 1.513 -0 -1.2 0
-0.621 -0.01 1.579 -0 -1.2 0
-0.65 0 1.661 -0 -1.2 0
-0.671 -0.005 1.72 -0 -1.2 0
-0.698 -0.003 1.795 -0 -1.2 0
-0.729 0 1.878 -0 -1.2 0
-0.759 0.001 1.963 -0 -1.2 0
-0.792 0.003 2.057 -0 -1.2 0
-0.829 0.007 2.161 -0 -1.2 0
-0.863 0.004 2.256 -0 -1.2 0
-0.91 0.012 2.386 -0 -1.2 0
-0.947 0.005 2.491 -0 -1.2 0
-0.994 0.006 2.622 -0 -1.2 0
-1.042 0.002 2.755 -0 -1.2 0
-1.106 0.01 2.933 -0 -1.2 0
-1.169 0.011 3.112 -0 -1.2 0
-1.24 0.012 3.31 -0 -1.2 0
-1.318 0.012 3.525 -0 -1.2 0
-1.408 0.015 3.78 -0 -1.2 0
-1.5 0.009 4.035 -0 -1.2 0
-1.611 0.008 4.346 -0 -1.2 0
-1.738 0.007 4.704 -0 -1.2 0
-1.876 0 5.09 -0 -1.2 0
-2.051 -0.002 5.58 -0 -1.2 0
-2.277 0.001 6.21 -0 -1.2 0
-2.603 0.026 7.122 -0 -1.2 0
-2.964 0.032 8.129 -0 -1.2 0
-3.086 -0.08 8.474 -0 -1.2 0
-3.082 -0.239 8.471 -0 -1.2 0
-3.081 -0.398 8.476 -0 -1.2 0
-3.077 -0.557 8.469 -0 -1.2 0
-3.077 -0.715 8.477 -0 -1.2 0
-3.077 -0.873 8.483 -0 -1.2 0
-3.073 -1.03 8.477 -0 -1.2 0
-3.077 -1.189 8.496 -0 -1.2 0
-3.07 -1.347 8.485 -0 -1.2 0
-3.071 -1.505 8.491 -0 -1.2 0
-3.069 -1.664 8.492 -0 -1.2 0
-3.066 -1.823 8.492 -0 -1.2 0
-3.013 -1.967 8.348 -0 -1.2 0
-3.029 -2.131 8.4 -0 -1.2 0
-3.11 -2.322 8.634 -0 -1.2 0
-3.11 -2.487 8.642 -0 -1.2 0
-3.109 -2.653 8.646 -0 -1.2 0
-3.108 -2.819 8.648 -0 -1.2 0
-3.105 -2.985 8.648 -0 -1.2 0
-3.104 -3.155 8.653 -0 -1.2 0
-3.1 -3.322 8.646 -0 -1.2 0
-3.097 -3.493 8.646 -0 -1.2 0
-3.093 -3.665 8.643 -0 -1.2 0
-3.091 -3.839 8.645 -0 -1.2 0
-3.089 -4.014 8.645 -0 -1.2 0
-3.088 -4.193 8.65 -0 -1.2 0
-3.083 -4.371 8.644 -0 -1.2 0
-3.083 -4.556 8.651 -0 -1.2 0
-3.082 -4.742 8.655 -0 -1.2 0
-3.077 -4.925 8.647 -0 -1.2 0
-3.076 -5.117 8.654 -0 -1.2 0
-3.07 -5.306 8.647 -0 -1.2 0
-3.067 -5.5 8.646 -0 -1.2 0
-3.063 -5.696 8.641 -0 -1.2 0
-3.063 -5.902 8.648 -0 -1.2 0
-3.058 -6.105 8.644 -0 -1.2 0
-3.055 -6.314 8.643 -0 -1.2 0
-3.05 -6.525 8.638 -0 -1.2 0
-3.043 -6.736 8.629 -0 -1.2 0
-3.038 -6.955 8.624 -0 -1.2 0
-3.037 -7.186 8.629 -0 -1.2 0
-3.031 -7.413 8.623 -0 -1.2 0
-3.029 -7.653 8.626 -0 -1.2 0
-3.027 -7.901 8.632 -0 -1.2 0
-3.021 -8.146 8.625 -0 -1.2 0
-2.99 -8.336 8.545 -0 -1.2 0
-2.973 -8.564 8.506 -0 -1.2 0
-2.885 -8.61 8.261 -0 -1.2 0
-2.78 -8.603 7.968 -0 -1.2 0
-2.721 -8.716 7.809 -0 -1.2 0
-2.689 -8.901 7.725 -0 -1.2 0
-0.356 0 0.972 -0 -1.2 0
-0.368 0.002 1.01 -0 -1.2 0
-0.38 0.004 1.049 -0 -1.2 0
-0.391 -0.001 1.081 -0 -1.2 0
-0.405 0.005 1.127 -0 -1.2 0
-0.418 0.003 1.167 -0 -1.2 0
-0.432 0.001 1.207 -0 -1.2 0
-0.447 0.003 1.255 -0 -1.2 0
-0.459 -0.001 1.295 -0 -1.2 0
-0.475 -0.001 1.344 -0 -1.2 0
-0.49 -0.003 1.393 -0 -1.2 0
-0.506 -0.005 1.442 -0 -1.2 0
-0.525 -0.004 1.499 -0 -1.2 0
-0.541 -0.01 1.549 -0 -1.2 0
-0.562 -0.008 1.615 -0 -1.2 0
-0.583 -0.007 1.682 -0 -1.2 0
-0.605 -0.007 1.75 -0 -1.2 0
-0.635 0.004 1.842 -0 -1.2 0
-0.656 -0.001 1.911 -0 -1.2 0
-0.682 -0.005 1.988 -0 -1.2 0
-0.714 0.002 2.091 -0 -1.2 0
-0.745 0.002 2.186 -0 -1.2 0
-0.779 0.003 2.291 -0 -1.2 0
-0.815 0.004 2.405 -0 -1.2 0
-0.858 0.009 2.538 -0 -1.2 0
-0.9 0.01 2.672 -0 -1.2 0
-0.941 0.002 2.797 -0 -1.2 0
-0.999 0.01 2.976 -0 -1.2 0
-1.059 0.015 3.166 -0 -1.2 0
-1.123 0.016 3.366 -0 -1.2 0
-1.191 0.014 3.576 -0 -1.2 0
-1.273 0.018 3.832 -0 -1.2 0
-1.356 0.012 4.09 -0 -1.2 0
-1.459 0.013 4.413 -0 -1.2 0
-1.573 0.01 4.766 -0 -1.2 0
-1.701 0.005 5.167 -0 -1.2 0
-1.848 -0.004 5.625 -0 -1.2 0
-2.051 0.001 6.262 -0 -1.2 0
-2.275 -0.006 6.957 -0 -1.2 0
-2.671 0.034 8.192 -0 -1.2 0
-3.08 0.035 9.468 -0 -1.2 0
-3.185 -0.107 9.799 -0 -1.2 0
-3.178 -0.289 9.786 -0 -1.2 0
-3.183 -0.469 9.809 -0 -1.2 0
-3.181 -0.65 9.809 -0 -1.2 0
-3.04 -0.842 9.378 -0 -1.2 0
-3.03 -1.014 9.353 -0 -1.2 0
-3.034 -1.186 9.372 -0 -1.2 0
-3.027 -1.359 9.362 -0 -1.2 0
-3.033 -1.531 9.385 -0 -1.2 0
-3.025 -1.704 9.368 -0 -1.2 0
-3.022 -1.876 9.367 -0 -1.2 0
-2.961 -2.031 9.183 -0 -1.2 0
-3.272 -2.317 10.16 -0 -1.2 0
-3.271 -2.507 10.168 -0 -1.2 0
-3.264 -2.696 10.153 -0 -1.2 0
-3.264 -2.888 10.163 -0 -1.2 0
-3.265 -3.082 10.17 -0 -1.2 0
-3.26 -3.274 10.165 -0 -1.2 0
-3.254 -3.467 10.156 -0 -1.2 0
-3.256 -3.667 10.172 -0 -1.2 0
-3.258 -3.868 10.184 -0 -1.2 0
-3.252 -4.066 10.173 -0 -1.2 0
-3.196 -4.214 10.005 -0 -1.2 0
-3.048 -4.263 9.543 -0 -1.2 0
-3.04 -4.45 9.526 -0 -1.2 0
-3.036 -4.644 9.524 -0 -1.2 0
-3.031 -4.84 9.518 -0 -1.2 0
-3.028 -5.04 9.517 -0 -1.2 0
-3.028 -5.244 9.522 -0 -1.2 0
-3.025 -5.45 9.522 -0 -1.2 0
-3.024 -5.662 9.527 -0 -1.2 0
-3.018 -5.87 9.52 -0 -1.2 0
-2.966 -6.003 9.364 -0 -1.2 0
-3.227 -6.677 10.204 -0 -1.2 0
-3.224 -6.916 10.203 -0 -1.2 0
-3.224 -7.166 10.213 -0 -1.2 0
-3.22 -7.413 10.211 -0 -1.2 0
-3.183 -7.599 10.105 -0 -1.2 0
-3.219 -7.938 10.23 -0 -1.2 0
-3.19 -8.147 10.148 -0 -1.2 0
-3.075 -8.162 9.793 -0 -1.2 0
-2.973 -8.19 9.474 -0 -1.2 0
-2.947 -8.398 9.401 -0 -1.2 0
-2.91 -8.581 9.294 -0 -1.2 0
-2.815 -8.608 8.997 -0 -1.2 0
-2.715 -8.613 8.688 -0 -1.2 0
-2.677 -8.783 8.577 -0 -1.2 0
-2.614 -8.879 8.384 -0 -1.2 0
-2.527 -8.897 8.113 -0 -1.2 0
-0.316 0.006 1.008 -0 -1.2 0
-0.328 0.009 1.047 -0 -1.2 0
-0.337 0.004 1.08 -0 -1.2 0
-0.348 0.004 1.119 -0 -1.2 0
-0.359 0.004 1.159 -0 -1.2 0
-0.372 0.01 1.207 -0 -1.2 0
-0.384 0.007 1.247 -0 -1.2 0
-0.397 0.009 1.296 -0 -1.2 0
-0.406 -0.001 1.329 -0 -1.2 0
-0.421 -0.002 1.378 -0 -1.2 0
-0.435 -0.003 1.427 -0 -1.2 0
-0.448 -0.006 1.478 -0 -1.2 0
-0.465 -0.004 1.535 -0 -1.2 0
-0.481 -0.006 1.593 -0 -1.2 0
-0.5 -0.003 1.661 -0 -1.2 0
-0.519 -0.002 1.728 -0 -1.2 0
-0.54 0.001 1.805 -0 -1.2 0
-0.564 0.007 1.89 -0 -1.2 0
-0.584 0.001 1.96 -0 -1.2 0
-0.608 0.003 2.046 -0 -1.2 0
-0.637 0.01 2.151 -0 -1.2 0
-0.665 0.009 2.248 -0 -1.2 0
-0.692 0.006 2.345 -0 -1.2 0
-0.724 0.006 2.461 -0 -1.2 0
-0.76 0.008 2.586 -0 -1.2 0
-0.802 0.016 2.738 -0 -1.2 0
-0.839 0.007 2.865 -0 -1.2 0
-0.887 0.012 3.037 -0 -1.2 0
-0.941 0.017 3.229 -0 -1.2 0
-1 0.021 3.441 -0 -1.2 0
-1.062 0.022 3.662 -0 -1.2 0
-1.132 0.021 3.912 -0 -1.2 0
-1.211 0.02 4.192 -0 -1.2 0
-1.312 0.028 4.547 -0 -1.2 0
-1.412 0.023 4.904 -0 -1.2 0
-1.522 0.014 5.3 -0 -1.2 0
-1.663 0.011 5.801 -0 -1.2 0
-1.834 0.007 6.407 -0 -1.2 0
-2.039 0.003 7.139 -0 -1.2 0
-2.293 -0.004 8.044 -0 -1.2 0
-2.793 0.057 9.821 -0 -1.2 0
-2.959 -0.063 10.415 -0 -1.2 0
-2.953 -0.254 10.403 -0 -1.2 0
-2.954 -0.443 10.416 -0 -1.2 0
-2.952 -0.632 10.417 -0 -1.2 0
-2.949 -0.821 10.414 -0 -1.2 0
-2.945 -1.009 10.408 -0 -1.2 0
-2.943 -1.198 10.409 -0 -1.2 0
-2.94 -1.387 10.406 -0 -1.2 0
-2.942 -1.577 10.42 -0 -1.2 0
-2.94 -1.766 10.421 -0 -1.2 0
-2.886 -1.941 10.236 -0 -1.2 0
-2.922 -2.142 10.374 -0 -1.2 0
-2.989 -2.362 10.624 -0 -1.2 0
-2.981 -2.553 10.602 -0 -1.2 0
-2.983 -2.752 10.615 -0 -1.2 0
-2.977 -2.947 10.605 -0 -1.2 0
-2.976 -3.146 10.611 -0 -1.2 0
-2.974 -3.346 10.614 -0 -1.2 0
-2.972 -3.547 10.613 -0 -1.2 0
-2.963 -3.744 10.589 -0 -1.2 0
-2.958 -3.945 10.581 -0 -1.2 0
-2.955 -4.151 10.579 -0 -1.2 0
-2.951 -4.356 10.573 -0 -1.2 0
-2.951 -4.568 10.582 -0 -1.2 0
-2.947 -4.778 10.578 -0 -1.2 0
-2.945 -4.992 10.579 -0 -1.2 0
-2.944 -5.212 10.585 -0 -1.2 0
-2.941 -5.432 10.587 -0 -1.2 0
-2.938 -5.654 10.584 -0 -1.2 0
-2.931 -5.873 10.569 -0 -1.2 0
-2.906 -6.063 10.488 -0 -1.2 0
-2.929 -6.338 10.578 -0 -1.2 0
-2.925 -6.574 10.575 -0 -1.2 0
-2.92 -6.811 10.568 -0 -1.2 0
-2.916 -7.054 10.564 -0 -1.2 0
-2.911 -7.298 10.556 -0 -1.2 0
-2.908 -7.554 10.559 -0 -1.2 0
-2.902 -7.807 10.548 -0 -1.2 0
-2.894 -8.061 10.532 -0 -1.2 0
-2.863 -8.262 10.431 -0 -1.2 0
-2.849 -8.507 10.389 -0 -1.2 0
-2.771 -8.583 10.114 -0 -1.2 0
-2.667 -8.58 9.747 -0 -1.2 0
-2.605 -8.683 9.529 -0 -1.2 0
-2.567 -8.854 9.4 -0 -1.2 0
-2.476 -8.858 9.076 -0 -1.2 0
-0.279 0.007 1.035 -0 -1.2 0
-0.287 0.003 1.068 -0 -1.2 0
-0.298 0.012 1.114 -0 -1.2 0
-0.306 0.005 1.147 -0 -1.2 0
-0.316 0.005 1.187 -0 -1.2 0
-0.326 0.003 1.228 -0 -1.2 0
-0.338 0.007 1.276 -0 -1.2 0
-0.346 -0.002 1.31 -0 -1.2 0
-0.358 -0.001 1.359 -0 -1.2 0
-0.37 -0.001 1.408 -0 -1.2 0
-0.382 -0.003 1.458 -0 -1.2 0
-0.397 0 1.516 -0 -1.2 0
-0.409 -0.004 1.566 -0 -1.2 0
-0.424 -0.005 1.625 -0 -1.2 0
-0.442 0.003 1.701 -0 -1.2 0
-0.459 0.003 1.77 -0 -1.2 0
-0.478 0.007 1.846 -0 -1.2 0
-0.495 0.004 1.915 -0 -1.2 0
-0.516 0.007 2.002 -0 -1.2 0
-0.537 0.007 2.09 -0 -1.2 0
-0.562 0.01 2.187 -0 -1.2 0
-0.588 0.014 2.293 -0 -1.2 0
-0.611 0.009 2.391 -0 -1.2 0
-0.64 0.01 2.508 -0 -1.2 0
-0.676 0.019 2.653 -0 -1.2 0
-0.706 0.016 2.78 -0 -1.2 0
-0.745 0.018 2.935 -0 -1.2 0
-0.785 0.018 3.1 -0 -1.2 0
-0.831 0.019 3.285 -0 -1.2 0
-0.882 0.024 3.497 -0 -1.2 0
-0.94 0.026 3.73 -0 -1.2 0
-0.995 0.018 3.955 -0 -1.2 0
-1.076 0.029 4.284 -0 -1.2 0
-1.159 0.032 4.624 -0 -1.2 0
-1.25 0.028 4.993 -0 -1.2 0
-1.354 0.025 5.421 -0 -1.2 0
-1.488 0.028 5.964 -0 -1.2 0
-1.633 0.019 6.557 -0 -1.2 0
-1.82 0.016 7.325 -0 -1.2 0
-2.049 0.009 8.258 -0 -1.2 0
-2.497 0.072 10.08 -0 -1.2 0
-2.726 -0.017 11.017 -0 -1.2 0
-2.921 -0.152 11.818 -0 -1.2 0
-2.922 -0.364 11.833 -0 -1.2 0
-2.918 -0.578 11.825 -0 -1.2 0
-2.887 -0.793 11.707 -0 -1.2 0
-2.88 -1.002 11.691 -0 -1.2 0
-2.88 -1.213 11.702 -0 -1.2 0
-2.877 -1.423 11.699 -0 -1.2 0
-2.873 -1.632 11.692 -0 -1.2 0
-2.868 -1.843 11.682 -0 -1.2 0
-2.828 -2.04 11.524 -0 -1.2 0
-2.946 -2.298 12.019 -0 -1.2 0
-2.943 -2.516 12.017 -0 -1.2 0
-2.944 -2.737 12.03 -0 -1.2 0
-2.941 -2.957 12.03 -0 -1.2 0
-2.935 -3.175 12.016 -0 -1.2 0
-2.936 -3.4 12.027 -0 -1.2 0
-2.933 -3.623 12.026 -0 -1.2 0
-2.933 -3.852 12.039 -0 -1.2 0
-2.93 -4.079 12.039 -0 -1.2 0
-2.893 -4.27 11.893 -0 -1.2 0
-2.893 -4.502 11.903 -0 -1.2 0
-2.89 -4.732 11.9 -0 -1.2 0
-2.888 -4.966 11.902 -0 -1.2 0
-2.882 -5.197 11.891 -0 -1.2 0
-2.878 -5.434 11.885 -0 -1.2 0
-2.875 -5.674 11.883 -0 -1.2 0
-2.849 -5.879 11.786 -0 -1.2 0
-2.826 -6.09 11.704 -0 -1.2 0
-2.91 -6.498 12.064 -0 -1.2 0
-2.909 -6.759 12.069 -0 -1.2 0
-2.903 -7.018 12.06 -0 -1.2 0
-2.903 -7.291 12.072 -0 -1.2 0
-2.901 -7.567 12.077 -0 -1.2 0
-2.903 -7.855 12.094 -0 -1.2 0
-2.894 -8.125 12.072 -0 -1.2 0
-2.804 -8.192 11.709 -0 -1.2 0
-2.79 -8.449 11.662 -0 -1.2 0
-2.722 -8.56 11.389 -0 -1.2 0
-2.614 -8.553 10.953 -0 -1.2 0
-2.549 -8.652 10.689 -0 -1.2 0
-2.504 -8.808 10.513 -0 -1.2 0
-2.421 -8.84 10.178 -0 -1.2 0
-0.241 0.006 1.061 -0 -1.2 0
-0.247 0.002 1.093 -0 -1.2 0
-0.256 0.004 1.133 -0 -1.2 0
-0.264 0.004 1.173 -0 -1.2 0
-0.272 0.004 1.214 -0 -1.2 0
-0.281 0.003 1.255 -0 -1.2 0
-0.288 -0.006 1.288 -0 -1.2 0
-0.296 -0.009 1.329 -0 -1.2 0
-0.309 -0.001 1.386 -0 -1.2 0
-0.32 -0.002 1.436 -0 -1.2 0
-0.33 -0.003 1.486 -0 -1.2 0
-0.34 -0.006 1.537 -0 -1.2 0
-0.351 -0.011 1.588 -0 -1.2 0
-0.367 0 1.664 -0 -1.2 0
-0.381 0.002 1.732 -0 -1.2 0
-0.394 -0.002 1.792 -0 -1.2 0
-0.411 0.001 1.87 -0 -1.2 0
-0.427 0.003 1.948 -0 -1.2 0
-0.443 0.001 2.027 -0 -1.2 0
-0.46 -0.001 2.107 -0 -1.2 0
-0.483 0.005 2.213 -0 -1.2 0
-0.505 0.008 2.32 -0 -1.2 0
-0.524 0.001 2.41 -0 -1.2 0
-0.552 0.009 2.546 -0 -1.2 0
-0.581 0.014 2.681 -0 -1.2 0
-0.608 0.01 2.81 -0 -1.2 0
-0.638 0.009 2.957 -0 -1.2 0
-0.674 0.011 3.123 -0 -1.2 0
-0.708 0.006 3.291 -0 -1.2 0
-0.758 0.016 3.523 -0 -1.2 0
-0.81 0.025 3.777 -0 -1.2 0
-0.86 0.019 4.012 -0 -1.2 0
-0.924 0.023 4.315 -0 -1.2 0
-0.994 0.023 4.648 -0 -1.2 0
-1.076 0.024 5.04 -0 -1.2 0
-1.169 0.022 5.48 -0 -1.2 0
-1.278 0.019 5.999 -0 -1.2 0
-1.405 0.013 6.606 -0 -1.2 0
-1.565 0.008 7.37 -0 -1.2 0
-1.758 -0.001 8.29 -0 -1.2 0
-2.011 -0.011 9.494 -0 -1.2 0
-2.332 -0.032 11.021 -0 -1.2 0
-2.781 -0.059 13.166 -0 -1.2 0
-2.805 -0.287 13.289 -0 -1.2 0
-2.801 -0.524 13.282 -0 -1.2 0
-2.802 -0.759 13.301 -0 -1.2 0
-2.797 -0.996 13.285 -0 -1.2 0
-2.795 -1.232 13.286 -0 -1.2 0
-2.793 -1.469 13.292 -0 -1.2 0
-2.785 -1.705 13.265 -0 -1.2 0
-2.743 -1.93 13.077 -0 -1.2 0
-2.858 -2.209 13.637 -0 -1.2 0
-2.857 -2.454 13.646 -0 -1.2 0
-2.858 -2.702 13.661 -0 -1.2 0
-2.854 -2.947 13.65 -0 -1.2 0
-2.854 -3.197 13.666 -0 -1.2 0
-2.853 -3.448 13.677 -0 -1.2 0
-2.85 -3.699 13.674 -0 -1.2 0
-2.85 -3.953 13.686 -0 -1.2 0
-2.834 -4.192 13.616 -0 -1.2 0
-2.807 -4.419 13.506 -0 -1.2 0
-2.806 -4.677 13.514 -0 -1.2 0
-2.803 -4.932 13.507 -0 -1.2 0
-2.8 -5.192 13.507 -0 -1.2 0
-2.796 -5.453 13.501 -0 -1.2 0
-2.789 -5.711 13.481 -0 -1.2 0
-2.751 -5.917 13.308 -0 -1.2 0
-2.763 -6.213 13.38 -0 -1.2 0
-2.828 -6.619 13.71 -0 -1.2 0
-2.827 -6.904 13.714 -0 -1.2 0
-2.823 -7.191 13.713 -0 -1.2 0
-2.826 -7.496 13.741 -0 -1.2 0
-2.82 -7.787 13.727 -0 -1.2 0
-2.816 -8.088 13.725 -0 -1.2 0
-2.73 -8.178 13.318 -0 -1.2 0
-2.705 -8.424 13.213 -0 -1.2 0
-2.647 -8.573 12.942 -0 -1.2 0
-2.54 -8.574 12.433 -0 -1.2 0
-2.47 -8.668 12.103 -0 -1.2 0
-2.418 -8.813 11.865 -0 -1.2 0
-2.338 -8.857 11.488 -0 -1.2 0
-0.198 0 1.08 -0 -1.2 0
-0.205 0.003 1.119 -0 -1.2 0
-0.212 0.005 1.159 -0 -1.2 0
-0.219 0.005 1.2 -0 -1.2 0
-0.226 0.005 1.241 -0 -1.2 0
-0.231 -0.002 1.274 -0 -1.2 0
-0.24 0.001 1.323 -0 -1.2 0
-0.246 -0.008 1.358 -0 -1.2 0
-0.255 -0.001 1.414 -0 -1.2 0
-0.265 0.004 1.473 -0 -1.2 0
-0.272 -0.003 1.515 -0 -1.2 0
-0.281 -0.006 1.567 -0 -1.2 0
-0.294 0 1.634 -0 -1.2 0
-0.304 0 1.693 -0 -1.2 0
-0.314 -0.003 1.754 -0 -1.2 0
-0.328 0.002 1.832 -0 -1.2 0
-0.341 0.006 1.91 -0 -1.2 0
-0.351 -0.001 1.971 -0 -1.2 0
-0.366 0.001 2.06 -0 -1.2 0
-0.383 0.002 2.148 -0 -1.2 0
-0.399 0.005 2.247 -0 -1.2 0
-0.419 0.013 2.364 -0 -1.2 0
-0.438 0.012 2.472 -0 -1.2 0
-0.458 0.013 2.591 -0 -1.2 0
-0.483 0.018 2.728 -0 -1.2 0
-0.503 0.01 2.848 -0 -1.2 0
-0.53 0.013 3.005 -0 -1.2 0
-0.557 0.01 3.163 -0 -1.2 0
-0.588 0.009 3.341 -0 -1.2 0
-0.627 0.015 3.567 -0 -1.2 0
-0.668 0.018 3.803 -0 -1.2 0
-0.717 0.026 4.088 -0 -1.2 0
-0.768 0.026 4.383 -0 -1.2 0
-0.824 0.023 4.709 -0 -1.2 0
-0.895 0.029 5.122 -0 -1.2 0
-0.972 0.026 5.566 -0 -1.2 0
-1.062 0.023 6.088 -0 -1.2 0
-1.177 0.025 6.758 -0 -1.2 0
-1.309 0.017 7.517 -0 -1.2 0
-1.47 0.006 8.454 -0 -1.2 0
-1.681 -0.004 9.677 -0 -1.2 0
-1.944 -0.029 11.205 -0 -1.2 0
-2.386 -0.025 13.766 -0 -1.2 0
-2.644 -0.178 15.268 -0 -1.2 0
-2.639 -0.45 15.253 -0 -1.2 0
-2.64 -0.718 15.272 -0 -1.2 0
-2.636 -0.987 15.267 -0 -1.2 0
-2.632 -1.257 15.258 -0 -1.2 0
-2.629 -1.527 15.253 -0 -1.2 0
-2.625 -1.796 15.244 -0 -1.2 0
-2.586 -2.053 15.034 -0 -1.2 0
-4.346 -3.149 25.291 -0 -1.2 0
-4.308 -3.58 25.096 -0 -1.2 0
-4.392 -4.088 25.608 -0 -1.2 0
-4.494 -4.632 26.229 -0 -1.2 0
-2.626 -3.441 15.336 -0 -1.2 0
-2.62 -3.717 15.322 -0 -1.2 0
-2.615 -3.992 15.305 -0 -1.2 0
-2.61 -4.27 15.292 -0 -1.2 0
-2.609 -4.555 15.303 -0 -1.2 0
-2.605 -4.836 15.29 -0 -1.2 0
-2.602 -5.123 15.29 -0 -1.2 0
-2.6 -5.414 15.295 -0 -1.2 0
-2.595 -5.701 15.277 -0 -1.2 0
-2.554 -5.924 15.055 -0 -1.2 0
-2.586 -6.288 15.259 -0 -1.2 0
-2.583 -6.59 15.261 -0 -1.2 0
-2.578 -6.89 15.248 -0 -1.2 0
-2.575 -7.199 15.248 -0 -1.2 0
-2.573 -7.513 15.25 -0 -1.2 0
-2.569 -7.829 15.247 -0 -1.2 0
-2.565 -8.147 15.237 -0 -1.2 0
-2.556 -8.457 15.202 -0 -1.2 0
-2.428 -8.412 14.457 -0 -1.2 0
-2.373 -8.568 14.146 -0 -1.2 0
-2.32 -8.727 13.851 -0 -1.2 0
-2.26 -8.852 13.513 -0 -1.2 0
-0.16 0.007 1.11 -0 -1.2 0
-0.164 0.002 1.142 -0 -1.2 0
-0.17 0.004 1.183 -0 -1.2 0
-0.175 0.004 1.223 -0 -1.2 0
-0.181 0.005 1.264 -0 -1.2 0
-0.188 0.003 1.306 -0 -1.2 0
-0.193 0.001 1.347 -0 -1.2 0
-0.199 -0.002 1.39 -0 -1.2 0
-0.206 -0.001 1.44 -0 -1.2 0
-0.214 0.003 1.497 -0 -1.2 0
-0.221 0.002 1.548 -0 -1.2 0
-0.227 -0.006 1.592 -0 -1.2 0
-0.236 0 1.66 -0 -1.2 0
-0.247 0.009 1.736 -0 -1.2 0
-0.253 -0.004 1.781 -0 -1.2 0
-0.264 0.006 1.867 -0 -1.2 0
-0.274 0.005 1.937 -0 -1.2 0
-0.284 0.002 2.009 -0 -1.2 0
-0.297 0.005 2.096 -0 -1.2 0
-0.308 0.001 2.178 -0 -1.2 0
-0.321 0.004 2.276 -0 -1.2 0
-0.337 0.012 2.393 -0 -1.2 0
-0.354 0.015 2.511 -0 -1.2 0
-0.37 0.016 2.63 -0 -1.2 0
-0.387 0.012 2.75 -0 -1.2 0
-0.405 0.009 2.88 -0 -1.2 0
-0.427 0.012 3.038 -0 -1.2 0
-0.451 0.015 3.216 -0 -1.2 0
-0.475 0.012 3.394 -0 -1.2 0
-0.505 0.014 3.602 -0 -1.2 0
-0.541 0.024 3.868 -0 -1.2 0
-0.58 0.029 4.145 -0 -1.2 0
-0.62 0.026 4.433 -0 -1.2 0
-0.666 0.026 4.77 -0 -1.2 0
-0.726 0.035 5.205 -0 -1.2 0
-0.791 0.035 5.67 -0 -1.2 0
-0.866 0.034 6.215 -0 -1.2 0
-0.963 0.039 6.918 -0 -1.2 0
-1.067 0.028 7.672 -0 -1.2 0
-1.2 0.018 8.634 -0 -1.2 0
-1.38 0.013 9.941 -0 -1.2 0
-1.623 0.005 11.695 -0 -1.2 0
-1.999 0.009 14.409 -0 -1.2 0
-3.483 -0.041 25.157 -0 -1.2 0
-3.491 -0.481 25.242 -0 -1.2 0
-3.488 -0.924 25.239 -0 -1.2 0
-3.487 -1.368 25.258 -0 -1.2 0
-3.481 -1.812 25.251 -0 -1.2 0
-3.478 -2.257 25.255 -0 -1.2 0
-3.475 -2.702 25.261 -0 -1.2 0
-3.472 -3.148 25.26 -0 -1.2 0
-3.439 -3.575 25.054 -0 -1.2 0
-3.511 -4.085 25.609 -0 -1.2 0
-3.583 -4.617 26.162 -0 -1.2 0
-3.667 -5.183 26.804 -0 -1.2 0
-3.725 -5.744 27.257 -0 -1.2 0
-2.023 -5.868 14.946 -0 -1.2 0
-0.12 0 1.125 -0 -1.2 0
-0.125 0.01 1.171 -0 -1.2 0
-0.128 0.005 1.205 -0 -1.2 0
-0.133 0.005 1.247 -0 -1.2 0
-0.136 -0.001 1.28 -0 -1.2 0
-0.14 -0.002 1.322 -0 -1.2 0
-0.146 0.007 1.378 -0 -1.2 0
-0.151 0.009 1.428 -0 -1.2 0
-0.156 0.004 1.471 -0 -1.2 0
-0.16 -0.001 1.514 -0 -1.2 0
-0.165 -0.003 1.565 -0 -1.2 0
-0.172 0 1.624 -0 -1.2 0
-0.178 0 1.684 -0 -1.2 0
-0.187 0.009 1.76 -0 -1.2 0
-0.192 0.002 1.814 -0 -1.2 0
-0.199 0.001 1.884 -0 -1.2 0
-0.207 0 1.954 -0 -1.2 0
-0.216 0.006 2.043 -0 -1.2 0
-0.224 0.005 2.123 -0 -1.2 0
-0.233 0.005 2.213 -0 -1.2 0
-0.244 0.008 2.312 -0 -1.2 0
-0.255 0.011 2.421 -0 -1.2 0
-0.267 0.015 2.54 -0 -1.2 0
-0.279 0.016 2.659 -0 -1.2 0
-0.293 0.016 2.789 -0 -1.2 0
-0.307 0.012 2.919 -0 -1.2 0
-0.325 0.018 3.087 -0 -1.2 0
-0.341 0.014 3.247 -0 -1.2 0
-0.362 0.018 3.445 -0 -1.2 0
-0.382 0.016 3.644 -0 -1.2 0
-0.411 0.027 3.912 -0 -1.2 0
-0.439 0.03 4.189 -0 -1.2 0
-0.47 0.03 4.488 -0 -1.2 0
-0.506 0.031 4.836 -0 -1.2 0
-0.549 0.034 5.244 -0 -1.2 0
-0.604 0.047 5.779 -0 -1.2 0
-0.659 0.038 6.298 -0 -1.2 0
-0.732 0.043 7.003 -0 -1.2 0
-0.812 0.033 7.77 -0 -1.2 0
-0.912 0.02 8.736 -0 -1.2 0
-1.052 0.018 10.078 -0 -1.2 0
-1.246 0.016 11.938 -0 -1.2 0
-1.55 0.031 14.862 -0 -1.2 0
-2.616 -0.061 25.108 -0 -1.2 0
-2.618 -0.499 25.163 -0 -1.2 0
-2.616 -0.938 25.18 -0 -1.2 0
-2.613 -1.378 25.179 -0 -1.2 0
-2.61 -1.819 25.18 -0 -1.2 0
-2.607 -2.261 25.194 -0 -1.2 0
-2.604 -2.703 25.2 -0 -1.2 0
-2.6 -3.146 25.189 -0 -1.2 0
-2.579 -3.574 25.022 -0 -1.2 0
-2.627 -4.074 25.519 -0 -1.2 0
-2.665 -4.581 25.918 -0 -1.2 0
-0.079 0.007 1.154 -0 -1.2 0
-0.081 0.003 1.187 -0 -1.2 0
-0.084 0.005 1.228 -0 -1.2 0
-0.086 0.004 1.268 -0 -1.2 0
-0.089 -0.002 1.302 -0 -1.2 0
-0.092 -0.003 1.344 -0 -1.2 0
-0.095 0 1.393 -0 -1.2 0
-0.098 0.003 1.443 -0 -1.2 0
-0.101 -0.008 1.478 -0 -1.2 0
-0.104 -0.002 1.536 -0 -1.2 0
-0.108 -0.004 1.587 -0 -1.2 0
-0.112 0.004 1.655 -0 -1.2 0
-0.116 0 1.707 -0 -1.2 0
-0.121 0.003 1.776 -0 -1.2 0
-0.125 0.001 1.838 -0 -1.2 0
-0.129 0.001 1.908 -0 -1.2 0
-0.134 0 1.978 -0 -1.2 0
-0.14 0.001 2.058 -0 -1.2 0
-0.146 0.004 2.148 -0 -1.2 0
-0.152 0.004 2.237 -0 -1.2 0
-0.159 0.011 2.346 -0 -1.2 0
-0.166 0.01 2.446 -0 -1.2 0
-0.174 0.014 2.565 -0 -1.2 0
-0.182 0.015 2.685 -0 -1.2 0
-0.19 0.015 2.815 -0 -1.2 0
-0.2 0.014 2.955 -0 -1.2 0
-0.209 0.009 3.096 -0 -1.2 0
-0.221 0.009 3.265 -0 -1.2 0
-0.233 0.007 3.445 -0 -1.2 0
-0.248 0.008 3.654 -0 -1.2 0
-0.265 0.013 3.903 -0 -1.2 0
-0.284 0.02 4.191 -0 -1.2 0
-0.304 0.02 4.491 -0 -1.2 0
-0.329 0.026 4.859 -0 -1.2 0
-0.356 0.029 5.268 -0 -1.2 0
-0.387 0.026 5.727 -0 -1.2 0
-0.427 0.03 6.305 -0 -1.2 0
-0.475 0.036 7.023 -0 -1.2 0
-0.528 0.026 7.803 -0 -1.2 0
-0.593 0.014 8.771 -0 -1.2 0
-0.676 -0.002 9.999 -0 -1.2 0
-0.803 0 11.884 -0 -1.2 0
-0.986 -0.001 14.598 -0 -1.2 0
-1.905 0.047 28.205 -0 -1.2 0
-1.92 -0.438 28.47 -0 -1.2 0
-1.914 -0.934 28.438 -0 -1.2 0
-1.911 -1.43 28.447 -0 -1.2 0
-1.91 -1.927 28.467 -0 -1.2 0
-1.905 -2.423 28.448 -0 -1.2 0
-1.9 -2.921 28.441 -0 -1.2 0
-1.785 -3.282 26.765 -0 -1.2 0
-0.039 0.006 1.172 -0 -1.2 0
-0.04 0.002 1.205 -0 -1.2 0
-0.041 0.004 1.246 -0 -1.2 0
-0.042 -0.001 1.279 -0 -1.2 0
-0.043 -0.008 1.313 -0 -1.2 0
-0.045 -0.003 1.362 -0 -1.2 0
-0.047 0 1.412 -0 -1.2 0
-0.048 -0.003 1.454 -0 -1.2 0
-0.05 -0.008 1.496 -0 -1.2 0
-0.052 0.002 1.563 -0 -1.2 0
-0.053 -0.005 1.606 -0 -1.2 0
-0.056 0.009 1.683 -0 -1.2 0
-0.057 -0.001 1.726 -0 -1.2 0
-0.06 0.008 1.804 -0 -1.2 0
-0.062 0 1.857 -0 -1.2 0
-0.065 0.005 1.936 -0 -1.2 0
-0.067 -0.001 1.998 -0 -1.2 0
-0.07 0.004 2.087 -0 -1.2 0
-0.072 -0.001 2.158 -0 -1.2 0
-0.075 0.003 2.257 -0 -1.2 0
-0.079 0.01 2.366 -0 -1.2 0
-0.083 0.013 2.476 -0 -1.2 0
-0.087 0.017 2.595 -0 -1.2 0
-0.091 0.013 2.706 -0 -1.2 0
-0.096 0.021 2.855 -0 -1.2 0
-0.1 0.016 2.985 -0 -1.2 0
-0.105 0.008 3.117 -0 -1.2 0
-0.111 0.011 3.296 -0 -1.2 0
-0.117 0.008 3.476 -0 -1.2 0
-0.123 0.003 3.667 -0 -1.2 0
-0.132 0.011 3.926 -0 -1.2 0
-0.142 0.016 4.205 -0 -1.2 0
-0.151 0.013 4.495 -0 -1.2 0
-0.164 0.019 4.864 -0 -1.2 0
-0.178 0.023 5.283 -0 -1.2 0
-0.195 0.027 5.772 -0 -1.2 0
-0.213 0.021 6.303 -0 -1.2 0
-0.238 0.032 7.052 -0 -1.2 0
-0.265 0.024 7.842 -0 -1.2 0
-0.296 0.006 8.783 -0 -1.2 0
-0.339 -0.005 10.052 -0 -1.2 0
-0.4 -0.013 11.851 -0 -1.2 0
-0.488 -0.021 14.489 -0 -1.2 0
-0.964 0.04 28.529 -0 -1.2 0
-0.959 -0.456 28.485 -0 -1.2 0
-0.956 -0.951 28.492 -0 -1.2 0
-0.953 -1.447 28.51 -0 -1.2 0
-0.946 -2.439 28.491 -0 -1.2 0
-0.942 -2.933 28.454 -0 -1.2 0
-0.928 -3.406 28.148 -0 -1.2 0
-0.942 -3.951 28.661 -0 -1.2 0
0 0 1.182 -0 -1.2 0
0 -0.003 1.215 -0 -1.2 0
0 0.005 1.263 -0 -1.2 0
0 0 1.297 -0 -1.2 0
0 -0.001 1.338 -0 -1.2 0
0 -0.003 1.38 -0 -1.2 0
0 0.001 1.429 -0 -1.2 0
0 0.003 1.48 -0 -1.2 0
0 -0.001 1.522 -0 -1.2 0
0 0.003 1.581 -0 -1.2 0
0 0.001 1.632 -0 -1.2 0
0 0.003 1.692 -0 -1.2 0
0 0.004 1.753 -0 -1.2 0
0 0.008 1.822 -0 -1.2 0
0 0.001 1.875 -0 -1.2 0
0 0.005 1.954 -0 -1.2 0
0 0.004 2.025 -0 -1.2 0
0 0.005 2.105 -0 -1.2 0
0 0.008 2.194 -0 -1.2 0
0 0.004 2.276 -0 -1.2 0
0 0.015 2.393 -0 -1.2 0
0 0.018 2.503 -0 -1.2 0
0 0.013 2.604 -0 -1.2 0
0 0.014 2.724 -0 -1.2 0
0 0.021 2.873 -0 -1.2 0
0 0.02 3.014 -0 -1.2 0
0 0.018 3.164 -0 -1.2 0
0 0.021 3.344 -0 -1.2 0
0 0.011 3.505 -0 -1.2 0
-0.001 0.012 3.715 -0 -1.2 0
-0.001 0.014 3.955 -0 -1.2 0
-0.001 0.021 4.244 -0 -1.2 0
-0.001 0.02 4.544 -0 -1.2 0
-0.001 0.031 4.933 -0 -1.2 0
-0.001 0.03 5.333 -0 -1.2 0
-0.002 0.036 5.842 -0 -1.2 0
-0.002 0.029 6.372 -0 -1.2 0
-0.002 0.039 7.121 -0 -1.2 0
-0.003 0.03 7.913 -0 -1.2 0
-0.002 0.009 8.833 -0 -1.2 0
-0.003 0.003 10.174 -0 -1.2 0
-0.004 -0.005 11.994 -0 -1.2 0
-0.005 -0.013 14.674 -0 -1.2 0
-0.01 0.027 28.422 -0 -1.2 0
-0.007 -0.465 28.437 -0 -1.2 0
-0.004 -0.959 28.444 -0 -1.2 0
-0.001 -1.453 28.452 -0 -1.2 0
0.001 -1.948 28.453 -0 -1.2 0
0.005 -2.441 28.414 -0 -1.2 0
0.008 -2.936 28.396 -0 -1.2 0
0.011 -3.406 28.08 -0 -1.2 0
0.014 -3.954 28.643 -0 -1.2 0
0.041 0.007 1.207 -0 -1.2 0
0.042 0.01 1.246 -0 -1.2 0
0.044 -0.002 1.273 -0 -1.2 0
0.046 -0.001 1.314 -0 -1.2 0
0.047 -0.002 1.355 -0 -1.2 0
0.048 -0.003 1.397 -0 -1.2 0
0.05 0 1.447 -0 -1.2 0
0.052 0.002 1.497 -0 -1.2 0
0.054 -0.002 1.539 -0 -1.2 0
0.056 0.003 1.598 -0 -1.2 0
0.057 -0.004 1.641 -0 -1.2 0
0.06 0.003 1.709 -0 -1.2 0
0.062 0.004 1.77 -0 -1.2 0
0.064 0.008 1.839 -0 -1.2 0
0.066 0.005 1.9 -0 -1.2 0
0.069 0.01 1.979 -0 -1.2 0
0.072 0.009 2.05 -0 -1.2 0
0.075 0.01 2.13 -0 -1.2 0
0.078 0.013 2.22 -0 -1.2 0
0.081 0.013 2.31 -0 -1.2 0
0.085 0.015 2.41 -0 -1.2 0
0.088 0.013 2.51 -0 -1.2 0
0.092 0.013 2.621 -0 -1.2 0
0.097 0.016 2.75 -0 -1.2 0
0.102 0.02 2.889 -0 -1.2 0
0.107 0.02 3.03 -0 -1.2 0
0.112 0.017 3.18 -0 -1.2 0
0.118 0.017 3.35 -0 -1.2 0
0.125 0.014 3.53 -0 -1.2 0
0.133 0.017 3.75 -0 -1.2 0
0.141 0.018 3.989 -0 -1.2 0
0.151 0.024 4.278 -0 -1.2 0
0.163 0.029 4.598 -0 -1.2 0
0.176 0.032 4.957 -0 -1.2 0
0.192 0.043 5.416 -0 -1.2 0
0.211 0.05 5.935 -0 -1.2 0
0.23 0.046 6.485 -0 -1.2 0
0.256 0.047 7.194 -0 -1.2 0
0.283 0.033 7.965 -0 -1.2 0
0.317 0.016 8.915 -0 -1.2 0
0.366 0.009 10.275 -0 -1.2 0
0.431 0 12.094 -0 -1.2 0
0.524 -0.017 14.682 -0 -1.2 0
1.01 0.013 28.242 -0 -1.2 0
1.015 -0.476 28.307 -0 -1.2 0
1.019 -0.968 28.324 -0 -1.2 0
1.023 -1.46 28.321 -0 -1.2 0
1.026 -1.952 28.331 -0 -1.2 0
1.03 -2.446 28.342 -0 -1.2 0
1.033 -2.94 28.344 -0 -1.2 0
1.023 -3.406 27.989 -0 -1.2 0
1.048 -3.956 28.591 -0 -1.2 0
0.081 0.016 1.227 -0 -1.2 0
0.083 0.004 1.254 -0 -1.2 0
0.085 -0.001 1.287 -0 -1.2 0
0.088 0 1.328 -0 -1.2 0
0.091 0.005 1.377 -0 -1.2 0
0.094 -0.002 1.41 -0 -1.2 0
0.097 0.001 1.46 -0 -1.2 0
0.1 -0.002 1.502 -0 -1.2 0
0.103 -0.001 1.552 -0 -1.2 0
0.108 0.004 1.611 -0 -1.2 0
0.111 0.002 1.662 -0 -1.2 0
0.115 0.004 1.722 -0 -1.2 0
0.12 0.01 1.791 -0 -1.2 0
0.124 0.004 1.843 -0 -1.2 0
0.129 0.006 1.913 -0 -1.2 0
0.133 0.006 1.983 -0 -1.2 0
0.14 0.015 2.071 -0 -1.2 0
0.145 0.015 2.151 -0 -1.2 0
0.151 0.013 2.232 -0 -1.2 0
0.157 0.013 2.322 -0 -1.2 0
0.164 0.02 2.431 -0 -1.2 0
0.171 0.018 2.531 -0 -1.2 0
0.179 0.017 2.641 -0 -1.2 0
0.187 0.014 2.752 -0 -1.2 0
0.198 0.024 2.91 -0 -1.2 0
0.207 0.023 3.05 -0 -1.2 0
0.218 0.022 3.2 -0 -1.2 0
0.23 0.02 3.37 -0 -1.2 0
0.244 0.024 3.569 -0 -1.2 0
0.259 0.029 3.797 -0 -1.2 0
0.275 0.027 4.027 -0 -1.2 0
0.295 0.03 4.306 -0 -1.2 0
0.317 0.034 4.625 -0 -1.2 0
0.343 0.041 5.003 -0 -1.2 0
0.375 0.052 5.461 -0 -1.2 0
0.411 0.058 5.98 -0 -1.2 0
0.451 0.056 6.549 -0 -1.2 0
0.499 0.053 7.237 -0 -1.2 0
0.552 0.037 7.997 -0 -1.2 0
0.621 0.024 8.985 -0 -1.2 0
0.715 0.017 10.343 -0 -1.2 0
0.846 0.01 12.228 -0 -1.2 0
1.02 -0.015 14.722 -0 -1.2 0
0.12 0.008 1.234 -0 -1.2 0
0.123 -0.003 1.26 -0 -1.2 0
0.127 -0.001 1.3 -0 -1.2 0
0.131 0 1.341 -0 -1.2 0
0.137 0.012 1.396 -0 -1.2 0
0.14 0.003 1.431 -0 -1.2 0
0.145 0.001 1.473 -0 -1.2 0
0.149 -0.002 1.515 -0 -1.2 0
0.155 0.004 1.573 -0 -1.2 0
0.16 0.003 1.624 -0 -1.2 0
0.166 0.001 1.675 -0 -1.2 0
0.173 0.01 1.743 -0 -1.2 0
0.18 0.015 1.811 -0 -1.2 0
0.186 0.015 1.872 -0 -1.2 0
0.192 0.011 1.933 -0 -1.2 0
0.201 0.021 2.019 -0 -1.2 0
0.208 0.014 2.082 -0 -1.2 0
0.215 0.01 2.153 -0 -1.2 0
0.224 0.013 2.243 -0 -1.2 0
0.234 0.013 2.332 -0 -1.2 0
0.246 0.024 2.45 -0 -1.2 0
0.256 0.022 2.55 -0 -1.2 0
0.267 0.021 2.66 -0 -1.2 0
0.279 0.017 2.77 -0 -1.2 0
0.295 0.028 2.928 -0 -1.2 0
0.309 0.023 3.058 -0 -1.2 0
0.326 0.028 3.226 -0 -1.2 0
0.344 0.026 3.396 -0 -1.2 0
0.363 0.026 3.585 -0 -1.2 0
0.388 0.035 3.823 -0 -1.2 0
0.412 0.035 4.061 -0 -1.2 0
0.44 0.035 4.33 -0 -1.2 0
0.476 0.045 4.677 -0 -1.2 0
0.517 0.056 5.073 -0 -1.2 0
0.568 0.073 5.569 -0 -1.2 0
0.62 0.074 6.067 -0 -1.2 0
0.676 0.067 6.616 -0 -1.2 0
0.749 0.067 7.322 -0 -1.2 0
0.83 0.052 8.099 -0 -1.2 0
0.934 0.037 9.095 -0 -1.2 0
1.07 0.024 10.418 -0 -1.2 0
1.268 0.019 12.328 -0 -1.2 0
0.162 0.008 1.247 -0 -1.2 0
0.167 0.003 1.28 -0 -1.2 0
0.171 -0.001 1.313 -0 -1.2 0
0.178 0.005 1.361 -0 -1.2 0
0.185 0.012 1.409 -0 -1.2 0
0.19 0.01 1.451 -0 -1.2 0
0.197 0.013 1.5 -0 -1.2 0
0.202 0.003 1.534 -0 -1.2 0
0.209 0.004 1.584 -0 -1.2 0
0.218 0.016 1.65 -0 -1.2 0
0.224 0.008 1.694 -0 -1.2 0
0.233 0.01 1.753 -0 -1.2 0
0.242 0.015 1.822 -0 -1.2 0
0.251 0.015 1.882 -0 -1.2 0
0.26 0.016 1.951 -0 -1.2 0
0.271 0.021 2.029 -0 -1.2 0
0.281 0.019 2.1 -0 -1.2 0
0.292 0.019 2.18 -0 -1.2 0
0.303 0.017 2.26 -0 -1.2 0
0.316 0.018 2.35 -0 -1.2 0
0.332 0.027 2.465 -0 -1.2 0
0.347 0.03 2.574 -0 -1.2 0
0.364 0.033 2.693 -0 -1.2 0
0.381 0.032 2.812 -0 -1.2 0
0.4 0.035 2.951 -0 -1.2 0
0.419 0.033 3.09 -0 -1.2 0
0.44 0.03 3.24 -0 -1.2 0
0.465 0.033 3.418 -0 -1.2 0
0.493 0.036 3.616 -0 -1.2 0
0.53 0.051 3.881 -0 -1.2 0
0.558 0.04 4.081 -0 -1.2 0
0.6 0.051 4.386 -0 -1.2 0
0.651 0.064 4.751 -0 -1.2 0
0.708 0.075 5.157 -0 -1.2 0
0.776 0.092 5.651 -0 -1.2 0
0.842 0.085 6.117 -0 -1.2 0
0.921 0.08 6.682 -0 -1.2 0
1.018 0.076 7.377 -0 -1.2 0
1.123 0.057 8.131 -0 -1.2 0
1.267 0.047 9.162 -0 -1.2 0
1.463 0.042 10.569 -0 -1.2 0
1.73 0.035 12.481 -0 -1.2 0
0.2 0.009 1.257 -0 -1.2 0
0.206 0.004 1.29 -0 -1.2 0
0.213 0.006 1.33 -0 -1.2 0
0.221 0.013 1.377 -0 -1.2 0
0.228 0.013 1.419 -0 -1.2 0
0.237 0.017 1.466 -0 -1.2 0
0.243 0.008 1.501 -0 -1.2 0
0.251 0.01 1.551 -0 -1.2 0
0.26 0.011 1.601 -0 -1.2 0
0.27 0.017 1.658 -0 -1.2 0
0.281 0.026 1.725 -0 -1.2 0
0.29 0.022 1.776 -0 -1.2 0
0.301 0.022 1.836 -0 -1.2 0
0.311 0.021 1.896 -0 -1.2 0
0.323 0.022 1.965 -0 -1.2 0
0.335 0.022 2.035 -0 -1.2 0
0.349 0.025 2.114 -0 -1.2 0
0.363 0.025 2.193 -0 -1.2 0
0.378 0.028 2.281 -0 -1.2 0
0.396 0.037 2.388 -0 -1.2 0
0.412 0.033 2.478 -0 -1.2 0
0.434 0.044 2.604 -0 -1.2 0
0.453 0.043 2.714 -0 -1.2 0
0.475 0.045 2.842 -0 -1.2 0
0.496 0.04 2.961 -0 -1.2 0
0.521 0.041 3.109 -0 -1.2 0
0.55 0.045 3.276 -0 -1.2 0
0.579 0.044 3.444 -0 -1.2 0
0.615 0.048 3.651 -0 -1.2 0
0.657 0.058 3.896 -0 -1.2 0
0.698 0.058 4.133 -0 -1.2 0
0.75 0.066 4.438 -0 -1.2 0
0.813 0.08 4.801 -0 -1.2 0
0.888 0.097 5.233 -0 -1.2 0
0.972 0.109 5.716 -0 -1.2 0
1.057 0.107 6.209 -0 -1.2 0
1.153 0.098 6.762 -0 -1.2 0
1.275 0.095 7.462 -0 -1.2 0
1.406 0.074 8.223 -0 -1.2 0
1.592 0.067 9.288 -0 -1.2 0
1.853 0.071 10.796 -0 -1.2 0
2.221 0.08 12.924 -0 -1.2 0
2.877 0.138 16.716 -0 -1.2 0
0.24 0.017 1.273 -0 -1.2 0
0.247 0.012 1.306 -0 -1.2 0
0.256 0.021 1.353 -0 -1.2 0
0.263 0.013 1.387 -0 -1.2 0
0.273 0.019 1.434 -0 -1.2 0
0.28 0.011 1.468 -0 -1.2 0
0.289 0.008 1.509 -0 -1.2 0
0.3 0.016 1.565 -0 -1.2 0
0.311 0.017 1.615 -0 -1.2 0
0.321 0.017 1.666 -0 -1.2 0
0.332 0.015 1.717 -0 -1.2 0
0.346 0.022 1.783 -0 -1.2 0
0.358 0.022 1.842 -0 -1.2 0
0.372 0.026 1.91 -0 -1.2 0
0.384 0.022 1.971 -0 -1.2 0
0.399 0.022 2.041 -0 -1.2 0
0.415 0.024 2.118 -0 -1.2 0
0.433 0.03 2.205 -0 -1.2 0
0.448 0.023 2.277 -0 -1.2 0
0.471 0.036 2.391 -0 -1.2 0
0.491 0.038 2.489 -0 -1.2 0
0.515 0.044 2.606 -0 -1.2 0
0.538 0.043 2.714 -0 -1.2 0
0.564 0.045 2.842 -0 -1.2 0
0.591 0.043 2.969 -0 -1.2 0
0.621 0.045 3.116 -0 -1.2 0
0.655 0.049 3.283 -0 -1.2 0
0.692 0.05 3.459 -0 -1.2 0
0.733 0.051 3.655 -0 -1.2 0
0.785 0.065 3.908 -0 -1.2 0
0.838 0.068 4.163 -0 -1.2 0
0.899 0.074 4.456 -0 -1.2 0
0.97 0.082 4.798 -0 -1.2 0
1.063 0.103 5.247 -0 -1.2 0
1.156 0.109 5.698 -0 -1.2 0
1.26 0.109 6.198 -0 -1.2 0
1.372 0.098 6.737 -0 -1.2 0
1.514 0.092 7.423 -0 -1.2 0
1.678 0.078 8.219 -0 -1.2 0
1.908 0.076 9.325 -0 -1.2 0
2.214 0.077 10.805 -0 -1.2 0
2.691 0.101 13.105 -0 -1.2 0
4.435 0.125 21.516 -0 -1.2 0
5.277 -0.094 25.574 -0 -1.2 0
5.278 -0.546 25.568 -0 -1.2 0
5.286 -0.998 25.583 -0 -1.2 0
5.29 -1.45 25.59 -0 -1.2 0
5.297 -1.902 25.609 -0 -1.2 0
5.301 -2.355 25.61 -0 -1.2 0
5.303 -2.809 25.603 -0 -1.2 0
5.311 -3.266 25.628 -0 -1.2 0
5.317 -3.724 25.635 -0 -1.2 0
5.32 -4.182 25.634 -0 -1.2 0
5.327 -4.646 25.655 -0 -1.2 0
5.329 -5.108 25.648 -0 -1.2 0
5.336 -5.576 25.662 -0 -1.2 0
5.34 -6.046 25.668 -0 -1.2 0
5.363 -6.537 25.76 -0 -1.2 0
0.278 0.002 1.269 -0 -1.2 0
0.289 0.012 1.315 -0 -1.2 0
0.299 0.021 1.361 -0 -1.2 0
0.306 0.006 1.387 -0 -1.2 0
0.318 0.013 1.435 -0 -1.2 0
0.331 0.025 1.489 -0 -1.2 0
0.338 0.008 1.516 -0 -1.2 0
0.35 0.01 1.565 -0 -1.2 0
0.362 0.011 1.614 -0 -1.2 0
0.376 0.017 1.672 -0 -1.2 0
0.388 0.015 1.722 -0 -1.2 0
0.404 0.022 1.787 -0 -1.2 0
0.42 0.028 1.854 -0 -1.2 0
0.432 0.021 1.907 -0 -1.2 0
0.449 0.022 1.975 -0 -1.2 0
0.466 0.022 2.043 -0 -1.2 0
0.483 0.02 2.112 -0 -1.2 0
0.502 0.02 2.191 -0 -1.2 0
0.525 0.028 2.285 -0 -1.2 0
0.553 0.041 2.4 -0 -1.2 0
0.573 0.033 2.479 -0 -1.2 0
0.599 0.035 2.586 -0 -1.2 0
0.627 0.038 2.703 -0 -1.2 0
0.656 0.037 2.82 -0 -1.2 0
0.685 0.032 2.938 -0 -1.2 0
0.723 0.038 3.092 -0 -1.2 0
0.758 0.035 3.24 -0 -1.2 0
0.806 0.043 3.432 -0 -1.2 0
0.858 0.051 3.645 -0 -1.2 0
0.912 0.055 3.868 -0 -1.2 0
0.972 0.057 4.111 -0 -1.2 0
1.04 0.061 4.392 -0 -1.2 0
1.128 0.074 4.751 -0 -1.2 0
1.232 0.092 5.177 -0 -1.2 0
1.339 0.095 5.614 -0 -1.2 0
1.458 0.094 6.1 -0 -1.2 0
1.584 0.081 6.617 -0 -1.2 0
1.75 0.077 7.298 -0 -1.2 0
1.938 0.062 8.066 -0 -1.2 0
2.202 0.059 9.145 -0 -1.2 0
2.546 0.055 10.554 -0 -1.2 0
3.04 0.059 12.574 -0 -1.2 0
3.805 0.074 15.702 -0 -1.2 0
5.029 0.085 20.714 -0 -1.2 0
5.112 -0.269 21.042 -0 -1.2 0
5.114 -0.643 21.042 -0 -1.2 0
5.116 -1.016 21.036 -0 -1.2 0
5.124 -1.39 21.053 -0 -1.2 0
5.126 -1.765 21.054 -0 -1.2 0
5.13 -2.139 21.058 -0 -1.2 0
5.135 -2.515 21.066 -0 -1.2 0
5.138 -2.892 21.068 -0 -1.2 0
5.145 -3.271 21.082 -0 -1.2 0
5.147 -3.65 21.079 -0 -1.2 0
5.148 -4.029 21.071 -0 -1.2 0
5.157 -4.415 21.095 -0 -1.2 0
5.156 -4.798 21.082 -0 -1.2 0
5.161 -5.187 21.091 -0 -1.2 0
5.168 -5.579 21.104 -0 -1.2 0
5.17 -5.972 21.1 -0 -1.2 0
5.175 -6.369 21.108 -0 -1.2 0
5.181 -6.772 21.118 -0 -1.2 0
5.117 -7.097 20.85 -0 -1.2 0
5.124 -7.505 20.865 -0 -1.2 0
5.12 -7.902 20.836 -0 -1.2 0
5.187 -8.403 21.094 -0 -1.2 0
5.183 -8.814 21.067 -0 -1.2 0
0.321 0.025 1.294 -0 -1.2 0
0.328 0.013 1.32 -0 -1.2 0
0.339 0.015 1.36 -0 -1.2 0
0.351 0.015 1.399 -0 -1.2 0
0.362 0.015 1.439 -0 -1.2 0
0.371 0.005 1.472 -0 -1.2 0
0.387 0.016 1.527 -0 -1.2 0
0.398 0.012 1.568 -0 -1.2 0
0.414 0.019 1.625 -0 -1.2 0
0.428 0.018 1.674 -0 -1.2 0
0.444 0.021 1.731 -0 -1.2 0
0.463 0.03 1.796 -0 -1.2 0
0.479 0.029 1.855 -0 -1.2 0
0.496 0.027 1.915 -0 -1.2 0
0.512 0.024 1.974 -0 -1.2 0
0.529 0.018 2.034 -0 -1.2 0
0.553 0.026 2.119 -0 -1.2 0
0.575 0.027 2.196 -0 -1.2 0
0.599 0.03 2.283 -0 -1.2 0
0.626 0.034 2.379 -0 -1.2 0
0.658 0.043 2.492 -0 -1.2 0
0.685 0.041 2.589 -0 -1.2 0
0.713 0.036 2.688 -0 -1.2 0
0.748 0.038 2.813 -0 -1.2 0
0.786 0.041 2.947 -0 -1.2 0
0.824 0.04 3.083 -0 -1.2 0
0.87 0.043 3.246 -0 -1.2 0
0.913 0.039 3.401 -0 -1.2 0
0.97 0.044 3.602 -0 -1.2 0
1.042 0.06 3.859 -0 -1.2 0
1.107 0.059 4.092 -0 -1.2 0
1.19 0.068 4.389 -0 -1.2 0
1.288 0.079 4.734 -0 -1.2 0
1.399 0.089 5.128 -0 -1.2 0
1.525 0.097 5.581 -0 -1.2 0
1.657 0.095 6.053 -0 -1.2 0
1.804 0.084 6.575 -0 -1.2 0
1.986 0.075 7.221 -0 -1.2 0
2.21 0.066 8.021 -0 -1.2 0
2.527 0.071 9.147 -0 -1.2 0
2.928 0.069 10.572 -0 -1.2 0
3.493 0.072 12.585 -0 -1.2 0
4.275 0.061 15.368 -0 -1.2 0
5.53 0.048 19.836 -0 -1.2 0
5.855 -0.259 20.986 -0 -1.2 0
5.858 -0.636 20.987 -0 -1.2 0
5.863 -1.01 20.991 -0 -1.2 0
5.87 -1.387 21.007 -0 -1.2 0
5.873 -1.763 21.008 -0 -1.2 0
5.877 -2.141 21.012 -0 -1.2 0
5.879 -2.518 21.01 -0 -1.2 0
5.885 -2.898 21.021 -0 -1.2 0
5.883 -3.276 21.006 -0 -1.2 0
5.893 -3.66 21.033 -0 -1.2 0
5.894 -4.042 21.024 -0 -1.2 0
5.898 -4.427 21.027 -0 -1.2 0
5.903 -4.815 21.034 -0 -1.2 0
5.906 -5.204 21.034 -0 -1.2 0
5.909 -5.597 21.036 -0 -1.2 0
5.916 -5.995 21.051 -0 -1.2 0
5.916 -6.391 21.039 -0 -1.2 0
5.924 -6.798 21.058 -0 -1.2 0
5.849 -7.122 20.783 -0 -1.2 0
5.856 -7.532 20.798 -0 -1.2 0
5.864 -7.946 20.813 -0 -1.2 0
5.929 -8.437 21.032 -0 -1.2 0
5.926 -8.853 21.014 -0 -1.2 0
0.359 0.019 1.293 -0 -1.2 0
0.371 0.021 1.332 -0 -1.2 0
0.379 0.008 1.357 -0 -1.2 0
0.392 0.008 1.396 -0 -1.2 0
0.406 0.015 1.443 -0 -1.2 0
0.419 0.013 1.483 -0 -1.2 0
0.432 0.01 1.523 -0 -1.2 0
0.447 0.012 1.57 -0 -1.2 0
0.467 0.025 1.634 -0 -1.2 0
0.485 0.031 1.69 -0 -1.2 0
0.501 0.028 1.74 -0 -1.2 0
0.517 0.024 1.789 -0 -1.2 0
0.538 0.03 1.855 -0 -1.2 0
0.554 0.023 1.905 -0 -1.2 0
0.573 0.019 1.964 -0 -1.2 0
0.597 0.024 2.04 -0 -1.2 0
0.62 0.027 2.116 -0 -1.2 0
0.647 0.033 2.201 -0 -1.2 0
0.672 0.03 2.278 -0 -1.2 0
0.702 0.034 2.373 -0 -1.2 0
0.741 0.048 2.494 -0 -1.2 0
0.769 0.042 2.582 -0 -1.2 0
0.802 0.041 2.687 -0 -1.2 0
0.842 0.044 2.811 -0 -1.2 0
0.884 0.046 2.944 -0 -1.2 0
0.927 0.044 3.078 -0 -1.2 0
0.973 0.041 3.222 -0 -1.2 0
1.033 0.049 3.411 -0 -1.2 0
1.093 0.051 3.602 -0 -1.2 0
1.166 0.058 3.83 -0 -1.2 0
1.248 0.066 4.087 -0 -1.2 0
1.342 0.075 4.381 -0 -1.2 0
1.447 0.083 4.714 -0 -1.2 0
1.568 0.091 5.095 -0 -1.2 0
1.717 0.104 5.561 -0 -1.2 0
1.872 0.105 6.047 -0 -1.2 0
2.042 0.096 6.582 -0 -1.2 0
2.248 0.088 7.232 -0 -1.2 0
2.516 0.085 8.07 -0 -1.2 0
2.886 0.095 9.232 -0 -1.2 0
3.349 0.097 10.691 -0 -1.2 0
3.875 0.064 12.341 -0 -1.2 0
4.725 0.049 15.011 -0 -1.2 0
6.251 0.064 19.803 -0 -1.2 0
6.615 -0.247 20.942 -0 -1.2 0
6.621 -0.625 20.953 -0 -1.2 0
6.622 -1.003 20.947 -0 -1.2 0
6.623 -1.382 20.945 -0 -1.2 0
6.632 -1.762 20.965 -0 -1.2 0
6.633 -2.141 20.96 -0 -1.2 0
6.635 -2.521 20.957 -0 -1.2 0
6.638 -2.902 20.958 -0 -1.2 0
6.642 -3.285 20.962 -0 -1.2 0
6.647 -3.67 20.97 -0 -1.2 0
6.646 -4.054 20.961 -0 -1.2 0
6.656 -4.445 20.982 -0 -1.2 0
6.658 -4.834 20.98 -0 -1.2 0
6.66 -5.226 20.979 -0 -1.2 0
6.663 -5.621 20.982 -0 -1.2 0
6.673 -6.023 21.004 -0 -1.2 0
6.673 -6.422 20.993 -0 -1.2 0
6.679 -6.829 21.001 -0 -1.2 0
6.599 -7.162 20.747 -0 -1.2 0
6.609 -7.576 20.77 -0 -1.2 0
6.64 -8.018 20.858 -0 -1.2 0
6.686 -8.484 20.991 -0 -1.2 0
6.674 -8.893 20.945 -0 -1.2 0
0.401 0.019 1.296 -0 -1.2 0
0.412 0.014 1.327 -0 -1.2 0
0.427 0.023 1.373 -0 -1.2 0
0.44 0.016 1.405 -0 -1.2 0
0.451 0.008 1.436 -0 -1.2 0
0.47 0.02 1.49 -0 -1.2 0
0.484 0.017 1.53 -0 -1.2 0
0.498 0.012 1.57 -0 -1.2 0
0.516 0.014 1.617 -0 -1.2 0
0.538 0.025 1.681 -0 -1.2 0
0.553 0.017 1.721 -0 -1.2 0
0.574 0.018 1.778 -0 -1.2 0
0.594 0.019 1.835 -0 -1.2 0
0.621 0.028 1.908 -0 -1.2 0
0.639 0.02 1.958 -0 -1.2 0
0.662 0.019 2.025 -0 -1.2 0
0.69 0.023 2.1 -0 -1.2 0
0.72 0.028 2.184 -0 -1.2 0
0.747 0.026 2.26 -0 -1.2 0
0.784 0.035 2.362 -0 -1.2 0
0.817 0.036 2.456 -0 -1.2 0
0.854 0.038 2.56 -0 -1.2 0
0.895 0.042 2.672 -0 -1.2 0
0.933 0.036 2.777 -0 -1.2 0
0.98 0.039 2.909 -0 -1.2 0
1.028 0.037 3.041 -0 -1.2 0
1.085 0.042 3.2 -0 -1.2 0
1.14 0.038 3.353 -0 -1.2 0
1.21 0.043 3.55 -0 -1.2 0
1.298 0.056 3.792 -0 -1.2 0
1.382 0.059 4.028 -0 -1.2 0
1.481 0.063 4.301 -0 -1.2 0
1.608 0.079 4.657 -0 -1.2 0
1.743 0.087 5.032 -0 -1.2 0
1.895 0.093 5.456 -0 -1.2 0
2.071 0.097 5.945 -0 -1.2 0
2.265 0.092 6.482 -0 -1.2 0
2.505 0.089 7.151 -0 -1.2 0
2.79 0.081 7.942 -0 -1.2 0
3.189 0.087 9.053 -0 -1.2 0
3.606 0.058 10.212 -0 -1.2 0
4.198 0.034 11.86 -0 -1.2 0
5.098 0.017 14.364 -0 -1.2 0
7.019 0.079 19.707 -0 -1.2 0
7.436 -0.233 20.861 -0 -1.2 0
7.438 -0.614 20.862 -0 -1.2 0
7.442 -0.995 20.866 -0 -1.2 0
7.447 -1.377 20.873 -0 -1.2 0
7.45 -1.759 20.874 -0 -1.2 0
7.457 -2.143 20.888 -0 -1.2 0
7.459 -2.526 20.885 -0 -1.2 0
7.46 -2.91 20.887 -0 -1.2 0
7.464 -3.296 20.89 -0 -1.2 0
7.469 -3.684 20.897 -0 -1.2 0
7.475 -4.074 20.907 -0 -1.2 0
7.475 -4.463 20.9 -0 -1.2 0
7.476 -4.855 20.897 -0 -1.2 0
7.485 -5.254 20.914 -0 -1.2 0
7.491 -5.654 20.925 -0 -1.2 0
7.489 -6.052 20.91 -0 -1.2 0
7.493 -6.458 20.917 -0 -1.2 0
7.502 -6.869 20.934 -0 -1.2 0
7.406 -7.201 20.664 -0 -1.2 0
7.417 -7.618 20.686 -0 -1.2 0
7.456 -8.069 20.79 -0 -1.2 0
7.503 -8.535 20.912 -0 -1.2 0
7.493 -8.95 20.874 -0 -1.2 0
0.438 0.019 1.298 -0 -1.2 0
0.453 0.021 1.336 -0 -1.2 0
0.466 0.016 1.367 -0 -1.2 0
0.478 0.009 1.399 -0 -1.2 0
0.494 0.009 1.437 -0 -1.2 0
0.512 0.014 1.483 -0 -1.2 0
0.527 0.011 1.522 -0 -1.2 0
0.546 0.013 1.569 -0 -1.2 0
0.568 0.02 1.623 -0 -1.2 0
0.587 0.019 1.67 -0 -1.2 0
0.603 0.011 1.711 -0 -1.2 0
0.625 0.014 1.766 -0 -1.2 0
0.651 0.019 1.83 -0 -1.2 0
0.677 0.024 1.895 -0 -1.2 0
0.696 0.015 1.944 -0 -1.2 0
0.723 0.015 2.011 -0 -1.2 0
0.754 0.024 2.092 -0 -1.2 0
0.781 0.019 2.159 -0 -1.2 0
0.818 0.026 2.25 -0 -1.2 0
0.851 0.026 2.335 -0 -1.2 0
0.888 0.028 2.428 -0 -1.2 0
0.933 0.034 2.538 -0 -1.2 0
0.974 0.034 2.641 -0 -1.2 0
1.015 0.029 2.744 -0 -1.2 0
1.066 0.032 2.874 -0 -1.2 0
1.121 0.035 3.013 -0 -1.2 0
1.174 0.029 3.144 -0 -1.2 0
1.234 0.025 3.293 -0 -1.2 0
1.311 0.031 3.487 -0 -1.2 0
1.406 0.045 3.727 -0 -1.2 0
1.492 0.042 3.941 -0 -1.2 0
1.599 0.048 4.21 -0 -1.2 0
1.735 0.063 4.552 -0 -1.2 0
1.88 0.071 4.915 -0 -1.2 0
2.053 0.081 5.35 -0 -1.2 0
2.245 0.087 5.833 -0 -1.2 0
2.446 0.077 6.335 -0 -1.2 0
2.716 0.08 7.014 -0 -1.2 0
3.01 0.067 7.749 -0 -1.2 0
3.377 0.051 8.67 -0 -1.2 0
3.811 0.02 9.758 -0 -1.2 0
4.437 -0.002 11.329 -0 -1.2 0
5.326 -0.031 13.559 -0 -1.2 0
6.397 -0.115 16.245 -0 -1.2 0
8.22 -0.218 20.816 -0 -1.2 0
8.222 -0.603 20.817 -0 -1.2 0
8.222 -0.988 20.811 -0 -1.2 0
8.227 -1.373 20.819 -0 -1.2 0
8.23 -1.759 20.82 -0 -1.2 0
8.233 -2.146 20.825 -0 -1.2 0
8.238 -2.533 20.831 -0 -1.2 0
8.237 -2.92 20.822 -0 -1.2 0
8.244 -3.31 20.836 -0 -1.2 0
8.245 -3.7 20.833 -0 -1.2 0
8.251 -4.094 20.842 -0 -1.2 0
8.254 -4.489 20.844 -0 -1.2 0
8.254 -4.884 20.841 -0 -1.2 0
8.263 -5.287 20.858 -0 -1.2 0
8.265 -5.689 20.859 -0 -1.2 0
8.268 -6.094 20.862 -0 -1.2 0
8.263 -6.497 20.841 -0 -1.2 0
8.271 -6.912 20.857 -0 -1.2 0
8.162 -7.243 20.58 -0 -1.2 0
8.169 -7.661 20.593 -0 -1.2 0
8.212 -8.114 20.695 -0 -1.2 0
8.269 -8.59 20.832 -0 -1.2 0
8.253 -9.005 20.786 -0 -1.2 0
0.474 0.021 1.299 -0 -1.2 0
0.488 0.015 1.33 -0 -1.2 0
0.504 0.017 1.367 -0 -1.2 0
0.518 0.01 1.398 -0 -1.2 0
0.534 0.01 1.436 -0 -1.2 0
0.557 0.021 1.488 -0 -1.2 0
0.574 0.018 1.527 -0 -1.2 0
0.594 0.02 1.573 -0 -1.2 0
0.612 0.015 1.612 -0 -1.2 0
0.629 0.008 1.652 -0 -1.2 0
0.652 0.013 1.707 -0 -1.2 0
0.676 0.015 1.762 -0 -1.2 0
0.7 0.015 1.817 -0 -1.2 0
0.735 0.03 1.895 -0 -1.2 0
0.753 0.016 1.937 -0 -1.2 0
0.785 0.021 2.01 -0 -1.2 0
0.81 0.015 2.067 -0 -1.2 0
0.849 0.025 2.156 -0 -1.2 0
0.885 0.028 2.239 -0 -1.2 0
0.92 0.028 2.321 -0 -1.2 0
0.961 0.029 2.413 -0 -1.2 0
1.005 0.032 2.514 -0 -1.2 0
1.053 0.035 2.623 -0 -1.2 0
1.097 0.031 2.725 -0 -1.2 0
1.154 0.034 2.853 -0 -1.2 0
1.202 0.026 2.965 -0 -1.2 0
1.273 0.034 3.129 -0 -1.2 0
1.338 0.03 3.276 -0 -1.2 0
1.418 0.033 3.459 -0 -1.2 0
1.513 0.042 3.678 -0 -1.2 0
1.617 0.048 3.915 -0 -1.2 0
1.726 0.048 4.163 -0 -1.2 0
1.877 0.065 4.509 -0 -1.2 0
2.036 0.075 4.875 -0 -1.2 0
2.221 0.084 5.296 -0 -1.2 0
2.441 0.095 5.8 -0 -1.2 0
2.677 0.094 6.34 -0 -1.2 0
2.95 0.087 6.965 -0 -1.2 0
3.239 0.064 7.626 -0 -1.2 0
3.609 0.04 8.471 -0 -1.2 0
4.086 0.014 9.563 -0 -1.2 0
4.727 -0.015 11.03 -0 -1.2 0
5.708 -0.035 13.275 -0 -1.2 0
6.894 -0.113 15.988 -0 -1.2 0
8.989 -0.201 20.781 -0 -1.2 0
8.992 -0.591 20.783 -0 -1.2 0
8.995 -0.98 20.787 -0 -1.2 0
8.996 -1.37 20.785 -0 -1.2 0
8.998 -1.76 20.786 -0 -1.2 0
9.002 -2.151 20.79 -0 -1.2 0
8.999 -2.541 20.778 -0 -1.2 0
9.005 -2.934 20.789 -0 -1.2 0
9.012 -3.329 20.8 -0 -1.2 0
9.008 -3.722 20.789 -0 -1.2 0
9.017 -4.121 20.806 -0 -1.2 0
9.02 -4.52 20.808 -0 -1.2 0
9.025 -4.922 20.813 -0 -1.2 0
9.022 -5.323 20.803 -0 -1.2 0
9.027 -5.731 20.811 -0 -1.2 0
9.026 -6.138 20.805 -0 -1.2 0
9.031 -6.551 20.81 -0 -1.2 0
9.027 -6.964 20.799 -0 -1.2 0
8.913 -7.302 20.534 -0 -1.2 0
8.931 -7.733 20.572 -0 -1.2 0
8.992 -8.202 20.706 -0 -1.2 0
9.03 -8.663 20.788 -0 -1.2 0
9 -9.072 20.714 -0 -1.2 0
5.405 -6.4 12.517 -0 -1.2 0
5.315 -6.846 12.306 -0 -1.2 0
0.51 0.013 1.293 -0 -1.2 0
0.527 0.016 1.33 -0 -1.2 0
0.542 0.01 1.361 -0 -1.2 0
0.562 0.017 1.405 -0 -1.2 0
0.58 0.017 1.442 -0 -1.2 0
0.598 0.015 1.48 -0 -1.2 0
0.616 0.012 1.517 -0 -1.2 0
0.638 0.015 1.563 -0 -1.2 0
0.656 0.009 1.601 -0 -1.2 0
0.679 0.009 1.647 -0 -1.2 0
0.704 0.013 1.701 -0 -1.2 0
0.73 0.015 1.755 -0 -1.2 0
0.76 0.021 1.817 -0 -1.2 0
0.791 0.026 1.879 -0 -1.2 0
0.816 0.022 1.935 -0 -1.2 0
0.851 0.027 2.006 -0 -1.2 0
0.874 0.015 2.055 -0 -1.2 0
0.916 0.025 2.143 -0 -1.2 0
0.952 0.023 2.216 -0 -1.2 0
0.991 0.024 2.297 -0 -1.2 0
1.038 0.03 2.395 -0 -1.2 0
1.085 0.032 2.494 -0 -1.2 0
1.137 0.036 2.603 -0 -1.2 0
1.185 0.032 2.703 -0 -1.2 0
1.25 0.039 2.837 -0 -1.2 0
1.314 0.04 2.972 -0 -1.2 0
1.379 0.038 3.108 -0 -1.2 0
1.453 0.038 3.262 -0 -1.2 0
1.532 0.034 3.424 -0 -1.2 0
1.63 0.039 3.632 -0 -1.2 0
1.739 0.043 3.857 -0 -1.2 0
1.867 0.051 4.126 -0 -1.2 0
2.032 0.07 4.467 -0 -1.2 0
2.217 0.085 4.853 -0 -1.2 0
2.424 0.098 5.285 -0 -1.2 0
2.666 0.11 5.79 -0 -1.2 0
2.912 0.104 6.304 -0 -1.2 0
3.16 0.08 6.821 -0 -1.2 0
3.49 0.062 7.508 -0 -1.2 0
3.863 0.032 8.285 -0 -1.2 0
4.365 0.005 9.332 -0 -1.2 0
5.088 -0.015 10.839 -0 -1.2 0
6.151 -0.034 13.057 -0 -1.2 0
7.415 -0.112 15.691 -0 -1.2 0
9.828 -0.185 20.722 -0 -1.2 0
9.839 -0.579 20.742 -0 -1.2 0
9.839 -0.973 20.738 -0 -1.2 0
9.84 -1.368 20.735 -0 -1.2 0
9.837 -1.763 20.728 -0 -1.2 0
9.845 -2.159 20.741 -0 -1.2 0
9.849 -2.556 20.747 -0 -1.2 0
9.851 -2.953 20.748 -0 -1.2 0
9.858 -3.353 20.76 -0 -1.2 0
9.858 -3.753 20.756 -0 -1.2 0
9.864 -4.156 20.764 -0 -1.2 0
9.862 -4.559 20.757 -0 -1.2 0
9.869 -4.967 20.77 -0 -1.2 0
9.869 -5.375 20.768 -0 -1.2 0
9.875 -5.788 20.776 -0 -1.2 0
9.869 -6.198 20.761 -0 -1.2 0
9.867 -6.615 20.755 -0 -1.2 0
9.826 -7.009 20.664 -0 -1.2 0
9.748 -7.38 20.498 -0 -1.2 0
9.741 -7.799 20.482 -0 -1.2 0
9.868 -8.318 20.742 -0 -1.2 0
9.854 -8.745 20.711 -0 -1.2 0
5.682 -6.26 12.031 -0 -1.2 0
5.838 -6.675 12.354 -0 -1.2 0
5.626 -6.734 11.91 -0 -1.2 0
5.457 -6.824 11.557 -0 -1.2 0
4.675 -6.452 9.929 -0 -1.2 0
0.543 0.013 1.293 -0 -1.2 0
0.559 0.009 1.322 -0 -1.2 0
0.581 0.018 1.365 -0 -1.2 0
0.597 0.011 1.395 -0 -1.2 0
0.612 0.003 1.425 -0 -1.2 0
0.639 0.016 1.475 -0 -1.2 0
0.655 0.006 1.505 -0 -1.2 0
0.682 0.015 1.557 -0 -1.2 0
0.709 0.022 1.609 -0 -1.2 0
0.725 0.009 1.64 -0 -1.2 0
0.753 0.013 1.692 -0 -1.2 0
0.783 0.021 1.753 -0 -1.2 0
0.807 0.016 1.799 -0 -1.2 0
0.84 0.021 1.861 -0 -1.2 0
0.868 0.017 1.915 -0 -1.2 0
0.901 0.017 1.979 -0 -1.2 0
0.934 0.015 2.042 -0 -1.2 0
0.967 0.011 2.105 -0 -1.2 0
1.008 0.014 2.184 -0 -1.2 0
1.053 0.019 2.272 -0 -1.2 0
1.104 0.026 2.369 -0 -1.2 0
1.155 0.029 2.466 -0 -1.2 0
1.206 0.028 2.564 -0 -1.2 0
1.265 0.032 2.678 -0 -1.2 0
1.321 0.028 2.786 -0 -1.2 0
1.386 0.027 2.911 -0 -1.2 0
1.46 0.029 3.053 -0 -1.2 0
1.538 0.028 3.203 -0 -1.2 0
1.622 0.025 3.363 -0 -1.2 0
1.724 0.028 3.559 -0 -1.2 0
1.838 0.033 3.78 -0 -1.2 0
1.985 0.046 4.062 -0 -1.2 0
2.191 0.083 4.458 -0 -1.2 0
2.353 0.08 4.768 -0 -1.2 0
2.587 0.1 5.219 -0 -1.2 0
2.81 0.096 5.646 -0 -1.2 0
3.06 0.086 6.126 -0 -1.2 0
3.333 0.067 6.651 -0 -1.2 0
3.643 0.037 7.247 -0 -1.2 0
4.051 0.013 8.03 -0 -1.2 0
4.568 -0.015 9.024 -0 -1.2 0
5.28 -0.043 10.391 -0 -1.2 0
6.365 -0.065 12.476 -0 -1.2 0
7.756 -0.129 15.147 -0 -1.2 0
10.631 -0.168 20.672 -0 -1.2 0
10.638 -0.568 20.683 -0 -1.2 0
10.642 -0.968 20.687 -0 -1.2 0
10.643 -1.368 20.686 -0 -1.2 0
10.644 -1.768 20.687 -0 -1.2 0
10.642 -2.168 20.682 -0 -1.2 0
10.651 -2.571 20.698 -0 -1.2 0
10.649 -2.973 20.688 -0 -1.2 0
10.656 -3.378 20.7 -0 -1.2 0
10.655 -3.782 20.696 -0 -1.2 0
10.659 -4.191 20.704 -0 -1.2 0
10.662 -4.6 20.705 -0 -1.2 0
10.665 -5.011 20.709 -0 -1.2 0
10.664 -5.424 20.706 -0 -1.2 0
10.665 -5.84 20.704 -0 -1.2 0
10.671 -6.262 20.714 -0 -1.2 0
10.674 -6.686 20.716 -0 -1.2 0
10.619 -7.081 20.61 -0 -1.2 0
10.538 -7.46 20.453 -0 -1.2 0
8.414 -6.512 16.376 -0 -1.2 0
8.066 -6.617 15.707 -0 -1.2 0
5.348 -4.966 10.495 -0 -1.2 0
5.835 -5.566 11.427 -0 -1.2 0
6.984 -6.75 13.629 -0 -1.2 0
6.263 -6.431 12.245 -0 -1.2 0
5.344 -5.874 10.484 -0 -1.2 0
6.14 -6.864 12.007 -0 -1.2 0
5.164 -6.17 10.136 -0 -1.2 0
5.094 -6.332 10 -0 -1.2 0
5.06 -6.53 9.932 -0 -1.2 0
4.844 -6.523 9.517 -0 -1.2 0
5.632 -7.687 11.025 -0 -1.2 0
8.881 -11.959 17.245 -0 -1.2 0
0.578 0.013 1.29 -0 -1.2 0
0.598 0.016 1.325 -0 -1.2 0
0.621 0.025 1.367 -0 -1.2 0
0.634 0.011 1.39 -0 -1.2 0
0.651 0.004 1.42 -0 -1.2 0
0.679 0.016 1.469 -0 -1.2 0
0.7 0.013 1.506 -0 -1.2 0
0.727 0.021 1.556 -0 -1.2 0
0.752 0.022 1.6 -0 -1.2 0
0.77 0.009 1.632 -0 -1.2 0
0.795 0.007 1.677 -0 -1.2 0
0.828 0.016 1.736 -0 -1.2 0
0.854 0.01 1.781 -0 -1.2 0
0.888 0.015 1.842 -0 -1.2 0
