# .PCD v.7 - Point Cloud Data file format
FIELDS x y z vp_x vp_y vp_z
SIZE 4 4 4 4 4 4
TYPE F F F F F F
COUNT 1 1 1 1 1 1
WIDTH 1612
HEIGHT 1
VIEWPOINT 0 -1.20013 0 1 0 0 0
POINTS 1612
DATA ascii
-8.969 -7.487 2.315 -0 -1.2 0
-9.979 -8.48 2.65 -0 -1.2 0
-9.186 -8.147 2.398 -0 -1.2 0
-8.839 -8.132 2.291 -0 -1.2 0
-8.705 -8.28 2.254 -0 -1.2 0
-8.685 -8.526 2.254 -0 -1.2 0
-8.414 -8.555 2.171 -0 -1.2 0
-8.366 -8.78 2.161 -0 -1.2 0
-8.236 -8.931 2.125 -0 -1.2 0
-1.153 -0.003 -0.217 -0 -1.2 0
-1.192 -0.003 -0.203 -0 -1.2 0
-1.231 -0.004 -0.19 -0 -1.2 0
-1.257 -0.019 -0.181 -0 -1.2 0
-1.303 -0.016 -0.165 -0 -1.2 0
-1.351 -0.015 -0.148 -0 -1.2 0
-1.406 -0.008 -0.13 -0 -1.2 0
-1.447 -0.015 -0.116 -0 -1.2 0
-1.488 -0.023 -0.102 -0 -1.2 0
-1.552 -0.015 -0.079 -0 -1.2 0
-1.601 -0.02 -0.062 -0 -1.2 0
-1.674 -0.011 -0.037 -0 -1.2 0
-1.724 -0.02 -0.019 -0 -1.2 0
-1.791 -0.02 0.004 -0 -1.2 0
-1.858 -0.023 0.027 -0 -1.2 0
-1.933 -0.022 0.052 -0 -1.2 0
-2.009 -0.024 0.079 -0 -1.2 0
-2.095 -0.024 0.108 -0 -1.2 0
-2.155 -0.04 0.129 -0 -1.2 0
-2.276 -0.029 0.171 -0 -1.2 0
-2.38 -0.029 0.206 -0 -1.2 0
-2.476 -0.037 0.239 -0 -1.2 0
-2.598 -0.037 0.282 -0 -1.2 0
-2.713 -0.046 0.32 -0 -1.2 0
-2.855 -0.047 0.37 -0 -1.2 0
-3.006 -0.05 0.421 -0 -1.2 0
-3.176 -0.053 0.48 -0 -1.2 0
-3.338 -0.065 0.536 -0 -1.2 0
-3.572 -0.06 0.617 -0 -1.2 0
-3.808 -0.063 0.699 -0 -1.2 0
-4.064 -0.071 0.787 -0 -1.2 0
-4.385 -0.072 0.897 -0 -1.2 0
-4.744 -0.076 1.021 -0 -1.2 0
-5.196 -0.075 1.176 -0 -1.2 0
-4.886 -0.229 1.074 -0 -1.2 0
-5.32 -0.25 1.224 -0 -1.2 0
-5.21 -0.364 1.189 -0 -1.2 0
-5.155 -0.468 1.173 -0 -1.2 0
-5.183 -0.56 1.185 -0 -1.2 0
-5.257 -0.649 1.213 -0 -1.2 0
-5.291 -0.743 1.227 -0 -1.2 0
-5.381 -0.835 1.26 -0 -1.2 0
-5.053 -0.945 1.15 -0 -1.2 0
-5.121 -1.035 1.175 -0 -1.2 0
-5.224 -1.13 1.213 -0 -1.2 0
-5.487 -1.23 1.306 -0 -1.2 0
-5.087 -1.315 1.171 -0 -1.2 0
-5.686 -1.443 1.38 -0 -1.2 0
-6.122 -1.581 1.535 -0 -1.2 0
-8.521 -1.925 2.369 -0 -1.2 0
-8.636 -2.096 2.414 -0 -1.2 0
-8.636 -2.257 2.417 -0 -1.2 0
-8.633 -2.418 2.421 -0 -1.2 0
-8.637 -2.581 2.427 -0 -1.2 0
-8.628 -2.743 2.428 -0 -1.2 0
-8.635 -2.909 2.435 -0 -1.2 0
-8.622 -3.072 2.435 -0 -1.2 0
-8.633 -3.241 2.442 -0 -1.2 0
-8.614 -3.405 2.44 -0 -1.2 0
-8.609 -3.574 2.443 -0 -1.2 0
-8.611 -3.745 2.447 -0 -1.2 0
-8.611 -3.918 2.452 -0 -1.2 0
-8.607 -4.092 2.455 -0 -1.2 0
-8.599 -4.266 2.457 -0 -1.2 0
-8.598 -4.444 2.461 -0 -1.2 0
-8.593 -4.624 2.464 -0 -1.2 0
-8.593 -4.808 2.469 -0 -1.2 0
-8.59 -4.993 2.473 -0 -1.2 0
-8.584 -5.178 2.476 -0 -1.2 0
-8.582 -5.37 2.48 -0 -1.2 0
-8.586 -5.567 2.486 -0 -1.2 0
-8.576 -5.761 2.488 -0 -1.2 0
-8.572 -5.961 2.491 -0 -1.2 0
-8.571 -6.167 2.497 -0 -1.2 0
-8.566 -6.374 2.5 -0 -1.2 0
-8.558 -6.584 2.502 -0 -1.2 0
-8.544 -6.794 2.503 -0 -1.2 0
-8.542 -7.016 2.508 -0 -1.2 0
-8.543 -7.246 2.514 -0 -1.2 0
-8.539 -7.478 2.519 -0 -1.2 0
-8.53 -7.71 2.521 -0 -1.2 0
-8.53 -7.957 2.528 -0 -1.2 0
-8.482 -8.169 2.517 -0 -1.2 0
-8.493 -8.439 2.528 -0 -1.2 0
-8.305 -8.537 2.465 -0 -1.2 0
-8.181 -8.689 2.426 -0 -1.2 0
-7.99 -8.779 2.363 -0 -1.2 0
-1.131 -0.009 -0.16 -0 -1.2 0
-1.177 -0.002 -0.142 -0 -1.2 0
-1.216 -0.003 -0.127 -0 -1.2 0
-1.255 -0.006 -0.112 -0 -1.2 0
-1.286 -0.016 -0.1 -0 -1.2 0
-1.333 -0.014 -0.082 -0 -1.2 0
-1.388 -0.007 -0.061 -0 -1.2 0
-1.436 -0.008 -0.043 -0 -1.2 0
-1.484 -0.01 -0.024 -0 -1.2 0
-1.532 -0.014 -0.005 -0 -1.2 0
-1.596 -0.008 0.019 -0 -1.2 0
-1.653 -0.01 0.042 -0 -1.2 0
-1.718 -0.008 0.066 -0 -1.2 0
-1.784 -0.008 0.091 -0 -1.2 0
-1.842 -0.016 0.114 -0 -1.2 0
-1.917 -0.016 0.143 -0 -1.2 0
-2 -0.013 0.175 -0 -1.2 0
-2.084 -0.014 0.207 -0 -1.2 0
-2.169 -0.017 0.24 -0 -1.2 0
-2.254 -0.023 0.273 -0 -1.2 0
-2.348 -0.028 0.31 -0 -1.2 0
-2.452 -0.032 0.349 -0 -1.2 0
-2.574 -0.032 0.395 -0 -1.2 0
-2.713 -0.03 0.449 -0 -1.2 0
-2.844 -0.035 0.5 -0 -1.2 0
-3.011 -0.032 0.564 -0 -1.2 0
-3.152 -0.045 0.619 -0 -1.2 0
-3.33 -0.05 0.687 -0 -1.2 0
-3.562 -0.046 0.777 -0 -1.2 0
-3.796 -0.05 0.866 -0 -1.2 0
-4.075 -0.051 0.973 -0 -1.2 0
-4.4 -0.051 1.1 -0 -1.2 0
-4.727 -0.063 1.226 -0 -1.2 0
-5.129 -0.071 1.381 -0 -1.2 0
-5.255 -0.145 1.431 -0 -1.2 0
-4.807 -0.319 1.264 -0 -1.2 0
-4.939 -0.391 1.315 -0 -1.2 0
-5.004 -0.475 1.344 -0 -1.2 0
-4.92 -0.578 1.313 -0 -1.2 0
-5.095 -0.654 1.383 -0 -1.2 0
-4.514 -0.79 1.163 -0 -1.2 0
-5.077 -0.844 1.381 -0 -1.2 0
-5.136 -0.936 1.406 -0 -1.2 0
-5.165 -1.03 1.42 -0 -1.2 0
-5.296 -1.126 1.473 -0 -1.2 0
-5.07 -1.219 1.388 -0 -1.2 0
-5.309 -1.322 1.483 -0 -1.2 0
-6.049 -1.465 1.771 -0 -1.2 0
-5.827 -1.561 1.689 -0 -1.2 0
-5.734 -1.66 1.656 -0 -1.2 0
-8.42 -2.079 2.701 -0 -1.2 0
-8.412 -2.236 2.702 -0 -1.2 0
-8.418 -2.397 2.709 -0 -1.2 0
-8.422 -2.558 2.715 -0 -1.2 0
-8.414 -2.718 2.716 -0 -1.2 0
-8.413 -2.88 2.72 -0 -1.2 0
-8.408 -3.043 2.722 -0 -1.2 0
-8.402 -3.206 2.724 -0 -1.2 0
-8.401 -3.372 2.728 -0 -1.2 0
-8.397 -3.539 2.731 -0 -1.2 0
-8.4 -3.709 2.737 -0 -1.2 0
-8.39 -3.877 2.738 -0 -1.2 0
-8.386 -4.049 2.74 -0 -1.2 0
-8.379 -4.221 2.743 -0 -1.2 0
-8.378 -4.397 2.747 -0 -1.2 0
-8.374 -4.575 2.75 -0 -1.2 0
-8.375 -4.757 2.755 -0 -1.2 0
-8.373 -4.94 2.759 -0 -1.2 0
-8.368 -5.125 2.762 -0 -1.2 0
-8.376 -5.318 2.77 -0 -1.2 0
-8.363 -5.504 2.77 -0 -1.2 0
-5.785 -4.277 1.745 -0 -1.2 0
-8.367 -5.904 2.782 -0 -1.2 0
-8.351 -6.098 2.782 -0 -1.2 0
-8.347 -6.303 2.786 -0 -1.2 0
-8.355 -6.521 2.794 -0 -1.2 0
-8.343 -6.729 2.796 -0 -1.2 0
-8.334 -6.945 2.797 -0 -1.2 0
-8.321 -7.162 2.798 -0 -1.2 0
-8.334 -7.402 2.809 -0 -1.2 0
-8.325 -7.634 2.812 -0 -1.2 0
-8.327 -7.88 2.82 -0 -1.2 0
-8.294 -8.102 2.812 -0 -1.2 0
-8.278 -8.345 2.813 -0 -1.2 0
-8.158 -8.499 2.771 -0 -1.2 0
-7.979 -8.597 2.705 -0 -1.2 0
-7.827 -8.719 2.649 -0 -1.2 0
-8.058 -9.227 2.752 -0 -1.2 0
-1.122 -0.002 -0.102 -0 -1.2 0
-1.16 -0.001 -0.085 -0 -1.2 0
-1.198 -0.002 -0.069 -0 -1.2 0
-1.237 -0.005 -0.053 -0 -1.2 0
-1.275 -0.008 -0.036 -0 -1.2 0
-1.321 -0.006 -0.016 -0 -1.2 0
-1.361 -0.012 0.001 -0 -1.2 0
-1.423 -0.001 0.026 -0 -1.2 0
-1.471 -0.003 0.046 -0 -1.2 0
-1.526 -0.001 0.07 -0 -1.2 0
-1.574 -0.007 0.09 -0 -1.2 0
-1.63 -0.008 0.114 -0 -1.2 0
-1.694 -0.007 0.141 -0 -1.2 0
-1.767 -0.002 0.172 -0 -1.2 0
-1.824 -0.01 0.197 -0 -1.2 0
-1.898 -0.01 0.228 -0 -1.2 0
-1.981 -0.007 0.263 -0 -1.2 0
-2.055 -0.013 0.294 -0 -1.2 0
-2.139 -0.015 0.329 -0 -1.2 0
-2.241 -0.013 0.372 -0 -1.2 0
-2.334 -0.018 0.412 -0 -1.2 0
-2.444 -0.019 0.458 -0 -1.2 0
-2.563 -0.019 0.509 -0 -1.2 0
-2.684 -0.024 0.561 -0 -1.2 0
-2.822 -0.026 0.619 -0 -1.2 0
-2.961 -0.034 0.679 -0 -1.2 0
-3.118 -0.039 0.745 -0 -1.2 0
-3.311 -0.04 0.827 -0 -1.2 0
-3.549 -0.034 0.928 -0 -1.2 0
-3.788 -0.036 1.029 -0 -1.2 0
-4.064 -0.037 1.146 -0 -1.2 0
-4.394 -0.035 1.286 -0 -1.2 0
-4.763 -0.037 1.443 -0 -1.2 0
-4.942 -0.093 1.52 -0 -1.2 0
-4.965 -0.183 1.533 -0 -1.2 0
-4.951 -0.281 1.529 -0 -1.2 0
-5.008 -0.367 1.556 -0 -1.2 0
-5.092 -0.452 1.594 -0 -1.2 0
-4.964 -0.562 1.543 -0 -1.2 0
-4.897 -0.663 1.517 -0 -1.2 0
-4.848 -0.759 1.498 -0 -1.2 0
-4.981 -0.843 1.557 -0 -1.2 0
-4.836 -0.94 1.499 -0 -1.2 0
-5.104 -1.027 1.614 -0 -1.2 0
-5.204 -1.123 1.66 -0 -1.2 0
-5.073 -1.218 1.607 -0 -1.2 0
-5.144 -1.315 1.64 -0 -1.2 0
-4.964 -1.401 1.566 -0 -1.2 0
-6.032 -1.579 2.023 -0 -1.2 0
-8.074 -1.893 2.898 -0 -1.2 0
-5.909 -1.794 1.978 -0 -1.2 0
-8.186 -2.217 2.955 -0 -1.2 0
-8.203 -2.376 2.966 -0 -1.2 0
-8.197 -2.534 2.969 -0 -1.2 0
-8.199 -2.694 2.973 -0 -1.2 0
-8.197 -2.854 2.978 -0 -1.2 0
-8.194 -3.015 2.98 -0 -1.2 0
-8.196 -3.179 2.986 -0 -1.2 0
-8.196 -3.343 2.99 -0 -1.2 0
-8.193 -3.508 2.993 -0 -1.2 0
-8.186 -3.673 2.995 -0 -1.2 0
-8.187 -3.842 3 -0 -1.2 0
-8.183 -4.012 3.002 -0 -1.2 0
-8.177 -4.183 3.005 -0 -1.2 0
-8.168 -4.354 3.006 -0 -1.2 0
-8.173 -4.534 3.012 -0 -1.2 0
-8.166 -4.709 3.014 -0 -1.2 0
-8.164 -4.891 3.019 -0 -1.2 0
-8.168 -5.077 3.025 -0 -1.2 0
-8.168 -5.265 3.031 -0 -1.2 0
-5.624 -4.095 1.919 -0 -1.2 0
-8.156 -5.645 3.036 -0 -1.2 0
-5.991 -4.579 2.088 -0 -1.2 0
-8.163 -6.049 3.05 -0 -1.2 0
-8.143 -6.243 3.047 -0 -1.2 0
-8.144 -6.454 3.053 -0 -1.2 0
-8.141 -6.666 3.057 -0 -1.2 0
-8.141 -6.885 3.064 -0 -1.2 0
-8.128 -7.1 3.064 -0 -1.2 0
-8.127 -7.328 3.069 -0 -1.2 0
-8.135 -7.57 3.079 -0 -1.2 0
-8.13 -7.808 3.084 -0 -1.2 0
-8.098 -8.029 3.076 -0 -1.2 0
-8.077 -8.264 3.074 -0 -1.2 0
-8.022 -8.475 3.056 -0 -1.2 0
-7.791 -8.521 2.96 -0 -1.2 0
-7.737 -8.735 2.942 -0 -1.2 0
-7.877 -9.154 3.013 -0 -1.2 0
-1.111 0.006 -0.044 -0 -1.2 0
-1.142 0 -0.029 -0 -1.2 0
-1.186 0.005 -0.008 -0 -1.2 0
-1.217 -0.003 0.006 -0 -1.2 0
-1.262 0 0.027 -0 -1.2 0
-1.301 -0.004 0.045 -0 -1.2 0
-1.354 0.002 0.07 -0 -1.2 0
-1.393 -0.005 0.088 -0 -1.2 0
-1.439 -0.007 0.11 -0 -1.2 0
-1.502 0 0.139 -0 -1.2 0
-1.557 0 0.164 -0 -1.2 0
-1.612 -0.001 0.19 -0 -1.2 0
-1.675 0 0.219 -0 -1.2 0
-1.739 0 0.249 -0 -1.2 0
-1.804 -0.002 0.28 -0 -1.2 0
-1.869 -0.008 0.309 -0 -1.2 0
-1.95 -0.005 0.346 -0 -1.2 0
-2.023 -0.01 0.381 -0 -1.2 0
-2.123 -0.004 0.427 -0 -1.2 0
-2.214 -0.006 0.469 -0 -1.2 0
-2.305 -0.011 0.512 -0 -1.2 0
-2.414 -0.012 0.563 -0 -1.2 0
-2.532 -0.013 0.618 -0 -1.2 0
-2.659 -0.014 0.677 -0 -1.2 0
-2.786 -0.02 0.736 -0 -1.2 0
-2.932 -0.024 0.804 -0 -1.2 0
-3.096 -0.028 0.88 -0 -1.2 0
-3.277 -0.031 0.965 -0 -1.2 0
-3.52 -0.022 1.078 -0 -1.2 0
-3.756 -0.024 1.188 -0 -1.2 0
-4.019 -0.028 1.311 -0 -1.2 0
-4.344 -0.026 1.462 -0 -1.2 0
-4.734 -0.023 1.644 -0 -1.2 0
-4.91 -0.078 1.727 -0 -1.2 0
-4.862 -0.184 1.708 -0 -1.2 0
-4.874 -0.277 1.716 -0 -1.2 0
-4.868 -0.372 1.716 -0 -1.2 0
-4.743 -0.483 1.66 -0 -1.2 0
-4.895 -0.557 1.734 -0 -1.2 0
-4.686 -0.671 1.639 -0 -1.2 0
-4.708 -0.759 1.653 -0 -1.2 0
-4.758 -0.846 1.678 -0 -1.2 0
-4.688 -0.94 1.648 -0 -1.2 0
-4.906 -1.024 1.752 -0 -1.2 0
-4.997 -1.118 1.797 -0 -1.2 0
-4.605 -1.205 1.617 -0 -1.2 0
-5.77 -1.34 2.164 -0 -1.2 0
-5.964 -1.462 2.257 -0 -1.2 0
-7.925 -1.731 3.178 -0 -1.2 0
-7.877 -1.879 3.159 -0 -1.2 0
-7.987 -2.045 3.216 -0 -1.2 0
-7.979 -2.198 3.217 -0 -1.2 0
-7.976 -2.354 3.22 -0 -1.2 0
-7.99 -2.514 3.23 -0 -1.2 0
-7.983 -2.67 3.231 -0 -1.2 0
-7.99 -2.831 3.239 -0 -1.2 0
-7.987 -2.99 3.243 -0 -1.2 0
-7.989 -3.152 3.248 -0 -1.2 0
-7.98 -3.312 3.248 -0 -1.2 0
-7.977 -3.476 3.252 -0 -1.2 0
-7.98 -3.642 3.258 -0 -1.2 0
-7.98 -3.81 3.263 -0 -1.2 0
-7.978 -3.978 3.266 -0 -1.2 0
-7.972 -4.146 3.268 -0 -1.2 0
-7.972 -4.32 3.274 -0 -1.2 0
-7.969 -4.494 3.276 -0 -1.2 0
-7.954 -4.666 3.275 -0 -1.2 0
-7.961 -4.849 3.283 -0 -1.2 0
-7.957 -5.03 3.286 -0 -1.2 0
-5.542 -3.962 2.131 -0 -1.2 0
-5.745 -4.204 2.233 -0 -1.2 0
-5.902 -4.433 2.313 -0 -1.2 0
-5.164 -4.14 1.961 -0 -1.2 0
-7.947 -5.989 3.309 -0 -1.2 0
-7.96 -6.201 3.321 -0 -1.2 0
-7.946 -6.401 3.32 -0 -1.2 0
-7.944 -6.611 3.325 -0 -1.2 0
-7.937 -6.824 3.327 -0 -1.2 0
-7.925 -7.038 3.327 -0 -1.2 0
-7.931 -7.27 3.337 -0 -1.2 0
-7.932 -7.505 3.344 -0 -1.2 0
-7.929 -7.741 3.35 -0 -1.2 0
-7.92 -7.98 3.353 -0 -1.2 0
-7.885 -8.201 3.342 -0 -1.2 0
-7.852 -8.429 3.334 -0 -1.2 0
-7.605 -8.455 3.219 -0 -1.2 0
-7.586 -8.702 3.217 -0 -1.2 0
-7.503 -8.888 3.184 -0 -1.2 0
-1.091 0.007 0.016 -0 -1.2 0
-1.121 0 0.032 -0 -1.2 0
-1.159 0 0.051 -0 -1.2 0
-1.196 -0.002 0.07 -0 -1.2 0
-1.247 0.007 0.095 -0 -1.2 0
-1.285 0.002 0.115 -0 -1.2 0
-1.323 -0.003 0.135 -0 -1.2 0
-1.375 0.001 0.162 -0 -1.2 0
-1.428 0.005 0.189 -0 -1.2 0
-1.474 0.001 0.213 -0 -1.2 0
-1.521 -0.004 0.236 -0 -1.2 0
-1.582 0 0.268 -0 -1.2 0
-1.637 -0.003 0.296 -0 -1.2 0
-1.701 -0.004 0.328 -0 -1.2 0
-1.764 -0.006 0.359 -0 -1.2 0
-1.843 -0.002 0.4 -0 -1.2 0
-1.907 -0.008 0.433 -0 -1.2 0
-1.979 -0.012 0.471 -0 -1.2 0
-2.083 -0.003 0.524 -0 -1.2 0
-2.174 -0.004 0.57 -0 -1.2 0
-2.272 -0.005 0.62 -0 -1.2 0
-2.379 -0.006 0.675 -0 -1.2 0
-2.494 -0.007 0.734 -0 -1.2 0
-2.62 -0.009 0.798 -0 -1.2 0
-2.745 -0.014 0.863 -0 -1.2 0
-2.896 -0.015 0.94 -0 -1.2 0
-3.048 -0.022 1.018 -0 -1.2 0
-3.226 -0.025 1.109 -0 -1.2 0
-3.456 -0.019 1.227 -0 -1.2 0
-3.697 -0.019 1.35 -0 -1.2 0
-3.989 -0.013 1.5 -0 -1.2 0
-4.283 -0.018 1.651 -0 -1.2 0
-4.631 -0.024 1.828 -0 -1.2 0
-4.26 -0.196 1.643 -0 -1.2 0
-4.783 -0.179 1.91 -0 -1.2 0
-4.61 -0.304 1.826 -0 -1.2 0
-5.124 -0.315 2.09 -0 -1.2 0
-4.895 -0.447 1.977 -0 -1.2 0
-4.905 -0.542 1.984 -0 -1.2 0
-4.698 -0.658 1.881 -0 -1.2 0
-4.685 -0.751 1.878 -0 -1.2 0
-4.627 -0.845 1.85 -0 -1.2 0
-4.798 -0.928 1.941 -0 -1.2 0
-4.568 -1.025 1.825 -0 -1.2 0
-5.066 -1.115 2.083 -0 -1.2 0
-5.108 -1.214 2.108 -0 -1.2 0
-4.723 -1.297 1.913 -0 -1.2 0
-6.112 -1.473 2.629 -0 -1.2 0
-7.7 -1.719 3.45 -0 -1.2 0
-7.653 -1.866 3.429 -0 -1.2 0
-7.983 -2.056 3.604 -0 -1.2 0
-8.018 -2.218 3.627 -0 -1.2 0
-8.016 -2.378 3.63 -0 -1.2 0
-8.019 -2.539 3.637 -0 -1.2 0
-8.011 -2.699 3.637 -0 -1.2 0
-8.001 -2.859 3.637 -0 -1.2 0
-7.996 -3.021 3.639 -0 -1.2 0
-7.999 -3.186 3.645 -0 -1.2 0
-7.963 -3.342 3.632 -0 -1.2 0
-7.993 -3.519 3.652 -0 -1.2 0
-7.987 -3.686 3.654 -0 -1.2 0
-7.978 -3.853 3.654 -0 -1.2 0
-7.966 -4.021 3.653 -0 -1.2 0
-7.759 -4.115 3.55 -0 -1.2 0
-7.759 -4.287 3.554 -0 -1.2 0
-7.748 -4.456 3.554 -0 -1.2 0
-7.758 -4.637 3.564 -0 -1.2 0
-7.749 -4.812 3.565 -0 -1.2 0
-7.745 -4.992 3.569 -0 -1.2 0
-5.35 -3.911 2.31 -0 -1.2 0
-5.631 -4.196 2.462 -0 -1.2 0
-7.745 -5.556 3.585 -0 -1.2 0
-5.56 -4.432 2.433 -0 -1.2 0
-7.706 -5.925 3.575 -0 -1.2 0
-7.911 -6.261 3.691 -0 -1.2 0
-7.889 -6.457 3.685 -0 -1.2 0
-7.87 -6.659 3.681 -0 -1.2 0
-7.855 -6.866 3.68 -0 -1.2 0
-7.835 -7.076 3.676 -0 -1.2 0
-7.812 -7.287 3.67 -0 -1.2 0
-7.799 -7.51 3.669 -0 -1.2 0
-7.787 -7.741 3.671 -0 -1.2 0
-7.751 -7.955 3.658 -0 -1.2 0
-7.662 -8.125 3.617 -0 -1.2 0
-7.658 -8.378 3.622 -0 -1.2 0
-7.429 -8.417 3.506 -0 -1.2 0
-7.398 -8.649 3.497 -0 -1.2 0
-7.206 -8.718 3.401 -0 -1.2 0
-1.071 0.008 0.071 -0 -1.2 0
-1.101 0.001 0.088 -0 -1.2 0
-1.143 0.007 0.111 -0 -1.2 0
-1.173 -0.001 0.128 -0 -1.2 0
-1.217 0.001 0.152 -0 -1.2 0
-1.254 -0.002 0.173 -0 -1.2 0
-1.306 0.004 0.202 -0 -1.2 0
-1.35 0.002 0.226 -0 -1.2 0
-1.388 -0.005 0.247 -0 -1.2 0
-1.441 -0.003 0.276 -0 -1.2 0
-1.5 0.002 0.31 -0 -1.2 0
-1.546 -0.004 0.335 -0 -1.2 0
-1.607 -0.002 0.368 -0 -1.2 0
-1.661 -0.007 0.399 -0 -1.2 0
-1.731 -0.005 0.438 -0 -1.2 0
-1.802 -0.005 0.477 -0 -1.2 0
-1.864 -0.011 0.511 -0 -1.2 0
-1.943 -0.011 0.555 -0 -1.2 0
-2.038 -0.005 0.609 -0 -1.2 0
-2.125 -0.007 0.657 -0 -1.2 0
-2.222 -0.008 0.711 -0 -1.2 0
-2.327 -0.009 0.769 -0 -1.2 0
-2.432 -0.013 0.828 -0 -1.2 0
-2.563 -0.01 0.9 -0 -1.2 0
-2.687 -0.016 0.969 -0 -1.2 0
-2.826 -0.02 1.047 -0 -1.2 0
-2.975 -0.026 1.131 -0 -1.2 0
-3.167 -0.023 1.237 -0 -1.2 0
-3.376 -0.022 1.354 -0 -1.2 0
-3.62 -0.018 1.489 -0 -1.2 0
-3.883 -0.02 1.635 -0 -1.2 0
-4.179 -0.023 1.801 -0 -1.2 0
-4.528 -0.024 1.995 -0 -1.2 0
-4.603 -0.101 2.039 -0 -1.2 0
-4.582 -0.198 2.03 -0 -1.2 0
-4.612 -0.286 2.049 -0 -1.2 0
-4.458 -0.403 1.967 -0 -1.2 0
-4.371 -0.504 1.922 -0 -1.2 0
-4.562 -0.569 2.03 -0 -1.2 0
-4.664 -0.649 2.089 -0 -1.2 0
-4.416 -0.762 1.954 -0 -1.2 0
-4.594 -0.838 2.056 -0 -1.2 0
-4.805 -0.921 2.177 -0 -1.2 0
-4.458 -1.023 1.986 -0 -1.2 0
-4.396 -1.111 1.954 -0 -1.2 0
-5.075 -1.211 2.335 -0 -1.2 0
-5.228 -1.317 2.424 -0 -1.2 0
-5.258 -1.423 2.443 -0 -1.2 0
-7.498 -1.708 3.698 -0 -1.2 0
-7.451 -1.854 3.677 -0 -1.2 0
-7.757 -2.04 3.853 -0 -1.2 0
-7.931 -2.222 3.955 -0 -1.2 0
-7.927 -2.382 3.958 -0 -1.2 0
-7.896 -2.538 3.945 -0 -1.2 0
-7.923 -2.706 3.965 -0 -1.2 0
-7.81 -2.844 3.906 -0 -1.2 0
-7.916 -3.033 3.971 -0 -1.2 0
-7.918 -3.199 3.977 -0 -1.2 0
-7.747 -3.317 3.886 -0 -1.2 0
-7.903 -3.531 3.979 -0 -1.2 0
-7.896 -3.699 3.981 -0 -1.2 0
-7.896 -3.871 3.985 -0 -1.2 0
-7.776 -4 3.923 -0 -1.2 0
-4.285 -2.789 1.943 -0 -1.2 0
-7.54 -4.25 3.799 -0 -1.2 0
-7.546 -4.425 3.808 -0 -1.2 0
-7.541 -4.598 3.809 -0 -1.2 0
-7.54 -4.775 3.815 -0 -1.2 0
-5.269 -3.79 2.521 -0 -1.2 0
-5.343 -3.958 2.568 -0 -1.2 0
-5.392 -4.117 2.599 -0 -1.2 0
-7.53 -5.509 3.831 -0 -1.2 0
-7.528 -5.702 3.836 -0 -1.2 0
-7.478 -5.866 3.814 -0 -1.2 0
-8.062 -6.455 4.156 -0 -1.2 0
-5.832 -5.127 2.875 -0 -1.2 0
-7.758 -6.68 3.994 -0 -1.2 0
-7.917 -7.019 4.092 -0 -1.2 0
-9.3 -8.33 4.902 -0 -1.2 0
-7.692 -7.305 3.976 -0 -1.2 0
-7.742 -7.582 4.012 -0 -1.2 0
-7.998 -8.049 4.168 -0 -1.2 0
-7.657 -7.999 3.977 -0 -1.2 0
-7.448 -8.057 3.863 -0 -1.2 0
-7.459 -8.321 3.877 -0 -1.2 0
-7.294 -8.417 3.788 -0 -1.2 0
-7.185 -8.57 3.732 -0 -1.2 0
-7.018 -8.659 3.641 -0 -1.2 0
-7.241 -9.18 3.782 -0 -1.2 0
-1.043 0.002 0.122 -0 -1.2 0
-1.071 -0.004 0.139 -0 -1.2 0
-1.114 0.002 0.165 -0 -1.2 0
-1.15 0 0.186 -0 -1.2 0
-1.192 0.002 0.212 -0 -1.2 0
-1.229 -0.001 0.235 -0 -1.2 0
-1.278 0.005 0.264 -0 -1.2 0
-1.322 0.003 0.291 -0 -1.2 0
-1.359 -0.003 0.313 -0 -1.2 0
-1.411 -0.001 0.344 -0 -1.2 0
-1.463 -0.001 0.374 -0 -1.2 0
-1.507 -0.008 0.402 -0 -1.2 0
-1.568 -0.007 0.438 -0 -1.2 0
-1.621 -0.012 0.47 -0 -1.2 0
-1.681 -0.014 0.507 -0 -1.2 0
-1.749 -0.013 0.548 -0 -1.2 0
-1.818 -0.015 0.59 -0 -1.2 0
-1.888 -0.019 0.632 -0 -1.2 0
-1.981 -0.013 0.688 -0 -1.2 0
-2.059 -0.019 0.735 -0 -1.2 0
-2.168 -0.01 0.801 -0 -1.2 0
-2.264 -0.015 0.859 -0 -1.2 0
-2.375 -0.015 0.926 -0 -1.2 0
-2.487 -0.019 0.994 -0 -1.2 0
-2.615 -0.021 1.071 -0 -1.2 0
-2.745 -0.027 1.15 -0 -1.2 0
-2.89 -0.033 1.238 -0 -1.2 0
-3.07 -0.032 1.346 -0 -1.2 0
-3.282 -0.027 1.474 -0 -1.2 0
-3.522 -0.024 1.619 -0 -1.2 0
-3.77 -0.027 1.769 -0 -1.2 0
-4.043 -0.033 1.935 -0 -1.2 0
-4.369 -0.037 2.131 -0 -1.2 0
-4.493 -0.101 2.208 -0 -1.2 0
-4.59 -0.174 2.269 -0 -1.2 0
-4.501 -0.285 2.218 -0 -1.2 0
-4.698 -0.345 2.339 -0 -1.2 0
-4.222 -0.509 2.058 -0 -1.2 0
-4.162 -0.603 2.023 -0 -1.2 0
-4.457 -0.657 2.203 -0 -1.2 0
-4.685 -0.729 2.343 -0 -1.2 0
-4.559 -0.831 2.271 -0 -1.2 0
-4.065 -0.944 1.976 -0 -1.2 0
-4.597 -1.015 2.299 -0 -1.2 0
-5.007 -1.107 2.55 -0 -1.2 0
-4.945 -1.207 2.516 -0 -1.2 0
-5.147 -1.315 2.64 -0 -1.2 0
-4.681 -1.391 2.362 -0 -1.2 0
-5.177 -1.527 2.666 -0 -1.2 0
-7.246 -1.844 3.926 -0 -1.2 0
-7.547 -2.029 4.113 -0 -1.2 0
-7.716 -2.208 4.221 -0 -1.2 0
-7.713 -2.368 4.224 -0 -1.2 0
-7.624 -2.512 4.174 -0 -1.2 0
-7.709 -2.689 4.231 -0 -1.2 0
-7.623 -2.832 4.184 -0 -1.2 0
-7.702 -3.014 4.238 -0 -1.2 0
-7.696 -3.177 4.238 -0 -1.2 0
-7.537 -3.298 4.147 -0 -1.2 0
-7.674 -3.504 4.236 -0 -1.2 0
-7.692 -3.68 4.252 -0 -1.2 0
-4.4 -2.67 2.233 -0 -1.2 0
-7.631 -4 4.225 -0 -1.2 0
-4.373 -2.858 2.221 -0 -1.2 0
-4.312 -2.932 2.188 -0 -1.2 0
-5.11 -3.392 2.683 -0 -1.2 0
-7.328 -4.566 4.06 -0 -1.2 0
-7.328 -4.742 4.066 -0 -1.2 0
-4.957 -3.68 2.6 -0 -1.2 0
-5.171 -3.92 2.736 -0 -1.2 0
-4.424 -3.622 2.277 -0 -1.2 0
-4.498 -3.78 2.327 -0 -1.2 0
-4.366 -3.814 2.248 -0 -1.2 0
-4.145 -3.787 2.113 -0 -1.2 0
-4.192 -3.931 2.146 -0 -1.2 0
-4.657 -4.376 2.441 -0 -1.2 0
-7.602 -6.679 4.292 -0 -1.2 0
-7.601 -6.899 4.298 -0 -1.2 0
-7.589 -7.115 4.297 -0 -1.2 0
-7.488 -7.264 4.242 -0 -1.2 0
-7.551 -7.552 4.288 -0 -1.2 0
-7.539 -7.784 4.288 -0 -1.2 0
-7.476 -7.975 4.256 -0 -1.2 0
-7.245 -8.007 4.117 -0 -1.2 0
-7.229 -8.245 4.116 -0 -1.2 0
-7.165 -8.438 4.083 -0 -1.2 0
-6.976 -8.505 3.971 -0 -1.2 0
-6.9 -8.687 3.93 -0 -1.2 0
-7.032 -9.113 4.024 -0 -1.2 0
-1.011 -0.002 0.176 -0 -1.2 0
-1.045 -0.001 0.199 -0 -1.2 0
-1.08 -0.002 0.222 -0 -1.2 0
-1.115 -0.004 0.245 -0 -1.2 0
-1.156 -0.001 0.271 -0 -1.2 0
-1.191 -0.005 0.295 -0 -1.2 0
-1.241 0.001 0.326 -0 -1.2 0
-1.29 0.006 0.359 -0 -1.2 0
-1.326 -0.001 0.382 -0 -1.2 0
-1.369 -0.005 0.411 -0 -1.2 0
-1.419 -0.005 0.444 -0 -1.2 0
-1.47 -0.006 0.478 -0 -1.2 0
-1.521 -0.009 0.512 -0 -1.2 0
-1.581 -0.009 0.55 -0 -1.2 0
-1.64 -0.011 0.59 -0 -1.2 0
-1.699 -0.016 0.629 -0 -1.2 0
-1.773 -0.012 0.678 -0 -1.2 0
-1.841 -0.016 0.723 -0 -1.2 0
-1.932 -0.01 0.782 -0 -1.2 0
-2.023 -0.007 0.843 -0 -1.2 0
-2.092 -0.019 0.889 -0 -1.2 0
-2.192 -0.019 0.954 -0 -1.2 0
-2.285 -0.026 1.016 -0 -1.2 0
-2.409 -0.023 1.098 -0 -1.2 0
-2.527 -0.028 1.176 -0 -1.2 0
-2.661 -0.031 1.264 -0 -1.2 0
-2.795 -0.039 1.352 -0 -1.2 0
-2.978 -0.034 1.472 -0 -1.2 0
-3.178 -0.032 1.604 -0 -1.2 0
-3.394 -0.033 1.747 -0 -1.2 0
-3.644 -0.033 1.912 -0 -1.2 0
-3.935 -0.031 2.104 -0 -1.2 0
-4.056 -0.085 2.185 -0 -1.2 0
-4.307 -0.113 2.353 -0 -1.2 0
-4.403 -0.185 2.417 -0 -1.2 0
-4.39 -0.281 2.411 -0 -1.2 0
-4.524 -0.35 2.502 -0 -1.2 0
-4.342 -0.473 2.386 -0 -1.2 0
-4.274 -0.571 2.344 -0 -1.2 0
-4.397 -0.648 2.428 -0 -1.2 0
-4.402 -0.739 2.434 -0 -1.2 0
-4.447 -0.827 2.466 -0 -1.2 0
-4.29 -0.926 2.366 -0 -1.2 0
-4.566 -1.008 2.55 -0 -1.2 0
-4.574 -1.103 2.558 -0 -1.2 0
-5.073 -1.207 2.891 -0 -1.2 0
-4.394 -1.285 2.446 -0 -1.2 0
-4.748 -1.398 2.682 -0 -1.2 0
-7.087 -1.691 4.234 -0 -1.2 0
-7.034 -1.834 4.203 -0 -1.2 0
-4.351 -1.646 2.428 -0 -1.2 0
-4.283 -1.728 2.387 -0 -1.2 0
-7.242 -2.314 4.356 -0 -1.2 0
-7.271 -2.475 4.38 -0 -1.2 0
-7.288 -2.634 4.395 -0 -1.2 0
-7.312 -2.797 4.416 -0 -1.2 0
-7.3 -2.954 4.413 -0 -1.2 0
-7.318 -3.12 4.431 -0 -1.2 0
-7.31 -3.278 4.43 -0 -1.2 0
-4.561 -2.559 2.596 -0 -1.2 0
-7.318 -3.61 4.445 -0 -1.2 0
-4.362 -2.692 2.468 -0 -1.2 0
-4.266 -2.755 2.407 -0 -1.2 0
-4.107 -2.788 2.303 -0 -1.2 0
-4.206 -2.928 2.372 -0 -1.2 0
-4.161 -3.008 2.346 -0 -1.2 0
-4.124 -3.09 2.324 -0 -1.2 0
-4.025 -3.141 2.259 -0 -1.2 0
-3.932 -3.193 2.201 -0 -1.2 0
-4.456 -3.586 2.558 -0 -1.2 0
-4.358 -3.644 2.496 -0 -1.2 0
-5.189 -4.269 3.063 -0 -1.2 0
-5.192 -4.41 3.069 -0 -1.2 0
-7.037 -5.786 4.329 -0 -1.2 0
-7.066 -6.003 4.355 -0 -1.2 0
-7.282 -6.362 4.509 -0 -1.2 0
-7.272 -6.567 4.508 -0 -1.2 0
-7.231 -6.751 4.487 -0 -1.2 0
-8.919 -8.348 5.649 -0 -1.2 0
-7.328 -7.281 4.568 -0 -1.2 0
-7.195 -7.398 4.483 -0 -1.2 0
-7.936 -8.312 5 -0 -1.2 0
-7.289 -7.968 4.562 -0 -1.2 0
-7.082 -8.02 4.428 -0 -1.2 0
-6.997 -8.188 4.378 -0 -1.2 0
-6.966 -8.413 4.364 -0 -1.2 0
-6.765 -8.458 4.232 -0 -1.2 0
-6.745 -8.702 4.226 -0 -1.2 0
-6.59 -8.794 4.127 -0 -1.2 0
-0.98 -0.008 0.224 -0 -1.2 0
-1.019 0 0.252 -0 -1.2 0
-1.046 -0.008 0.272 -0 -1.2 0
-1.08 -0.01 0.296 -0 -1.2 0
-1.121 -0.006 0.324 -0 -1.2 0
-1.162 -0.004 0.353 -0 -1.2 0
-1.203 -0.003 0.382 -0 -1.2 0
-1.244 -0.004 0.412 -0 -1.2 0
-1.279 -0.012 0.437 -0 -1.2 0
-1.328 -0.01 0.472 -0 -1.2 0
-1.384 -0.004 0.512 -0 -1.2 0
-1.427 -0.011 0.542 -0 -1.2 0
-1.477 -0.014 0.578 -0 -1.2 0
-1.527 -0.018 0.614 -0 -1.2 0
-1.591 -0.015 0.66 -0 -1.2 0
-1.657 -0.014 0.707 -0 -1.2 0
-1.722 -0.016 0.753 -0 -1.2 0
-1.795 -0.015 0.805 -0 -1.2 0
-1.877 -0.013 0.864 -0 -1.2 0
-1.951 -0.018 0.916 -0 -1.2 0
-2.025 -0.027 0.97 -0 -1.2 0
-2.115 -0.029 1.034 -0 -1.2 0
-2.205 -0.036 1.099 -0 -1.2 0
-2.312 -0.039 1.174 -0 -1.2 0
-2.44 -0.036 1.267 -0 -1.2 0
-2.564 -0.042 1.354 -0 -1.2 0
-2.709 -0.043 1.458 -0 -1.2 0
-2.865 -0.047 1.569 -0 -1.2 0
-3.075 -0.039 1.719 -0 -1.2 0
-3.271 -0.044 1.858 -0 -1.2 0
-3.514 -0.043 2.032 -0 -1.2 0
-3.782 -0.044 2.223 -0 -1.2 0
-4.035 -0.062 2.405 -0 -1.2 0
-4.201 -0.11 2.525 -0 -1.2 0
-4.334 -0.174 2.621 -0 -1.2 0
-4.111 -0.312 2.466 -0 -1.2 0
-4.153 -0.392 2.499 -0 -1.2 0
-4.185 -0.477 2.525 -0 -1.2 0
-3.998 -0.591 2.394 -0 -1.2 0
-4.19 -0.655 2.534 -0 -1.2 0
-4.186 -0.745 2.534 -0 -1.2 0
-4.173 -0.835 2.527 -0 -1.2 0
-4.314 -0.918 2.63 -0 -1.2 0
-4.338 -1.008 2.651 -0 -1.2 0
-4.526 -1.1 2.787 -0 -1.2 0
-4.711 -1.2 2.922 -0 -1.2 0
-4.584 -1.294 2.835 -0 -1.2 0
-4.678 -1.398 2.904 -0 -1.2 0
-6.877 -1.684 4.483 -0 -1.2 0
-6.826 -1.826 4.45 -0 -1.2 0
-6.877 -1.98 4.491 -0 -1.2 0
-6.91 -2.134 4.52 -0 -1.2 0
-6.908 -2.284 4.523 -0 -1.2 0
-6.912 -2.436 4.531 -0 -1.2 0
-6.898 -2.586 4.524 -0 -1.2 0
-6.906 -2.74 4.535 -0 -1.2 0
-6.903 -2.894 4.538 -0 -1.2 0
-6.898 -3.048 4.539 -0 -1.2 0
-6.891 -3.203 4.539 -0 -1.2 0
-6.897 -3.363 4.548 -0 -1.2 0
-4.432 -2.653 2.768 -0 -1.2 0
-4.276 -2.698 2.658 -0 -1.2 0
-5.599 -3.328 3.622 -0 -1.2 0
-4.019 -2.792 2.478 -0 -1.2 0
-4.754 -3.219 3.014 -0 -1.2 0
-4.766 -3.342 3.027 -0 -1.2 0
-6.157 -4.153 4.045 -0 -1.2 0
-5.768 -4.105 3.766 -0 -1.2 0
-3.812 -3.178 2.341 -0 -1.2 0
-4.622 -3.744 2.937 -0 -1.2 0
-4.277 -3.659 2.689 -0 -1.2 0
-4.131 -3.682 2.586 -0 -1.2 0
-3.993 -3.705 2.488 -0 -1.2 0
-3.807 -3.688 2.354 -0 -1.2 0
-6.847 -5.969 4.593 -0 -1.2 0
-6.843 -6.168 4.596 -0 -1.2 0
-6.844 -6.372 4.603 -0 -1.2 0
-6.84 -6.579 4.607 -0 -1.2 0
-6.839 -6.792 4.612 -0 -1.2 0
-6.827 -7.002 4.611 -0 -1.2 0
-6.825 -7.225 4.616 -0 -1.2 0
-6.812 -7.444 4.613 -0 -1.2 0
-6.807 -7.675 4.617 -0 -1.2 0
-4.595 -5.692 2.978 -0 -1.2 0
-4.54 -5.803 2.942 -0 -1.2 0
-6.76 -8.376 4.605 -0 -1.2 0
-6.6 -8.461 4.494 -0 -1.2 0
-6.516 -8.63 4.439 -0 -1.2 0
-3.957 -5.822 2.527 -0 -1.2 0
-3.95 -5.985 2.528 -0 -1.2 0
-0.958 0 0.28 -0 -1.2 0
-0.985 -0.006 0.301 -0 -1.2 0
-1.018 -0.007 0.325 -0 -1.2 0
-1.057 -0.002 0.356 -0 -1.2 0
-1.083 -0.011 0.377 -0 -1.2 0
-1.124 -0.009 0.407 -0 -1.2 0
-1.17 -0.002 0.442 -0 -1.2 0
-1.204 -0.009 0.469 -0 -1.2 0
-1.244 -0.011 0.5 -0 -1.2 0
-1.292 -0.009 0.536 -0 -1.2 0
-1.34 -0.008 0.573 -0 -1.2 0
-1.381 -0.014 0.606 -0 -1.2 0
-1.429 -0.017 0.643 -0 -1.2 0
-1.491 -0.012 0.691 -0 -1.2 0
-1.541 -0.019 0.729 -0 -1.2 0
-1.604 -0.018 0.778 -0 -1.2 0
-1.661 -0.023 0.821 -0 -1.2 0
-1.732 -0.023 0.876 -0 -1.2 0
-1.804 -0.025 0.932 -0 -1.2 0
-1.89 -0.021 0.998 -0 -1.2 0
-1.955 -0.033 1.049 -0 -1.2 0
-2.058 -0.028 1.127 -0 -1.2 0
-2.145 -0.035 1.195 -0 -1.2 0
-2.233 -0.045 1.263 -0 -1.2 0
-2.352 -0.045 1.354 -0 -1.2 0
-2.486 -0.044 1.458 -0 -1.2 0
-2.614 -0.051 1.556 -0 -1.2 0
-2.763 -0.054 1.672 -0 -1.2 0
-2.945 -0.053 1.812 -0 -1.2 0
-3.135 -0.058 1.958 -0 -1.2 0
-3.38 -0.053 2.146 -0 -1.2 0
-3.634 -0.056 2.342 -0 -1.2 0
-3.856 -0.079 2.514 -0 -1.2 0
-4.111 -0.103 2.71 -0 -1.2 0
-4.216 -0.172 2.794 -0 -1.2 0
-4.039 -0.301 2.662 -0 -1.2 0
-3.741 -0.444 2.437 -0 -1.2 0
-3.804 -0.517 2.487 -0 -1.2 0
-3.865 -0.592 2.537 -0 -1.2 0
-4.187 -0.641 2.786 -0 -1.2 0
-4.152 -0.736 2.762 -0 -1.2 0
-3.696 -0.857 2.414 -0 -1.2 0
-4.165 -0.917 2.778 -0 -1.2 0
-4.181 -1.007 2.793 -0 -1.2 0
-4.157 -1.099 2.777 -0 -1.2 0
-4.63 -1.198 3.145 -0 -1.2 0
-4.603 -1.298 3.127 -0 -1.2 0
-4.495 -1.392 3.047 -0 -1.2 0
-4.6 -1.5 3.13 -0 -1.2 0
-4.71 -1.613 3.219 -0 -1.2 0
-6.628 -1.969 4.708 -0 -1.2 0
-6.699 -2.127 4.767 -0 -1.2 0
-6.698 -2.277 4.77 -0 -1.2 0
-6.694 -2.427 4.772 -0 -1.2 0
-6.687 -2.577 4.772 -0 -1.2 0
-6.679 -2.728 4.77 -0 -1.2 0
-6.685 -2.882 4.779 -0 -1.2 0
-6.68 -3.036 4.78 -0 -1.2 0
-6.681 -3.192 4.786 -0 -1.2 0
-3.747 -2.359 2.5 -0 -1.2 0
-4.243 -2.627 2.89 -0 -1.2 0
-6.662 -3.662 4.785 -0 -1.2 0
-4.353 -2.877 2.983 -0 -1.2 0
-4.073 -2.861 2.766 -0 -1.2 0
-3.388 -2.647 2.232 -0 -1.2 0
-3.24 -2.661 2.119 -0 -1.2 0
-3.21 -2.728 2.098 -0 -1.2 0
-3.809 -3.133 2.571 -0 -1.2 0
-3.75 -3.201 2.528 -0 -1.2 0
-4.083 -3.498 2.793 -0 -1.2 0
-5.326 -4.378 3.778 -0 -1.2 0
-5.929 -4.916 4.259 -0 -1.2 0
-6.635 -5.561 4.823 -0 -1.2 0
-3.613 -3.623 2.435 -0 -1.2 0
-4.229 -4.182 2.927 -0 -1.2 0
-4.244 -4.321 2.943 -0 -1.2 0
-4.191 -4.408 2.905 -0 -1.2 0
-4.143 -4.5 2.871 -0 -1.2 0
-6.607 -6.75 4.837 -0 -1.2 0
-6.596 -6.959 4.835 -0 -1.2 0
-6.594 -7.181 4.841 -0 -1.2 0
-6.588 -7.404 4.843 -0 -1.2 0
-4.367 -5.424 3.071 -0 -1.2 0
-6.575 -7.869 4.848 -0 -1.2 0
-6.538 -8.078 4.826 -0 -1.2 0
-6.539 -8.334 4.834 -0 -1.2 0
-4.123 -5.814 2.895 -0 -1.2 0
-3.919 -5.741 2.737 -0 -1.2 0
-6.168 -8.691 4.559 -0 -1.2 0
-6.347 -9.194 4.711 -0 -1.2 0
-0.925 -0.006 0.328 -0 -1.2 0
-0.95 -0.013 0.35 -0 -1.2 0
-0.982 -0.013 0.376 -0 -1.2 0
-1.014 -0.015 0.403 -0 -1.2 0
-1.045 -0.017 0.429 -0 -1.2 0
-1.089 -0.008 0.466 -0 -1.2 0
-1.123 -0.014 0.493 -0 -1.2 0
-1.162 -0.014 0.526 -0 -1.2 0
-1.207 -0.01 0.563 -0 -1.2 0
-1.24 -0.02 0.591 -0 -1.2 0
-1.286 -0.018 0.63 -0 -1.2 0
-1.34 -0.014 0.675 -0 -1.2 0
-1.387 -0.017 0.713 -0 -1.2 0
-1.44 -0.016 0.758 -0 -1.2 0
-1.495 -0.018 0.804 -0 -1.2 0
-1.55 -0.022 0.849 -0 -1.2 0
-1.611 -0.022 0.901 -0 -1.2 0
-1.673 -0.026 0.953 -0 -1.2 0
-1.735 -0.033 1.004 -0 -1.2 0
-1.82 -0.028 1.075 -0 -1.2 0
-1.896 -0.032 1.138 -0 -1.2 0
-1.975 -0.039 1.204 -0 -1.2 0
-2.053 -0.049 1.268 -0 -1.2 0
-2.159 -0.047 1.358 -0 -1.2 0
-2.267 -0.051 1.448 -0 -1.2 0
-2.39 -0.052 1.55 -0 -1.2 0
-2.513 -0.059 1.652 -0 -1.2 0
-2.659 -0.062 1.773 -0 -1.2 0
-2.821 -0.066 1.908 -0 -1.2 0
-3.012 -0.067 2.068 -0 -1.2 0
-3.234 -0.066 2.253 -0 -1.2 0
-3.487 -0.066 2.463 -0 -1.2 0
-3.741 -0.077 2.675 -0 -1.2 0
-3.98 -0.103 2.874 -0 -1.2 0
-4.09 -0.17 2.968 -0 -1.2 0
-3.835 -0.317 2.76 -0 -1.2 0
-4.301 -0.319 3.149 -0 -1.2 0
-4.019 -0.462 2.918 -0 -1.2 0
-4.025 -0.553 2.926 -0 -1.2 0
-3.854 -0.663 2.787 -0 -1.2 0
-3.943 -0.742 2.863 -0 -1.2 0
-3.792 -0.841 2.741 -0 -1.2 0
-4.056 -0.915 2.962 -0 -1.2 0
-4.164 -1.003 3.055 -0 -1.2 0
-4.332 -1.096 3.198 -0 -1.2 0
-4.46 -1.196 3.308 -0 -1.2 0
-4.542 -1.3 3.379 -0 -1.2 0
-4.33 -1.388 3.205 -0 -1.2 0
-6.445 -1.675 4.974 -0 -1.2 0
-6.419 -1.818 4.957 -0 -1.2 0
-6.391 -1.962 4.938 -0 -1.2 0
-6.476 -2.122 5.014 -0 -1.2 0
-6.474 -2.271 5.017 -0 -1.2 0
-6.478 -2.422 5.024 -0 -1.2 0
-6.472 -2.572 5.024 -0 -1.2 0
-6.465 -2.722 5.022 -0 -1.2 0
-6.461 -2.875 5.024 -0 -1.2 0
-6.464 -3.03 5.031 -0 -1.2 0
-6.458 -3.183 5.031 -0 -1.2 0
-3.553 -2.329 2.587 -0 -1.2 0
-4.196 -2.655 3.132 -0 -1.2 0
-4.422 -2.849 3.325 -0 -1.2 0
-3.735 -2.669 2.748 -0 -1.2 0
-3.366 -2.598 2.439 -0 -1.2 0
-3.387 -2.694 2.46 -0 -1.2 0
-5.31 -3.744 4.091 -0 -1.2 0
-3.828 -3.103 2.839 -0 -1.2 0
-4.158 -3.388 3.122 -0 -1.2 0
-4.069 -3.45 3.05 -0 -1.2 0
-4.07 -3.563 3.055 -0 -1.2 0
-3.967 -3.611 2.97 -0 -1.2 0
-4.047 -3.778 3.042 -0 -1.2 0
-3.639 -3.613 2.697 -0 -1.2 0
-6.405 -5.729 5.064 -0 -1.2 0
-3.81 -3.96 2.851 -0 -1.2 0
-3.764 -4.042 2.814 -0 -1.2 0
-6.392 -6.315 5.07 -0 -1.2 0
-6.388 -6.52 5.073 -0 -1.2 0
-6.381 -6.726 5.074 -0 -1.2 0
-6.378 -6.939 5.078 -0 -1.2 0
-6.37 -7.155 5.077 -0 -1.2 0
-4.263 -5.295 3.268 -0 -1.2 0
-6.349 -7.597 5.074 -0 -1.2 0
-6.346 -7.835 5.079 -0 -1.2 0
-6.335 -8.07 5.075 -0 -1.2 0
-3.919 -5.556 2.989 -0 -1.2 0
-6.257 -8.496 5.025 -0 -1.2 0
-6.078 -8.544 4.877 -0 -1.2 0
-6.035 -8.759 4.848 -0 -1.2 0
-5.962 -8.938 4.791 -0 -1.2 0
-3.332 -5.621 2.502 -0 -1.2 0
-0.898 -0.005 0.375 -0 -1.2 0
-0.918 -0.019 0.393 -0 -1.2 0
-0.959 -0.006 0.431 -0 -1.2 0
-0.984 -0.014 0.453 -0 -1.2 0
-1.015 -0.017 0.481 -0 -1.2 0
-1.048 -0.021 0.509 -0 -1.2 0
-1.085 -0.019 0.542 -0 -1.2 0
-1.134 -0.007 0.587 -0 -1.2 0
-1.166 -0.015 0.615 -0 -1.2 0
-1.198 -0.024 0.644 -0 -1.2 0
-1.244 -0.023 0.685 -0 -1.2 0
-1.295 -0.019 0.731 -0 -1.2 0
-1.334 -0.027 0.765 -0 -1.2 0
-1.393 -0.021 0.818 -0 -1.2 0
-1.439 -0.027 0.859 -0 -1.2 0
-1.492 -0.031 0.906 -0 -1.2 0
-1.545 -0.036 0.954 -0 -1.2 0
-1.612 -0.034 1.014 -0 -1.2 0
-1.672 -0.041 1.067 -0 -1.2 0
-1.761 -0.032 1.145 -0 -1.2 0
-1.835 -0.035 1.213 -0 -1.2 0
-1.904 -0.046 1.275 -0 -1.2 0
-1.987 -0.051 1.348 -0 -1.2 0
-2.09 -0.051 1.44 -0 -1.2 0
-2.181 -0.061 1.522 -0 -1.2 0
-2.292 -0.065 1.622 -0 -1.2 0
-2.419 -0.068 1.735 -0 -1.2 0
-2.561 -0.071 1.861 -0 -1.2 0
-2.711 -0.077 1.994 -0 -1.2 0
-2.903 -0.074 2.167 -0 -1.2 0
-3.104 -0.077 2.346 -0 -1.2 0
-3.328 -0.083 2.546 -0 -1.2 0
-3.596 -0.086 2.785 -0 -1.2 0
-3.828 -0.112 2.993 -0 -1.2 0
-3.743 -0.224 2.92 -0 -1.2 0
-3.886 -0.282 3.049 -0 -1.2 0
-4.058 -0.34 3.205 -0 -1.2 0
-3.673 -0.5 2.865 -0 -1.2 0
-3.738 -0.576 2.926 -0 -1.2 0
-3.87 -0.647 3.046 -0 -1.2 0
-3.986 -0.727 3.151 -0 -1.2 0
-4.108 -0.81 3.263 -0 -1.2 0
-3.856 -0.918 3.041 -0 -1.2 0
-3.931 -1.005 3.111 -0 -1.2 0
-4.027 -1.096 3.199 -0 -1.2 0
-4.264 -1.194 3.414 -0 -1.2 0
-4.157 -1.287 3.321 -0 -1.2 0
-3.929 -1.369 3.12 -0 -1.2 0
-3.841 -1.452 3.045 -0 -1.2 0
-3.916 -1.55 3.115 -0 -1.2 0
-6.198 -1.96 5.162 -0 -1.2 0
-6.287 -2.121 5.246 -0 -1.2 0
-6.285 -2.27 5.249 -0 -1.2 0
-6.282 -2.419 5.251 -0 -1.2 0
-6.276 -2.568 5.25 -0 -1.2 0
-6.276 -2.72 5.255 -0 -1.2 0
-6.266 -2.871 5.251 -0 -1.2 0
-6.269 -3.026 5.258 -0 -1.2 0
-6.262 -3.179 5.257 -0 -1.2 0
-4.26 -2.618 3.453 -0 -1.2 0
-3.66 -2.495 2.914 -0 -1.2 0
-3.604 -2.566 2.867 -0 -1.2 0
-4.035 -2.846 3.26 -0 -1.2 0
-3.576 -2.739 2.846 -0 -1.2 0
-3.448 -2.772 2.733 -0 -1.2 0
-3.854 -3.072 3.104 -0 -1.2 0
-6.23 -4.468 5.266 -0 -1.2 0
-4.902 -3.882 4.063 -0 -1.2 0
-4.025 -3.494 3.269 -0 -1.2 0
-3.992 -3.587 3.243 -0 -1.2 0
-3.93 -3.663 3.19 -0 -1.2 0
-6.208 -5.343 5.272 -0 -1.2 0
-3.513 -3.597 2.816 -0 -1.2 0
-3.549 -3.732 2.852 -0 -1.2 0
-6.205 -5.914 5.287 -0 -1.2 0
-4.382 -4.632 3.621 -0 -1.2 0
-4.946 -5.252 4.144 -0 -1.2 0
-4.37 -4.911 3.62 -0 -1.2 0
-3.048 -3.854 2.409 -0 -1.2 0
-4.042 -4.903 3.327 -0 -1.2 0
-3.085 -4.105 2.45 -0 -1.2 0
-6.154 -7.353 5.284 -0 -1.2 0
-2.922 -4.163 2.305 -0 -1.2 0
-6.143 -7.816 5.288 -0 -1.2 0
-2.625 -4.054 2.037 -0 -1.2 0
-3.671 -5.398 3.011 -0 -1.2 0
-6.073 -8.495 5.247 -0 -1.2 0
-5.882 -8.522 5.077 -0 -1.2 0
-5.868 -8.771 5.071 -0 -1.2 0
-2.988 -5.127 2.394 -0 -1.2 0
-3.229 -5.613 2.623 -0 -1.2 0
-0.869 -0.005 0.422 -0 -1.2 0
-0.894 -0.011 0.445 -0 -1.2 0
-0.923 -0.012 0.474 -0 -1.2 0
-0.953 -0.014 0.503 -0 -1.2 0
-0.983 -0.016 0.532 -0 -1.2 0
-1.02 -0.013 0.566 -0 -1.2 0
-1.05 -0.019 0.595 -0 -1.2 0
-1.087 -0.019 0.631 -0 -1.2 0
-1.13 -0.015 0.671 -0 -1.2 0
-1.167 -0.018 0.707 -0 -1.2 0
-1.204 -0.022 0.743 -0 -1.2 0
-1.242 -0.029 0.779 -0 -1.2 0
-1.292 -0.026 0.826 -0 -1.2 0
-1.343 -0.025 0.875 -0 -1.2 0
-1.387 -0.031 0.918 -0 -1.2 0
-1.438 -0.035 0.967 -0 -1.2 0
-1.497 -0.036 1.022 -0 -1.2 0
-1.561 -0.034 1.084 -0 -1.2 0
-1.619 -0.04 1.14 -0 -1.2 0
-1.692 -0.04 1.209 -0 -1.2 0
-1.764 -0.043 1.279 -0 -1.2 0
-1.844 -0.045 1.354 -0 -1.2 0
-1.917 -0.055 1.425 -0 -1.2 0
-2.011 -0.057 1.514 -0 -1.2 0
-2.105 -0.064 1.605 -0 -1.2 0
-2.207 -0.071 1.702 -0 -1.2 0
-2.337 -0.07 1.826 -0 -1.2 0
-2.467 -0.076 1.95 -0 -1.2 0
-2.612 -0.082 2.089 -0 -1.2 0
-2.798 -0.078 2.268 -0 -1.2 0
-2.943 -0.099 2.407 -0 -1.2 0
-3.21 -0.087 2.661 -0 -1.2 0
-3.441 -0.099 2.882 -0 -1.2 0
-3.673 -0.121 3.104 -0 -1.2 0
-3.762 -0.189 3.191 -0 -1.2 0
-3.758 -0.283 3.19 -0 -1.2 0
-3.852 -0.355 3.282 -0 -1.2 0
-3.787 -0.46 3.224 -0 -1.2 0
-3.757 -0.555 3.198 -0 -1.2 0
-3.799 -0.641 3.24 -0 -1.2 0
-3.94 -0.718 3.377 -0 -1.2 0
-3.538 -0.842 2.997 -0 -1.2 0
-3.742 -0.917 3.194 -0 -1.2 0
-3.829 -1.004 3.28 -0 -1.2 0
-3.865 -1.095 3.316 -0 -1.2 0
-4.167 -1.194 3.608 -0 -1.2 0
-4.438 -1.306 3.87 -0 -1.2 0
-3.704 -1.361 3.171 -0 -1.2 0
-4.203 -1.498 3.652 -0 -1.2 0
-3.599 -1.527 3.076 -0 -1.2 0
-3.607 -1.616 3.086 -0 -1.2 0
-6.29 -2.154 5.665 -0 -1.2 0
-6.524 -2.353 5.895 -0 -1.2 0
-6.313 -2.468 5.696 -0 -1.2 0
-6.292 -2.62 5.682 -0 -1.2 0
-6.298 -2.779 5.691 -0 -1.2 0
-6.302 -2.939 5.7 -0 -1.2 0
-6.304 -3.099 5.707 -0 -1.2 0
-10.975 -4.867 10.222 -0 -1.2 0
-3.938 -2.548 3.429 -0 -1.2 0
-3.634 -2.531 3.139 -0 -1.2 0
-3.649 -2.632 3.156 -0 -1.2 0
-3.314 -2.579 2.834 -0 -1.2 0
-3.347 -2.685 2.869 -0 -1.2 0
-3.21 -2.707 2.739 -0 -1.2 0
-4.664 -3.568 4.153 -0 -1.2 0
-4.53 -3.625 4.028 -0 -1.2 0
-4.166 -3.54 3.677 -0 -1.2 0
-3.543 -3.275 3.074 -0 -1.2 0
-3.495 -3.347 3.03 -0 -1.2 0
-6.015 -5.161 5.491 -0 -1.2 0
-4.46 -4.243 3.979 -0 -1.2 0
-4.286 -4.252 3.813 -0 -1.2 0
-6.002 -5.713 5.496 -0 -1.2 0
-5.967 -5.878 5.466 -0 -1.2 0
-4.592 -4.924 4.125 -0 -1.2 0
-4.778 -5.24 4.311 -0 -1.2 0
-4.837 -5.459 4.375 -0 -1.2 0
-3.98 -4.823 3.537 -0 -1.2 0
-2.967 -3.976 2.544 -0 -1.2 0
-2.894 -4.011 2.476 -0 -1.2 0
-6.084 -7.485 5.627 -0 -1.2 0
-6.697 -8.394 6.238 -0 -1.2 0
-2.573 -3.985 2.168 -0 -1.2 0
-5.986 -8.107 5.551 -0 -1.2 0
-5.244 -7.46 4.824 -0 -1.2 0
-5.88 -8.495 5.462 -0 -1.2 0
-3.57 -5.738 3.173 -0 -1.2 0
-3.045 -5.193 2.656 -0 -1.2 0
-3.333 -5.747 2.947 -0 -1.2 0
-2.426 -4.593 2.046 -0 -1.2 0
-0.832 -0.011 0.466 -0 -1.2 0
-0.867 -0.004 0.5 -0 -1.2 0
-0.885 -0.019 0.52 -0 -1.2 0
-0.919 -0.013 0.555 -0 -1.2 0
-0.948 -0.016 0.584 -0 -1.2 0
-0.983 -0.013 0.62 -0 -1.2 0
-1.013 -0.019 0.651 -0 -1.2 0
-1.048 -0.018 0.687 -0 -1.2 0
-1.088 -0.014 0.729 -0 -1.2 0
-1.118 -0.023 0.76 -0 -1.2 0
-1.161 -0.022 0.804 -0 -1.2 0
-1.203 -0.023 0.847 -0 -1.2 0
-1.245 -0.026 0.891 -0 -1.2 0
-1.289 -0.03 0.935 -0 -1.2 0
-1.337 -0.031 0.985 -0 -1.2 0
-1.386 -0.035 1.036 -0 -1.2 0
-1.437 -0.04 1.088 -0 -1.2 0
-1.505 -0.034 1.158 -0 -1.2 0
-1.556 -0.044 1.21 -0 -1.2 0
-1.637 -0.036 1.294 -0 -1.2 0
-1.701 -0.043 1.36 -0 -1.2 0
-1.777 -0.045 1.439 -0 -1.2 0
-1.849 -0.055 1.511 -0 -1.2 0
-1.938 -0.057 1.605 -0 -1.2 0
-2.03 -0.064 1.698 -0 -1.2 0
-2.128 -0.071 1.799 -0 -1.2 0
-2.253 -0.07 1.927 -0 -1.2 0
-2.371 -0.078 2.05 -0 -1.2 0
-2.531 -0.076 2.214 -0 -1.2 0
-2.691 -0.081 2.379 -0 -1.2 0
-2.872 -0.087 2.565 -0 -1.2 0
-3.094 -0.087 2.794 -0 -1.2 0
-3.318 -0.099 3.023 -0 -1.2 0
-3.541 -0.121 3.255 -0 -1.2 0
-3.627 -0.189 3.344 -0 -1.2 0
-3.706 -0.264 3.428 -0 -1.2 0
-3.811 -0.335 3.537 -0 -1.2 0
-3.714 -0.448 3.441 -0 -1.2 0
-3.713 -0.542 3.443 -0 -1.2 0
-3.731 -0.631 3.466 -0 -1.2 0
-3.645 -0.734 3.379 -0 -1.2 0
-3.711 -0.819 3.449 -0 -1.2 0
-3.663 -0.914 3.403 -0 -1.2 0
-3.517 -1.009 3.256 -0 -1.2 0
-3.621 -1.096 3.366 -0 -1.2 0
-3.954 -1.193 3.71 -0 -1.2 0
-4.493 -1.316 4.27 -0 -1.2 0
-5.859 -1.528 5.68 -0 -1.2 0
-3.99 -1.492 3.756 -0 -1.2 0
-5.855 -1.821 5.683 -0 -1.2 0
-5.802 -1.961 5.633 -0 -1.2 0
-6.085 -2.157 5.93 -0 -1.2 0
-6.089 -2.313 5.939 -0 -1.2 0
-6.085 -2.468 5.939 -0 -1.2 0
-6.079 -2.623 5.938 -0 -1.2 0
-6.078 -2.781 5.941 -0 -1.2 0
-6.068 -2.937 5.936 -0 -1.2 0
-6.076 -3.099 5.949 -0 -1.2 0
-4.009 -2.523 3.807 -0 -1.2 0
-6.052 -3.415 5.934 -0 -1.2 0
-4.155 -2.8 3.965 -0 -1.2 0
-6.055 -3.746 5.946 -0 -1.2 0
-4.537 -3.205 4.369 -0 -1.2 0
-3.068 -2.606 2.842 -0 -1.2 0
-3.017 -2.666 2.79 -0 -1.2 0
-4.074 -3.337 3.897 -0 -1.2 0
-4.045 -3.438 3.871 -0 -1.2 0
-4.766 -3.999 4.628 -0 -1.2 0
-5.82 -4.819 5.737 -0 -1.2 0
-5.816 -4.994 5.738 -0 -1.2 0
-3.264 -3.379 3.066 -0 -1.2 0
-3.45 -3.619 3.264 -0 -1.2 0
-3.332 -3.639 3.143 -0 -1.2 0
-3.36 -3.771 3.176 -0 -1.2 0
-3.242 -3.785 3.055 -0 -1.2 0
-5.8 -6.121 5.755 -0 -1.2 0
-5.976 -6.483 5.945 -0 -1.2 0
-3.893 -4.737 3.752 -0 -1.2 0
-3.698 -4.69 3.55 -0 -1.2 0
-2.791 -3.907 2.594 -0 -1.2 0
-5.958 -7.354 5.953 -0 -1.2 0
-3.372 -4.759 3.217 -0 -1.2 0
-3.12 -4.611 2.953 -0 -1.2 0
-2.494 -4.004 2.292 -0 -1.2 0
-5.767 -8.108 5.779 -0 -1.2 0
-2.348 -4.036 2.143 -0 -1.2 0
-3.309 -5.404 3.171 -0 -1.2 0
-2.929 -5.044 2.77 -0 -1.2 0
-2.845 -5.069 2.685 -0 -1.2 0
-2.496 -4.702 2.314 -0 -1.2 0
-2.289 -4.521 2.096 -0 -1.2 0
-0.809 -0.003 0.515 -0 -1.2 0
-0.836 -0.002 0.545 -0 -1.2 0
-0.859 -0.01 0.571 -0 -1.2 0
-0.888 -0.012 0.601 -0 -1.2 0
-0.916 -0.014 0.632 -0 -1.2 0
-0.949 -0.011 0.669 -0 -1.2 0
-0.977 -0.017 0.7 -0 -1.2 0
-1.012 -0.016 0.738 -0 -1.2 0
-1.041 -0.024 0.769 -0 -1.2 0
-1.075 -0.027 0.807 -0 -1.2 0
-1.115 -0.026 0.852 -0 -1.2 0
-1.157 -0.027 0.897 -0 -1.2 0
-1.203 -0.024 0.948 -0 -1.2 0
-1.244 -0.028 0.993 -0 -1.2 0
-1.292 -0.029 1.046 -0 -1.2 0
-1.339 -0.033 1.098 -0 -1.2 0
-1.387 -0.038 1.151 -0 -1.2 0
-1.453 -0.032 1.223 -0 -1.2 0
-1.508 -0.038 1.284 -0 -1.2 0
-1.575 -0.037 1.357 -0 -1.2 0
-1.643 -0.041 1.432 -0 -1.2 0
-1.717 -0.043 1.513 -0 -1.2 0
-1.786 -0.052 1.588 -0 -1.2 0
-1.872 -0.054 1.684 -0 -1.2 0
-1.96 -0.061 1.78 -0 -1.2 0
-2.055 -0.068 1.885 -0 -1.2 0
-2.162 -0.074 2.003 -0 -1.2 0
-2.283 -0.079 2.137 -0 -1.2 0
-2.444 -0.073 2.313 -0 -1.2 0
-2.605 -0.075 2.489 -0 -1.2 0
-2.781 -0.081 2.682 -0 -1.2 0
-2.989 -0.084 2.91 -0 -1.2 0
-3.204 -0.096 3.148 -0 -1.2 0
-3.493 -0.096 3.464 -0 -1.2 0
-3.51 -0.185 3.485 -0 -1.2 0
-3.552 -0.267 3.534 -0 -1.2 0
-3.506 -0.369 3.488 -0 -1.2 0
-3.546 -0.453 3.534 -0 -1.2 0
-3.606 -0.535 3.602 -0 -1.2 0
-3.342 -0.663 3.316 -0 -1.2 0
-3.474 -0.735 3.462 -0 -1.2 0
-3.597 -0.815 3.6 -0 -1.2 0
-3.497 -0.913 3.494 -0 -1.2 0
-3.592 -1 3.6 -0 -1.2 0
-3.693 -1.092 3.713 -0 -1.2 0
-3.67 -1.186 3.692 -0 -1.2 0
-3.371 -1.265 3.366 -0 -1.2 0
-4.489 -1.436 4.599 -0 -1.2 0
-3.792 -1.482 3.835 -0 -1.2 0
-5.674 -1.82 5.911 -0 -1.2 0
-5.622 -1.96 5.858 -0 -1.2 0
-5.89 -2.155 6.158 -0 -1.2 0
-5.914 -2.316 6.189 -0 -1.2 0
-9.059 -3.205 9.669 -0 -1.2 0
-5.897 -2.626 6.179 -0 -1.2 0
-10.228 -4.026 10.977 -0 -1.2 0
-5.886 -2.94 6.177 -0 -1.2 0
-10.276 -4.6 11.047 -0 -1.2 0
-3.904 -2.532 3.989 -0 -1.2 0
-5.864 -3.419 6.168 -0 -1.2 0
-5.873 -3.587 6.181 -0 -1.2 0
-4.228 -3.007 4.358 -0 -1.2 0
-4.272 -3.15 4.412 -0 -1.2 0
-4.246 -3.261 4.386 -0 -1.2 0
-5.764 -4.207 6.081 -0 -1.2 0
-4.027 -3.387 4.15 -0 -1.2 0
-4.959 -4.068 5.192 -0 -1.2 0
-4.516 -3.94 4.702 -0 -1.2 0
-4.357 -3.976 4.53 -0 -1.2 0
-4.237 -4.03 4.399 -0 -1.2 0
-3.362 -3.528 3.422 -0 -1.2 0
-3.242 -3.548 3.292 -0 -1.2 0
-5.623 -5.549 5.966 -0 -1.2 0
-3.262 -3.782 3.32 -0 -1.2 0
-2.974 -3.647 3.001 -0 -1.2 0
-3.507 -4.233 3.604 -0 -1.2 0
-2.978 -3.864 3.011 -0 -1.2 0
-2.749 -3.751 2.757 -0 -1.2 0
-2.849 -3.956 2.873 -0 -1.2 0
-3.477 -4.727 3.585 -0 -1.2 0
-3.449 -4.835 3.557 -0 -1.2 0
-3.435 -4.96 3.546 -0 -1.2 0
-2.536 -4.049 2.532 -0 -1.2 0
-5.734 -8.056 6.162 -0 -1.2 0
-3.204 -5.115 3.297 -0 -1.2 0
-2.416 -4.23 2.405 -0 -1.2 0
-2.805 -4.873 2.852 -0 -1.2 0
-2.982 -5.259 3.057 -0 -1.2 0
-2.376 -4.526 2.369 -0 -1.2 0
-2.241 -4.446 2.219 -0 -1.2 0
-2.183 -4.475 2.156 -0 -1.2 0
-0.775 -0.009 0.552 -0 -1.2 0
-0.806 -0.001 0.589 -0 -1.2 0
-0.827 -0.009 0.614 -0 -1.2 0
-0.854 -0.011 0.646 -0 -1.2 0
-0.882 -0.013 0.678 -0 -1.2 0
-0.914 -0.01 0.716 -0 -1.2 0
-0.946 -0.01 0.754 -0 -1.2 0
-0.974 -0.015 0.786 -0 -1.2 0
-1.013 -0.011 0.832 -0 -1.2 0
-1.046 -0.015 0.871 -0 -1.2 0
-1.079 -0.019 0.91 -0 -1.2 0
-1.119 -0.02 0.956 -0 -1.2 0
-1.158 -0.023 1.003 -0 -1.2 0
-1.203 -0.022 1.057 -0 -1.2 0
-1.25 -0.023 1.11 -0 -1.2 0
-1.301 -0.022 1.171 -0 -1.2 0
-1.348 -0.027 1.225 -0 -1.2 0
-1.405 -0.026 1.293 -0 -1.2 0
-1.459 -0.031 1.356 -0 -1.2 0
-1.523 -0.032 1.431 -0 -1.2 0
-1.582 -0.039 1.501 -0 -1.2 0
-1.659 -0.037 1.591 -0 -1.2 0
-1.732 -0.044 1.675 -0 -1.2 0
-1.816 -0.046 1.775 -0 -1.2 0
-1.906 -0.049 1.881 -0 -1.2 0
-1.998 -0.056 1.988 -0 -1.2 0
-2.102 -0.062 2.111 -0 -1.2 0
-2.219 -0.068 2.248 -0 -1.2 0
-2.354 -0.071 2.408 -0 -1.2 0
-2.535 -0.062 2.619 -0 -1.2 0
-2.685 -0.076 2.795 -0 -1.2 0
-2.892 -0.076 3.037 -0 -1.2 0
-3.106 -0.086 3.289 -0 -1.2 0
-3.397 -0.084 3.631 -0 -1.2 0
-3.451 -0.162 3.697 -0 -1.2 0
-3.428 -0.262 3.673 -0 -1.2 0
-3.449 -0.35 3.699 -0 -1.2 0
-3.488 -0.436 3.747 -0 -1.2 0
-3.331 -0.556 3.569 -0 -1.2 0
-3.375 -0.639 3.621 -0 -1.2 0
-3.352 -0.731 3.598 -0 -1.2 0
-3.472 -0.811 3.74 -0 -1.2 0
-3.55 -0.899 3.835 -0 -1.2 0
-3.511 -0.995 3.793 -0 -1.2 0
-3.563 -1.088 3.856 -0 -1.2 0
-3.12 -1.173 3.339 -0 -1.2 0
-4.135 -1.306 4.533 -0 -1.2 0
-5.489 -1.521 6.129 -0 -1.2 0
-3.944 -1.509 4.315 -0 -1.2 0
-5.472 -1.815 6.117 -0 -1.2 0
-5.435 -1.958 6.079 -0 -1.2 0
-5.596 -2.136 6.273 -0 -1.2 0
-5.595 -2.289 6.275 -0 -1.2 0
-5.591 -2.442 6.275 -0 -1.2 0
-5.591 -2.597 6.28 -0 -1.2 0
-5.584 -2.751 6.277 -0 -1.2 0
-5.594 -2.911 6.293 -0 -1.2 0
-5.602 -3.072 6.307 -0 -1.2 0
-3.798 -2.543 4.175 -0 -1.2 0
-5.612 -3.398 6.328 -0 -1.2 0
-5.601 -3.556 6.321 -0 -1.2 0
-5.601 -3.722 6.326 -0 -1.2 0
-4.073 -3.124 4.515 -0 -1.2 0
-4.029 -3.224 4.467 -0 -1.2 0
-2.896 -2.711 3.121 -0 -1.2 0
-2.894 -2.799 3.123 -0 -1.2 0
-5.468 -4.496 6.194 -0 -1.2 0
-2.744 -2.884 2.95 -0 -1.2 0
-4.262 -4.017 4.763 -0 -1.2 0
-2.637 -2.984 2.826 -0 -1.2 0
-2.585 -3.033 2.767 -0 -1.2 0
-3.185 -3.594 3.488 -0 -1.2 0
-3.591 -4.039 3.978 -0 -1.2 0
-2.961 -3.625 3.227 -0 -1.2 0
-2.776 -3.565 3.007 -0 -1.2 0
-2.78 -3.671 3.014 -0 -1.2 0
-5.508 -6.425 6.299 -0 -1.2 0
-4.344 -5.462 4.903 -0 -1.2 0
-2.637 -3.842 2.853 -0 -1.2 0
-2.636 -3.947 2.855 -0 -1.2 0
-2.499 -3.9 2.693 -0 -1.2 0
-5.491 -7.524 6.312 -0 -1.2 0
-2.719 -4.384 2.965 -0 -1.2 0
-4.658 -6.96 5.319 -0 -1.2 0
-2.407 -4.221 2.593 -0 -1.2 0
-2.307 -4.201 2.477 -0 -1.2 0
-3.515 -6.018 3.949 -0 -1.2 0
-2.094 -4.12 2.224 -0 -1.2 0
-2.145 -4.308 2.29 -0 -1.2 0
-2.144 -4.422 2.291 -0 -1.2 0
-2.912 -5.793 3.235 -0 -1.2 0
-0.746 -0.001 0.602 -0 -1.2 0
-0.772 -0.001 0.635 -0 -1.2 0
-0.793 -0.008 0.662 -0 -1.2 0
-0.823 -0.003 0.7 -0 -1.2 0
-0.845 -0.012 0.727 -0 -1.2 0
-0.875 -0.009 0.765 -0 -1.2 0
-0.912 -0.002 0.811 -0 -1.2 0
-0.938 -0.008 0.845 -0 -1.2 0
-0.97 -0.01 0.885 -0 -1.2 0
-1.003 -0.014 0.925 -0 -1.2 0
-1.035 -0.018 0.966 -0 -1.2 0
-1.077 -0.014 1.02 -0 -1.2 0
-1.109 -0.021 1.062 -0 -1.2 0
-1.159 -0.015 1.123 -0 -1.2 0
-1.202 -0.016 1.178 -0 -1.2 0
-1.241 -0.025 1.228 -0 -1.2 0
-1.296 -0.021 1.297 -0 -1.2 0
-1.347 -0.025 1.36 -0 -1.2 0
-1.397 -0.03 1.424 -0 -1.2 0
-1.465 -0.026 1.509 -0 -1.2 0
-1.533 -0.025 1.595 -0 -1.2 0
-1.596 -0.032 1.675 -0 -1.2 0
-1.658 -0.042 1.754 -0 -1.2 0
-1.745 -0.04 1.864 -0 -1.2 0
-1.832 -0.043 1.973 -0 -1.2 0
-1.914 -0.054 2.076 -0 -1.2 0
-2.014 -0.06 2.202 -0 -1.2 0
-2.132 -0.063 2.351 -0 -1.2 0
-2.273 -0.06 2.53 -0 -1.2 0
-2.441 -0.055 2.74 -0 -1.2 0
-2.596 -0.064 2.936 -0 -1.2 0
-2.77 -0.074 3.156 -0 -1.2 0
-2.994 -0.077 3.438 -0 -1.2 0
-2.997 -0.162 3.444 -0 -1.2 0
-3.005 -0.245 3.458 -0 -1.2 0
-3.315 -0.25 3.848 -0 -1.2 0
-3.272 -0.354 3.798 -0 -1.2 0
-3.267 -0.447 3.793 -0 -1.2 0
-3.346 -0.525 3.896 -0 -1.2 0
-3.276 -0.629 3.811 -0 -1.2 0
-3.373 -0.71 3.934 -0 -1.2 0
-3.157 -0.823 3.667 -0 -1.2 0
-3.159 -0.911 3.671 -0 -1.2 0
-3.389 -0.991 3.964 -0 -1.2 0
-3.475 -1.085 4.076 -0 -1.2 0
-3.896 -1.191 4.61 -0 -1.2 0
-4.24 -1.317 5.047 -0 -1.2 0
-5.29 -1.519 6.376 -0 -1.2 0
-5.295 -1.668 6.387 -0 -1.2 0
-5.261 -1.812 6.348 -0 -1.2 0
-5.243 -1.959 6.332 -0 -1.2 0
-5.33 -2.125 6.446 -0 -1.2 0
-5.322 -2.275 6.44 -0 -1.2 0
-5.318 -2.427 6.44 -0 -1.2 0
-5.319 -2.581 6.446 -0 -1.2 0
-5.307 -2.733 6.434 -0 -1.2 0
-5.31 -2.889 6.443 -0 -1.2 0
-5.305 -3.045 6.443 -0 -1.2 0
-3.722 -2.572 4.432 -0 -1.2 0
-5.298 -3.36 6.443 -0 -1.2 0
-5.294 -3.519 6.443 -0 -1.2 0
-5.288 -3.679 6.44 -0 -1.2 0
-3.877 -3.108 4.645 -0 -1.2 0
-5.288 -4.011 6.451 -0 -1.2 0
-2.721 -2.677 3.174 -0 -1.2 0
-2.772 -2.796 3.241 -0 -1.2 0
-2.74 -2.867 3.203 -0 -1.2 0
-2.651 -2.897 3.093 -0 -1.2 0
-3.896 -3.88 4.692 -0 -1.2 0
-2.531 -2.986 2.943 -0 -1.2 0
-3.145 -3.557 3.734 -0 -1.2 0
-3.073 -3.61 3.645 -0 -1.2 0
-3.955 -4.479 4.785 -0 -1.2 0
-2.911 -3.69 3.444 -0 -1.2 0
-2.961 -3.846 3.513 -0 -1.2 0
-2.93 -3.929 3.475 -0 -1.2 0
-4.011 -5.14 4.875 -0 -1.2 0
-3.861 -5.144 4.688 -0 -1.2 0
-2.521 -3.834 2.956 -0 -1.2 0
-2.459 -3.87 2.88 -0 -1.2 0
-2.868 -4.46 3.414 -0 -1.2 0
-2.845 -4.559 3.388 -0 -1.2 0
-4.439 -6.717 5.463 -0 -1.2 0
-5.182 -7.908 6.438 -0 -1.2 0
-2.753 -4.833 3.28 -0 -1.2 0
-2.577 -4.722 3.055 -0 -1.2 0
-2.174 -4.261 2.533 -0 -1.2 0
-2.112 -4.282 2.455 -0 -1.2 0
-2.313 -4.715 2.721 -0 -1.2 0
-2.259 -4.759 2.656 -0 -1.2 0
-1.978 -4.413 2.29 -0 -1.2 0
-0.716 0 0.643 -0 -1.2 0
-0.741 0 0.676 -0 -1.2 0
-0.765 0 0.71 -0 -1.2 0
-0.79 -0.002 0.742 -0 -1.2 0
-0.81 -0.011 0.77 -0 -1.2 0
-0.849 0.003 0.823 -0 -1.2 0
-0.87 -0.008 0.851 -0 -1.2 0
-0.9 -0.007 0.892 -0 -1.2 0
-0.925 -0.015 0.926 -0 -1.2 0
-0.961 -0.013 0.974 -0 -1.2 0
-0.992 -0.017 1.016 -0 -1.2 0
-1.038 -0.007 1.078 -0 -1.2 0
-1.074 -0.009 1.127 -0 -1.2 0
-1.111 -0.014 1.177 -0 -1.2 0
-1.153 -0.015 1.234 -0 -1.2 0
-1.195 -0.019 1.29 -0 -1.2 0
-1.237 -0.024 1.348 -0 -1.2 0
-1.296 -0.019 1.427 -0 -1.2 0
-1.344 -0.025 1.492 -0 -1.2 0
-1.421 -0.012 1.595 -0 -1.2 0
-1.464 -0.028 1.653 -0 -1.2 0
-1.535 -0.026 1.75 -0 -1.2 0
-1.596 -0.037 1.831 -0 -1.2 0
-1.679 -0.035 1.944 -0 -1.2 0
-1.757 -0.041 2.048 -0 -1.2 0
-1.846 -0.046 2.169 -0 -1.2 0
-1.936 -0.056 2.291 -0 -1.2 0
-2.054 -0.055 2.451 -0 -1.2 0
-2.185 -0.055 2.627 -0 -1.2 0
-2.328 -0.058 2.82 -0 -1.2 0
-2.477 -0.066 3.02 -0 -1.2 0
-2.667 -0.068 3.277 -0 -1.2 0
-2.869 -0.074 3.55 -0 -1.2 0
-2.978 -0.125 3.699 -0 -1.2 0
-3.122 -0.17 3.894 -0 -1.2 0
-3.165 -0.251 3.955 -0 -1.2 0
-3.22 -0.331 4.031 -0 -1.2 0
-3.142 -0.442 3.93 -0 -1.2 0
-3.142 -0.535 3.932 -0 -1.2 0
-3.194 -0.618 4.005 -0 -1.2 0
-3.172 -0.713 3.98 -0 -1.2 0
-3.175 -0.806 3.985 -0 -1.2 0
-3.158 -0.899 3.966 -0 -1.2 0
-3.307 -0.986 4.17 -0 -1.2 0
-3.176 -1.083 3.995 -0 -1.2 0
-3.822 -1.19 4.872 -0 -1.2 0
-5.104 -1.368 6.606 -0 -1.2 0
-3.554 -1.39 4.515 -0 -1.2 0
-5.056 -1.661 6.549 -0 -1.2 0
-5.064 -1.812 6.566 -0 -1.2 0
-5.072 -1.963 6.581 -0 -1.2 0
-5.137 -2.126 6.673 -0 -1.2 0
-5.134 -2.279 6.676 -0 -1.2 0
-5.126 -2.43 6.668 -0 -1.2 0
-5.126 -2.585 6.673 -0 -1.2 0
-5.125 -2.741 6.677 -0 -1.2 0
-5.122 -2.897 6.677 -0 -1.2 0
-3.634 -2.485 4.657 -0 -1.2 0
-5.112 -3.21 6.674 -0 -1.2 0
-5.11 -3.37 6.675 -0 -1.2 0
-5.111 -3.533 6.683 -0 -1.2 0
-5.106 -3.695 6.68 -0 -1.2 0
-3.698 -3.096 4.762 -0 -1.2 0
-3.491 -3.097 4.483 -0 -1.2 0
-4.057 -3.559 5.261 -0 -1.2 0
-5.087 -4.359 6.676 -0 -1.2 0
-2.505 -2.782 3.144 -0 -1.2 0
-2.616 -2.948 3.299 -0 -1.2 0
-3.609 -3.783 4.664 -0 -1.2 0
-2.291 -2.879 2.857 -0 -1.2 0
-2.954 -3.507 3.772 -0 -1.2 0
-5.059 -5.423 6.67 -0 -1.2 0
-2.744 -3.539 3.49 -0 -1.2 0
-3.474 -4.327 4.498 -0 -1.2 0
-4.141 -5.115 5.423 -0 -1.2 0
-3.149 -4.275 4.059 -0 -1.2 0
-5.043 -6.405 6.68 -0 -1.2 0
-2.478 -3.797 3.139 -0 -1.2 0
-2.429 -3.848 3.074 -0 -1.2 0
-5.022 -7.034 6.672 -0 -1.2 0
