# .PCD v.7 - Point Cloud Data file format
FIELDS x y z vp_x vp_y vp_z
SIZE 4 4 4 4 4 4
TYPE F F F F F F
COUNT 1 1 1 1 1 1
WIDTH 1675
HEIGHT 1
VIEWPOINT 0 -1.20012 0 1 0 0 0
POINTS 1675
DATA ascii
3.336 -3.494 3.88 -0 -1.2 0
3.306 -3.574 3.85 -0 -1.2 0
16.304 -14.155 17.382 -0 -1.2 0
10.105 -9.839 10.939 -0 -1.2 0
8.918 -9.11 9.705 -0 -1.2 0
10.017 -10.463 10.856 -0 -1.2 0
11.497 -12.28 12.405 -0 -1.2 0
8.711 -9.869 9.503 -0 -1.2 0
8.144 -9.601 8.916 -0 -1.2 0
8.164 -9.942 8.941 -0 -1.2 0
11.586 -14.162 12.523 -0 -1.2 0
9.339 -11.992 10.18 -0 -1.2 0
8.998 -11.972 9.828 -0 -1.2 0
8.239 -11.778 9.044 -0 -1.2 0
0.842 0.022 1.222 -0 -1.2 0
0.881 0.04 1.259 -0 -1.2 0
0.905 0.036 1.282 -0 -1.2 0
0.94 0.044 1.316 -0 -1.2 0
0.964 0.038 1.339 -0 -1.2 0
0.995 0.038 1.368 -0 -1.2 0
1.025 0.036 1.397 -0 -1.2 0
1.06 0.04 1.431 -0 -1.2 0
1.103 0.049 1.471 -0 -1.2 0
1.14 0.05 1.507 -0 -1.2 0
1.171 0.043 1.537 -0 -1.2 0
1.208 0.041 1.572 -0 -1.2 0
1.251 0.044 1.614 -0 -1.2 0
1.289 0.039 1.65 -0 -1.2 0
1.34 0.043 1.699 -0 -1.2 0
1.39 0.046 1.747 -0 -1.2 0
1.442 0.047 1.797 -0 -1.2 0
1.486 0.04 1.839 -0 -1.2 0
1.545 0.041 1.895 -0 -1.2 0
1.609 0.045 1.957 -0 -1.2 0
1.668 0.042 2.014 -0 -1.2 0
1.746 0.049 2.088 -0 -1.2 0
1.819 0.048 2.158 -0 -1.2 0
1.912 0.057 2.247 -0 -1.2 0
1.999 0.057 2.331 -0 -1.2 0
2.1 0.062 2.427 -0 -1.2 0
2.202 0.062 2.524 -0 -1.2 0
2.31 0.061 2.629 -0 -1.2 0
2.433 0.062 2.746 -0 -1.2 0
2.584 0.07 2.891 -0 -1.2 0
2.749 0.077 3.05 -0 -1.2 0
2.93 0.083 3.222 -0 -1.2 0
3.125 0.086 3.409 -0 -1.2 0
3.334 0.084 3.611 -0 -1.2 0
3.608 0.095 3.873 -0 -1.2 0
3.925 0.105 4.177 -0 -1.2 0
4.279 0.11 4.516 -0 -1.2 0
4.698 0.117 4.917 -0 -1.2 0
5.204 0.123 5.402 -0 -1.2 0
5.824 0.13 5.997 -0 -1.2 0
6.254 0.07 6.409 -0 -1.2 0
6.209 -0.087 6.368 -0 -1.2 0
6.198 -0.238 6.361 -0 -1.2 0
6.206 -0.385 6.372 -0 -1.2 0
6.221 -0.531 6.387 -0 -1.2 0
6.218 -0.68 6.387 -0 -1.2 0
6.221 -0.826 6.392 -0 -1.2 0
6.23 -0.975 6.404 -0 -1.2 0
6.222 -1.122 6.399 -0 -1.2 0
6.219 -1.271 6.399 -0 -1.2 0
6.215 -1.419 6.397 -0 -1.2 0
6.224 -1.568 6.407 -0 -1.2 0
6.222 -1.717 6.408 -0 -1.2 0
6.212 -1.865 6.401 -0 -1.2 0
6.222 -2.015 6.413 -0 -1.2 0
6.223 -2.166 6.416 -0 -1.2 0
6.186 -2.31 6.383 -0 -1.2 0
6.154 -2.454 6.355 -0 -1.2 0
6.17 -2.609 6.373 -0 -1.2 0
6.17 -2.762 6.375 -0 -1.2 0
6.161 -2.913 6.369 -0 -1.2 0
6.172 -3.071 6.382 -0 -1.2 0
6.165 -3.225 6.378 -0 -1.2 0
6.109 -3.361 6.326 -0 -1.2 0
5.912 -3.44 6.139 -0 -1.2 0
5.584 -3.453 5.826 -0 -1.2 0
5.327 -3.483 5.58 -0 -1.2 0
5.071 -3.501 5.335 -0 -1.2 0
4.844 -3.521 5.116 -0 -1.2 0
4.637 -3.542 4.919 -0 -1.2 0
7.1 -5.067 7.305 -0 -1.2 0
7.384 -5.438 7.584 -0 -1.2 0
7.471 -5.704 7.671 -0 -1.2 0
10.757 -8.074 10.86 -0 -1.2 0
15.464 -11.62 15.43 -0 -1.2 0
12.396 -9.895 12.461 -0 -1.2 0
10.349 -9.748 10.497 -0 -1.2 0
10.091 -9.868 10.25 -0 -1.2 0
11.85 -12.236 11.977 -0 -1.2 0
10.845 -11.674 11.004 -0 -1.2 0
10.391 -11.61 10.567 -0 -1.2 0
10.204 -11.805 10.391 -0 -1.2 0
9.075 -10.961 9.296 -0 -1.2 0
8.909 -11.135 9.139 -0 -1.2 0
9.434 -12.123 9.659 -0 -1.2 0
8.744 -11.677 8.99 -0 -1.2 0
8.465 -11.705 8.722 -0 -1.2 0
0.863 0.015 1.206 -0 -1.2 0
0.902 0.033 1.242 -0 -1.2 0
0.938 0.044 1.274 -0 -1.2 0
0.963 0.038 1.296 -0 -1.2 0
0.994 0.038 1.324 -0 -1.2 0
1.03 0.045 1.356 -0 -1.2 0
1.057 0.036 1.379 -0 -1.2 0
1.088 0.035 1.407 -0 -1.2 0
1.131 0.043 1.447 -0 -1.2 0
1.169 0.044 1.48 -0 -1.2 0
1.201 0.038 1.509 -0 -1.2 0
1.245 0.042 1.549 -0 -1.2 0
1.291 0.045 1.589 -0 -1.2 0
1.33 0.039 1.624 -0 -1.2 0
1.381 0.044 1.671 -0 -1.2 0
1.433 0.046 1.718 -0 -1.2 0
1.473 0.037 1.753 -0 -1.2 0
1.539 0.045 1.813 -0 -1.2 0
1.592 0.042 1.861 -0 -1.2 0
1.659 0.045 1.92 -0 -1.2 0
1.72 0.042 1.974 -0 -1.2 0
1.807 0.054 2.053 -0 -1.2 0
1.875 0.048 2.115 -0 -1.2 0
1.971 0.057 2.2 -0 -1.2 0
2.068 0.062 2.286 -0 -1.2 0
2.158 0.059 2.368 -0 -1.2 0
2.269 0.062 2.467 -0 -1.2 0
2.382 0.061 2.568 -0 -1.2 0
2.501 0.058 2.675 -0 -1.2 0
2.65 0.064 2.808 -0 -1.2 0
2.827 0.075 2.968 -0 -1.2 0
3.014 0.08 3.135 -0 -1.2 0
3.208 0.079 3.308 -0 -1.2 0
3.446 0.086 3.521 -0 -1.2 0
3.728 0.097 3.775 -0 -1.2 0
4.047 0.105 4.062 -0 -1.2 0
4.406 0.108 4.383 -0 -1.2 0
4.859 0.12 4.79 -0 -1.2 0
5.38 0.126 5.257 -0 -1.2 0
6.087 0.145 5.891 -0 -1.2 0
6.434 0.066 6.203 -0 -1.2 0
6.358 -0.095 6.138 -0 -1.2 0
6.375 -0.241 6.156 -0 -1.2 0
6.37 -0.39 6.153 -0 -1.2 0
6.377 -0.536 6.163 -0 -1.2 0
6.404 -0.681 6.19 -0 -1.2 0
6.37 -0.83 6.162 -0 -1.2 0
6.378 -0.977 6.172 -0 -1.2 0
6.385 -1.124 6.181 -0 -1.2 0
6.382 -1.271 6.181 -0 -1.2 0
6.385 -1.419 6.186 -0 -1.2 0
6.386 -1.567 6.19 -0 -1.2 0
6.422 -1.719 6.225 -0 -1.2 0
6.381 -1.864 6.192 -0 -1.2 0
8.853 -2.374 8.417 -0 -1.2 0
6.385 -2.162 6.2 -0 -1.2 0
6.405 -2.317 6.222 -0 -1.2 0
6.358 -2.458 6.182 -0 -1.2 0
6.331 -2.603 6.16 -0 -1.2 0
6.344 -2.759 6.176 -0 -1.2 0
6.343 -2.912 6.176 -0 -1.2 0
6.338 -3.065 6.175 -0 -1.2 0
6.34 -3.221 6.179 -0 -1.2 0
6.288 -3.359 6.136 -0 -1.2 0
6.05 -3.424 5.923 -0 -1.2 0
6.024 -3.567 5.903 -0 -1.2 0
6.363 -3.871 6.213 -0 -1.2 0
6.569 -4.133 6.403 -0 -1.2 0
6.813 -4.426 6.627 -0 -1.2 0
7.058 -4.736 6.852 -0 -1.2 0
7.323 -5.073 7.096 -0 -1.2 0
7.588 -5.428 7.34 -0 -1.2 0
7.691 -5.702 7.438 -0 -1.2 0
10.662 -7.809 10.141 -0 -1.2 0
9.9 -7.611 9.455 -0 -1.2 0
12.838 -9.944 12.134 -0 -1.2 0
18.036 -14.099 16.874 -0 -1.2 0
16.763 -13.691 15.724 -0 -1.2 0
13.119 -11.346 12.412 -0 -1.2 0
10.01 -9.217 9.584 -0 -1.2 0
17.388 -15.834 16.325 -0 -1.2 0
11.464 -11.164 10.923 -0 -1.2 0
10.059 -10.262 9.646 -0 -1.2 0
10.586 -11.886 10.15 -0 -1.2 0
9.884 -11.921 9.52 -0 -1.2 0
9.559 -11.944 9.23 -0 -1.2 0
9.603 -12.391 9.277 -0 -1.2 0
10.832 -14.313 10.415 -0 -1.2 0
0.903 0.036 1.207 -0 -1.2 0
0.928 0.033 1.229 -0 -1.2 0
0.965 0.043 1.259 -0 -1.2 0
0.991 0.038 1.281 -0 -1.2 0
1.017 0.031 1.303 -0 -1.2 0
1.055 0.038 1.334 -0 -1.2 0
1.087 0.036 1.361 -0 -1.2 0
1.119 0.034 1.389 -0 -1.2 0
1.158 0.036 1.421 -0 -1.2 0
1.197 0.037 1.453 -0 -1.2 0
1.242 0.043 1.491 -0 -1.2 0
1.281 0.041 1.524 -0 -1.2 0
1.321 0.038 1.558 -0 -1.2 0
1.374 0.044 1.602 -0 -1.2 0
1.421 0.043 1.642 -0 -1.2 0
1.468 0.04 1.681 -0 -1.2 0
1.522 0.041 1.726 -0 -1.2 0
1.577 0.04 1.773 -0 -1.2 0
1.638 0.041 1.824 -0 -1.2 0
1.7 0.04 1.876 -0 -1.2 0
1.776 0.045 1.94 -0 -1.2 0
1.853 0.048 2.003 -0 -1.2 0
1.93 0.047 2.068 -0 -1.2 0
2.029 0.056 2.151 -0 -1.2 0
2.128 0.061 2.234 -0 -1.2 0
2.213 0.053 2.306 -0 -1.2 0
2.328 0.057 2.402 -0 -1.2 0
2.45 0.06 2.505 -0 -1.2 0
2.574 0.057 2.608 -0 -1.2 0
2.72 0.059 2.73 -0 -1.2 0
2.874 0.058 2.859 -0 -1.2 0
3.094 0.076 3.044 -0 -1.2 0
3.285 0.073 3.205 -0 -1.2 0
3.538 0.082 3.417 -0 -1.2 0
3.821 0.09 3.654 -0 -1.2 0
4.143 0.095 3.924 -0 -1.2 0
4.526 0.103 4.245 -0 -1.2 0
4.971 0.109 4.618 -0 -1.2 0
5.492 0.112 5.055 -0 -1.2 0
6.264 0.142 5.703 -0 -1.2 0
6.614 0.062 5.997 -0 -1.2 0
6.565 -0.095 5.96 -0 -1.2 0
6.545 -0.246 5.947 -0 -1.2 0
6.547 -0.393 5.951 -0 -1.2 0
6.546 -0.541 5.953 -0 -1.2 0
6.574 -0.686 5.979 -0 -1.2 0
6.554 -0.833 5.966 -0 -1.2 0
6.555 -0.98 5.97 -0 -1.2 0
6.554 -1.127 5.972 -0 -1.2 0
6.559 -1.275 5.979 -0 -1.2 0
6.553 -1.421 5.978 -0 -1.2 0
6.562 -1.57 5.988 -0 -1.2 0
6.63 -1.724 6.048 -0 -1.2 0
6.558 -1.865 5.991 -0 -1.2 0
9.108 -2.378 8.141 -0 -1.2 0
6.561 -2.164 5.999 -0 -1.2 0
6.567 -2.316 6.007 -0 -1.2 0
6.563 -2.466 6.007 -0 -1.2 0
6.505 -2.605 5.961 -0 -1.2 0
6.519 -2.76 5.977 -0 -1.2 0
6.517 -2.913 5.977 -0 -1.2 0
6.505 -3.064 5.971 -0 -1.2 0
6.506 -3.22 5.975 -0 -1.2 0
6.445 -3.355 5.927 -0 -1.2 0
6.229 -3.43 5.747 -0 -1.2 0
6.211 -3.576 5.735 -0 -1.2 0
6.581 -3.889 6.052 -0 -1.2 0
6.772 -4.143 6.217 -0 -1.2 0
6.964 -4.409 6.384 -0 -1.2 0
7.201 -4.711 6.589 -0 -1.2 0
7.432 -5.024 6.79 -0 -1.2 0
7.72 -5.384 7.038 -0 -1.2 0
7.875 -5.685 7.175 -0 -1.2 0
10.193 -7.337 9.154 -0 -1.2 0
10.215 -7.638 9.179 -0 -1.2 0
13.155 -9.918 11.692 -0 -1.2 0
17.227 -13.176 15.175 -0 -1.2 0
14.199 -11.463 12.6 -0 -1.2 0
10.225 -8.85 9.212 -0 -1.2 0
16.909 -14.498 14.935 -0 -1.2 0
10.148 -9.428 9.16 -0 -1.2 0
11.856 -11.23 10.63 -0 -1.2 0
10.348 -10.272 9.344 -0 -1.2 0
13.029 -13.574 11.662 -0 -1.2 0
11.481 -12.49 10.34 -0 -1.2 0
10.704 -12.106 9.681 -0 -1.2 0
12.029 -14.408 10.841 -0 -1.2 0
10.429 -13.041 9.469 -0 -1.2 0
9.738 -12.645 8.882 -0 -1.2 0
0.93 0.037 1.192 -0 -1.2 0
0.956 0.033 1.212 -0 -1.2 0
0.988 0.036 1.237 -0 -1.2 0
1.02 0.038 1.263 -0 -1.2 0
1.059 0.045 1.293 -0 -1.2 0
1.08 0.032 1.309 -0 -1.2 0
1.113 0.03 1.334 -0 -1.2 0
1.152 0.034 1.366 -0 -1.2 0
1.198 0.043 1.401 -0 -1.2 0
1.238 0.043 1.433 -0 -1.2 0
1.272 0.037 1.459 -0 -1.2 0
1.313 0.035 1.491 -0 -1.2 0
1.36 0.038 1.528 -0 -1.2 0
1.414 0.044 1.569 -0 -1.2 0
1.457 0.038 1.602 -0 -1.2 0
1.512 0.04 1.645 -0 -1.2 0
1.567 0.041 1.688 -0 -1.2 0
1.623 0.04 1.733 -0 -1.2 0
1.679 0.036 1.777 -0 -1.2 0
1.751 0.04 1.832 -0 -1.2 0
1.829 0.045 1.892 -0 -1.2 0
1.908 0.048 1.954 -0 -1.2 0
1.995 0.051 2.021 -0 -1.2 0
2.081 0.052 2.09 -0 -1.2 0
2.177 0.052 2.163 -0 -1.2 0
2.271 0.049 2.238 -0 -1.2 0
2.374 0.045 2.318 -0 -1.2 0
2.501 0.049 2.417 -0 -1.2 0
2.635 0.05 2.521 -0 -1.2 0
2.785 0.052 2.638 -0 -1.2 0
2.943 0.051 2.761 -0 -1.2 0
3.147 0.061 2.92 -0 -1.2 0
3.376 0.069 3.098 -0 -1.2 0
3.62 0.073 3.288 -0 -1.2 0
3.926 0.086 3.527 -0 -1.2 0
4.257 0.092 3.785 -0 -1.2 0
4.628 0.094 4.074 -0 -1.2 0
5.07 0.097 4.419 -0 -1.2 0
5.63 0.106 4.855 -0 -1.2 0
6.371 0.125 5.432 -0 -1.2 0
6.737 0.047 5.719 -0 -1.2 0
6.751 -0.099 5.733 -0 -1.2 0
6.746 -0.248 5.733 -0 -1.2 0
6.74 -0.396 5.731 -0 -1.2 0
6.739 -0.544 5.734 -0 -1.2 0
6.744 -0.69 5.741 -0 -1.2 0
6.739 -0.836 5.74 -0 -1.2 0
6.747 -0.983 5.751 -0 -1.2 0
6.746 -1.13 5.753 -0 -1.2 0
6.75 -1.278 5.76 -0 -1.2 0
6.746 -1.424 5.76 -0 -1.2 0
6.754 -1.572 5.77 -0 -1.2 0
6.76 -1.721 5.778 -0 -1.2 0
6.749 -1.868 5.773 -0 -1.2 0
6.752 -2.018 5.778 -0 -1.2 0
6.76 -2.168 5.788 -0 -1.2 0
6.758 -2.319 5.789 -0 -1.2 0
6.769 -2.472 5.802 -0 -1.2 0
6.701 -2.609 5.753 -0 -1.2 0
6.7 -2.761 5.756 -0 -1.2 0
6.698 -2.913 5.758 -0 -1.2 0
6.693 -3.067 5.757 -0 -1.2 0
6.694 -3.223 5.761 -0 -1.2 0
6.64 -3.36 5.722 -0 -1.2 0
6.425 -3.438 5.556 -0 -1.2 0
6.435 -3.596 5.568 -0 -1.2 0
6.763 -3.89 5.83 -0 -1.2 0
6.951 -4.139 5.983 -0 -1.2 0
7.179 -4.419 6.167 -0 -1.2 0
7.416 -4.717 6.359 -0 -1.2 0
7.661 -5.034 6.557 -0 -1.2 0
7.956 -5.396 6.795 -0 -1.2 0
8.108 -5.692 6.921 -0 -1.2 0
10.535 -7.371 8.851 -0 -1.2 0
11.485 -8.257 9.612 -0 -1.2 0
10.295 -7.796 8.674 -0 -1.2 0
14.355 -11.716 11.93 -0 -1.2 0
13.22 -11.27 11.035 -0 -1.2 0
12.305 -11.328 10.323 -0 -1.2 0
11.449 -10.98 9.647 -0 -1.2 0
14.066 -14.206 11.762 -0 -1.2 0
11.582 -12.277 9.781 -0 -1.2 0
11.638 -12.749 9.835 -0 -1.2 0
10.875 -12.379 9.232 -0 -1.2 0
10.382 -12.256 8.845 -0 -1.2 0
9.709 -11.905 8.312 -0 -1.2 0
9.793 -12.394 8.389 -0 -1.2 0
0.947 0.029 1.173 -0 -1.2 0
0.968 0.018 1.188 -0 -1.2 0
1.007 0.028 1.216 -0 -1.2 0
1.034 0.023 1.235 -0 -1.2 0
1.073 0.031 1.264 -0 -1.2 0
1.107 0.031 1.289 -0 -1.2 0
1.14 0.029 1.313 -0 -1.2 0
1.181 0.033 1.343 -0 -1.2 0
1.228 0.042 1.376 -0 -1.2 0
1.263 0.036 1.402 -0 -1.2 0
1.297 0.03 1.427 -0 -1.2 0
1.346 0.034 1.462 -0 -1.2 0
1.388 0.031 1.493 -0 -1.2 0
1.443 0.038 1.533 -0 -1.2 0
1.493 0.037 1.569 -0 -1.2 0
1.55 0.039 1.61 -0 -1.2 0
1.607 0.04 1.651 -0 -1.2 0
1.665 0.039 1.694 -0 -1.2 0
1.729 0.039 1.74 -0 -1.2 0
1.795 0.038 1.788 -0 -1.2 0
1.868 0.04 1.841 -0 -1.2 0
1.949 0.042 1.9 -0 -1.2 0
2.03 0.041 1.959 -0 -1.2 0
2.134 0.05 2.034 -0 -1.2 0
2.216 0.043 2.094 -0 -1.2 0
2.315 0.04 2.165 -0 -1.2 0
2.428 0.041 2.248 -0 -1.2 0
2.557 0.044 2.342 -0 -1.2 0
2.695 0.045 2.441 -0 -1.2 0
2.841 0.044 2.547 -0 -1.2 0
3.003 0.042 2.666 -0 -1.2 0
3.227 0.059 2.828 -0 -1.2 0
3.43 0.057 2.976 -0 -1.2 0
3.705 0.069 3.174 -0 -1.2 0
3.996 0.074 3.386 -0 -1.2 0
4.335 0.081 3.632 -0 -1.2 0
4.739 0.09 3.925 -0 -1.2 0
5.168 0.086 4.238 -0 -1.2 0
5.735 0.093 4.649 -0 -1.2 0
6.519 0.118 5.218 -0 -1.2 0
6.927 0.045 5.516 -0 -1.2 0
6.916 -0.103 5.511 -0 -1.2 0
6.928 -0.251 5.523 -0 -1.2 0
6.929 -0.399 5.528 -0 -1.2 0
6.928 -0.546 5.531 -0 -1.2 0
6.933 -0.693 5.539 -0 -1.2 0
6.927 -0.84 5.538 -0 -1.2 0
6.928 -0.987 5.542 -0 -1.2 0
6.927 -1.134 5.546 -0 -1.2 0
6.932 -1.281 5.552 -0 -1.2 0
6.918 -1.428 5.546 -0 -1.2 0
6.934 -1.577 5.563 -0 -1.2 0
9.632 -1.974 7.533 -0 -1.2 0
6.929 -1.873 5.566 -0 -1.2 0
6.932 -2.022 5.572 -0 -1.2 0
6.932 -2.172 5.575 -0 -1.2 0
6.929 -2.322 5.578 -0 -1.2 0
6.956 -2.48 5.602 -0 -1.2 0
6.863 -2.611 5.537 -0 -1.2 0
6.823 -2.752 5.512 -0 -1.2 0
6.852 -2.913 5.537 -0 -1.2 0
6.878 -3.074 5.56 -0 -1.2 0
6.871 -3.228 5.559 -0 -1.2 0
6.807 -3.363 5.516 -0 -1.2 0
6.594 -3.444 5.364 -0 -1.2 0
6.581 -3.593 5.358 -0 -1.2 0
6.903 -3.88 5.599 -0 -1.2 0
7.096 -4.13 5.746 -0 -1.2 0
7.322 -4.405 5.917 -0 -1.2 0
7.624 -4.732 6.145 -0 -1.2 0
7.905 -5.065 6.357 -0 -1.2 0
8.207 -5.427 6.586 -0 -1.2 0
8.303 -5.693 6.663 -0 -1.2 0
11.039 -7.517 8.697 -0 -1.2 0
19.621 -13.087 15.074 -0 -1.2 0
17.061 -11.979 13.185 -0 -1.2 0
13.875 -10.318 10.829 -0 -1.2 0
15.18 -11.624 11.81 -0 -1.2 0
13.723 -11.002 10.735 -0 -1.2 0
12.792 -11.482 10.072 -0 -1.2 0
11.793 -11.037 9.334 -0 -1.2 0
11.432 -11.099 9.074 -0 -1.2 0
14.376 -14.177 11.291 -0 -1.2 0
12.905 -14.188 10.224 -0 -1.2 0
10.997 -12.643 8.798 -0 -1.2 0
10.242 -12.232 8.238 -0 -1.2 0
10.706 -13.165 8.599 -0 -1.2 0
0.964 0.021 1.154 -0 -1.2 0
1.003 0.032 1.18 -0 -1.2 0
1.031 0.028 1.198 -0 -1.2 0
1.059 0.022 1.217 -0 -1.2 0
1.093 0.023 1.24 -0 -1.2 0
1.139 0.037 1.271 -0 -1.2 0
1.168 0.028 1.291 -0 -1.2 0
1.209 0.033 1.318 -0 -1.2 0
1.251 0.035 1.347 -0 -1.2 0
1.293 0.035 1.375 -0 -1.2 0
1.336 0.036 1.403 -0 -1.2 0
1.379 0.033 1.433 -0 -1.2 0
1.428 0.036 1.466 -0 -1.2 0
1.478 0.037 1.5 -0 -1.2 0
1.522 0.031 1.53 -0 -1.2 0
1.587 0.038 1.573 -0 -1.2 0
1.646 0.04 1.612 -0 -1.2 0
1.704 0.038 1.653 -0 -1.2 0
1.771 0.039 1.698 -0 -1.2 0
1.845 0.042 1.747 -0 -1.2 0
1.92 0.043 1.798 -0 -1.2 0
1.995 0.042 1.85 -0 -1.2 0
2.087 0.045 1.91 -0 -1.2 0
2.185 0.049 1.977 -0 -1.2 0
2.278 0.046 2.04 -0 -1.2 0
2.378 0.042 2.107 -0 -1.2 0
2.494 0.043 2.186 -0 -1.2 0
2.619 0.043 2.27 -0 -1.2 0
2.751 0.041 2.36 -0 -1.2 0
2.91 0.043 2.466 -0 -1.2 0
3.099 0.051 2.594 -0 -1.2 0
3.298 0.054 2.728 -0 -1.2 0
3.521 0.058 2.879 -0 -1.2 0
3.794 0.067 3.063 -0 -1.2 0
4.1 0.075 3.27 -0 -1.2 0
4.44 0.079 3.499 -0 -1.2 0
4.83 0.081 3.762 -0 -1.2 0
5.294 0.084 4.076 -0 -1.2 0
5.898 0.096 4.484 -0 -1.2 0
6.726 0.124 5.041 -0 -1.2 0
7.112 0.046 5.304 -0 -1.2 0
7.109 -0.103 5.306 -0 -1.2 0
7.112 -0.252 5.312 -0 -1.2 0
7.121 -0.399 5.322 -0 -1.2 0
7.12 -0.547 5.326 -0 -1.2 0
7.117 -0.694 5.327 -0 -1.2 0
7.12 -0.841 5.334 -0 -1.2 0
7.12 -0.989 5.338 -0 -1.2 0
7.127 -1.137 5.347 -0 -1.2 0
7.124 -1.284 5.348 -0 -1.2 0
7.126 -1.433 5.354 -0 -1.2 0
7.118 -1.58 5.352 -0 -1.2 0
7.166 -1.733 5.389 -0 -1.2 0
7.112 -1.877 5.357 -0 -1.2 0
9.878 -2.395 7.238 -0 -1.2 0
7.114 -2.177 5.366 -0 -1.2 0
7.12 -2.329 5.374 -0 -1.2 0
7.124 -2.482 5.381 -0 -1.2 0
7.053 -2.619 5.336 -0 -1.2 0
7.06 -2.773 5.346 -0 -1.2 0
7.065 -2.929 5.354 -0 -1.2 0
7.051 -3.079 5.349 -0 -1.2 0
7.06 -3.238 5.359 -0 -1.2 0
6.962 -3.364 5.296 -0 -1.2 0
6.744 -3.444 5.151 -0 -1.2 0
6.889 -3.652 5.254 -0 -1.2 0
7.147 -3.914 5.435 -0 -1.2 0
7.36 -4.172 5.586 -0 -1.2 0
7.605 -4.457 5.76 -0 -1.2 0
7.823 -4.742 5.914 -0 -1.2 0
8.102 -5.072 6.112 -0 -1.2 0
8.313 -5.383 6.264 -0 -1.2 0
9.448 -6.214 7.052 -0 -1.2 0
9.57 -6.526 7.144 -0 -1.2 0
9.4 -6.673 7.033 -0 -1.2 0
10.243 -7.452 7.623 -0 -1.2 0
17.5 -12.479 12.661 -0 -1.2 0
17.056 -12.661 12.366 -0 -1.2 0
19.463 -14.855 14.052 -0 -1.2 0
12.274 -10.828 9.087 -0 -1.2 0
13.071 -11.868 9.653 -0 -1.2 0
12.561 -11.842 9.308 -0 -1.2 0
11.637 -12.207 8.694 -0 -1.2 0
11.115 -12.498 8.349 -0 -1.2 0
11.05 -12.843 8.315 -0 -1.2 0
0.999 0.036 1.143 -0 -1.2 0
1.022 0.025 1.157 -0 -1.2 0
1.062 0.035 1.181 -0 -1.2 0
1.078 0.016 1.192 -0 -1.2 0
1.119 0.023 1.217 -0 -1.2 0
1.154 0.023 1.24 -0 -1.2 0
1.196 0.029 1.265 -0 -1.2 0
1.239 0.033 1.292 -0 -1.2 0
1.28 0.035 1.319 -0 -1.2 0
1.324 0.036 1.345 -0 -1.2 0
1.367 0.036 1.372 -0 -1.2 0
1.411 0.034 1.399 -0 -1.2 0
1.462 0.036 1.431 -0 -1.2 0
1.514 0.037 1.463 -0 -1.2 0
1.566 0.036 1.495 -0 -1.2 0
1.618 0.033 1.528 -0 -1.2 0
1.677 0.034 1.565 -0 -1.2 0
1.746 0.038 1.608 -0 -1.2 0
1.813 0.039 1.65 -0 -1.2 0
1.882 0.038 1.693 -0 -1.2 0
1.959 0.039 1.741 -0 -1.2 0
2.051 0.046 1.798 -0 -1.2 0
2.136 0.045 1.851 -0 -1.2 0
2.238 0.049 1.914 -0 -1.2 0
2.34 0.05 1.978 -0 -1.2 0
2.443 0.047 2.041 -0 -1.2 0
2.562 0.047 2.116 -0 -1.2 0
2.689 0.046 2.196 -0 -1.2 0
2.842 0.051 2.29 -0 -1.2 0
2.995 0.049 2.385 -0 -1.2 0
3.165 0.047 2.491 -0 -1.2 0
3.377 0.053 2.623 -0 -1.2 0
3.615 0.059 2.771 -0 -1.2 0
3.877 0.064 2.934 -0 -1.2 0
4.2 0.074 3.135 -0 -1.2 0
4.564 0.082 3.362 -0 -1.2 0
4.988 0.09 3.625 -0 -1.2 0
5.472 0.094 3.927 -0 -1.2 0
6.108 0.108 4.323 -0 -1.2 0
6.863 0.118 4.793 -0 -1.2 0
7.317 0.049 5.077 -0 -1.2 0
7.314 -0.1 5.08 -0 -1.2 0
7.309 -0.251 5.081 -0 -1.2 0
7.301 -0.4 5.081 -0 -1.2 0
7.308 -0.548 5.089 -0 -1.2 0
7.313 -0.696 5.097 -0 -1.2 0
7.308 -0.843 5.098 -0 -1.2 0
7.309 -0.991 5.102 -0 -1.2 0
7.324 -1.139 5.116 -0 -1.2 0
7.32 -1.287 5.119 -0 -1.2 0
7.315 -1.436 5.119 -0 -1.2 0
7.323 -1.585 5.129 -0 -1.2 0
7.313 -1.734 5.126 -0 -1.2 0
7.318 -1.883 5.134 -0 -1.2 0
7.344 -2.037 5.155 -0 -1.2 0
7.319 -2.184 5.144 -0 -1.2 0
7.334 -2.339 5.157 -0 -1.2 0
7.27 -2.479 5.122 -0 -1.2 0
7.247 -2.626 5.111 -0 -1.2 0
7.263 -2.783 5.126 -0 -1.2 0
7.259 -2.937 5.128 -0 -1.2 0
7.262 -3.094 5.134 -0 -1.2 0
7.254 -3.248 5.133 -0 -1.2 0
7.113 -3.361 5.05 -0 -1.2 0
6.899 -3.444 4.917 -0 -1.2 0
7.127 -3.681 5.067 -0 -1.2 0
7.326 -3.92 5.198 -0 -1.2 0
7.552 -4.181 5.346 -0 -1.2 0
7.835 -4.48 5.532 -0 -1.2 0
8.12 -4.795 5.717 -0 -1.2 0
8.264 -5.059 5.815 -0 -1.2 0
9.913 -6.101 6.873 -0 -1.2 0
9.951 -6.365 6.904 -0 -1.2 0
9.883 -6.577 6.868 -0 -1.2 0
9.994 -6.894 6.946 -0 -1.2 0
10.001 -7.158 6.958 -0 -1.2 0
9.892 -7.352 6.896 -0 -1.2 0
14.059 -10.397 9.579 -0 -1.2 0
13.479 -10.382 9.218 -0 -1.2 0
13.372 -10.684 9.16 -0 -1.2 0
13.296 -11.011 9.122 -0 -1.2 0
11.239 -12.36 7.879 -0 -1.2 0
1.014 0.029 1.122 -0 -1.2 0
1.042 0.025 1.138 -0 -1.2 0
1.071 0.021 1.155 -0 -1.2 0
1.119 0.037 1.182 -0 -1.2 0
1.161 0.045 1.206 -0 -1.2 0
1.184 0.031 1.22 -0 -1.2 0
1.234 0.043 1.248 -0 -1.2 0
1.264 0.033 1.265 -0 -1.2 0
1.307 0.036 1.291 -0 -1.2 0
1.358 0.042 1.32 -0 -1.2 0
1.403 0.042 1.345 -0 -1.2 0
1.447 0.04 1.371 -0 -1.2 0
1.5 0.043 1.401 -0 -1.2 0
1.553 0.043 1.431 -0 -1.2 0
1.606 0.041 1.461 -0 -1.2 0
1.666 0.044 1.497 -0 -1.2 0
1.72 0.04 1.528 -0 -1.2 0
1.79 0.042 1.567 -0 -1.2 0
1.859 0.044 1.608 -0 -1.2 0
1.936 0.047 1.652 -0 -1.2 0
2.015 0.047 1.698 -0 -1.2 0
2.109 0.055 1.752 -0 -1.2 0
2.197 0.053 1.802 -0 -1.2 0
2.292 0.053 1.857 -0 -1.2 0
2.397 0.053 1.918 -0 -1.2 0
2.502 0.05 1.978 -0 -1.2 0
2.639 0.057 2.057 -0 -1.2 0
2.778 0.059 2.136 -0 -1.2 0
2.926 0.059 2.222 -0 -1.2 0
3.083 0.058 2.313 -0 -1.2 0
3.265 0.058 2.417 -0 -1.2 0
3.49 0.066 2.546 -0 -1.2 0
3.723 0.069 2.68 -0 -1.2 0
4.025 0.082 2.855 -0 -1.2 0
4.312 0.08 3.02 -0 -1.2 0
4.727 0.098 3.258 -0 -1.2 0
5.152 0.103 3.503 -0 -1.2 0
5.68 0.112 3.807 -0 -1.2 0
6.313 0.121 4.17 -0 -1.2 0
7.144 0.139 4.649 -0 -1.2 0
7.393 0.034 4.795 -0 -1.2 0
7.423 -0.11 4.817 -0 -1.2 0
7.418 -0.259 4.818 -0 -1.2 0
7.42 -0.407 4.824 -0 -1.2 0
7.418 -0.554 4.827 -0 -1.2 0
7.414 -0.701 4.83 -0 -1.2 0
7.426 -0.848 4.841 -0 -1.2 0
7.452 -0.994 4.861 -0 -1.2 0
7.486 -1.143 4.884 -0 -1.2 0
7.49 -1.291 4.892 -0 -1.2 0
7.501 -1.441 4.903 -0 -1.2 0
7.502 -1.59 4.908 -0 -1.2 0
7.509 -1.74 4.916 -0 -1.2 0
7.521 -1.892 4.928 -0 -1.2 0
7.515 -2.042 4.928 -0 -1.2 0
7.515 -2.194 4.933 -0 -1.2 0
7.46 -2.338 4.906 -0 -1.2 0
7.448 -2.488 4.903 -0 -1.2 0
7.44 -2.639 4.903 -0 -1.2 0
7.447 -2.795 4.912 -0 -1.2 0
7.452 -2.95 4.92 -0 -1.2 0
7.455 -3.108 4.926 -0 -1.2 0
7.429 -3.259 4.916 -0 -1.2 0
7.211 -3.347 4.793 -0 -1.2 0
7.016 -3.438 4.684 -0 -1.2 0
7.332 -3.705 4.873 -0 -1.2 0
7.592 -3.967 5.031 -0 -1.2 0
7.879 -4.254 5.205 -0 -1.2 0
8.087 -4.521 5.333 -0 -1.2 0
8.24 -4.777 5.429 -0 -1.2 0
9.957 -5.788 6.449 -0 -1.2 0
9.827 -5.959 6.379 -0 -1.2 0
9.952 -6.262 6.461 -0 -1.2 0
10.196 -6.641 6.613 -0 -1.2 0
10.171 -6.88 6.605 -0 -1.2 0
10.751 -7.488 6.958 -0 -1.2 0
10.203 -7.422 6.64 -0 -1.2 0
10.036 -7.582 6.548 -0 -1.2 0
14.366 -10.802 9.14 -0 -1.2 0
14.287 -11.142 9.105 -0 -1.2 0
13.716 -11.124 8.775 -0 -1.2 0
1.045 0.043 1.108 -0 -1.2 0
1.062 0.025 1.118 -0 -1.2 0
1.111 0.042 1.143 -0 -1.2 0
1.147 0.043 1.163 -0 -1.2 0
1.183 0.044 1.181 -0 -1.2 0
1.214 0.036 1.198 -0 -1.2 0
1.258 0.042 1.221 -0 -1.2 0
1.295 0.039 1.242 -0 -1.2 0
1.34 0.041 1.264 -0 -1.2 0
1.385 0.041 1.288 -0 -1.2 0
1.422 0.035 1.309 -0 -1.2 0
1.475 0.039 1.336 -0 -1.2 0
1.529 0.042 1.365 -0 -1.2 0
1.575 0.036 1.39 -0 -1.2 0
1.637 0.04 1.422 -0 -1.2 0
1.691 0.037 1.451 -0 -1.2 0
1.753 0.038 1.484 -0 -1.2 0
1.832 0.047 1.526 -0 -1.2 0
1.894 0.043 1.559 -0 -1.2 0
1.974 0.046 1.601 -0 -1.2 0
2.054 0.046 1.643 -0 -1.2 0
2.15 0.053 1.694 -0 -1.2 0
2.248 0.056 1.745 -0 -1.2 0
2.345 0.055 1.797 -0 -1.2 0
2.452 0.056 1.854 -0 -1.2 0
2.567 0.056 1.915 -0 -1.2 0
2.699 0.06 1.985 -0 -1.2 0
2.84 0.061 2.06 -0 -1.2 0
2.991 0.061 2.139 -0 -1.2 0
3.159 0.061 2.229 -0 -1.2 0
3.345 0.062 2.328 -0 -1.2 0
3.574 0.07 2.448 -0 -1.2 0
3.804 0.069 2.57 -0 -1.2 0
4.095 0.077 2.725 -0 -1.2 0
4.439 0.088 2.906 -0 -1.2 0
4.854 0.103 3.125 -0 -1.2 0
5.287 0.107 3.355 -0 -1.2 0
5.826 0.115 3.64 -0 -1.2 0
6.471 0.123 3.982 -0 -1.2 0
7.353 0.146 4.449 -0 -1.2 0
7.59 0.037 4.578 -0 -1.2 0
7.595 -0.111 4.585 -0 -1.2 0
7.642 -0.255 4.615 -0 -1.2 0
7.634 -0.405 4.616 -0 -1.2 0
7.633 -0.554 4.62 -0 -1.2 0
7.629 -0.702 4.623 -0 -1.2 0
7.641 -0.85 4.634 -0 -1.2 0
7.641 -0.999 4.638 -0 -1.2 0
7.64 -1.147 4.642 -0 -1.2 0
7.645 -1.297 4.65 -0 -1.2 0
7.639 -1.445 4.652 -0 -1.2 0
7.639 -1.594 4.656 -0 -1.2 0
7.645 -1.745 4.664 -0 -1.2 0
7.641 -1.894 4.667 -0 -1.2 0
7.644 -2.045 4.673 -0 -1.2 0
7.652 -2.197 4.682 -0 -1.2 0
7.64 -2.348 4.681 -0 -1.2 0
7.644 -2.502 4.688 -0 -1.2 0
7.637 -2.654 4.689 -0 -1.2 0
7.635 -2.809 4.693 -0 -1.2 0
7.639 -2.966 4.7 -0 -1.2 0
7.634 -3.122 4.702 -0 -1.2 0
7.617 -3.275 4.697 -0 -1.2 0
7.367 -3.358 4.568 -0 -1.2 0
7.254 -3.476 4.512 -0 -1.2 0
7.659 -3.775 4.736 -0 -1.2 0
7.856 -4.015 4.848 -0 -1.2 0
8.106 -4.289 4.99 -0 -1.2 0
8.185 -4.502 5.039 -0 -1.2 0
9.226 -5.15 5.611 -0 -1.2 0
9.33 -5.41 5.675 -0 -1.2 0
9.332 -5.628 5.683 -0 -1.2 0
9.522 -5.947 5.793 -0 -1.2 0
9.379 -6.099 5.723 -0 -1.2 0
9.401 -6.34 5.742 -0 -1.2 0
9.821 -6.823 5.98 -0 -1.2 0
9.468 -6.854 5.794 -0 -1.2 0
9.527 -7.137 5.834 -0 -1.2 0
13.45 -10.012 8.005 -0 -1.2 0
14.226 -10.916 8.446 -0 -1.2 0
13.795 -10.998 8.22 -0 -1.2 0
13.615 -11.253 8.132 -0 -1.2 0
12.637 -10.883 7.602 -0 -1.2 0
12.615 -11.241 7.602 -0 -1.2 0
1.065 0.043 1.087 -0 -1.2 0
1.095 0.039 1.102 -0 -1.2 0
1.132 0.042 1.12 -0 -1.2 0
1.162 0.037 1.134 -0 -1.2 0
1.206 0.044 1.155 -0 -1.2 0
1.237 0.036 1.171 -0 -1.2 0
1.282 0.042 1.192 -0 -1.2 0
1.32 0.039 1.21 -0 -1.2 0
1.358 0.035 1.229 -0 -1.2 0
1.411 0.041 1.254 -0 -1.2 0
1.457 0.04 1.276 -0 -1.2 0
1.496 0.032 1.296 -0 -1.2 0
1.543 0.03 1.319 -0 -1.2 0
1.605 0.036 1.348 -0 -1.2 0
1.66 0.035 1.375 -0 -1.2 0
1.731 0.042 1.409 -0 -1.2 0
1.794 0.043 1.439 -0 -1.2 0
1.866 0.046 1.474 -0 -1.2 0
1.939 0.047 1.509 -0 -1.2 0
2.019 0.05 1.548 -0 -1.2 0
2.11 0.055 1.591 -0 -1.2 0
2.2 0.057 1.635 -0 -1.2 0
2.29 0.055 1.678 -0 -1.2 0
2.398 0.059 1.73 -0 -1.2 0
2.507 0.059 1.782 -0 -1.2 0
2.625 0.059 1.84 -0 -1.2 0
2.751 0.058 1.9 -0 -1.2 0
2.903 0.063 1.974 -0 -1.2 0
3.049 0.059 2.044 -0 -1.2 0
3.229 0.063 2.131 -0 -1.2 0
3.401 0.058 2.214 -0 -1.2 0
3.643 0.068 2.33 -0 -1.2 0
3.904 0.075 2.457 -0 -1.2 0
4.182 0.077 2.591 -0 -1.2 0
4.516 0.083 2.752 -0 -1.2 0
4.947 0.101 2.959 -0 -1.2 0
5.424 0.112 3.189 -0 -1.2 0
5.973 0.119 3.454 -0 -1.2 0
6.649 0.129 3.779 -0 -1.2 0
7.602 0.159 4.238 -0 -1.2 0
7.789 0.039 4.333 -0 -1.2 0
7.786 -0.11 4.336 -0 -1.2 0
7.825 -0.256 4.36 -0 -1.2 0
7.826 -0.406 4.366 -0 -1.2 0
7.825 -0.556 4.37 -0 -1.2 0
7.83 -0.704 4.378 -0 -1.2 0
7.833 -0.853 4.384 -0 -1.2 0
7.833 -1.003 4.39 -0 -1.2 0
7.832 -1.152 4.393 -0 -1.2 0
7.828 -1.302 4.396 -0 -1.2 0
7.839 -1.452 4.407 -0 -1.2 0
7.839 -1.602 4.412 -0 -1.2 0
7.837 -1.753 4.416 -0 -1.2 0
7.842 -1.905 4.423 -0 -1.2 0
7.844 -2.057 4.429 -0 -1.2 0
7.834 -2.207 4.43 -0 -1.2 0
7.84 -2.362 4.438 -0 -1.2 0
7.835 -2.514 4.441 -0 -1.2 0
7.844 -2.672 4.45 -0 -1.2 0
7.834 -2.825 4.451 -0 -1.2 0
7.83 -2.981 4.454 -0 -1.2 0
7.841 -3.143 4.465 -0 -1.2 0
7.797 -3.29 4.449 -0 -1.2 0
7.543 -3.373 4.328 -0 -1.2 0
7.538 -3.528 4.332 -0 -1.2 0
7.856 -3.798 4.494 -0 -1.2 0
8.108 -4.058 4.624 -0 -1.2 0
8.151 -4.25 4.651 -0 -1.2 0
9.584 -5.023 5.369 -0 -1.2 0
9.535 -5.214 5.352 -0 -1.2 0
9.665 -5.489 5.424 -0 -1.2 0
9.633 -5.694 5.415 -0 -1.2 0
9.598 -5.899 5.405 -0 -1.2 0
9.655 -6.156 5.441 -0 -1.2 0
9.668 -6.395 5.456 -0 -1.2 0
9.953 -6.797 5.607 -0 -1.2 0
9.993 -7.069 5.636 -0 -1.2 0
10.665 -7.746 5.983 -0 -1.2 0
10.78 -8.099 6.05 -0 -1.2 0
10.787 -8.389 6.062 -0 -1.2 0
10.743 -8.65 6.05 -0 -1.2 0
10.74 -8.945 6.059 -0 -1.2 0
10.736 -9.248 6.067 -0 -1.2 0
11.047 -9.807 6.236 -0 -1.2 0
11.114 -10.192 6.281 -0 -1.2 0
11.369 -10.752 6.423 -0 -1.2 0
1.076 0.036 1.064 -0 -1.2 0
1.119 0.047 1.083 -0 -1.2 0
1.144 0.035 1.094 -0 -1.2 0
1.188 0.043 1.114 -0 -1.2 0
1.225 0.044 1.129 -0 -1.2 0
1.257 0.036 1.144 -0 -1.2 0
1.295 0.034 1.161 -0 -1.2 0
1.334 0.032 1.178 -0 -1.2 0
1.38 0.034 1.198 -0 -1.2 0
1.426 0.035 1.219 -0 -1.2 0
1.481 0.04 1.242 -0 -1.2 0
1.528 0.039 1.263 -0 -1.2 0
1.591 0.047 1.291 -0 -1.2 0
1.638 0.041 1.312 -0 -1.2 0
1.694 0.04 1.337 -0 -1.2 0
1.766 0.047 1.368 -0 -1.2 0
1.831 0.047 1.397 -0 -1.2 0
1.904 0.051 1.429 -0 -1.2 0
1.97 0.046 1.458 -0 -1.2 0
2.052 0.049 1.493 -0 -1.2 0
2.135 0.049 1.53 -0 -1.2 0
2.244 0.06 1.578 -0 -1.2 0
2.327 0.054 1.615 -0 -1.2 0
2.437 0.058 1.663 -0 -1.2 0
2.547 0.058 1.712 -0 -1.2 0
2.666 0.058 1.764 -0 -1.2 0
2.804 0.061 1.824 -0 -1.2 0
2.95 0.062 1.889 -0 -1.2 0
3.106 0.061 1.957 -0 -1.2 0
3.298 0.069 2.041 -0 -1.2 0
3.464 0.059 2.115 -0 -1.2 0
3.711 0.07 2.223 -0 -1.2 0
3.976 0.076 2.34 -0 -1.2 0
4.26 0.077 2.464 -0 -1.2 0
4.616 0.088 2.62 -0 -1.2 0
5.081 0.111 2.824 -0 -1.2 0
5.521 0.111 3.018 -0 -1.2 0
6.142 0.13 3.29 -0 -1.2 0
6.839 0.14 3.597 -0 -1.2 0
7.835 0.172 4.034 -0 -1.2 0
7.979 0.043 4.103 -0 -1.2 0
7.975 -0.108 4.107 -0 -1.2 0
8.007 -0.255 4.125 -0 -1.2 0
8.017 -0.406 4.135 -0 -1.2 0
8.024 -0.556 4.144 -0 -1.2 0
8.021 -0.707 4.147 -0 -1.2 0
8.024 -0.856 4.153 -0 -1.2 0
8.024 -1.007 4.159 -0 -1.2 0
8.032 -1.158 4.168 -0 -1.2 0
8.028 -1.309 4.171 -0 -1.2 0
8.03 -1.46 4.177 -0 -1.2 0
8.03 -1.612 4.183 -0 -1.2 0
8.037 -1.765 4.192 -0 -1.2 0
8.042 -1.917 4.199 -0 -1.2 0
8.034 -2.07 4.201 -0 -1.2 0
8.042 -2.224 4.21 -0 -1.2 0
8.03 -2.377 4.21 -0 -1.2 0
8.033 -2.533 4.217 -0 -1.2 0
8.025 -2.687 4.219 -0 -1.2 0
8.032 -2.847 4.227 -0 -1.2 0
8.037 -3.005 4.235 -0 -1.2 0
8.029 -3.164 4.237 -0 -1.2 0
7.914 -3.292 4.191 -0 -1.2 0
7.683 -3.383 4.092 -0 -1.2 0
7.861 -3.598 4.178 -0 -1.2 0
8.096 -3.841 4.29 -0 -1.2 0
8.17 -4.038 4.329 -0 -1.2 0
16.26 -7.347 8.006 -0 -1.2 0
9.594 -4.97 4.989 -0 -1.2 0
12.282 -6.338 6.22 -0 -1.2 0
9.753 -5.465 5.076 -0 -1.2 0
11.499 -6.515 5.882 -0 -1.2 0
11.433 -6.746 5.86 -0 -1.2 0
10.131 -6.33 5.273 -0 -1.2 0
9.97 -6.482 5.208 -0 -1.2 0
10.041 -6.762 5.249 -0 -1.2 0
9.907 -6.928 5.195 -0 -1.2 0
9.794 -7.105 5.151 -0 -1.2 0
10.946 -8.1 5.694 -0 -1.2 0
9.359 -7.316 4.967 -0 -1.2 0
11.368 -8.973 5.91 -0 -1.2 0
11.306 -9.238 5.891 -0 -1.2 0
11.239 -9.504 5.871 -0 -1.2 0
11.321 -9.89 5.921 -0 -1.2 0
11.293 -10.199 5.92 -0 -1.2 0
11.3 -10.547 5.935 -0 -1.2 0
11.187 -10.798 5.895 -0 -1.2 0
11.07 -11.048 5.851 -0 -1.2 0
10.92 -11.271 5.793 -0 -1.2 0
1.097 0.042 1.047 -0 -1.2 0
1.128 0.038 1.06 -0 -1.2 0
1.165 0.041 1.076 -0 -1.2 0
1.204 0.042 1.09 -0 -1.2 0
1.242 0.043 1.106 -0 -1.2 0
1.281 0.042 1.121 -0 -1.2 0
1.313 0.033 1.135 -0 -1.2 0
1.359 0.037 1.153 -0 -1.2 0
1.406 0.039 1.172 -0 -1.2 0
1.453 0.04 1.191 -0 -1.2 0
1.501 0.039 1.21 -0 -1.2 0
1.548 0.037 1.23 -0 -1.2 0
1.604 0.04 1.251 -0 -1.2 0
1.669 0.046 1.277 -0 -1.2 0
1.717 0.038 1.297 -0 -1.2 0
1.791 0.046 1.326 -0 -1.2 0
1.856 0.046 1.352 -0 -1.2 0
1.931 0.049 1.382 -0 -1.2 0
2.013 0.054 1.415 -0 -1.2 0
2.097 0.057 1.448 -0 -1.2 0
2.173 0.053 1.479 -0 -1.2 0
2.274 0.058 1.519 -0 -1.2 0
2.368 0.057 1.558 -0 -1.2 0
2.479 0.06 1.602 -0 -1.2 0
2.583 0.056 1.644 -0 -1.2 0
2.713 0.059 1.696 -0 -1.2 0
2.843 0.058 1.748 -0 -1.2 0
3.009 0.066 1.814 -0 -1.2 0
3.167 0.066 1.877 -0 -1.2 0
3.353 0.068 1.952 -0 -1.2 0
3.539 0.065 2.027 -0 -1.2 0
3.762 0.067 2.116 -0 -1.2 0
4.04 0.076 2.227 -0 -1.2 0
4.355 0.085 2.353 -0 -1.2 0
4.707 0.091 2.494 -0 -1.2 0
5.188 0.115 2.687 -0 -1.2 0
5.671 0.122 2.88 -0 -1.2 0
6.292 0.138 3.129 -0 -1.2 0
7.025 0.151 3.422 -0 -1.2 0
7.999 0.175 3.812 -0 -1.2 0
9.012 0.169 4.219 -0 -1.2 0
10.239 0.15 4.712 -0 -1.2 0
12.16 0.157 5.483 -0 -1.2 0
15.409 0.206 6.784 -0 -1.2 0
16.824 0.01 7.36 -0 -1.2 0
20.147 -0.146 8.699 -0 -1.2 0
20.303 -0.517 8.774 -0 -1.2 0
20.286 -0.897 8.781 -0 -1.2 0
17.563 -1.25 7.701 -0 -1.2 0
17.432 -1.575 7.661 -0 -1.2 0
14.758 -1.777 6.596 -0 -1.2 0
17.084 -2.206 7.545 -0 -1.2 0
10.838 -1.998 5.031 -0 -1.2 0
11.078 -2.226 5.135 -0 -1.2 0
10.981 -2.423 5.104 -0 -1.2 0
11.011 -2.635 5.123 -0 -1.2 0
10.716 -2.797 5.011 -0 -1.2 0
10.702 -3 5.013 -0 -1.2 0
10.722 -3.21 5.028 -0 -1.2 0
10.747 -3.424 5.046 -0 -1.2 0
10.786 -3.643 5.069 -0 -1.2 0
8.483 -3.259 4.132 -0 -1.2 0
7.979 -3.286 3.931 -0 -1.2 0
7.78 -3.386 3.854 -0 -1.2 0
8.049 -3.629 3.971 -0 -1.2 0
10.068 -4.482 4.812 -0 -1.2 0
9.834 -4.606 4.723 -0 -1.2 0
9.843 -4.815 4.734 -0 -1.2 0
9.857 -5.029 4.748 -0 -1.2 0
9.849 -5.239 4.752 -0 -1.2 0
9.796 -5.429 4.737 -0 -1.2 0
9.764 -5.632 4.731 -0 -1.2 0
9.694 -5.818 4.711 -0 -1.2 0
9.673 -6.028 4.71 -0 -1.2 0
9.58 -6.203 4.679 -0 -1.2 0
9.6 -6.442 4.695 -0 -1.2 0
9.663 -6.711 4.731 -0 -1.2 0
9.753 -7.004 4.778 -0 -1.2 0
9.416 -7.034 4.643 -0 -1.2 0
10.25 -7.83 5.007 -0 -1.2 0
11.712 -9.111 5.64 -0 -1.2 0
9.514 -7.846 4.713 -0 -1.2 0
11.659 -9.709 5.64 -0 -1.2 0
11.559 -9.962 5.611 -0 -1.2 0
11.271 -10.065 5.498 -0 -1.2 0
11.864 -10.895 5.767 -0 -1.2 0
11.306 -10.775 5.539 -0 -1.2 0
12.009 -11.761 5.856 -0 -1.2 0
11.81 -11.967 5.784 -0 -1.2 0
1.105 0.034 1.026 -0 -1.2 0
1.142 0.038 1.039 -0 -1.2 0
1.18 0.04 1.053 -0 -1.2 0
1.212 0.035 1.065 -0 -1.2 0
1.252 0.035 1.079 -0 -1.2 0
1.298 0.041 1.096 -0 -1.2 0
1.337 0.039 1.11 -0 -1.2 0
1.384 0.042 1.127 -0 -1.2 0
1.417 0.032 1.139 -0 -1.2 0
1.464 0.032 1.156 -0 -1.2 0
1.528 0.044 1.179 -0 -1.2 0
1.576 0.042 1.196 -0 -1.2 0
1.633 0.044 1.217 -0 -1.2 0
1.691 0.044 1.237 -0 -1.2 0
1.748 0.042 1.258 -0 -1.2 0
1.814 0.044 1.282 -0 -1.2 0
1.888 0.049 1.31 -0 -1.2 0
1.964 0.053 1.336 -0 -1.2 0
2.039 0.052 1.364 -0 -1.2 0
2.116 0.05 1.392 -0 -1.2 0
2.201 0.05 1.423 -0 -1.2 0
2.304 0.056 1.46 -0 -1.2 0
2.407 0.059 1.498 -0 -1.2 0
2.512 0.057 1.535 -0 -1.2 0
2.634 0.061 1.579 -0 -1.2 0
2.756 0.059 1.623 -0 -1.2 0
2.888 0.058 1.672 -0 -1.2 0
3.057 0.066 1.733 -0 -1.2 0
3.208 0.062 1.788 -0 -1.2 0
3.396 0.064 1.856 -0 -1.2 0
3.585 0.061 1.924 -0 -1.2 0
3.811 0.062 2.006 -0 -1.2 0
4.092 0.07 2.109 -0 -1.2 0
4.43 0.084 2.23 -0 -1.2 0
4.767 0.085 2.353 -0 -1.2 0
5.246 0.106 2.526 -0 -1.2 0
5.772 0.12 2.716 -0 -1.2 0
6.42 0.138 2.95 -0 -1.2 0
7.172 0.15 3.222 -0 -1.2 0
8.13 0.167 3.569 -0 -1.2 0
9.119 0.153 3.929 -0 -1.2 0
10.343 0.131 4.373 -0 -1.2 0
12.57 0.164 5.18 -0 -1.2 0
15.851 0.201 6.369 -0 -1.2 0
17.351 0.004 6.92 -0 -1.2 0
20.763 -0.162 8.165 -0 -1.2 0
17.076 -0.641 6.845 -0 -1.2 0
16.993 -0.957 6.826 -0 -1.2 0
16.566 -1.265 6.683 -0 -1.2 0
16.416 -1.567 6.64 -0 -1.2 0
16.355 -1.866 6.629 -0 -1.2 0
16.327 -2.168 6.63 -0 -1.2 0
15.985 -2.441 6.516 -0 -1.2 0
15.667 -2.705 6.41 -0 -1.2 0
15.662 -2.997 6.42 -0 -1.2 0
15.468 -3.264 6.359 -0 -1.2 0
12.133 -3.019 5.14 -0 -1.2 0
11.135 -3.07 4.78 -0 -1.2 0
11.393 -3.333 4.884 -0 -1.2 0
11.158 -3.5 4.805 -0 -1.2 0
11.179 -3.721 4.82 -0 -1.2 0
11.405 -3.997 4.913 -0 -1.2 0
8.161 -3.321 3.711 -0 -1.2 0
7.968 -3.424 3.644 -0 -1.2 0
11.49 -4.702 4.97 -0 -1.2 0
12.944 -5.426 5.524 -0 -1.2 0
12.779 -5.632 5.472 -0 -1.2 0
12.612 -5.835 5.419 -0 -1.2 0
10.016 -5.059 4.448 -0 -1.2 0
10.034 -5.279 4.463 -0 -1.2 0
11.973 -6.357 5.207 -0 -1.2 0
12.062 -6.661 5.25 -0 -1.2 0
11.796 -6.8 5.159 -0 -1.2 0
11.378 -6.854 5.009 -0 -1.2 0
11.153 -6.996 4.934 -0 -1.2 0
10.332 -6.799 4.628 -0 -1.2 0
10.333 -7.046 4.637 -0 -1.2 0
10.11 -7.162 4.561 -0 -1.2 0
10.223 -7.485 4.614 -0 -1.2 0
10.449 -7.893 4.711 -0 -1.2 0
9.932 -7.81 4.52 -0 -1.2 0
12.372 -9.812 5.48 -0 -1.2 0
12.938 -10.567 5.713 -0 -1.2 0
11.286 -9.66 5.081 -0 -1.2 0
11.156 -9.879 5.041 -0 -1.2 0
11.273 -10.304 5.1 -0 -1.2 0
11.233 -10.612 5.097 -0 -1.2 0
12.722 -12.283 5.699 -0 -1.2 0
13.169 -13.103 5.892 -0 -1.2 0
1.117 0.033 1.009 -0 -1.2 0
1.155 0.037 1.02 -0 -1.2 0
1.187 0.032 1.031 -0 -1.2 0
1.232 0.04 1.046 -0 -1.2 0
1.265 0.034 1.057 -0 -1.2 0
1.312 0.04 1.072 -0 -1.2 0
1.351 0.038 1.085 -0 -1.2 0
1.384 0.029 1.096 -0 -1.2 0
1.439 0.037 1.114 -0 -1.2 0
1.481 0.031 1.128 -0 -1.2 0
1.537 0.036 1.146 -0 -1.2 0
1.594 0.041 1.164 -0 -1.2 0
1.651 0.042 1.183 -0 -1.2 0
1.708 0.043 1.202 -0 -1.2 0
1.766 0.04 1.221 -0 -1.2 0
1.833 0.042 1.243 -0 -1.2 0
1.909 0.047 1.268 -0 -1.2 0
1.976 0.045 1.289 -0 -1.2 0
2.053 0.045 1.315 -0 -1.2 0
2.147 0.052 1.346 -0 -1.2 0
2.225 0.048 1.371 -0 -1.2 0
2.329 0.053 1.405 -0 -1.2 0
2.425 0.051 1.437 -0 -1.2 0
2.538 0.054 1.473 -0 -1.2 0
2.644 0.05 1.509 -0 -1.2 0
2.768 0.049 1.549 -0 -1.2 0
2.911 0.051 1.596 -0 -1.2 0
3.054 0.048 1.643 -0 -1.2 0
3.224 0.051 1.699 -0 -1.2 0
3.423 0.057 1.764 -0 -1.2 0
3.623 0.056 1.83 -0 -1.2 0
3.861 0.059 1.908 -0 -1.2 0
4.127 0.061 1.994 -0 -1.2 0
4.449 0.07 2.1 -0 -1.2 0
4.82 0.078 2.221 -0 -1.2 0
5.321 0.102 2.385 -0 -1.2 0
5.833 0.111 2.553 -0 -1.2 0
6.451 0.121 2.755 -0 -1.2 0
7.277 0.144 3.024 -0 -1.2 0
8.152 0.145 3.312 -0 -1.2 0
9.104 0.124 3.625 -0 -1.2 0
10.492 0.119 4.081 -0 -1.2 0
12.251 0.1 4.659 -0 -1.2 0
12.845 -0.076 4.86 -0 -1.2 0
12.857 -0.309 4.873 -0 -1.2 0
12.875 -0.542 4.887 -0 -1.2 0
12.889 -0.776 4.901 -0 -1.2 0
21.28 -0.959 7.661 -0 -1.2 0
11.813 -1.232 4.565 -0 -1.2 0
15.386 -1.556 5.749 -0 -1.2 0
21.046 -2.114 7.627 -0 -1.2 0
15.392 -2.118 5.773 -0 -1.2 0
13.819 -2.265 5.263 -0 -1.2 0
12.641 -2.397 4.881 -0 -1.2 0
12.596 -2.625 4.875 -0 -1.2 0
12.557 -2.852 4.871 -0 -1.2 0
12.524 -3.081 4.868 -0 -1.2 0
12.477 -3.307 4.861 -0 -1.2 0
12.128 -3.473 4.753 -0 -1.2 0
11.834 -3.639 4.663 -0 -1.2 0
12.203 -3.952 4.796 -0 -1.2 0
10.549 -3.763 4.247 -0 -1.2 0
12.087 -4.393 4.775 -0 -1.2 0
9.784 -3.949 4.003 -0 -1.2 0
9.887 -4.175 4.045 -0 -1.2 0
10.329 -4.521 4.203 -0 -1.2 0
12.895 -5.646 5.088 -0 -1.2 0
12.869 -5.901 5.088 -0 -1.2 0
12.82 -6.149 5.082 -0 -1.2 0
13.153 -6.56 5.207 -0 -1.2 0
12.778 -6.677 5.088 -0 -1.2 0
12.36 -6.761 4.955 -0 -1.2 0
12.58 -7.14 5.041 -0 -1.2 0
11.947 -7.1 4.831 -0 -1.2 0
9.817 -6.242 4.101 -0 -1.2 0
9.845 -6.486 4.119 -0 -1.2 0
10.182 -6.913 4.246 -0 -1.2 0
10.254 -7.202 4.281 -0 -1.2 0
10.069 -7.338 4.224 -0 -1.2 0
9.97 -7.526 4.199 -0 -1.2 0
9.867 -7.712 4.172 -0 -1.2 0
13.668 -10.656 5.531 -0 -1.2 0
14.73 -11.804 5.923 -0 -1.2 0
10.413 -8.925 4.398 -0 -1.2 0
11.775 -10.297 4.896 -0 -1.2 0
12.975 -11.623 5.34 -0 -1.2 0
11.722 -10.948 4.904 -0 -1.2 0
13.047 -12.474 5.397 -0 -1.2 0
12.839 -12.7 5.337 -0 -1.2 0
1.12 0.024 0.989 -0 -1.2 0
1.166 0.035 1.002 -0 -1.2 0
1.198 0.03 1.011 -0 -1.2 0
1.244 0.038 1.024 -0 -1.2 0
1.277 0.032 1.035 -0 -1.2 0
1.316 0.031 1.047 -0 -1.2 0
1.357 0.029 1.058 -0 -1.2 0
1.398 0.027 1.07 -0 -1.2 0
1.446 0.029 1.085 -0 -1.2 0
1.494 0.029 1.099 -0 -1.2 0
1.551 0.034 1.115 -0 -1.2 0
1.608 0.038 1.132 -0 -1.2 0
1.659 0.034 1.146 -0 -1.2 0
1.717 0.034 1.164 -0 -1.2 0
1.784 0.037 1.183 -0 -1.2 0
1.851 0.039 1.203 -0 -1.2 0
1.927 0.044 1.225 -0 -1.2 0
1.995 0.042 1.246 -0 -1.2 0
2.073 0.042 1.268 -0 -1.2 0
2.159 0.045 1.293 -0 -1.2 0
2.246 0.044 1.319 -0 -1.2 0
2.351 0.049 1.35 -0 -1.2 0
2.448 0.047 1.378 -0 -1.2 0
2.545 0.041 1.407 -0 -1.2 0
2.661 0.041 1.441 -0 -1.2 0
2.795 0.045 1.481 -0 -1.2 0
2.939 0.046 1.522 -0 -1.2 0
3.074 0.04 1.563 -0 -1.2 0
3.256 0.045 1.616 -0 -1.2 0
3.438 0.045 1.669 -0 -1.2 0
3.649 0.046 1.731 -0 -1.2 0
3.879 0.047 1.8 -0 -1.2 0
4.149 0.05 1.878 -0 -1.2 0
4.473 0.057 1.973 -0 -1.2 0
4.828 0.061 2.078 -0 -1.2 0
5.344 0.088 2.229 -0 -1.2 0
5.919 0.108 2.396 -0 -1.2 0
6.523 0.113 2.573 -0 -1.2 0
7.319 0.127 2.808 -0 -1.2 0
8.155 0.12 3.053 -0 -1.2 0
9.116 0.099 3.336 -0 -1.2 0
10.479 0.088 3.737 -0 -1.2 0
12.197 0.063 4.244 -0 -1.2 0
12.021 -0.171 4.201 -0 -1.2 0
12.052 -0.385 4.219 -0 -1.2 0
12.088 -0.601 4.237 -0 -1.2 0
12.112 -0.818 4.253 -0 -1.2 0
15.402 -1.02 5.228 -0 -1.2 0
15.437 -1.299 5.25 -0 -1.2 0
11.364 -1.448 4.057 -0 -1.2 0
11.708 -1.67 4.167 -0 -1.2 0
15.55 -2.145 5.315 -0 -1.2 0
15.499 -2.423 5.311 -0 -1.2 0
11.609 -2.297 4.162 -0 -1.2 0
11.766 -2.527 4.217 -0 -1.2 0
11.738 -2.739 4.217 -0 -1.2 0
11.687 -2.947 4.21 -0 -1.2 0
11.699 -3.167 4.222 -0 -1.2 0
12.638 -3.571 4.514 -0 -1.2 0
11.89 -3.646 4.297 -0 -1.2 0
12.076 -3.915 4.362 -0 -1.2 0
12.648 -4.292 4.544 -0 -1.2 0
12.747 -4.563 4.583 -0 -1.2 0
12.868 -4.847 4.631 -0 -1.2 0
13.149 -5.188 4.726 -0 -1.2 0
9.871 -4.353 3.73 -0 -1.2 0
9.686 -4.485 3.681 -0 -1.2 0
9.724 -4.696 3.701 -0 -1.2 0
9.76 -4.909 3.719 -0 -1.2 0
9.647 -5.067 3.692 -0 -1.2 0
9.63 -5.264 3.694 -0 -1.2 0
9.697 -5.501 3.724 -0 -1.2 0
9.586 -5.658 3.697 -0 -1.2 0
9.781 -5.969 3.766 -0 -1.2 0
10.138 -6.379 3.887 -0 -1.2 0
9.936 -6.502 3.832 -0 -1.2 0
9.884 -6.704 3.825 -0 -1.2 0
9.315 -6.599 3.653 -0 -1.2 0
9.908 -7.196 3.851 -0 -1.2 0
9.85 -7.405 3.842 -0 -1.2 0
10.03 -7.777 3.909 -0 -1.2 0
10.263 -8.202 3.994 -0 -1.2 0
12.339 -9.987 4.673 -0 -1.2 0
12.509 -10.455 4.741 -0 -1.2 0
12.371 -10.699 4.71 -0 -1.2 0
12.762 -11.375 4.852 -0 -1.2 0
12.719 -11.717 4.852 -0 -1.2 0
1.138 0.031 0.969 -0 -1.2 0
1.176 0.034 0.979 -0 -1.2 0
1.209 0.029 0.988 -0 -1.2 0
1.255 0.037 0.999 -0 -1.2 0
1.296 0.038 1.009 -0 -1.2 0
1.336 0.036 1.019 -0 -1.2 0
1.362 0.021 1.027 -0 -1.2 0
1.418 0.031 1.041 -0 -1.2 0
1.451 0.021 1.05 -0 -1.2 0
1.516 0.033 1.066 -0 -1.2 0
1.566 0.032 1.079 -0 -1.2 0
1.615 0.03 1.092 -0 -1.2 0
1.682 0.038 1.108 -0 -1.2 0
1.733 0.032 1.122 -0 -1.2 0
1.8 0.035 1.139 -0 -1.2 0
1.86 0.031 1.154 -0 -1.2 0
1.945 0.042 1.175 -0 -1.2 0
2.006 0.034 1.192 -0 -1.2 0
2.092 0.039 1.214 -0 -1.2 0
2.171 0.036 1.234 -0 -1.2 0
2.267 0.041 1.258 -0 -1.2 0
2.364 0.042 1.283 -0 -1.2 0
2.471 0.044 1.311 -0 -1.2 0
2.578 0.042 1.338 -0 -1.2 0
2.685 0.037 1.366 -0 -1.2 0
2.831 0.044 1.403 -0 -1.2 0
2.966 0.042 1.438 -0 -1.2 0
3.104 0.035 1.473 -0 -1.2 0
3.268 0.034 1.515 -0 -1.2 0
3.471 0.04 1.567 -0 -1.2 0
3.665 0.035 1.618 -0 -1.2 0
3.916 0.041 1.681 -0 -1.2 0
4.188 0.043 1.751 -0 -1.2 0
4.488 0.043 1.829 -0 -1.2 0
4.856 0.048 1.923 -0 -1.2 0
5.366 0.073 2.052 -0 -1.2 0
5.956 0.094 2.203 -0 -1.2 0
6.595 0.103 2.366 -0 -1.2 0
7.408 0.119 2.574 -0 -1.2 0
8.214 0.104 2.782 -0 -1.2 0
9.116 0.072 3.015 -0 -1.2 0
10.54 0.067 3.38 -0 -1.2 0
11.348 -0.047 3.592 -0 -1.2 0
11.391 -0.247 3.612 -0 -1.2 0
11.383 -0.451 3.617 -0 -1.2 0
11.457 -0.651 3.644 -0 -1.2 0
11.529 -0.853 3.67 -0 -1.2 0
11.598 -1.058 3.696 -0 -1.2 0
11.556 -1.265 3.693 -0 -1.2 0
11.635 -1.474 3.722 -0 -1.2 0
11.577 -1.678 3.715 -0 -1.2 0
11.554 -1.884 3.717 -0 -1.2 0
11.864 -2.118 3.806 -0 -1.2 0
11.805 -2.326 3.799 -0 -1.2 0
11.809 -2.539 3.808 -0 -1.2 0
11.771 -2.749 3.807 -0 -1.2 0
11.691 -2.951 3.794 -0 -1.2 0
11.714 -3.17 3.809 -0 -1.2 0
11.712 -3.386 3.816 -0 -1.2 0
10.658 -3.376 3.545 -0 -1.2 0
10.644 -3.572 3.55 -0 -1.2 0
11.705 -4.044 3.84 -0 -1.2 0
11.726 -4.273 3.855 -0 -1.2 0
11.789 -4.517 3.881 -0 -1.2 0
12.948 -5.109 4.201 -0 -1.2 0
14.906 -6.018 4.74 -0 -1.2 0
11.987 -5.284 3.961 -0 -1.2 0
9.842 -4.724 3.389 -0 -1.2 0
12.221 -5.862 4.045 -0 -1.2 0
13.82 -6.78 4.49 -0 -1.2 0
13.39 -6.883 4.384 -0 -1.2 0
9.733 -5.493 3.391 -0 -1.2 0
9.665 -5.671 3.381 -0 -1.2 0
9.757 -5.929 3.415 -0 -1.2 0
9.775 -6.158 3.428 -0 -1.2 0
9.891 -6.444 3.469 -0 -1.2 0
9.915 -6.687 3.485 -0 -1.2 0
9.809 -6.859 3.464 -0 -1.2 0
10.138 -7.3 3.566 -0 -1.2 0
10.324 -7.67 3.628 -0 -1.2 0
9.636 -7.468 3.444 -0 -1.2 0
9.373 -7.535 3.379 -0 -1.2 0
11.219 -9.118 3.915 -0 -1.2 0
12.568 -10.436 4.313 -0 -1.2 0
12.559 -10.78 4.324 -0 -1.2 0
12.27 -10.906 4.254 -0 -1.2 0
1.146 0.03 0.949 -0 -1.2 0
1.193 0.04 0.959 -0 -1.2 0
1.219 0.028 0.965 -0 -1.2 0
1.258 0.03 0.974 -0 -1.2 0
1.299 0.029 0.983 -0 -1.2 0
1.346 0.035 0.993 -0 -1.2 0
1.372 0.02 1 -0 -1.2 0
1.422 0.024 1.011 -0 -1.2 0
1.47 0.026 1.021 -0 -1.2 0
1.52 0.025 1.032 -0 -1.2 0
1.586 0.037 1.046 -0 -1.2 0
1.644 0.04 1.059 -0 -1.2 0
1.695 0.036 1.071 -0 -1.2 0
1.754 0.036 1.084 -0 -1.2 0
1.814 0.033 1.097 -0 -1.2 0
1.875 0.029 1.111 -0 -1.2 0
1.952 0.034 1.128 -0 -1.2 0
2.03 0.037 1.146 -0 -1.2 0
2.117 0.041 1.164 -0 -1.2 0
2.196 0.039 1.182 -0 -1.2 0
2.276 0.033 1.2 -0 -1.2 0
2.374 0.035 1.221 -0 -1.2 0
2.49 0.041 1.248 -0 -1.2 0
2.589 0.035 1.269 -0 -1.2 0
2.706 0.034 1.295 -0 -1.2 0
2.853 0.04 1.328 -0 -1.2 0
2.989 0.038 1.358 -0 -1.2 0
3.127 0.031 1.389 -0 -1.2 0
3.293 0.029 1.427 -0 -1.2 0
3.498 0.035 1.471 -0 -1.2 0
3.713 0.036 1.519 -0 -1.2 0
3.956 0.039 1.573 -0 -1.2 0
4.22 0.037 1.632 -0 -1.2 0
4.542 0.041 1.703 -0 -1.2 0
4.884 0.04 1.78 -0 -1.2 0
5.417 0.067 1.897 -0 -1.2 0
5.964 0.077 2.017 -0 -1.2 0
6.646 0.093 2.168 -0 -1.2 0
7.456 0.106 2.348 -0 -1.2 0
8.287 0.092 2.534 -0 -1.2 0
9.285 0.07 2.756 -0 -1.2 0
10.652 0.053 3.061 -0 -1.2 0
10.794 -0.123 3.1 -0 -1.2 0
10.817 -0.313 3.112 -0 -1.2 0
10.798 -0.506 3.116 -0 -1.2 0
10.804 -0.696 3.125 -0 -1.2 0
10.877 -0.886 3.148 -0 -1.2 0
13.718 -1.076 3.787 -0 -1.2 0
13.733 -1.319 3.801 -0 -1.2 0
13.764 -1.563 3.817 -0 -1.2 0
13.772 -1.808 3.828 -0 -1.2 0
13.764 -2.052 3.837 -0 -1.2 0
13.831 -2.304 3.861 -0 -1.2 0
13.845 -2.553 3.874 -0 -1.2 0
13.855 -2.803 3.886 -0 -1.2 0
11.62 -2.734 3.387 -0 -1.2 0
13.418 -3.235 3.806 -0 -1.2 0
11.649 -3.161 3.41 -0 -1.2 0
12.95 -3.633 3.718 -0 -1.2 0
13.98 -4.096 3.965 -0 -1.2 0
13.991 -4.359 3.978 -0 -1.2 0
10.773 -3.802 3.241 -0 -1.2 0
10.734 -3.995 3.24 -0 -1.2 0
10.671 -4.182 3.233 -0 -1.2 0
10.709 -4.399 3.251 -0 -1.2 0
10.529 -4.549 3.216 -0 -1.2 0
10.622 -4.789 3.247 -0 -1.2 0
10.611 -4.998 3.253 -0 -1.2 0
11.178 -5.436 3.396 -0 -1.2 0
10.133 -5.443 3.164 -0 -1.2 0
9.931 -5.565 3.124 -0 -1.2 0
9.903 -5.766 3.126 -0 -1.2 0
9.847 -5.954 3.12 -0 -1.2 0
9.909 -6.205 3.144 -0 -1.2 0
9.93 -6.441 3.159 -0 -1.2 0
9.836 -6.615 3.145 -0 -1.2 0
9.933 -6.904 3.177 -0 -1.2 0
9.947 -7.151 3.191 -0 -1.2 0
9.989 -7.422 3.21 -0 -1.2 0
11.001 -8.348 3.473 -0 -1.2 0
12.613 -9.748 3.886 -0 -1.2 0
12.653 -10.109 3.909 -0 -1.2 0
11.152 -9.33 3.546 -0 -1.2 0
11.248 -9.713 3.582 -0 -1.2 0
11.648 -10.354 3.696 -0 -1.2 0
11.781 -10.805 3.743 -0 -1.2 0
11.724 -11.109 3.743 -0 -1.2 0
1.161 0.036 0.93 -0 -1.2 0
1.194 0.032 0.936 -0 -1.2 0
1.233 0.035 0.943 -0 -1.2 0
1.266 0.029 0.95 -0 -1.2 0
1.307 0.028 0.958 -0 -1.2 0
1.349 0.028 0.965 -0 -1.2 0
1.389 0.025 0.974 -0 -1.2 0
1.431 0.023 0.981 -0 -1.2 0
1.481 0.024 0.99 -0 -1.2 0
1.538 0.03 1.001 -0 -1.2 0
1.596 0.035 1.011 -0 -1.2 0
1.656 0.038 1.023 -0 -1.2 0
1.698 0.029 1.032 -0 -1.2 0
1.758 0.028 1.042 -0 -1.2 0
1.819 0.026 1.054 -0 -1.2 0
1.896 0.033 1.068 -0 -1.2 0
1.974 0.037 1.083 -0 -1.2 0
2.043 0.035 1.096 -0 -1.2 0
2.123 0.035 1.111 -0 -1.2 0
2.211 0.037 1.127 -0 -1.2 0
2.3 0.036 1.145 -0 -1.2 0
2.398 0.036 1.163 -0 -1.2 0
2.506 0.038 1.183 -0 -1.2 0
2.607 0.031 1.202 -0 -1.2 0
2.734 0.035 1.226 -0 -1.2 0
2.862 0.033 1.25 -0 -1.2 0
3 0.031 1.276 -0 -1.2 0
3.148 0.027 1.304 -0 -1.2 0
3.325 0.028 1.337 -0 -1.2 0
3.54 0.037 1.378 -0 -1.2 0
3.738 0.03 1.416 -0 -1.2 0
4.002 0.038 1.465 -0 -1.2 0
4.248 0.031 1.512 -0 -1.2 0
4.562 0.032 1.57 -0 -1.2 0
4.926 0.034 1.64 -0 -1.2 0
5.454 0.059 1.738 -0 -1.2 0
6.052 0.078 1.85 -0 -1.2 0
6.749 0.093 1.98 -0 -1.2 0
7.516 0.095 2.124 -0 -1.2 0
8.4 0.087 2.292 -0 -1.2 0
9.308 0.05 2.464 -0 -1.2 0
10.449 0.006 2.681 -0 -1.2 0
12.963 0.043 3.152 -0 -1.2 0
12.979 -0.184 3.165 -0 -1.2 0
12.991 -0.413 3.176 -0 -1.2 0
10.7 -0.72 2.758 -0 -1.2 0
13.022 -0.868 3.201 -0 -1.2 0
13.042 -1.097 3.214 -0 -1.2 0
13.068 -1.327 3.227 -0 -1.2 0
13.079 -1.557 3.239 -0 -1.2 0
13.107 -1.789 3.254 -0 -1.2 0
13.121 -2.022 3.266 -0 -1.2 0
13.14 -2.257 3.278 -0 -1.2 0
13.155 -2.491 3.291 -0 -1.2 0
13.186 -2.73 3.307 -0 -1.2 0
13.193 -2.968 3.318 -0 -1.2 0
13.206 -3.207 3.33 -0 -1.2 0
13.223 -3.45 3.342 -0 -1.2 0
13.246 -3.696 3.357 -0 -1.2 0
13.256 -3.941 3.369 -0 -1.2 0
13.279 -4.192 3.383 -0 -1.2 0
13.307 -4.448 3.399 -0 -1.2 0
13.322 -4.702 3.412 -0 -1.2 0
13.351 -4.964 3.428 -0 -1.2 0
13.43 -5.246 3.454 -0 -1.2 0
13.439 -5.51 3.466 -0 -1.2 0
10.876 -4.872 2.957 -0 -1.2 0
10.846 -5.077 2.96 -0 -1.2 0
10.545 -5.177 2.908 -0 -1.2 0
10.835 -5.512 2.976 -0 -1.2 0
10.855 -5.745 2.989 -0 -1.2 0
9.734 -5.463 2.767 -0 -1.2 0
9.994 -5.794 2.829 -0 -1.2 0
9.99 -6.009 2.837 -0 -1.2 0
9.98 -6.225 2.844 -0 -1.2 0
9.993 -6.457 2.856 -0 -1.2 0
9.941 -6.656 2.853 -0 -1.2 0
10.046 -6.95 2.885 -0 -1.2 0
10.47 -7.451 2.985 -0 -1.2 0
10.731 -7.873 3.052 -0 -1.2 0
10.669 -8.099 3.049 -0 -1.2 0
10.538 -8.28 3.031 -0 -1.2 0
10.596 -8.597 3.055 -0 -1.2 0
10.559 -8.853 3.059 -0 -1.2 0
10.89 -9.399 3.143 -0 -1.2 0
10.529 -9.418 3.075 -0 -1.2 0
9.882 -9.187 2.944 -0 -1.2 0
1.161 0.027 0.906 -0 -1.2 0
1.2 0.03 0.912 -0 -1.2 0
1.24 0.033 0.918 -0 -1.2 0
1.281 0.033 0.925 -0 -1.2 0
1.321 0.033 0.93 -0 -1.2 0
1.355 0.025 0.936 -0 -1.2 0
1.405 0.03 0.943 -0 -1.2 0
1.454 0.033 0.951 -0 -1.2 0
1.504 0.034 0.958 -0 -1.2 0
1.555 0.034 0.966 -0 -1.2 0
1.598 0.026 0.973 -0 -1.2 0
1.656 0.03 0.982 -0 -1.2 0
1.716 0.031 0.99 -0 -1.2 0
1.776 0.031 1 -0 -1.2 0
1.845 0.034 1.01 -0 -1.2 0
1.907 0.029 1.02 -0 -1.2 0
1.993 0.039 1.033 -0 -1.2 0
2.063 0.036 1.043 -0 -1.2 0
2.135 0.031 1.055 -0 -1.2 0
2.223 0.033 1.068 -0 -1.2 0
2.314 0.032 1.082 -0 -1.2 0
2.421 0.036 1.098 -0 -1.2 0
2.521 0.033 1.113 -0 -1.2 0
2.648 0.039 1.133 -0 -1.2 0
2.75 0.03 1.148 -0 -1.2 0
2.897 0.035 1.17 -0 -1.2 0
3.027 0.029 1.19 -0 -1.2 0
3.176 0.025 1.214 -0 -1.2 0
3.354 0.025 1.241 -0 -1.2 0
3.56 0.03 1.272 -0 -1.2 0
3.787 0.033 1.307 -0 -1.2 0
4.025 0.03 1.343 -0 -1.2 0
4.302 0.031 1.385 -0 -1.2 0
4.608 0.028 1.432 -0 -1.2 0
5.003 0.036 1.492 -0 -1.2 0
5.544 0.061 1.573 -0 -1.2 0
6.098 0.069 1.657 -0 -1.2 0
6.769 0.078 1.759 -0 -1.2 0
7.609 0.089 1.887 -0 -1.2 0
8.519 0.081 2.026 -0 -1.2 0
9.617 0.064 2.195 -0 -1.2 0
10.796 0.016 2.376 -0 -1.2 0
12.359 -0.038 2.617 -0 -1.2 0
12.385 -0.254 2.629 -0 -1.2 0
12.395 -0.47 2.639 -0 -1.2 0
12.423 -0.685 2.652 -0 -1.2 0
12.436 -0.902 2.664 -0 -1.2 0
12.456 -1.119 2.675 -0 -1.2 0
12.472 -1.338 2.687 -0 -1.2 0
12.484 -1.556 2.698 -0 -1.2 0
12.492 -1.775 2.708 -0 -1.2 0
12.517 -1.996 2.721 -0 -1.2 0
12.538 -2.218 2.733 -0 -1.2 0
12.544 -2.441 2.743 -0 -1.2 0
12.566 -2.666 2.756 -0 -1.2 0
12.585 -2.893 2.768 -0 -1.2 0
12.6 -3.12 2.779 -0 -1.2 0
12.62 -3.351 2.792 -0 -1.2 0
10.28 -3.113 2.425 -0 -1.2 0
10.243 -3.292 2.427 -0 -1.2 0
10.241 -3.48 2.434 -0 -1.2 0
10.264 -3.675 2.446 -0 -1.2 0
10.293 -3.875 2.458 -0 -1.2 0
10.299 -4.071 2.467 -0 -1.2 0
10.244 -4.251 2.466 -0 -1.2 0
10.31 -4.47 2.485 -0 -1.2 0
10.295 -4.666 2.49 -0 -1.2 0
10.295 -4.869 2.499 -0 -1.2 0
10.3 -5.077 2.508 -0 -1.2 0
10.302 -5.287 2.518 -0 -1.2 0
10.317 -5.506 2.529 -0 -1.2 0
10.275 -5.702 2.53 -0 -1.2 0
10.228 -5.897 2.53 -0 -1.2 0
10.24 -6.124 2.542 -0 -1.2 0
10.378 -6.421 2.575 -0 -1.2 0
10.362 -6.645 2.582 -0 -1.2 0
10.358 -6.878 2.591 -0 -1.2 0
10.502 -7.204 2.626 -0 -1.2 0
10.588 -7.506 2.651 -0 -1.2 0
10.616 -7.781 2.666 -0 -1.2 0
10.769 -8.146 2.706 -0 -1.2 0
10.693 -8.367 2.703 -0 -1.2 0
10.565 -8.553 2.691 -0 -1.2 0
10.744 -8.967 2.735 -0 -1.2 0
10.338 -8.949 2.672 -0 -1.2 0
10.4 -9.289 2.695 -0 -1.2 0
10.035 -9.287 2.64 -0 -1.2 0
1.158 0.02 0.886 -0 -1.2 0
1.206 0.03 0.891 -0 -1.2 0
1.245 0.032 0.896 -0 -1.2 0
1.286 0.033 0.901 -0 -1.2 0
1.328 0.033 0.905 -0 -1.2 0
1.369 0.031 0.911 -0 -1.2 0
1.418 0.036 0.917 -0 -1.2 0
1.46 0.032 0.922 -0 -1.2 0
1.511 0.034 0.928 -0 -1.2 0
1.561 0.033 0.934 -0 -1.2 0
1.612 0.032 0.94 -0 -1.2 0
1.672 0.035 0.947 -0 -1.2 0
1.715 0.025 0.952 -0 -1.2 0
1.792 0.035 0.962 -0 -1.2 0
1.861 0.039 0.97 -0 -1.2 0
