# .PCD v.7 - Point Cloud Data file format
FIELDS x y z vp_x vp_y vp_z
SIZE 4 4 4 4 4 4
TYPE F F F F F F
COUNT 1 1 1 1 1 1
WIDTH 1492
HEIGHT 1
VIEWPOINT 0 -1.20006 0 1 0 0 0
POINTS 1492
DATA ascii
-5.693 -21.36 21.362 -0 -1.2 0
-5.59 -21.744 21.021 -0 -1.2 0
-5.483 -22.121 20.672 -0 -1.2 0
-5.267 -20.167 22.552 -0 -1.2 0
-5.179 -20.568 22.226 -0 -1.2 0
-5.09 -20.963 21.894 -0 -1.2 0
-4.999 -21.352 21.557 -0 -1.2 0
-4.906 -21.736 21.212 -0 -1.2 0
-4.812 -22.113 20.861 -0 -1.2 0
-4.797 -18.473 23.997 -0 -1.2 0
-4.726 -18.898 23.698 -0 -1.2 0
-4.653 -19.316 23.392 -0 -1.2 0
-4.58 -19.729 23.079 -0 -1.2 0
-4.504 -20.137 22.759 -0 -1.2 0
-4.428 -20.538 22.432 -0 -1.2 0
-4.349 -20.934 22.098 -0 -1.2 0
-4.27 -21.324 21.757 -0 -1.2 0
-4.19 -21.707 21.411 -0 -1.2 0
-4.107 -22.085 21.057 -0 -1.2 0
-4.096 -17.134 25.055 -0 -1.2 0
-4.039 -17.574 24.778 -0 -1.2 0
-3.983 -18.009 24.491 -0 -1.2 0
-3.924 -18.439 24.199 -0 -1.2 0
-3.864 -18.864 23.898 -0 -1.2 0
-3.802 -19.282 23.59 -0 -1.2 0
-3.74 -19.696 23.276 -0 -1.2 0
-3.677 -20.104 22.954 -0 -1.2 0
-3.612 -20.506 22.625 -0 -1.2 0
-3.546 -20.902 22.289 -0 -1.2 0
-3.48 -21.292 21.946 -0 -1.2 0
-3.412 -21.677 21.596 -0 -1.2 0
-3.343 -22.055 21.24 -0 -1.2 0
-3.973 -5.85 28.995 -0 -1.2 0
-4.005 -6.431 29.3 -0 -1.2 0
-3.983 -6.946 29.204 -0 -1.2 0
-3.96 -7.458 29.1 -0 -1.2 0
-3.935 -7.968 28.987 -0 -1.2 0
-3.909 -8.477 28.865 -0 -1.2 0
-3.882 -8.984 28.735 -0 -1.2 0
-3.824 -9.989 28.447 -0 -1.2 0
-3.794 -10.488 28.29 -0 -1.2 0
-3.762 -10.983 28.125 -0 -1.2 0
-3.661 -12.451 27.578 -0 -1.2 0
-3.469 -14.829 26.499 -0 -1.2 0
-3.427 -15.292 26.258 -0 -1.2 0
-3.385 -15.752 26.011 -0 -1.2 0
-3.341 -16.206 25.755 -0 -1.2 0
-3.297 -16.656 25.491 -0 -1.2 0
-3.251 -17.101 25.219 -0 -1.2 0
-3.204 -17.541 24.94 -0 -1.2 0
-3.156 -17.977 24.652 -0 -1.2 0
-3.107 -18.407 24.358 -0 -1.2 0
-3.058 -18.832 24.056 -0 -1.2 0
-3.008 -19.251 23.747 -0 -1.2 0
-2.956 -19.665 23.431 -0 -1.2 0
-2.904 -20.074 23.107 -0 -1.2 0
-2.851 -20.476 22.777 -0 -1.2 0
-2.796 -20.873 22.439 -0 -1.2 0
-2.741 -21.263 22.095 -0 -1.2 0
-2.686 -21.648 21.744 -0 -1.2 0
-2.629 -22.027 21.387 -0 -1.2 0
-2.982 -5.876 29.535 -0 -1.2 0
-2.965 -6.392 29.449 -0 -1.2 0
-2.947 -6.906 29.353 -0 -1.2 0
-2.927 -7.419 29.249 -0 -1.2 0
-2.907 -7.929 29.135 -0 -1.2 0
-2.885 -8.438 29.013 -0 -1.2 0
-2.864 -8.945 28.883 -0 -1.2 0
-2.841 -9.449 28.743 -0 -1.2 0
-2.816 -9.95 28.594 -0 -1.2 0
-2.792 -10.45 28.437 -0 -1.2 0
-2.766 -10.945 28.272 -0 -1.2 0
-2.739 -11.439 28.098 -0 -1.2 0
-2.713 -11.928 27.915 -0 -1.2 0
-2.685 -12.414 27.724 -0 -1.2 0
-2.656 -12.898 27.523 -0 -1.2 0
-2.626 -13.377 27.315 -0 -1.2 0
-2.595 -13.854 27.099 -0 -1.2 0
-2.564 -14.325 26.874 -0 -1.2 0
-2.532 -14.793 26.641 -0 -1.2 0
-2.499 -15.257 26.4 -0 -1.2 0
-2.466 -15.717 26.152 -0 -1.2 0
-2.432 -16.171 25.895 -0 -1.2 0
-2.396 -16.621 25.629 -0 -1.2 0
-2.36 -17.067 25.358 -0 -1.2 0
-2.324 -17.507 25.077 -0 -1.2 0
-2.286 -17.944 24.789 -0 -1.2 0
-2.249 -18.374 24.494 -0 -1.2 0
-2.21 -18.8 24.191 -0 -1.2 0
-2.17 -19.219 23.881 -0 -1.2 0
-2.131 -19.634 23.564 -0 -1.2 0
-2.089 -20.043 23.238 -0 -1.2 0
-2.048 -20.446 22.907 -0 -1.2 0
-2.007 -20.843 22.568 -0 -1.2 0
-1.964 -21.234 22.223 -0 -1.2 0
-1.921 -21.619 21.871 -0 -1.2 0
-1.877 -21.998 21.512 -0 -1.2 0
-1.98 0.95 29.951 -0 -1.2 0
-1.877 -4.797 29.799 -0 -1.2 0
-1.864 -5.316 29.731 -0 -1.2 0
-1.85 -5.833 29.654 -0 -1.2 0
-1.836 -6.349 29.568 -0 -1.2 0
-1.822 -6.864 29.473 -0 -1.2 0
-1.807 -7.377 29.368 -0 -1.2 0
-1.791 -7.887 29.255 -0 -1.2 0
-1.774 -8.396 29.133 -0 -1.2 0
-1.758 -8.904 29.002 -0 -1.2 0
-1.741 -9.408 28.862 -0 -1.2 0
-1.722 -9.909 28.714 -0 -1.2 0
-1.705 -10.409 28.556 -0 -1.2 0
-1.685 -10.905 28.39 -0 -1.2 0
-1.665 -11.398 28.215 -0 -1.2 0
-1.646 -11.888 28.033 -0 -1.2 0
-1.626 -12.374 27.841 -0 -1.2 0
-1.604 -12.859 27.642 -0 -1.2 0
-1.583 -13.338 27.433 -0 -1.2 0
-1.561 -13.815 27.216 -0 -1.2 0
-1.538 -14.286 26.991 -0 -1.2 0
-1.515 -14.755 26.758 -0 -1.2 0
-1.492 -15.219 26.516 -0 -1.2 0
-1.468 -15.679 26.267 -0 -1.2 0
-1.444 -16.134 26.01 -0 -1.2 0
-1.419 -16.584 25.744 -0 -1.2 0
-1.394 -17.031 25.471 -0 -1.2 0
-1.368 -17.471 25.191 -0 -1.2 0
-1.343 -17.908 24.902 -0 -1.2 0
-1.316 -18.339 24.605 -0 -1.2 0
-1.289 -18.765 24.303 -0 -1.2 0
-1.262 -19.185 23.992 -0 -1.2 0
-1.235 -19.6 23.673 -0 -1.2 0
-1.206 -20.009 23.348 -0 -1.2 0
-1.178 -20.413 23.016 -0 -1.2 0
-1.15 -20.81 22.676 -0 -1.2 0
-1.121 -21.202 22.329 -0 -1.2 0
-1.091 -21.588 21.977 -0 -1.2 0
-1.061 -21.967 21.618 -0 -1.2 0
-0.912 0.99 30.017 -0 -1.2 0
-0.905 0.466 30.05 -0 -1.2 0
-0.897 -0.056 30.063 -0 -1.2 0
-0.889 -0.578 30.086 -0 -1.2 0
-0.882 -1.101 30.092 -0 -1.2 0
-0.874 -1.624 30.087 -0 -1.2 0
-0.865 -2.148 30.074 -0 -1.2 0
-0.856 -2.671 30.051 -0 -1.2 0
-0.84 -3.178 29.8 -0 -1.2 0
-0.837 -3.715 29.979 -0 -1.2 0
-0.827 -4.237 29.929 -0 -1.2 0
-0.817 -4.757 29.869 -0 -1.2 0
-0.807 -5.276 29.802 -0 -1.2 0
-0.797 -5.794 29.725 -0 -1.2 0
-0.786 -6.31 29.638 -0 -1.2 0
-0.775 -6.825 29.544 -0 -1.2 0
-0.763 -7.338 29.44 -0 -1.2 0
-0.753 -7.849 29.326 -0 -1.2 0
-0.741 -8.358 29.204 -0 -1.2 0
-0.728 -8.865 29.073 -0 -1.2 0
-0.717 -9.37 28.934 -0 -1.2 0
-0.704 -9.871 28.785 -0 -1.2 0
-0.691 -10.371 28.628 -0 -1.2 0
-0.679 -10.867 28.463 -0 -1.2 0
-0.666 -11.361 28.288 -0 -1.2 0
-0.653 -11.851 28.106 -0 -1.2 0
-0.639 -12.338 27.913 -0 -1.2 0
-0.626 -12.822 27.714 -0 -1.2 0
-0.612 -13.302 27.506 -0 -1.2 0
-0.598 -13.779 27.288 -0 -1.2 0
-0.584 -14.251 27.064 -0 -1.2 0
-0.569 -14.72 26.83 -0 -1.2 0
-0.555 -15.184 26.588 -0 -1.2 0
-0.54 -15.644 26.34 -0 -1.2 0
-0.525 -16.1 26.082 -0 -1.2 0
-0.51 -16.551 25.817 -0 -1.2 0
-0.495 -16.997 25.543 -0 -1.2 0
-0.479 -17.438 25.263 -0 -1.2 0
-0.464 -17.875 24.973 -0 -1.2 0
-0.448 -18.307 24.677 -0 -1.2 0
-0.433 -18.733 24.374 -0 -1.2 0
-0.416 -19.153 24.062 -0 -1.2 0
-0.401 -19.569 23.744 -0 -1.2 0
-0.385 -19.979 23.419 -0 -1.2 0
-0.368 -20.382 23.086 -0 -1.2 0
-0.351 -20.78 22.746 -0 -1.2 0
-0.335 -21.173 22.399 -0 -1.2 0
-0.318 -21.559 22.046 -0 -1.2 0
-0.302 -21.939 21.686 -0 -1.2 0
0.143 1.029 30.046 -0 -1.2 0
0.151 0.505 30.079 -0 -1.2 0
0.159 -0.02 29.983 -0 -1.2 0
0.167 -0.541 30.017 -0 -1.2 0
0.175 -1.062 30.023 -0 -1.2 0
0.183 -1.584 30.028 -0 -1.2 0
0.191 -2.107 30.055 -0 -1.2 0
0.199 -2.626 29.963 -0 -1.2 0
0.206 -3.137 29.792 -0 -1.2 0
0.215 -3.676 30.012 -0 -1.2 0
0.222 -4.198 29.962 -0 -1.2 0
0.23 -4.718 29.903 -0 -1.2 0
0.238 -5.238 29.836 -0 -1.2 0
0.245 -5.755 29.758 -0 -1.2 0
0.253 -6.272 29.673 -0 -1.2 0
0.26 -6.786 29.579 -0 -1.2 0
0.268 -7.299 29.474 -0 -1.2 0
0.275 -7.811 29.362 -0 -1.2 0
0.281 -8.32 29.24 -0 -1.2 0
0.289 -8.827 29.11 -0 -1.2 0
0.296 -9.332 28.97 -0 -1.2 0
0.302 -9.834 28.823 -0 -1.2 0
0.309 -10.334 28.666 -0 -1.2 0
0.316 -10.83 28.5 -0 -1.2 0
0.322 -11.324 28.327 -0 -1.2 0
0.33 -11.815 28.144 -0 -1.2 0
0.336 -12.301 27.952 -0 -1.2 0
0.341 -12.786 27.753 -0 -1.2 0
0.348 -13.266 27.544 -0 -1.2 0
0.354 -13.743 27.328 -0 -1.2 0
0.36 -14.216 27.102 -0 -1.2 0
0.366 -14.685 26.87 -0 -1.2 0
0.372 -15.149 26.629 -0 -1.2 0
0.377 -15.61 26.379 -0 -1.2 0
0.383 -16.066 26.122 -0 -1.2 0
0.389 -16.517 25.857 -0 -1.2 0
0.394 -16.964 25.584 -0 -1.2 0
0.4 -17.406 25.303 -0 -1.2 0
0.404 -17.843 25.015 -0 -1.2 0
0.41 -18.275 24.719 -0 -1.2 0
0.414 -18.701 24.415 -0 -1.2 0
0.419 -19.122 24.105 -0 -1.2 0
0.424 -19.538 23.787 -0 -1.2 0
0.428 -19.948 23.461 -0 -1.2 0
0.432 -20.353 23.128 -0 -1.2 0
0.437 -20.751 22.789 -0 -1.2 0
0.441 -21.144 22.442 -0 -1.2 0
0.445 -21.53 22.089 -0 -1.2 0
0.449 -21.911 21.729 -0 -1.2 0
1.23 1.063 30.039 -0 -1.2 0
1.239 0.54 30.072 -0 -1.2 0
1.237 0.007 29.826 -0 -1.2 0
1.246 -0.51 29.86 -0 -1.2 0
1.253 -1.029 29.866 -0 -1.2 0
1.261 -1.547 29.872 -0 -1.2 0
1.27 -2.068 29.889 -0 -1.2 0
1.279 -2.59 29.917 -0 -1.2 0
1.277 -3.096 29.688 -0 -1.2 0
1.298 -3.642 30.006 -0 -1.2 0
1.304 -4.164 29.956 -0 -1.2 0
1.309 -4.684 29.898 -0 -1.2 0
1.314 -5.204 29.831 -0 -1.2 0
1.318 -5.721 29.755 -0 -1.2 0
1.322 -6.238 29.669 -0 -1.2 0
1.326 -6.753 29.575 -0 -1.2 0
1.33 -7.266 29.472 -0 -1.2 0
1.333 -7.777 29.36 -0 -1.2 0
1.334 -8.287 29.239 -0 -1.2 0
1.337 -8.794 29.109 -0 -1.2 0
1.339 -9.299 28.969 -0 -1.2 0
1.339 -9.801 28.822 -0 -1.2 0
1.341 -10.301 28.666 -0 -1.2 0
1.342 -10.798 28.5 -0 -1.2 0
1.341 -11.292 28.327 -0 -1.2 0
1.341 -11.783 28.144 -0 -1.2 0
1.34 -12.27 27.954 -0 -1.2 0
1.339 -12.755 27.754 -0 -1.2 0
1.337 -13.235 27.546 -0 -1.2 0
1.336 -13.712 27.33 -0 -1.2 0
1.334 -14.185 27.106 -0 -1.2 0
1.331 -14.654 26.873 -0 -1.2 0
1.328 -15.119 26.633 -0 -1.2 0
1.324 -15.58 26.384 -0 -1.2 0
1.32 -16.036 26.127 -0 -1.2 0
1.315 -16.488 25.863 -0 -1.2 0
1.311 -16.935 25.59 -0 -1.2 0
1.305 -17.377 25.31 -0 -1.2 0
1.3 -17.814 25.022 -0 -1.2 0
1.294 -18.246 24.726 -0 -1.2 0
1.289 -18.673 24.424 -0 -1.2 0
1.282 -19.095 24.113 -0 -1.2 0
1.274 -19.511 23.796 -0 -1.2 0
1.267 -19.922 23.471 -0 -1.2 0
1.259 -20.326 23.138 -0 -1.2 0
1.251 -20.725 22.8 -0 -1.2 0
1.242 -21.118 22.453 -0 -1.2 0
1.233 -21.505 22.101 -0 -1.2 0
1.224 -21.886 21.741 -0 -1.2 0
2.238 1.093 29.996 -0 -1.2 0
2.248 0.57 30.03 -0 -1.2 0
2.257 0.047 30.053 -0 -1.2 0
2.266 -0.475 30.068 -0 -1.2 0
2.274 -0.997 30.074 -0 -1.2 0
2.281 -1.521 30.071 -0 -1.2 0
2.287 -2.045 30.058 -0 -1.2 0
2.293 -2.567 30.037 -0 -1.2 0
2.264 -3.06 29.548 -0 -1.2 0
2.303 -3.612 29.966 -0 -1.2 0
2.307 -4.134 29.918 -0 -1.2 0
2.31 -4.654 29.86 -0 -1.2 0
2.312 -5.174 29.792 -0 -1.2 0
2.314 -5.691 29.717 -0 -1.2 0
2.315 -6.208 29.632 -0 -1.2 0
2.315 -6.723 29.538 -0 -1.2 0
2.315 -7.236 29.435 -0 -1.2 0
2.314 -7.748 29.323 -0 -1.2 0
2.313 -8.257 29.202 -0 -1.2 0
2.309 -8.765 29.073 -0 -1.2 0
2.306 -9.27 28.934 -0 -1.2 0
2.303 -9.772 28.787 -0 -1.2 0
2.298 -10.273 28.632 -0 -1.2 0
2.293 -10.769 28.467 -0 -1.2 0
2.287 -11.264 28.295 -0 -1.2 0
2.281 -11.755 28.112 -0 -1.2 0
2.273 -12.242 27.922 -0 -1.2 0
2.265 -12.727 27.724 -0 -1.2 0
2.256 -13.207 27.517 -0 -1.2 0
2.246 -13.685 27.302 -0 -1.2 0
2.236 -14.158 27.078 -0 -1.2 0
2.225 -14.627 26.846 -0 -1.2 0
2.214 -15.093 26.605 -0 -1.2 0
2.202 -15.554 26.358 -0 -1.2 0
2.19 -16.01 26.102 -0 -1.2 0
2.176 -16.462 25.838 -0 -1.2 0
2.162 -16.91 25.566 -0 -1.2 0
2.147 -17.351 25.287 -0 -1.2 0
2.132 -17.79 25 -0 -1.2 0
2.116 -18.222 24.705 -0 -1.2 0
2.099 -18.649 24.403 -0 -1.2 0
2.082 -19.071 24.093 -0 -1.2 0
2.064 -19.487 23.776 -0 -1.2 0
2.046 -19.898 23.452 -0 -1.2 0
2.027 -20.303 23.121 -0 -1.2 0
2.006 -20.702 22.783 -0 -1.2 0
1.986 -21.096 22.438 -0 -1.2 0
1.965 -21.483 22.087 -0 -1.2 0
1.944 -21.865 21.728 -0 -1.2 0
3.243 1.123 29.918 -0 -1.2 0
3.255 0.6 29.952 -0 -1.2 0
3.264 0.077 29.976 -0 -1.2 0
3.274 -0.445 29.991 -0 -1.2 0
3.281 -0.968 29.998 -0 -1.2 0
3.288 -1.491 29.994 -0 -1.2 0
3.294 -2.015 29.982 -0 -1.2 0
3.299 -2.538 29.962 -0 -1.2 0
3.303 -3.06 29.931 -0 -1.2 0
3.305 -3.582 29.892 -0 -1.2 0
3.308 -4.104 29.843 -0 -1.2 0
3.309 -4.625 29.786 -0 -1.2 0
3.309 -5.144 29.72 -0 -1.2 0
3.308 -5.662 29.644 -0 -1.2 0
3.305 -6.179 29.56 -0 -1.2 0
3.302 -6.694 29.466 -0 -1.2 0
3.298 -7.207 29.364 -0 -1.2 0
3.293 -7.719 29.253 -0 -1.2 0
3.288 -8.229 29.133 -0 -1.2 0
3.28 -8.736 29.005 -0 -1.2 0
3.272 -9.242 28.867 -0 -1.2 0
3.263 -9.744 28.72 -0 -1.2 0
3.253 -10.244 28.565 -0 -1.2 0
3.242 -10.741 28.401 -0 -1.2 0
3.23 -11.236 28.229 -0 -1.2 0
3.216 -11.727 28.048 -0 -1.2 0
3.203 -12.214 27.859 -0 -1.2 0
3.188 -12.699 27.661 -0 -1.2 0
3.172 -13.18 27.455 -0 -1.2 0
3.155 -13.658 27.241 -0 -1.2 0
3.138 -14.131 27.018 -0 -1.2 0
3.119 -14.601 26.787 -0 -1.2 0
3.099 -15.066 26.548 -0 -1.2 0
3.078 -15.528 26.302 -0 -1.2 0
3.057 -15.984 26.046 -0 -1.2 0
3.034 -16.436 25.783 -0 -1.2 0
3.011 -16.884 25.513 -0 -1.2 0
2.987 -17.327 25.234 -0 -1.2 0
2.961 -17.765 24.948 -0 -1.2 0
2.936 -18.197 24.655 -0 -1.2 0
2.909 -18.625 24.354 -0 -1.2 0
2.88 -19.047 24.045 -0 -1.2 0
2.852 -19.464 23.73 -0 -1.2 0
2.822 -19.875 23.407 -0 -1.2 0
2.792 -20.28 23.077 -0 -1.2 0
2.761 -20.68 22.74 -0 -1.2 0
2.728 -21.074 22.397 -0 -1.2 0
2.696 -21.461 22.046 -0 -1.2 0
2.662 -21.843 21.689 -0 -1.2 0
4.353 0.632 29.829 -0 -1.2 0
4.364 0.11 29.854 -0 -1.2 0
4.373 -0.412 29.869 -0 -1.2 0
4.381 -0.935 29.876 -0 -1.2 0
4.387 -1.458 29.873 -0 -1.2 0
4.392 -1.982 29.861 -0 -1.2 0
4.396 -2.505 29.84 -0 -1.2 0
4.398 -3.028 29.81 -0 -1.2 0
4.399 -3.55 29.771 -0 -1.2 0
4.4 -4.072 29.724 -0 -1.2 0
4.398 -4.592 29.667 -0 -1.2 0
4.395 -5.112 29.602 -0 -1.2 0
4.391 -5.629 29.527 -0 -1.2 0
4.386 -6.146 29.444 -0 -1.2 0
4.379 -6.662 29.35 -0 -1.2 0
4.371 -7.175 29.249 -0 -1.2 0
4.361 -7.687 29.139 -0 -1.2 0
4.351 -8.197 29.019 -0 -1.2 0
4.339 -8.705 28.892 -0 -1.2 0
4.325 -9.21 28.756 -0 -1.2 0
4.311 -9.712 28.61 -0 -1.2 0
4.295 -10.213 28.456 -0 -1.2 0
4.277 -10.71 28.293 -0 -1.2 0
4.259 -11.205 28.122 -0 -1.2 0
4.239 -11.696 27.943 -0 -1.2 0
4.218 -12.184 27.754 -0 -1.2 0
4.195 -12.669 27.558 -0 -1.2 0
4.171 -13.15 27.353 -0 -1.2 0
4.147 -13.628 27.14 -0 -1.2 0
4.12 -14.101 26.918 -0 -1.2 0
4.093 -14.572 26.689 -0 -1.2 0
4.065 -15.037 26.452 -0 -1.2 0
4.034 -15.499 26.205 -0 -1.2 0
4.004 -15.956 25.952 -0 -1.2 0
3.971 -16.408 25.692 -0 -1.2 0
3.937 -16.856 25.422 -0 -1.2 0
3.903 -17.299 25.145 -0 -1.2 0
3.867 -17.738 24.86 -0 -1.2 0
3.83 -18.17 24.569 -0 -1.2 0
3.791 -18.598 24.27 -0 -1.2 0
3.752 -19.021 23.963 -0 -1.2 0
3.712 -19.438 23.649 -0 -1.2 0
3.67 -19.849 23.328 -0 -1.2 0
3.627 -20.255 23 -0 -1.2 0
3.583 -20.655 22.665 -0 -1.2 0
3.538 -21.049 22.323 -0 -1.2 0
3.492 -21.437 21.974 -0 -1.2 0
3.445 -21.819 21.619 -0 -1.2 0
5.398 0.662 29.673 -0 -1.2 0
5.41 0.139 29.697 -0 -1.2 0
5.418 -0.382 29.713 -0 -1.2 0
5.427 -0.905 29.719 -0 -1.2 0
5.433 -1.428 29.717 -0 -1.2 0
5.437 -1.953 29.706 -0 -1.2 0
5.441 -2.475 29.686 -0 -1.2 0
5.441 -2.998 29.656 -0 -1.2 0
5.441 -3.52 29.618 -0 -1.2 0
5.439 -4.042 29.57 -0 -1.2 0
5.435 -4.563 29.515 -0 -1.2 0
5.429 -5.083 29.45 -0 -1.2 0
5.422 -5.6 29.376 -0 -1.2 0
5.415 -6.117 29.293 -0 -1.2 0
5.404 -6.633 29.201 -0 -1.2 0
5.392 -7.146 29.101 -0 -1.2 0
5.379 -7.658 28.991 -0 -1.2 0
5.363 -8.168 28.873 -0 -1.2 0
5.346 -8.676 28.747 -0 -1.2 0
5.328 -9.182 28.611 -0 -1.2 0
5.307 -9.684 28.467 -0 -1.2 0
5.286 -10.185 28.314 -0 -1.2 0
5.263 -10.682 28.153 -0 -1.2 0
5.238 -11.177 27.983 -0 -1.2 0
5.212 -11.669 27.804 -0 -1.2 0
5.183 -12.156 27.618 -0 -1.2 0
5.154 -12.642 27.422 -0 -1.2 0
5.123 -13.123 27.22 -0 -1.2 0
5.09 -13.601 27.008 -0 -1.2 0
5.056 -14.075 26.788 -0 -1.2 0
5.021 -14.545 26.56 -0 -1.2 0
4.983 -15.011 26.325 -0 -1.2 0
4.944 -15.473 26.081 -0 -1.2 0
4.904 -15.93 25.828 -0 -1.2 0
4.863 -16.383 25.569 -0 -1.2 0
4.819 -16.831 25.302 -0 -1.2 0
4.774 -17.274 25.027 -0 -1.2 0
4.728 -17.713 24.745 -0 -1.2 0
4.681 -18.146 24.454 -0 -1.2 0
4.631 -18.575 24.158 -0 -1.2 0
4.581 -18.997 23.853 -0 -1.2 0
4.53 -19.415 23.541 -0 -1.2 0
4.477 -19.827 23.222 -0 -1.2 0
4.422 -20.233 22.896 -0 -1.2 0
4.366 -20.633 22.564 -0 -1.2 0
4.309 -21.027 22.224 -0 -1.2 0
4.25 -21.416 21.878 -0 -1.2 0
4.191 -21.798 21.524 -0 -1.2 0
6.516 0.693 29.463 -0 -1.2 0
6.466 -7.628 28.793 -0 -1.2 0
6.446 -8.138 28.677 -0 -1.2 0
6.424 -8.646 28.551 -0 -1.2 0
6.401 -9.152 28.417 -0 -1.2 0
6.375 -9.655 28.274 -0 -1.2 0
6.347 -10.156 28.123 -0 -1.2 0
6.317 -10.653 27.963 -0 -1.2 0
6.285 -11.148 27.795 -0 -1.2 0
6.253 -11.64 27.618 -0 -1.2 0
6.217 -12.128 27.433 -0 -1.2 0
6.18 -12.614 27.24 -0 -1.2 0
6.141 -13.095 27.039 -0 -1.2 0
6.1 -13.573 26.829 -0 -1.2 0
6.056 -14.047 26.612 -0 -1.2 0
6.012 -14.518 26.385 -0 -1.2 0
5.966 -14.984 26.152 -0 -1.2 0
5.918 -15.446 25.91 -0 -1.2 0
5.867 -15.904 25.661 -0 -1.2 0
5.816 -16.356 25.403 -0 -1.2 0
5.763 -16.805 25.139 -0 -1.2 0
5.707 -17.248 24.866 -0 -1.2 0
5.649 -17.687 24.586 -0 -1.2 0
5.591 -18.121 24.299 -0 -1.2 0
5.531 -18.55 24.005 -0 -1.2 0
5.468 -18.972 23.702 -0 -1.2 0
5.404 -19.39 23.394 -0 -1.2 0
5.34 -19.803 23.077 -0 -1.2 0
5.272 -20.209 22.754 -0 -1.2 0
5.204 -20.609 22.424 -0 -1.2 0
5.133 -21.004 22.087 -0 -1.2 0
5.061 -21.393 21.744 -0 -1.2 0
4.989 -21.776 21.394 -0 -1.2 0
7.211 -11.613 27.411 -0 -1.2 0
7.169 -12.101 27.228 -0 -1.2 0
7.124 -12.588 27.037 -0 -1.2 0
7.078 -13.069 26.837 -0 -1.2 0
7.03 -13.548 26.63 -0 -1.2 0
6.979 -14.022 26.414 -0 -1.2 0
6.926 -14.493 26.191 -0 -1.2 0
6.871 -14.959 25.96 -0 -1.2 0
6.814 -15.422 25.72 -0 -1.2 0
6.755 -15.879 25.473 -0 -1.2 0
6.694 -16.332 25.218 -0 -1.2 0
6.631 -16.781 24.956 -0 -1.2 0
6.566 -17.225 24.686 -0 -1.2 0
6.499 -17.664 24.409 -0 -1.2 0
6.429 -18.098 24.124 -0 -1.2 0
6.359 -18.527 23.832 -0 -1.2 0
6.285 -18.95 23.533 -0 -1.2 0
6.21 -19.368 23.227 -0 -1.2 0
6.134 -19.781 22.913 -0 -1.2 0
6.055 -20.187 22.593 -0 -1.2 0
5.975 -20.588 22.266 -0 -1.2 0
5.893 -20.983 21.933 -0 -1.2 0
5.808 -21.372 21.593 -0 -1.2 0
5.723 -21.756 21.246 -0 -1.2 0
8.57 0.691 28.963 -0 -1.2 0
8.211 -11.15 27.318 -0 -1.2 0
8.165 -11.642 27.144 -0 -1.2 0
8.116 -12.13 26.962 -0 -1.2 0
8.064 -12.616 26.773 -0 -1.2 0
8.011 -13.097 26.574 -0 -1.2 0
7.955 -13.575 26.368 -0 -1.2 0
7.896 -14.049 26.153 -0 -1.2 0
7.835 -14.52 25.932 -0 -1.2 0
7.772 -14.986 25.702 -0 -1.2 0
7.706 -15.448 25.465 -0 -1.2 0
7.639 -15.906 25.22 -0 -1.2 0
7.568 -16.358 24.966 -0 -1.2 0
7.496 -16.807 24.706 -0 -1.2 0
7.421 -17.25 24.438 -0 -1.2 0
7.344 -17.689 24.163 -0 -1.2 0
7.264 -18.123 23.881 -0 -1.2 0
7.183 -18.551 23.591 -0 -1.2 0
7.099 -18.974 23.295 -0 -1.2 0
7.013 -19.392 22.991 -0 -1.2 0
6.925 -19.804 22.68 -0 -1.2 0
6.835 -20.21 22.362 -0 -1.2 0
6.743 -20.611 22.038 -0 -1.2 0
6.649 -21.006 21.707 -0 -1.2 0
6.552 -21.394 21.369 -0 -1.2 0
6.455 -21.777 21.026 -0 -1.2 0
9.66 0.674 28.635 -0 -1.2 0
9.231 -11.166 27 -0 -1.2 0
9.178 -11.658 26.828 -0 -1.2 0
9.121 -12.145 26.647 -0 -1.2 0
9.062 -12.631 26.459 -0 -1.2 0
9.002 -13.112 26.263 -0 -1.2 0
8.938 -13.591 26.058 -0 -1.2 0
8.87 -14.064 25.847 -0 -1.2 0
8.801 -14.535 25.627 -0 -1.2 0
8.729 -15.001 25.4 -0 -1.2 0
8.653 -15.463 25.165 -0 -1.2 0
8.576 -15.92 24.923 -0 -1.2 0
8.496 -16.373 24.672 -0 -1.2 0
8.413 -16.822 24.414 -0 -1.2 0
8.328 -17.264 24.15 -0 -1.2 0
8.24 -17.703 23.878 -0 -1.2 0
8.15 -18.137 23.598 -0 -1.2 0
8.058 -18.565 23.312 -0 -1.2 0
7.962 -18.988 23.018 -0 -1.2 0
7.864 -19.406 22.718 -0 -1.2 0
7.765 -19.817 22.41 -0 -1.2 0
7.663 -20.224 22.096 -0 -1.2 0
7.558 -20.624 21.775 -0 -1.2 0
7.45 -21.018 21.448 -0 -1.2 0
7.341 -21.407 21.114 -0 -1.2 0
7.231 -21.79 20.774 -0 -1.2 0
10.16 -11.159 26.682 -0 -1.2 0
10.101 -11.65 26.512 -0 -1.2 0
10.038 -12.138 26.334 -0 -1.2 0
9.972 -12.624 26.148 -0 -1.2 0
9.904 -13.105 25.955 -0 -1.2 0
9.832 -13.584 25.754 -0 -1.2 0
9.758 -14.057 25.544 -0 -1.2 0
9.68 -14.528 25.327 -0 -1.2 0
9.599 -14.994 25.103 -0 -1.2 0
9.516 -15.456 24.871 -0 -1.2 0
9.43 -15.914 24.632 -0 -1.2 0
9.341 -16.366 24.384 -0 -1.2 0
9.248 -16.815 24.13 -0 -1.2 0
9.154 -17.258 23.869 -0 -1.2 0
9.056 -17.697 23.6 -0 -1.2 0
8.956 -18.13 23.324 -0 -1.2 0
8.853 -18.559 23.041 -0 -1.2 0
8.748 -18.981 22.752 -0 -1.2 0
8.639 -19.399 22.454 -0 -1.2 0
8.528 -19.811 22.151 -0 -1.2 0
8.415 -20.218 21.841 -0 -1.2 0
8.299 -20.618 21.524 -0 -1.2 0
8.18 -21.013 21.202 -0 -1.2 0
8.059 -21.401 20.872 -0 -1.2 0
7.935 -21.784 20.536 -0 -1.2 0
11.139 -10.657 26.491 -0 -1.2 0
11.077 -11.152 26.332 -0 -1.2 0
10.869 -12.618 25.806 -0 -1.2 0
10.715 -13.577 25.416 -0 -1.2 0
10.633 -14.051 25.21 -0 -1.2 0
10.548 -14.522 24.997 -0 -1.2 0
10.459 -14.988 24.775 -0 -1.2 0
10.367 -15.45 24.547 -0 -1.2 0
10.272 -15.907 24.31 -0 -1.2 0
10.174 -16.36 24.067 -0 -1.2 0
10.073 -16.809 23.817 -0 -1.2 0
9.968 -17.252 23.559 -0 -1.2 0
9.862 -17.691 23.293 -0 -1.2 0
9.752 -18.124 23.021 -0 -1.2 0
9.638 -18.553 22.743 -0 -1.2 0
9.522 -18.976 22.457 -0 -1.2 0
9.403 -19.394 22.165 -0 -1.2 0
9.281 -19.806 21.865 -0 -1.2 0
9.157 -20.212 21.56 -0 -1.2 0
9.03 -20.613 21.247 -0 -1.2 0
8.899 -21.007 20.929 -0 -1.2 0
8.767 -21.396 20.604 -0 -1.2 0
8.631 -21.779 20.273 -0 -1.2 0
11.407 -14.516 24.633 -0 -1.2 0
11.31 -14.982 24.414 -0 -1.2 0
11.21 -15.444 24.19 -0 -1.2 0
11.107 -15.902 23.957 -0 -1.2 0
11.001 -16.354 23.717 -0 -1.2 0
10.89 -16.803 23.471 -0 -1.2 0
10.776 -17.246 23.217 -0 -1.2 0
10.66 -17.686 22.956 -0 -1.2 0
10.54 -18.119 22.689 -0 -1.2 0
10.417 -18.548 22.414 -0 -1.2 0
10.29 -18.971 22.133 -0 -1.2 0
10.161 -19.389 21.846 -0 -1.2 0
10.028 -19.801 21.551 -0 -1.2 0
9.893 -20.207 21.25 -0 -1.2 0
9.754 -20.608 20.942 -0 -1.2 0
9.612 -21.003 20.63 -0 -1.2 0
9.468 -21.391 20.31 -0 -1.2 0
9.32 -21.775 19.984 -0 -1.2 0
12.213 -14.976 23.993 -0 -1.2 0
12.104 -15.438 23.772 -0 -1.2 0
11.992 -15.896 23.545 -0 -1.2 0
11.876 -16.348 23.309 -0 -1.2 0
11.756 -16.797 23.067 -0 -1.2 0
11.632 -17.24 22.818 -0 -1.2 0
11.505 -17.68 22.562 -0 -1.2 0
11.375 -18.113 22.299 -0 -1.2 0
11.241 -18.542 22.03 -0 -1.2 0
11.104 -18.965 21.754 -0 -1.2 0
10.964 -19.383 21.472 -0 -1.2 0
10.82 -19.795 21.183 -0 -1.2 0
10.672 -20.202 20.888 -0 -1.2 0
10.522 -20.602 20.586 -0 -1.2 0
10.368 -20.997 20.279 -0 -1.2 0
10.211 -21.386 19.965 -0 -1.2 0
10.052 -21.769 19.645 -0 -1.2 0
12.919 -15.434 23.355 -0 -1.2 0
12.412 -17.236 22.418 -0 -1.2 0
12.277 -17.676 22.167 -0 -1.2 0
12.136 -18.109 21.91 -0 -1.2 0
11.994 -18.538 21.646 -0 -1.2 0
11.846 -18.961 21.375 -0 -1.2 0
11.696 -19.379 21.099 -0 -1.2 0
11.541 -19.791 20.815 -0 -1.2 0
11.383 -20.198 20.526 -0 -1.2 0
11.222 -20.599 20.229 -0 -1.2 0
11.058 -20.993 19.927 -0 -1.2 0
10.889 -21.383 19.62 -0 -1.2 0
10.718 -21.766 19.307 -0 -1.2 0
13.235 -17.233 21.959 -0 -1.2 0
13.09 -17.672 21.713 -0 -1.2 0
12.628 -18.957 20.938 -0 -1.2 0
12.466 -19.376 20.668 -0 -1.2 0
12.301 -19.788 20.391 -0 -1.2 0
12.132 -20.195 20.107 -0 -1.2 0
11.96 -20.595 19.818 -0 -1.2 0
11.784 -20.99 19.523 -0 -1.2 0
11.604 -21.379 19.222 -0 -1.2 0
11.421 -21.763 18.916 -0 -1.2 0
14.93 -14.034 23.003 -0 -1.2 0
14.677 -14.971 22.61 -0 -1.2 0
14.265 -16.344 21.968 -0 -1.2 0
13.968 -17.236 21.508 -0 -1.2 0
13.655 -18.109 21.021 -0 -1.2 0
13.154 -19.379 20.245 -0 -1.2 0
12.978 -19.791 19.973 -0 -1.2 0
12.799 -20.198 19.697 -0 -1.2 0
12.616 -20.598 19.414 -0 -1.2 0
12.43 -20.993 19.125 -0 -1.2 0
12.239 -21.382 18.831 -0 -1.2 0
12.045 -21.765 18.531 -0 -1.2 0
15.694 -14.048 22.49 -0 -1.2 0
15.426 -14.985 22.105 -0 -1.2 0
13.817 -19.391 19.794 -0 -1.2 0
13.444 -20.21 19.259 -0 -1.2 0
13.25 -20.61 18.983 -0 -1.2 0
13.053 -21.005 18.701 -0 -1.2 0
12.852 -21.394 18.413 -0 -1.2 0
12.648 -21.777 18.12 -0 -1.2 0
17.829 -7.647 23.688 -0 -1.2 0
13.916 -20.624 18.495 -0 -1.2 0
13.708 -21.019 18.22 -0 -1.2 0
13.496 -21.407 17.94 -0 -1.2 0
13.28 -21.79 17.656 -0 -1.2 0
16.088 -17.279 19.961 -0 -1.2 0
14.294 -21.032 17.757 -0 -1.2 0
14.072 -21.42 17.484 -0 -1.2 0
13.846 -21.803 17.207 -0 -1.2 0
18.319 -12.664 21.258 -0 -1.2 0
17.896 -14.096 20.772 -0 -1.2 0
16.722 -17.294 19.426 -0 -1.2 0
16.534 -17.733 19.211 -0 -1.2 0
15.731 -19.433 18.291 -0 -1.2 0
15.301 -20.25 17.797 -0 -1.2 0
15.079 -20.65 17.542 -0 -1.2 0
14.852 -21.044 17.283 -0 -1.2 0
14.62 -21.433 17.018 -0 -1.2 0
14.385 -21.815 16.748 -0 -1.2 0
20.217 -7.189 21.839 -0 -1.2 0
20.141 -7.701 21.758 -0 -1.2 0
16.568 -19.032 17.956 -0 -1.2 0
15.671 -20.666 17.003 -0 -1.2 0
15.435 -21.06 16.751 -0 -1.2 0
15.194 -21.447 16.495 -0 -1.2 0
14.948 -21.83 16.233 -0 -1.2 0
21.368 -0.968 21.607 -0 -1.2 0
20.989 -1.999 21.23 -0 -1.2 0
21.017 -2.516 21.258 -0 -1.2 0
21.003 -3.032 21.244 -0 -1.2 0
21.004 -3.549 21.246 -0 -1.2 0
21.015 -4.591 21.257 -0 -1.2 0
21.028 -5.642 21.27 -0 -1.2 0
21.01 -6.167 21.253 -0 -1.2 0
20.92 -7.208 21.164 -0 -1.2 0
20.841 -7.72 21.086 -0 -1.2 0
17.134 -19.048 17.406 -0 -1.2 0
16.678 -19.876 16.954 -0 -1.2 0
16.443 -20.281 16.721 -0 -1.2 0
16.202 -20.68 16.483 -0 -1.2 0
15.957 -21.074 16.24 -0 -1.2 0
15.708 -21.462 15.992 -0 -1.2 0
15.453 -21.844 15.738 -0 -1.2 0
22.059 -0.461 20.891 -0 -1.2 0
22.064 -0.984 20.896 -0 -1.2 0
22.062 -1.507 20.895 -0 -1.2 0
22.038 -2.554 20.873 -0 -1.2 0
22.016 -3.077 20.853 -0 -1.2 0
21.987 -3.599 20.827 -0 -1.2 0
21.908 -4.641 20.755 -0 -1.2 0
21.86 -5.161 20.71 -0 -1.2 0
21.742 -6.195 20.602 -0 -1.2 0
21.123 -9.76 20.031 -0 -1.2 0
17.905 -18.638 17.051 -0 -1.2 0
17.207 -19.888 16.404 -0 -1.2 0
16.965 -20.293 16.179 -0 -1.2 0
16.716 -20.692 15.948 -0 -1.2 0
16.463 -21.086 15.713 -0 -1.2 0
16.204 -21.473 15.473 -0 -1.2 0
15.941 -21.855 15.23 -0 -1.2 0
22.778 -0.461 20.108 -0 -1.2 0
22.782 -0.984 20.112 -0 -1.2 0
22.78 -1.507 20.111 -0 -1.2 0
22.754 -2.554 20.091 -0 -1.2 0
22.731 -3.077 20.072 -0 -1.2 0
22.702 -3.599 20.046 -0 -1.2 0
22.665 -4.121 20.015 -0 -1.2 0
22.622 -4.641 19.978 -0 -1.2 0
22.514 -5.678 19.886 -0 -1.2 0
22.449 -6.195 19.831 -0 -1.2 0
22.378 -6.71 19.77 -0 -1.2 0
19.774 -15.999 17.532 -0 -1.2 0
18.715 -18.211 16.62 -0 -1.2 0
18.486 -18.638 16.422 -0 -1.2 0
18.25 -19.06 16.22 -0 -1.2 0
18.01 -19.477 16.013 -0 -1.2 0
17.765 -19.888 15.8 -0 -1.2 0
17.513 -20.293 15.584 -0 -1.2 0
17.257 -20.692 15.363 -0 -1.2 0
16.996 -21.086 15.138 -0 -1.2 0
16.729 -21.473 14.908 -0 -1.2 0
16.457 -21.855 14.673 -0 -1.2 0
23.436 -0.439 19.336 -0 -1.2 0
23.441 -0.962 19.341 -0 -1.2 0
23.439 -1.485 19.341 -0 -1.2 0
23.412 -2.532 19.322 -0 -1.2 0
23.388 -3.055 19.305 -0 -1.2 0
23.357 -3.577 19.281 -0 -1.2 0
23.32 -4.099 19.252 -0 -1.2 0
23.275 -4.619 19.217 -0 -1.2 0
23.222 -5.139 19.177 -0 -1.2 0
23.163 -5.657 19.13 -0 -1.2 0
22.944 -7.202 18.957 -0 -1.2 0
22.857 -7.714 18.889 -0 -1.2 0
19.254 -18.193 16.012 -0 -1.2 0
19.018 -18.621 15.823 -0 -1.2 0
18.777 -19.043 15.629 -0 -1.2 0
18.529 -19.46 15.432 -0 -1.2 0
18.276 -19.871 15.229 -0 -1.2 0
18.018 -20.276 15.021 -0 -1.2 0
17.754 -20.676 14.809 -0 -1.2 0
17.484 -21.069 14.593 -0 -1.2 0
17.211 -21.457 14.373 -0 -1.2 0
16.931 -21.839 14.148 -0 -1.2 0
23.786 -5.637 18.354 -0 -1.2 0
23.472 -7.694 18.126 -0 -1.2 0
23.375 -8.204 18.055 -0 -1.2 0
19.771 -18.176 15.387 -0 -1.2 0
19.529 -18.604 15.207 -0 -1.2 0
19.281 -19.026 15.022 -0 -1.2 0
19.027 -19.444 14.833 -0 -1.2 0
18.767 -19.855 14.64 -0 -1.2 0
18.502 -20.261 14.441 -0 -1.2 0
18.231 -20.66 14.24 -0 -1.2 0
17.955 -21.054 14.034 -0 -1.2 0
17.672 -21.442 13.824 -0 -1.2 0
17.385 -21.824 13.608 -0 -1.2 0
24.707 -0.922 17.69 -0 -1.2 0
24.705 -1.445 17.691 -0 -1.2 0
24.677 -2.492 17.677 -0 -1.2 0
24.652 -3.015 17.663 -0 -1.2 0
24.619 -3.537 17.643 -0 -1.2 0
24.579 -4.059 17.618 -0 -1.2 0
23.991 -8.184 17.231 -0 -1.2 0
23.095 -11.684 16.626 -0 -1.2 0
22.939 -12.172 16.52 -0 -1.2 0
20.293 -18.16 14.71 -0 -1.2 0
20.044 -18.588 14.539 -0 -1.2 0
19.789 -19.01 14.364 -0 -1.2 0
19.529 -19.428 14.184 -0 -1.2 0
19.262 -19.839 14 -0 -1.2 0
18.989 -20.245 13.813 -0 -1.2 0
18.428 -21.039 13.426 -0 -1.2 0
18.138 -21.427 13.227 -0 -1.2 0
17.843 -21.81 13.023 -0 -1.2 0
25.264 -0.905 16.88 -0 -1.2 0
25.262 -1.428 16.881 -0 -1.2 0
25.251 -1.952 16.879 -0 -1.2 0
25.207 -2.998 16.857 -0 -1.2 0
25.174 -3.52 16.839 -0 -1.2 0
25.133 -4.042 16.817 -0 -1.2 0
25.084 -4.562 16.788 -0 -1.2 0
25.028 -5.082 16.755 -0 -1.2 0
24.728 -7.146 16.575 -0 -1.2 0
24.634 -7.658 16.518 -0 -1.2 0
22.55 -14.545 15.213 -0 -1.2 0
20.75 -18.146 14.07 -0 -1.2 0
20.496 -18.574 13.909 -0 -1.2 0
19.134 -20.632 13.039 -0 -1.2 0
18.843 -21.026 12.853 -0 -1.2 0
18.547 -21.415 12.664 -0 -1.2 0
18.246 -21.797 12.471 -0 -1.2 0
25.793 -0.889 16.051 -0 -1.2 0
25.735 -2.982 16.034 -0 -1.2 0
25.701 -3.504 16.018 -0 -1.2 0
24.415 -10.667 15.302 -0 -1.2 0
21.685 -17.261 13.71 -0 -1.2 0
20.66 -18.984 13.107 -0 -1.2 0
19.239 -21.015 12.267 -0 -1.2 0
18.936 -21.403 12.089 -0 -1.2 0
26.294 -0.876 15.205 -0 -1.2 0
26.292 -1.399 15.209 -0 -1.2 0
26.281 -1.923 15.208 -0 -1.2 0
26.235 -2.968 15.193 -0 -1.2 0
26.2 -3.491 15.178 -0 -1.2 0
22.584 -15.751 13.276 -0 -1.2 0
21.855 -17.688 12.888 -0 -1.2 0
26.803 -0.863 14.274 -0 -1.2 0
26.8 -1.386 14.277 -0 -1.2 0
26.708 -3.478 14.253 -0 -1.2 0
24.858 -10.992 13.388 -0 -1.2 0
22.016 -18.111 12.011 -0 -1.2 0
19.359 -21.767 10.691 -0 -1.2 0
27.24 -0.868 13.4 -0 -1.2 0
27.238 -1.391 13.405 -0 -1.2 0
27.226 -1.916 13.405 -0 -1.2 0
27.208 -2.438 13.403 -0 -1.2 0
27.179 -2.961 13.396 -0 -1.2 0
27.143 -3.483 13.385 -0 -1.2 0
25.462 -11.634 12.69 -0 -1.2 0
25.29 -12.121 12.614 -0 -1.2 0
19.671 -21.77 10.082 -0 -1.2 0
27.678 -0.879 12.445 -0 -1.2 0
27.675 -1.402 12.45 -0 -1.2 0
27.664 -1.926 12.451 -0 -1.2 0
27.644 -2.449 12.45 -0 -1.2 0
27.616 -2.972 12.445 -0 -1.2 0
27.579 -3.494 12.436 -0 -1.2 0
25.868 -11.644 11.806 -0 -1.2 0
19.981 -21.778 9.412 -0 -1.2 0
28.05 -0.367 11.531 -0 -1.2 0
28.055 -0.89 11.54 -0 -1.2 0
28.051 -1.413 11.546 -0 -1.2 0
28.04 -1.938 11.548 -0 -1.2 0
28.019 -2.46 11.547 -0 -1.2 0
27.99 -2.983 11.544 -0 -1.2 0
27.953 -3.505 11.536 -0 -1.2 0
27.907 -4.027 11.526 -0 -1.2 0
27.854 -4.548 11.511 -0 -1.2 0
28.389 0.142 10.583 -0 -1.2 0
28.402 -0.38 10.596 -0 -1.2 0
28.408 -0.902 10.605 -0 -1.2 0
28.404 -1.426 10.612 -0 -1.2 0
28.393 -1.95 10.615 -0 -1.2 0
28.372 -2.472 10.615 -0 -1.2 0
28.342 -2.995 10.612 -0 -1.2 0
28.304 -3.517 10.606 -0 -1.2 0
28.258 -4.039 10.598 -0 -1.2 0
28.203 -4.56 10.586 -0 -1.2 0
20.497 -21.794 8.123 -0 -1.2 0
28.733 0.129 9.563 -0 -1.2 0
28.746 -0.393 9.576 -0 -1.2 0
28.752 -0.916 9.585 -0 -1.2 0
28.748 -1.439 9.592 -0 -1.2 0
28.736 -1.963 9.596 -0 -1.2 0
28.715 -2.486 9.598 -0 -1.2 0
28.684 -3.009 9.597 -0 -1.2 0
28.646 -3.531 9.593 -0 -1.2 0
28.599 -4.053 9.585 -0 -1.2 0
28.479 -5.093 9.564 -0 -1.2 0
20.741 -21.803 7.409 -0 -1.2 0
29.018 0.114 8.607 -0 -1.2 0
29.033 -0.407 8.618 -0 -1.2 0
29.037 -0.93 8.628 -0 -1.2 0
29.033 -1.453 8.635 -0 -1.2 0
29.021 -1.978 8.64 -0 -1.2 0
28.999 -2.5 8.643 -0 -1.2 0
28.969 -3.023 8.643 -0 -1.2 0
28.93 -3.545 8.64 -0 -1.2 0
28.883 -4.067 8.636 -0 -1.2 0
28.826 -4.588 8.629 -0 -1.2 0
28.76 -5.107 8.619 -0 -1.2 0
28.307 -8.715 7.54 -0 -1.2 0
25.353 -16.924 4.235 -0 -1.2 0
24.858 -17.971 -2.513 -0 -1.2 0
21.93 -21.644 -2.213 -0 -1.2 0
24.477 -18.396 -3.433 -0 -1.2 0
23.224 -20.064 -3.254 -0 -1.2 0
21.499 -22.018 -3.014 -0 -1.2 0
24.661 -17.958 -4.355 -0 -1.2 0
24.367 -18.388 -4.302 -0 -1.2 0
23.759 -19.233 -4.194 -0 -1.2 0
21.407 -22.011 -3.781 -0 -1.2 0
23.553 -18.779 -6.835 -0 -1.2 0
23.253 -19.199 -6.748 -0 -1.2 0
23.023 -19.183 -7.588 -0 -1.2 0
22.721 -19.599 -7.489 -0 -1.2 0
22.093 -20.412 -7.283 -0 -1.2 0
20.506 -21.962 -7.633 -0 -1.2 0
22.83 -17.652 -11.065 -0 -1.2 0
22.569 -18.086 -10.932 -0 -1.2 0
21.746 -19.357 -10.515 -0 -1.2 0
20.557 -20.973 -9.916 -0 -1.2 0
22.693 -17.282 -11.886 -0 -1.2 0
21.923 -18.581 -11.459 -0 -1.2 0
19.896 -21.421 -10.345 -0 -1.2 0
22.278 -17.357 -12.558 -0 -1.2 0
20.703 -19.903 -11.61 -0 -1.2 0
22.048 -16.99 -13.419 -0 -1.2 0
21.813 -17.432 -13.264 -0 -1.2 0
21.324 -18.3 -12.942 -0 -1.2 0
20.808 -19.147 -12.605 -0 -1.2 0
21.612 -17.066 -14.026 -0 -1.2 0
21.382 -17.507 -13.862 -0 -1.2 0
21.144 -17.943 -13.695 -0 -1.2 0
19.022 -21.233 -12.217 -0 -1.2 0
20.932 -17.492 -14.558 -0 -1.2 0
20.701 -17.927 -14.383 -0 -1.2 0
20.462 -18.358 -14.204 -0 -1.2 0
23.895 -5.324 -18.261 -0 -1.2 0
20.854 -16.592 -15.636 -0 -1.2 0
19.966 -18.346 -14.915 -0 -1.2 0
19.729 -18.771 -14.724 -0 -1.2 0
19.485 -19.192 -14.528 -0 -1.2 0
19.236 -19.606 -14.329 -0 -1.2 0
18.72 -20.419 -13.916 -0 -1.2 0
17.904 -21.593 -13.267 -0 -1.2 0
17.333 -22.346 -12.815 -0 -1.2 0
20.741 -15.67 -16.656 -0 -1.2 0
20.346 -16.576 -16.311 -0 -1.2 0
20.139 -17.022 -16.131 -0 -1.2 0
19.015 -19.177 -15.161 -0 -1.2 0
18.27 -20.405 -14.525 -0 -1.2 0
17.475 -21.58 -13.85 -0 -1.2 0
17.2 -21.96 -13.618 -0 -1.2 0
16.92 -22.333 -13.381 -0 -1.2 0
22.752 -4.243 -19.874 -0 -1.2 0
19.814 -16.556 -16.971 -0 -1.2 0
19.613 -17.002 -16.784 -0 -1.2 0
18.752 -18.737 -15.991 -0 -1.2 0
18.522 -19.158 -15.78 -0 -1.2 0
17.027 -21.563 -14.422 -0 -1.2 0
16.761 -21.943 -14.179 -0 -1.2 0
19.933 -14.708 -18.378 -0 -1.2 0
19.587 -15.633 -18.029 -0 -1.2 0
19.405 -16.089 -17.847 -0 -1.2 0
19.217 -16.54 -17.659 -0 -1.2 0
18.618 -17.865 -17.064 -0 -1.2 0
16.524 -21.549 -15.016 -0 -1.2 0
16.266 -21.929 -14.766 -0 -1.2 0
21.422 -0.547 -21.526 -0 -1.2 0
19.492 -14.222 -19.191 -0 -1.2 0
19.334 -14.69 -19.02 -0 -1.2 0
16.76 -20.357 -16.301 -0 -1.2 0
16.524 -20.755 -16.056 -0 -1.2 0
20.698 -0.523 -22.219 -0 -1.2 0
20.676 -3.659 -22.096 -0 -1.2 0
20.651 -4.18 -22.053 -0 -1.2 0
18.999 -13.726 -20 -0 -1.2 0
18.699 -14.668 -19.653 -0 -1.2 0
18.208 -16.05 -19.091 -0 -1.2 0
16.443 -19.934 -17.102 -0 -1.2 0
18.408 -13.282 -20.809 -0 -1.2 0
17.678 -15.625 -19.898 -0 -1.2 0
16.433 -18.714 -18.376 -0 -1.2 0
19.129 -3.216 -23.48 -0 -1.2 0
17.833 -12.841 -21.545 -0 -1.2 0
17.58 -13.797 -21.201 -0 -1.2 0
14.997 -19.198 -19.095 -0 -1.2 0
14.019 -21.214 -17.743 -0 -1.2 0
16.608 -11.449 -23.166 -0 -1.2 0
16.643 -1.755 -25.353 -0 -1.2 0
16.644 -2.278 -25.332 -0 -1.2 0
16.642 -2.802 -25.304 -0 -1.2 0
16.633 -3.323 -25.27 -0 -1.2 0
16.619 -3.845 -25.227 -0 -1.2 0
16.601 -4.366 -25.176 -0 -1.2 0
14.945 -15.298 -22.203 -0 -1.2 0
14.252 -17.546 -21.058 -0 -1.2 0
12.158 -22.403 -17.686 -0 -1.2 0
15.785 -1.792 -25.881 -0 -1.2 0
15.787 -2.314 -25.861 -0 -1.2 0
15.784 -2.838 -25.832 -0 -1.2 0
15.777 -3.36 -25.796 -0 -1.2 0
15.765 -3.881 -25.752 -0 -1.2 0
15.747 -4.402 -25.7 -0 -1.2 0
15.725 -4.922 -25.641 -0 -1.2 0
15.315 -9.529 -24.763 -0 -1.2 0
12.772 -19.698 -20.161 -0 -1.2 0
11.549 -22.428 -18.047 -0 -1.2 0
14.823 -0.783 -26.439 -0 -1.2 0
14.823 -3.919 -26.288 -0 -1.2 0
14.809 -4.439 -26.235 -0 -1.2 0
14.788 -4.96 -26.175 -0 -1.2 0
14.663 -7.025 -25.854 -0 -1.2 0
13.671 -13.962 -23.766 -0 -1.2 0
12.175 -19.315 -20.861 -0 -1.2 0
11.715 -20.537 -19.988 -0 -1.2 0
13.932 -0.819 -26.906 -0 -1.2 0
13.943 -1.342 -26.901 -0 -1.2 0
13.953 -2.387 -26.866 -0 -1.2 0
13.951 -2.911 -26.837 -0 -1.2 0
13.945 -3.432 -26.798 -0 -1.2 0
13.935 -3.954 -26.753 -0 -1.2 0
13.921 -4.474 -26.7 -0 -1.2 0
13.903 -4.995 -26.638 -0 -1.2 0
13.88 -5.513 -26.567 -0 -1.2 0
10.408 -22.109 -19.066 -0 -1.2 0
10.244 -22.48 -18.734 -0 -1.2 0
13.038 -1.365 -27.336 -0 -1.2 0
13.045 -1.888 -27.322 -0 -1.2 0
13.048 -2.411 -27.301 -0 -1.2 0
13.047 -2.934 -27.27 -0 -1.2 0
13.042 -3.456 -27.233 -0 -1.2 0
13.034 -3.977 -27.187 -0 -1.2 0
13.021 -4.498 -27.132 -0 -1.2 0
13.004 -5.018 -27.07 -0 -1.2 0
10.191 -20.977 -20.353 -0 -1.2 0
9.751 -22.126 -19.376 -0 -1.2 0
9.599 -22.496 -19.039 -0 -1.2 0
12.059 -2.421 -27.738 -0 -1.2 0
12.059 -2.945 -27.709 -0 -1.2 0
12.055 -3.467 -27.671 -0 -1.2 0
12.047 -3.988 -27.624 -0 -1.2 0
12.036 -4.508 -27.569 -0 -1.2 0
11.953 -6.579 -27.267 -0 -1.2 0
10.492 -17.227 -23.324 -0 -1.2 0
8.89 -22.504 -19.358 -0 -1.2 0
11.137 -1.383 -28.137 -0 -1.2 0
11.144 -1.905 -28.124 -0 -1.2 0
11.147 -2.428 -28.103 -0 -1.2 0
11.148 -2.952 -28.073 -0 -1.2 0
11.138 -3.995 -27.988 -0 -1.2 0
10.886 -9.135 -27.06 -0 -1.2 0
10.447 -13.079 -25.729 -0 -1.2 0
10.254 -1.909 -28.445 -0 -1.2 0
10.257 -2.432 -28.424 -0 -1.2 0
10.258 -2.955 -28.395 -0 -1.2 0
10.255 -3.477 -28.357 -0 -1.2 0
10.25 -3.998 -28.31 -0 -1.2 0
10.241 -4.519 -28.255 -0 -1.2 0
10.197 -6.074 -28.037 -0 -1.2 0
9.941 -10.143 -27.088 -0 -1.2 0
9.267 -0.867 -28.778 -0 -1.2 0
9.276 -1.39 -28.774 -0 -1.2 0
9.283 -1.913 -28.762 -0 -1.2 0
9.286 -2.435 -28.742 -0 -1.2 0
9.287 -2.959 -28.712 -0 -1.2 0
9.286 -3.481 -28.673 -0 -1.2 0
9.281 -4.002 -28.626 -0 -1.2 0
9.275 -4.522 -28.571 -0 -1.2 0
9.264 -5.043 -28.507 -0 -1.2 0
9.252 -5.561 -28.434 -0 -1.2 0
9.216 -6.593 -28.262 -0 -1.2 0
9.171 -7.619 -28.057 -0 -1.2 0
8.725 -13.085 -26.33 -0 -1.2 0
8.041 -17.679 -23.924 -0 -1.2 0
7.874 -18.541 -23.354 -0 -1.2 0
7.788 -18.964 -23.059 -0 -1.2 0
8.376 -2.437 -29.005 -0 -1.2 0
8.378 -2.961 -28.976 -0 -1.2 0
8.359 -5.045 -28.77 -0 -1.2 0
7.043 -18.966 -23.281 -0 -1.2 0
7.333 -8.13 -28.44 -0 -1.2 0
7.31 -8.638 -28.314 -0 -1.2 0
7.197 -10.645 -27.728 -0 -1.2 0
6.87 -14.511 -26.155 -0 -1.2 0
5.823 -21.387 -21.536 -0 -1.2 0
6.36 -0.878 -29.511 -0 -1.2 0
6.368 -1.401 -29.508 -0 -1.2 0
6.375 -1.923 -29.497 -0 -1.2 0
6.379 -2.446 -29.476 -0 -1.2 0
6.382 -2.97 -29.447 -0 -1.2 0
6.383 -3.492 -29.409 -0 -1.2 0
6.382 -4.013 -29.362 -0 -1.2 0
6.379 -4.533 -29.306 -0 -1.2 0
6.374 -5.054 -29.241 -0 -1.2 0
6.367 -5.572 -29.167 -0 -1.2 0
6.359 -6.089 -29.085 -0 -1.2 0
6.348 -6.604 -28.994 -0 -1.2 0
6.335 -7.118 -28.893 -0 -1.2 0
5.959 -14.048 -26.592 -0 -1.2 0
4.822 -22.523 -20.638 -0 -1.2 0
5.361 -0.917 -29.691 -0 -1.2 0
5.369 -1.44 -29.687 -0 -1.2 0
5.377 -1.963 -29.676 -0 -1.2 0
5.381 -2.486 -29.655 -0 -1.2 0
5.385 -3.009 -29.625 -0 -1.2 0
5.388 -3.531 -29.586 -0 -1.2 0
5.387 -4.052 -29.539 -0 -1.2 0
5.386 -4.573 -29.482 -0 -1.2 0
5.383 -5.093 -29.416 -0 -1.2 0
5.379 -5.611 -29.342 -0 -1.2 0
5.372 -6.128 -29.259 -0 -1.2 0
5.365 -6.643 -29.167 -0 -1.2 0
5.355 -7.157 -29.065 -0 -1.2 0
5.332 -8.178 -28.836 -0 -1.2 0
5.318 -8.686 -28.709 -0 -1.2 0
5.302 -9.191 -28.573 -0 -1.2 0
5.265 -10.195 -28.275 -0 -1.2 0
4.914 -15.939 -25.782 -0 -1.2 0
4.118 -22.551 -20.744 -0 -1.2 0
4.355 -0.959 -29.835 -0 -1.2 0
4.364 -1.482 -29.833 -0 -1.2 0
4.371 -2.004 -29.82 -0 -1.2 0
4.377 -2.527 -29.799 -0 -1.2 0
4.381 -3.051 -29.768 -0 -1.2 0
4.385 -3.572 -29.73 -0 -1.2 0
4.386 -4.094 -29.681 -0 -1.2 0
4.387 -4.614 -29.623 -0 -1.2 0
4.386 -5.134 -29.557 -0 -1.2 0
4.383 -5.652 -29.482 -0 -1.2 0
4.38 -6.169 -29.397 -0 -1.2 0
4.375 -6.684 -29.304 -0 -1.2 0
4.352 -8.218 -28.972 -0 -1.2 0
3.677 -20.272 -22.938 -0 -1.2 0
3.635 -20.672 -22.602 -0 -1.2 0
3.592 -21.066 -22.26 -0 -1.2 0
3.502 -21.835 -21.555 -0 -1.2 0
3.233 -1.523 -29.957 -0 -1.2 0
3.24 -2.046 -29.945 -0 -1.2 0
3.247 -2.569 -29.923 -0 -1.2 0
3.252 -3.092 -29.892 -0 -1.2 0
3.256 -3.614 -29.852 -0 -1.2 0
3.255 -7.75 -29.208 -0 -1.2 0
3.251 -8.259 -29.088 -0 -1.2 0
3.245 -8.766 -28.958 -0 -1.2 0
3.24 -9.271 -28.82 -0 -1.2 0
3.214 -10.771 -28.353 -0 -1.2 0
2.959 -17.791 -24.89 -0 -1.2 0
2.74 -21.097 -22.335 -0 -1.2 0
2.61 -22.609 -20.891 -0 -1.2 0
1.935 -21.127 -22.373 -0 -1.2 0
1.917 -21.514 -22.021 -0 -1.2 0
1.857 -22.637 -20.924 -0 -1.2 0
1.149 -5.775 -29.709 -0 -1.2 0
1.154 -6.291 -29.623 -0 -1.2 0
1.159 -6.806 -29.527 -0 -1.2 0
1.163 -7.319 -29.423 -0 -1.2 0
1.167 -7.83 -29.311 -0 -1.2 0
1.171 -8.339 -29.188 -0 -1.2 0
1.177 -9.35 -28.917 -0 -1.2 0
1.188 -12.804 -27.697 -0 -1.2 0
1.123 -21.545 -22.028 -0 -1.2 0
1.109 -22.299 -21.301 -0 -1.2 0
1.102 -22.667 -20.927 -0 -1.2 0
0.047 -7.87 -29.307 -0 -1.2 0
0.079 -9.892 -28.763 -0 -1.2 0
0.28 -21.955 -21.649 -0 -1.2 0
0.287 -22.328 -21.282 -0 -1.2 0
0.293 -22.695 -20.908 -0 -1.2 0
-0.972 -5.853 -29.667 -0 -1.2 0
-0.962 -6.369 -29.58 -0 -1.2 0
-0.951 -6.883 -29.484 -0 -1.2 0
-0.939 -7.396 -29.379 -0 -1.2 0
-0.852 -10.924 -28.396 -0 -1.2 0
-0.839 -11.417 -28.221 -0 -1.2 0
-0.752 -14.305 -26.991 -0 -1.2 0
-0.625 -17.926 -24.895 -0 -1.2 0
-0.607 -18.356 -24.598 -0 -1.2 0
-0.52 -20.429 -23.003 -0 -1.2 0
-0.503 -20.827 -22.662 -0 -1.2 0
-0.484 -21.218 -22.316 -0 -1.2 0
-0.466 -21.603 -21.962 -0 -1.2 0
-0.448 -21.982 -21.601 -0 -1.2 0
-0.429 -22.355 -21.234 -0 -1.2 0
-0.41 -22.722 -20.86 -0 -1.2 0
-2.073 -0.67 -29.967 -0 -1.2 0
-2.065 -1.193 -29.97 -0 -1.2 0
-2.058 -1.716 -29.965 -0 -1.2 0
-2.02 -3.806 -29.852 -0 -1.2 0
-2.009 -4.327 -29.801 -0 -1.2 0
-1.998 -4.846 -29.741 -0 -1.2 0
-1.985 -5.366 -29.671 -0 -1.2 0
-1.972 -5.884 -29.593 -0 -1.2 0
-1.959 -6.4 -29.506 -0 -1.2 0
-1.945 -6.914 -29.41 -0 -1.2 0
-1.93 -7.427 -29.305 -0 -1.2 0
-1.915 -7.937 -29.19 -0 -1.2 0
-1.899 -8.446 -29.067 -0 -1.2 0
-1.883 -8.952 -28.936 -0 -1.2 0
-1.866 -9.457 -28.796 -0 -1.2 0
-1.849 -9.959 -28.646 -0 -1.2 0
-1.83 -10.457 -28.488 -0 -1.2 0
-1.812 -10.953 -28.322 -0 -1.2 0
-1.792 -11.447 -28.146 -0 -1.2 0
-1.732 -12.906 -27.569 -0 -1.2 0
-1.643 -14.801 -26.682 -0 -1.2 0
-1.62 -15.264 -26.44 -0 -1.2 0
-1.596 -15.724 -26.191 -0 -1.2 0
-1.522 -17.075 -25.392 -0 -1.2 0
-1.442 -18.381 -24.526 -0 -1.2 0
-1.36 -19.641 -23.592 -0 -1.2 0
-1.331 -20.05 -23.266 -0 -1.2 0
-1.302 -20.453 -22.932 -0 -1.2 0
-1.273 -20.85 -22.592 -0 -1.2 0
-1.243 -21.241 -22.246 -0 -1.2 0
-1.214 -21.626 -21.892 -0 -1.2 0
-1.183 -22.005 -21.532 -0 -1.2 0
-1.153 -22.377 -21.164 -0 -1.2 0
-1.121 -22.744 -20.791 -0 -1.2 0
-3.101 -3.837 -29.737 -0 -1.2 0
-3.087 -4.358 -29.687 -0 -1.2 0
-3.074 -4.877 -29.627 -0 -1.2 0
-3.06 -5.397 -29.558 -0 -1.2 0
-3.044 -5.914 -29.479 -0 -1.2 0
-3.028 -6.43 -29.392 -0 -1.2 0
-3.011 -6.944 -29.296 -0 -1.2 0
-2.992 -7.457 -29.191 -0 -1.2 0
-2.973 -7.968 -29.077 -0 -1.2 0
-2.954 -8.476 -28.954 -0 -1.2 0
-2.933 -8.982 -28.822 -0 -1.2 0
-2.911 -9.486 -28.682 -0 -1.2 0
-2.888 -9.988 -28.533 -0 -1.2 0
-2.865 -10.487 -28.375 -0 -1.2 0
-2.84 -10.982 -28.209 -0 -1.2 0
-2.815 -11.476 -28.034 -0 -1.2 0
-2.789 -11.965 -27.85 -0 -1.2 0
-2.762 -12.452 -27.658 -0 -1.2 0
-2.706 -13.413 -27.249 -0 -1.2 0
-2.676 -13.889 -27.031 -0 -1.2 0
-2.646 -14.361 -26.806 -0 -1.2 0
-2.614 -14.829 -26.573 -0 -1.2 0
-2.583 -15.292 -26.331 -0 -1.2 0
-2.55 -15.751 -26.081 -0 -1.2 0
-2.516 -16.206 -25.824 -0 -1.2 0
-2.483 -16.656 -25.558 -0 -1.2 0
-2.447 -17.101 -25.286 -0 -1.2 0
-2.412 -17.541 -25.005 -0 -1.2 0
-2.375 -17.977 -24.716 -0 -1.2 0
-2.338 -18.407 -24.421 -0 -1.2 0
-2.3 -18.832 -24.117 -0 -1.2 0
-2.261 -19.252 -23.806 -0 -1.2 0
-2.222 -19.666 -23.489 -0 -1.2 0
-2.182 -20.074 -23.164 -0 -1.2 0
-2.141 -20.477 -22.831 -0 -1.2 0
-2.099 -20.874 -22.492 -0 -1.2 0
-2.057 -21.264 -22.146 -0 -1.2 0
-2.015 -21.649 -21.793 -0 -1.2 0
-1.972 -22.027 -21.434 -0 -1.2 0
-1.929 -22.399 -21.069 -0 -1.2 0
-1.884 -22.765 -20.695 -0 -1.2 0
-4.049 -5.944 -29.336 -0 -1.2 0
-4.03 -6.46 -29.249 -0 -1.2 0
-4.009 -6.974 -29.153 -0 -1.2 0
-3.988 -7.486 -29.048 -0 -1.2 0
-3.965 -7.997 -28.935 -0 -1.2 0
-3.942 -8.505 -28.812 -0 -1.2 0
-3.916 -9.011 -28.681 -0 -1.2 0
-3.89 -9.515 -28.541 -0 -1.2 0
-3.862 -10.017 -28.392 -0 -1.2 0
-3.834 -10.515 -28.234 -0 -1.2 0
-3.804 -11.011 -28.068 -0 -1.2 0
-3.773 -11.504 -27.893 -0 -1.2 0
-3.741 -11.993 -27.71 -0 -1.2 0
-3.708 -12.479 -27.519 -0 -1.2 0
-3.674 -12.962 -27.319 -0 -1.2 0
-3.637 -13.44 -27.111 -0 -1.2 0
-3.601 -13.917 -26.895 -0 -1.2 0
-3.563 -14.388 -26.67 -0 -1.2 0
-3.525 -14.855 -26.437 -0 -1.2 0
-3.485 -15.318 -26.196 -0 -1.2 0
-3.444 -15.777 -25.948 -0 -1.2 0
-3.402 -16.232 -25.691 -0 -1.2 0
-3.358 -16.682 -25.427 -0 -1.2 0
-3.314 -17.127 -25.154 -0 -1.2 0
-3.269 -17.566 -24.874 -0 -1.2 0
-3.224 -18.002 -24.587 -0 -1.2 0
-3.176 -18.431 -24.291 -0 -1.2 0
-3.128 -18.857 -23.989 -0 -1.2 0
-3.079 -19.276 -23.679 -0 -1.2 0
-3.029 -19.69 -23.363 -0 -1.2 0
-2.978 -20.097 -23.038 -0 -1.2 0
-2.927 -20.5 -22.707 -0 -1.2 0
-2.874 -20.896 -22.369 -0 -1.2 0
-2.82 -21.287 -22.024 -0 -1.2 0
-2.766 -21.671 -21.674 -0 -1.2 0
-2.71 -22.049 -21.315 -0 -1.2 0
-2.654 -22.42 -20.95 -0 -1.2 0
-2.598 -22.786 -20.58 -0 -1.2 0
-4.99 -8.026 -28.749 -0 -1.2 0
-4.962 -8.534 -28.628 -0 -1.2 0
-4.932 -9.04 -28.496 -0 -1.2 0
-4.901 -9.544 -28.357 -0 -1.2 0
-4.869 -10.045 -28.208 -0 -1.2 0
-4.835 -10.544 -28.052 -0 -1.2 0
-4.8 -11.039 -27.886 -0 -1.2 0
-4.763 -11.532 -27.712 -0 -1.2 0
-4.724 -12.021 -27.529 -0 -1.2 0
-4.685 -12.507 -27.339 -0 -1.2 0
-4.643 -12.99 -27.14 -0 -1.2 0
-4.601 -13.468 -26.932 -0 -1.2 0
-4.556 -13.944 -26.717 -0 -1.2 0
-4.511 -14.414 -26.494 -0 -1.2 0
-4.465 -14.882 -26.261 -0 -1.2 0
-4.416 -15.344 -26.021 -0 -1.2 0
-4.367 -15.804 -25.774 -0 -1.2 0
-4.316 -16.258 -25.519 -0 -1.2 0
-4.264 -16.707 -25.255 -0 -1.2 0
-4.21 -17.152 -24.984 -0 -1.2 0
-4.155 -17.591 -24.705 -0 -1.2 0
-4.099 -18.027 -24.419 -0 -1.2 0
-4.042 -18.456 -24.125 -0 -1.2 0
-3.984 -18.881 -23.824 -0 -1.2 0
-3.924 -19.3 -23.517 -0 -1.2 0
-3.864 -19.713 -23.201 -0 -1.2 0
-3.801 -20.121 -22.879 -0 -1.2 0
-3.738 -20.523 -22.549 -0 -1.2 0
-3.674 -20.919 -22.212 -0 -1.2 0
-3.608 -21.309 -21.869 -0 -1.2 0
-3.542 -21.693 -21.519 -0 -1.2 0
-3.474 -22.07 -21.164 -0 -1.2 0
-3.405 -22.442 -20.801 -0 -1.2 0
-3.336 -22.807 -20.432 -0 -1.2 0
-6.051 -8.563 -28.393 -0 -1.2 0
-6.017 -9.069 -28.263 -0 -1.2 0
-5.98 -9.573 -28.123 -0 -1.2 0
-5.942 -10.074 -27.977 -0 -1.2 0
-5.903 -10.572 -27.82 -0 -1.2 0
-5.862 -11.067 -27.656 -0 -1.2 0
-5.819 -11.56 -27.482 -0 -1.2 0
-5.774 -12.049 -27.301 -0 -1.2 0
-5.727 -12.535 -27.112 -0 -1.2 0
-5.678 -13.017 -26.913 -0 -1.2 0
-5.629 -13.495 -26.707 -0 -1.2 0
-5.576 -13.971 -26.493 -0 -1.2 0
-5.522 -14.442 -26.271 -0 -1.2 0
-5.468 -14.909 -26.041 -0 -1.2 0
-5.41 -15.371 -25.802 -0 -1.2 0
-5.351 -15.83 -25.556 -0 -1.2 0
-5.292 -16.284 -25.302 -0 -1.2 0
-5.229 -16.733 -25.04 -0 -1.2 0
-5.166 -17.178 -24.771 -0 -1.2 0
-5.101 -17.617 -24.495 -0 -1.2 0
-5.035 -18.052 -24.209 -0 -1.2 0
-4.967 -18.481 -23.918 -0 -1.2 0
-4.897 -18.905 -23.619 -0 -1.2 0
-4.826 -19.324 -23.313 -0 -1.2 0
-4.753 -19.737 -22.999 -0 -1.2 0
-4.679 -20.144 -22.679 -0 -1.2 0
-4.604 -20.546 -22.352 -0 -1.2 0
-4.527 -20.942 -22.018 -0 -1.2 0
-4.449 -21.331 -21.677 -0 -1.2 0
-4.369 -21.715 -21.33 -0 -1.2 0
-4.289 -22.092 -20.975 -0 -1.2 0
-4.206 -22.463 -20.615 -0 -1.2 0
-4.122 -22.828 -20.249 -0 -1.2 0
-6.634 -13.045 -26.664 -0 -1.2 0
-6.577 -13.522 -26.459 -0 -1.2 0
-6.518 -13.998 -26.246 -0 -1.2 0
-6.457 -14.468 -26.025 -0 -1.2 0
-6.393 -14.935 -25.796 -0 -1.2 0
-6.328 -15.397 -25.56 -0 -1.2 0
-6.262 -15.856 -25.315 -0 -1.2 0
-6.193 -16.309 -25.063 -0 -1.2 0
-6.122 -16.759 -24.803 -0 -1.2 0
-6.049 -17.203 -24.535 -0 -1.2 0
-5.974 -17.642 -24.261 -0 -1.2 0
-5.899 -18.076 -23.979 -0 -1.2 0
-5.82 -18.505 -23.689 -0 -1.2 0
-5.74 -18.929 -23.392 -0 -1.2 0
-5.659 -19.347 -23.088 -0 -1.2 0
-5.575 -19.76 -22.777 -0 -1.2 0
-5.49 -20.167 -22.458 -0 -1.2 0
-5.404 -20.569 -22.134 -0 -1.2 0
-5.315 -20.964 -21.803 -0 -1.2 0
-5.225 -21.353 -21.464 -0 -1.2 0
-5.134 -21.736 -21.119 -0 -1.2 0
-5.041 -22.113 -20.768 -0 -1.2 0
-4.946 -22.484 -20.411 -0 -1.2 0
-4.85 -22.849 -20.047 -0 -1.2 0
-7.322 -14.96 -25.518 -0 -1.2 0
-7.249 -15.422 -25.284 -0 -1.2 0
-7.174 -15.88 -25.041 -0 -1.2 0
-7.096 -16.334 -24.791 -0 -1.2 0
-7.016 -16.783 -24.533 -0 -1.2 0
-6.935 -17.227 -24.269 -0 -1.2 0
-6.851 -17.665 -23.995 -0 -1.2 0
-6.764 -18.1 -23.716 -0 -1.2 0
-6.676 -18.528 -23.429 -0 -1.2 0
-6.586 -18.952 -23.134 -0 -1.2 0
-6.493 -19.37 -22.832 -0 -1.2 0
-6.399 -19.782 -22.525 -0 -1.2 0
-6.303 -20.189 -22.209 -0 -1.2 0
-6.205 -20.59 -21.887 -0 -1.2 0
-6.105 -20.985 -21.559 -0 -1.2 0
-6.003 -21.374 -21.224 -0 -1.2 0
-5.9 -21.757 -20.882 -0 -1.2 0
-5.795 -22.133 -20.534 -0 -1.2 0
-5.687 -22.504 -20.179 -0 -1.2 0
-5.578 -22.868 -19.818 -0 -1.2 0
-7.968 -16.755 -24.244 -0 -1.2 0
-7.877 -17.199 -23.984 -0 -1.2 0
-7.782 -17.638 -23.715 -0 -1.2 0
-7.685 -18.073 -23.438 -0 -1.2 0
-7.587 -18.501 -23.156 -0 -1.2 0
-7.485 -18.926 -22.865 -0 -1.2 0
-7.382 -19.344 -22.568 -0 -1.2 0
-7.276 -19.757 -22.264 -0 -1.2 0
-7.168 -20.163 -21.953 -0 -1.2 0
-7.058 -20.565 -21.635 -0 -1.2 0
-6.946 -20.961 -21.311 -0 -1.2 0
-6.832 -21.35 -20.98 -0 -1.2 0
-6.715 -21.733 -20.643 -0 -1.2 0
-6.596 -22.11 -20.299 -0 -1.2 0
-6.476 -22.481 -19.949 -0 -1.2 0
-6.353 -22.845 -19.594 -0 -1.2 0
-8.303 -18.91 -22.577 -0 -1.2 0
-7.954 -20.149 -21.677 -0 -1.2 0
-7.833 -20.551 -21.363 -0 -1.2 0
-7.711 -20.946 -21.044 -0 -1.2 0
-7.585 -21.336 -20.717 -0 -1.2 0
-7.456 -21.719 -20.385 -0 -1.2 0
-7.327 -22.096 -20.045 -0 -1.2 0
-7.194 -22.467 -19.701 -0 -1.2 0
-7.059 -22.832 -19.349 -0 -1.2 0
-8.327 -21.341 -20.41 -0 -1.2 0
-8.187 -21.725 -20.082 -0 -1.2 0
-8.045 -22.102 -19.748 -0 -1.2 0
-7.9 -22.473 -19.407 -0 -1.2 0
-7.754 -22.837 -19.061 -0 -1.2 0
-8.655 -22.478 -19.063 -0 -1.2 0
-8.495 -22.842 -18.722 -0 -1.2 0
-3.885 -5.227 28.297 -0 -1.2 0
19.73 -1.955 21.325 -0 -1.2 0
19.75 -3.969 21.346 -0 -1.2 0
19.754 -4.477 21.35 -0 -1.2 0
15.107 -18.666 16.405 -0 -1.2 0
9.684 -7.331 -26.543 -0 -1.2 0
8.798 -5.841 -27.012 -0 -1.2 0
