# .PCD v.7 - Point Cloud Data file format
FIELDS x y z vp_x vp_y vp_z
SIZE 4 4 4 4 4 4
TYPE F F F F F F
COUNT 1 1 1 1 1 1
WIDTH 1559
HEIGHT 1
VIEWPOINT 0 -1.20005 0 1 0 0 0
POINTS 1559
DATA ascii
1.676 -1.829 -11.894 -0 -1.2 0
3.719 -3.163 -26.485 -0 -1.2 0
4.012 -4.313 -28.362 -0 -1.2 0
1.773 -2.732 -12.392 -0 -1.2 0
1.839 -3.238 -12.767 -0 -1.2 0
3.8 -5.995 -26.439 -0 -1.2 0
1.715 -3.709 -11.758 -0 -1.2 0
2.176 -4.679 -14.898 -0 -1.2 0
1.702 -4.096 -11.573 -0 -1.2 0
3.839 -8.371 -26.185 -0 -1.2 0
2.13 -5.373 -14.405 -0 -1.2 0
1.858 -5.269 -12.445 -0 -1.2 0
1.828 -5.424 -12.193 -0 -1.2 0
1.806 -5.591 -11.995 -0 -1.2 0
1.783 -5.749 -11.786 -0 -1.2 0
1.783 -5.97 -11.74 -0 -1.2 0
1.899 -6.527 -12.461 -0 -1.2 0
1.907 -6.79 -12.465 -0 -1.2 0
1.915 -7.054 -12.462 -0 -1.2 0
1.972 -7.48 -12.773 -0 -1.2 0
2.062 -8.043 -13.31 -0 -1.2 0
1.738 -7.159 -11.143 -0 -1.2 0
1.595 -6.862 -10.175 -0 -1.2 0
1.574 -6.989 -9.988 -0 -1.2 0
2.322 -10.149 -14.728 -0 -1.2 0
1.64 -7.677 -10.312 -0 -1.2 0
1.917 -9.072 -12.02 -0 -1.2 0
1.07 -5.79 -6.589 -0 -1.2 0
1.914 -9.863 -11.82 -0 -1.2 0
1.41 -7.722 -8.629 -0 -1.2 0
1.413 -7.939 -8.597 -0 -1.2 0
1.482 -8.5 -8.974 -0 -1.2 0
1.516 -8.902 -9.13 -0 -1.2 0
2.041 -11.981 -12.268 -0 -1.2 0
1.034 -6.691 -6.12 -0 -1.2 0
1.351 -8.677 -7.988 -0 -1.2 0
1.007 -6.865 -5.888 -0 -1.2 0
0.809 -5.822 -4.672 -0 -1.2 0
0.815 -5.995 -4.678 -0 -1.2 0
0.841 -6.304 -4.8 -0 -1.2 0
0.853 -6.528 -4.834 -0 -1.2 0
0.125 -0.045 -1.305 -0 -1.2 0
0.13 -0.04 -1.353 -0 -1.2 0
0.134 -0.044 -1.395 -0 -1.2 0
0.139 -0.043 -1.445 -0 -1.2 0
0.145 -0.042 -1.496 -0 -1.2 0
0.149 -0.05 -1.538 -0 -1.2 0
0.156 -0.04 -1.606 -0 -1.2 0
0.161 -0.044 -1.657 -0 -1.2 0
0.167 -0.045 -1.717 -0 -1.2 0
0.174 -0.042 -1.786 -0 -1.2 0
0.18 -0.046 -1.847 -0 -1.2 0
0.188 -0.042 -1.926 -0 -1.2 0
0.195 -0.045 -1.996 -0 -1.2 0
0.202 -0.051 -2.067 -0 -1.2 0
0.21 -0.053 -2.148 -0 -1.2 0
0.219 -0.055 -2.237 -0 -1.2 0
0.231 -0.045 -2.355 -0 -1.2 0
0.24 -0.052 -2.446 -0 -1.2 0
0.252 -0.051 -2.564 -0 -1.2 0
0.263 -0.056 -2.675 -0 -1.2 0
0.278 -0.051 -2.823 -0 -1.2 0
0.291 -0.057 -2.954 -0 -1.2 0
0.307 -0.061 -3.103 -0 -1.2 0
0.324 -0.064 -3.272 -0 -1.2 0
0.341 -0.073 -3.442 -0 -1.2 0
0.363 -0.073 -3.66 -0 -1.2 0
0.387 -0.075 -3.898 -0 -1.2 0
0.414 -0.077 -4.167 -0 -1.2 0
0.444 -0.082 -4.465 -0 -1.2 0
0.478 -0.089 -4.803 -0 -1.2 0
0.519 -0.093 -5.211 -0 -1.2 0
0.565 -0.102 -5.668 -0 -1.2 0
0.62 -0.115 -6.206 -0 -1.2 0
0.692 -0.121 -6.912 -0 -1.2 0
0.777 -0.133 -7.757 -0 -1.2 0
0.882 -0.153 -8.801 -0 -1.2 0
1.023 -0.176 -10.194 -0 -1.2 0
1.114 -0.289 -11.062 -0 -1.2 0
1.281 -0.386 -12.694 -0 -1.2 0
2.346 -0.168 -23.352 -0 -1.2 0
2.349 -0.579 -23.265 -0 -1.2 0
2.782 -3.77 -26.655 -0 -1.2 0
2.858 -6.624 -26.596 -0 -1.2 0
1.476 -5.333 -13.225 -0 -1.2 0
1.462 -5.522 -13.026 -0 -1.2 0
1.452 -5.722 -12.873 -0 -1.2 0
1.687 -6.75 -14.911 -0 -1.2 0
1.368 -5.885 -11.993 -0 -1.2 0
1.675 -7.244 -14.65 -0 -1.2 0
1.449 -6.637 -12.584 -0 -1.2 0
1.459 -6.909 -12.603 -0 -1.2 0
1.321 -6.566 -11.336 -0 -1.2 0
1.468 -7.422 -12.545 -0 -1.2 0
1.749 -8.943 -14.905 -0 -1.2 0
1.159 -6.447 -9.753 -0 -1.2 0
1.172 -6.705 -9.814 -0 -1.2 0
1.183 -6.952 -9.844 -0 -1.2 0
1.214 -7.316 -10.053 -0 -1.2 0
1.511 -9.392 -12.411 -0 -1.2 0
1.576 -10.033 -12.877 -0 -1.2 0
1.034 -7.087 -8.331 -0 -1.2 0
1.075 -7.715 -8.558 -0 -1.2 0
1.458 -10.404 -11.597 -0 -1.2 0
0.954 -7.301 -7.475 -0 -1.2 0
1.169 -8.96 -9.136 -0 -1.2 0
0.808 -6.627 -6.217 -0 -1.2 0
0.8 -6.728 -6.113 -0 -1.2 0
0.706 -6.178 -5.332 -0 -1.2 0
0.648 -5.869 -4.842 -0 -1.2 0
0.651 -6.023 -4.827 -0 -1.2 0
0.714 -6.673 -5.272 -0 -1.2 0
0.765 -7.243 -5.609 -0 -1.2 0
0.758 -7.355 -5.514 -0 -1.2 0
0.084 -0.038 -1.305 -0 -1.2 0
0.087 -0.041 -1.347 -0 -1.2 0
0.09 -0.044 -1.389 -0 -1.2 0
0.093 -0.044 -1.439 -0 -1.2 0
0.097 -0.031 -1.506 -0 -1.2 0
0.101 -0.034 -1.557 -0 -1.2 0
0.104 -0.043 -1.6 -0 -1.2 0
0.108 -0.042 -1.66 -0 -1.2 0
0.112 -0.043 -1.72 -0 -1.2 0
0.116 -0.041 -1.79 -0 -1.2 0
0.121 -0.04 -1.86 -0 -1.2 0
0.125 -0.047 -1.922 -0 -1.2 0
0.131 -0.045 -2.001 -0 -1.2 0
0.136 -0.047 -2.081 -0 -1.2 0
0.142 -0.046 -2.171 -0 -1.2 0
0.148 -0.048 -2.261 -0 -1.2 0
0.156 -0.044 -2.37 -0 -1.2 0
0.162 -0.048 -2.471 -0 -1.2 0
0.17 -0.051 -2.581 -0 -1.2 0
0.178 -0.055 -2.701 -0 -1.2 0
0.187 -0.054 -2.84 -0 -1.2 0
0.196 -0.062 -2.971 -0 -1.2 0
0.208 -0.061 -3.141 -0 -1.2 0
0.22 -0.062 -3.32 -0 -1.2 0
0.232 -0.07 -3.5 -0 -1.2 0
0.247 -0.072 -3.719 -0 -1.2 0
0.263 -0.074 -3.968 -0 -1.2 0
0.281 -0.076 -4.247 -0 -1.2 0
0.302 -0.082 -4.557 -0 -1.2 0
0.326 -0.088 -4.915 -0 -1.2 0
0.355 -0.093 -5.344 -0 -1.2 0
0.387 -0.103 -5.823 -0 -1.2 0
0.429 -0.108 -6.441 -0 -1.2 0
0.478 -0.121 -7.159 -0 -1.2 0
0.536 -0.138 -8.027 -0 -1.2 0
0.616 -0.153 -9.224 -0 -1.2 0
0.704 -0.199 -10.522 -0 -1.2 0
0.78 -0.305 -11.621 -0 -1.2 0
0.897 -0.417 -13.327 -0 -1.2 0
1.562 -0.699 -23.17 -0 -1.2 0
1.068 -5.597 -13.83 -0 -1.2 0
1.072 -5.847 -13.778 -0 -1.2 0
1.063 -6.043 -13.571 -0 -1.2 0
0.937 -5.646 -11.835 -0 -1.2 0
0.926 -5.799 -11.625 -0 -1.2 0
1.258 -7.809 -15.801 -0 -1.2 0
1.025 -6.766 -12.72 -0 -1.2 0
1.041 -7.087 -12.837 -0 -1.2 0
1.029 -7.24 -12.588 -0 -1.2 0
1.215 -8.65 -14.816 -0 -1.2 0
1.212 -8.897 -14.665 -0 -1.2 0
0.9 -7.047 -10.732 -0 -1.2 0
1.24 -9.643 -14.799 -0 -1.2 0
0.864 -7.192 -10.142 -0 -1.2 0
0.869 -7.425 -10.128 -0 -1.2 0
1.097 -9.633 -12.656 -0 -1.2 0
1.238 -11.043 -14.204 -0 -1.2 0
1.143 -10.538 -12.996 -0 -1.2 0
0.759 -7.642 -8.384 -0 -1.2 0
0.941 -9.502 -10.385 -0 -1.2 0
0.899 -9.328 -9.817 -0 -1.2 0
0.602 -6.675 -6.429 -0 -1.2 0
0.592 -6.72 -6.257 -0 -1.2 0
0.475 -5.669 -4.919 -0 -1.2 0
0.456 -5.588 -4.667 -0 -1.2 0
0.464 -5.787 -4.708 -0 -1.2 0
0.522 -6.544 -5.277 -0 -1.2 0
0.543 -6.919 -5.447 -0 -1.2 0
0.488 -6.426 -4.818 -0 -1.2 0
0.543 -7.21 -5.333 -0 -1.2 0
0.041 -0.045 -1.292 -0 -1.2 0
0.043 -0.041 -1.341 -0 -1.2 0
0.044 -0.045 -1.383 -0 -1.2 0
0.046 -0.044 -1.433 -0 -1.2 0
0.048 -0.038 -1.492 -0 -1.2 0
0.049 -0.041 -1.543 -0 -1.2 0
0.052 -0.033 -1.611 -0 -1.2 0
0.054 -0.039 -1.663 -0 -1.2 0
0.056 -0.04 -1.724 -0 -1.2 0
0.058 -0.038 -1.793 -0 -1.2 0
0.06 -0.044 -1.855 -0 -1.2 0
0.063 -0.045 -1.926 -0 -1.2 0
0.065 -0.045 -2.006 -0 -1.2 0
0.067 -0.047 -2.087 -0 -1.2 0
0.071 -0.056 -2.158 -0 -1.2 0
0.073 -0.05 -2.267 -0 -1.2 0
0.077 -0.051 -2.367 -0 -1.2 0
0.08 -0.052 -2.477 -0 -1.2 0
0.084 -0.056 -2.587 -0 -1.2 0
0.088 -0.059 -2.707 -0 -1.2 0
0.093 -0.06 -2.848 -0 -1.2 0
0.097 -0.072 -2.969 -0 -1.2 0
0.104 -0.065 -3.157 -0 -1.2 0
0.11 -0.065 -3.347 -0 -1.2 0
0.116 -0.074 -3.528 -0 -1.2 0
0.123 -0.072 -3.766 -0 -1.2 0
0.132 -0.076 -4.017 -0 -1.2 0
0.141 -0.084 -4.287 -0 -1.2 0
0.152 -0.09 -4.606 -0 -1.2 0
0.166 -0.09 -5.005 -0 -1.2 0
0.18 -0.099 -5.435 -0 -1.2 0
0.197 -0.107 -5.955 -0 -1.2 0
0.219 -0.114 -6.593 -0 -1.2 0
0.244 -0.125 -7.362 -0 -1.2 0
0.278 -0.139 -8.332 -0 -1.2 0
0.32 -0.157 -9.601 -0 -1.2 0
0.367 -0.211 -10.971 -0 -1.2 0
0.387 -0.37 -11.463 -0 -1.2 0
0.773 -0.406 -23.081 -0 -1.2 0
0.784 -0.808 -23.11 -0 -1.2 0
0.799 -1.211 -23.251 -0 -1.2 0
0.59 -5.211 -14.082 -0 -1.2 0
0.598 -5.492 -14.123 -0 -1.2 0
0.546 -5.485 -12.536 -0 -1.2 0
0.55 -5.716 -12.496 -0 -1.2 0
0.502 -5.47 -11.222 -0 -1.2 0
0.508 -5.703 -11.237 -0 -1.2 0
0.575 -6.543 -12.661 -0 -1.2 0
0.421 -5.169 -9.019 -0 -1.2 0
0.709 -8.605 -15.219 -0 -1.2 0
0.513 -6.635 -10.741 -0 -1.2 0
0.515 -6.826 -10.652 -0 -1.2 0
0.455 -6.273 -9.234 -0 -1.2 0
0.459 -6.484 -9.229 -0 -1.2 0
0.488 -6.991 -9.707 -0 -1.2 0
0.655 -9.338 -13.06 -0 -1.2 0
0.649 -9.471 -12.773 -0 -1.2 0
0.582 -8.765 -11.262 -0 -1.2 0
0.455 -7.321 -8.489 -0 -1.2 0
0.48 -7.837 -8.865 -0 -1.2 0
0.482 -8.022 -8.786 -0 -1.2 0
0.36 -6.296 -6.365 -0 -1.2 0
0.368 -6.535 -6.427 -0 -1.2 0
0.311 -5.731 -5.287 -0 -1.2 0
0.329 -6.144 -5.56 -0 -1.2 0
0.304 -5.823 -5.029 -0 -1.2 0
0.305 -5.937 -4.974 -0 -1.2 0
0.303 -6.008 -4.876 -0 -1.2 0
0.365 -7.218 -5.868 -0 -1.2 0
0.303 -6.196 -4.722 -0 -1.2 0
0.294 -6.129 -4.5 -0 -1.2 0
0.303 -6.387 -4.569 -0 -1.2 0
-0.006 -0.044 -1.282 -0 -1.2 0
-0.006 -0.041 -1.332 -0 -1.2 0
-0.006 -0.052 -1.367 -0 -1.2 0
-0.006 -0.044 -1.424 -0 -1.2 0
-0.006 -0.04 -1.484 -0 -1.2 0
-0.008 -0.036 -1.543 -0 -1.2 0
-0.008 -0.04 -1.595 -0 -1.2 0
-0.008 -0.041 -1.655 -0 -1.2 0
-0.008 -0.038 -1.725 -0 -1.2 0
-0.009 -0.041 -1.786 -0 -1.2 0
-0.009 -0.042 -1.856 -0 -1.2 0
-0.009 -0.044 -1.927 -0 -1.2 0
-0.009 -0.05 -1.999 -0 -1.2 0
-0.01 -0.052 -2.079 -0 -1.2 0
-0.01 -0.052 -2.169 -0 -1.2 0
-0.01 -0.056 -2.26 -0 -1.2 0
-0.011 -0.058 -2.36 -0 -1.2 0
-0.011 -0.059 -2.47 -0 -1.2 0
-0.012 -0.06 -2.59 -0 -1.2 0
-0.013 -0.061 -2.72 -0 -1.2 0
-0.014 -0.07 -2.842 -0 -1.2 0
-0.014 -0.069 -3 -0 -1.2 0
-0.015 -0.074 -3.161 -0 -1.2 0
-0.016 -0.081 -3.331 -0 -1.2 0
-0.017 -0.079 -3.55 -0 -1.2 0
-0.018 -0.08 -3.79 -0 -1.2 0
-0.02 -0.083 -4.049 -0 -1.2 0
-0.021 -0.09 -4.33 -0 -1.2 0
-0.022 -0.099 -4.65 -0 -1.2 0
-0.025 -0.1 -5.059 -0 -1.2 0
-0.026 -0.108 -5.509 -0 -1.2 0
-0.029 -0.123 -6.009 -0 -1.2 0
-0.032 -0.126 -6.698 -0 -1.2 0
-0.036 -0.141 -7.488 -0 -1.2 0
-0.041 -0.158 -8.498 -0 -1.2 0
-0.049 -0.174 -9.877 -0 -1.2 0
-0.056 -0.224 -11.427 -0 -1.2 0
0.006 -1.291 -3.759 -0 -1.2 0
0.009 -1.351 -3.686 -0 -1.2 0
0.009 -1.424 -3.791 -0 -1.2 0
0.01 -1.489 -3.786 -0 -1.2 0
0.012 -1.559 -3.819 -0 -1.2 0
0.051 -5.355 -11.34 -0 -1.2 0
0.06 -6.119 -12.707 -0 -1.2 0
0.068 -6.626 -13.311 -0 -1.2 0
0.064 -5.75 -10.663 -0 -1.2 0
0.069 -6.093 -10.926 -0 -1.2 0
0.073 -6.171 -10.603 -0 -1.2 0
0.069 -5.633 -9.063 -0 -1.2 0
0.075 -5.952 -9.294 -0 -1.2 0
0.081 -6.299 -9.551 -0 -1.2 0
0.084 -6.445 -9.425 -0 -1.2 0
0.088 -6.563 -9.253 -0 -1.2 0
0.091 -6.634 -9.012 -0 -1.2 0
0.111 -8.062 -10.914 -0 -1.2 0
0.107 -7.628 -9.849 -0 -1.2 0
0.113 -7.907 -9.89 -0 -1.2 0
0.105 -7.167 -8.492 -0 -1.2 0
0.113 -7.658 -8.851 -0 -1.2 0
0.123 -8.256 -9.316 -0 -1.2 0
0.124 -8.249 -8.979 -0 -1.2 0
0.124 -8.125 -8.513 -0 -1.2 0
0.088 -5.495 -5.133 -0 -1.2 0
0.095 -5.968 -5.491 -0 -1.2 0
0.094 -5.779 -5.096 -0 -1.2 0
0.094 -5.757 -4.898 -0 -1.2 0
0.093 -5.659 -4.631 -0 -1.2 0
0.092 -5.518 -4.333 -0 -1.2 0
0.11 -6.6 -5.213 -0 -1.2 0
0.103 -6.123 -4.597 -0 -1.2 0
0.119 -7.078 -5.284 -0 -1.2 0
0.123 -7.214 -5.219 -0 -1.2 0
-0.052 -0.05 -1.263 -0 -1.2 0
-0.054 -0.048 -1.312 -0 -1.2 0
-0.056 -0.046 -1.362 -0 -1.2 0
-0.058 -0.051 -1.405 -0 -1.2 0
-0.062 -0.041 -1.472 -0 -1.2 0
-0.064 -0.044 -1.523 -0 -1.2 0
-0.066 -0.048 -1.575 -0 -1.2 0
-0.068 -0.049 -1.636 -0 -1.2 0
-0.071 -0.046 -1.704 -0 -1.2 0
-0.074 -0.045 -1.775 -0 -1.2 0
-0.077 -0.046 -1.845 -0 -1.2 0
-0.08 -0.054 -1.908 -0 -1.2 0
-0.083 -0.054 -1.988 -0 -1.2 0
-0.086 -0.057 -2.068 -0 -1.2 0
-0.089 -0.063 -2.149 -0 -1.2 0
-0.094 -0.063 -2.249 -0 -1.2 0
-0.099 -0.061 -2.358 -0 -1.2 0
-0.103 -0.063 -2.468 -0 -1.2 0
-0.108 -0.065 -2.588 -0 -1.2 0
-0.114 -0.067 -2.718 -0 -1.2 0
-0.12 -0.07 -2.857 -0 -1.2 0
-0.126 -0.077 -2.998 -0 -1.2 0
-0.133 -0.077 -3.178 -0 -1.2 0
-0.141 -0.079 -3.367 -0 -1.2 0
-0.149 -0.085 -3.568 -0 -1.2 0
-0.153 -0.124 -3.672 -0 -1.2 0
-0.156 -0.169 -3.766 -0 -1.2 0
-0.159 -0.221 -3.84 -0 -1.2 0
-0.158 -0.289 -3.856 -0 -1.2 0
-0.156 -0.364 -3.831 -0 -1.2 0
-0.152 -0.44 -3.794 -0 -1.2 0
-0.15 -0.514 -3.757 -0 -1.2 0
-0.148 -0.585 -3.737 -0 -1.2 0
-0.145 -0.657 -3.697 -0 -1.2 0
-0.143 -0.725 -3.674 -0 -1.2 0
-0.142 -0.79 -3.671 -0 -1.2 0
-0.139 -0.856 -3.647 -0 -1.2 0
-0.137 -0.922 -3.631 -0 -1.2 0
-0.135 -0.988 -3.595 -0 -1.2 0
-0.133 -1.05 -3.587 -0 -1.2 0
-0.133 -1.113 -3.597 -0 -1.2 0
-0.132 -1.176 -3.607 -0 -1.2 0
-0.131 -1.24 -3.615 -0 -1.2 0
-0.129 -1.302 -3.593 -0 -1.2 0
-0.126 -1.361 -3.54 -0 -1.2 0
-0.128 -1.431 -3.635 -0 -1.2 0
-0.128 -1.497 -3.649 -0 -1.2 0
-0.128 -1.564 -3.672 -0 -1.2 0
-0.129 -1.637 -3.733 -0 -1.2 0
-0.131 -1.713 -3.793 -0 -1.2 0
-0.427 -5.304 -12.293 -0 -1.2 0
-0.449 -6.107 -13.131 -0 -1.2 0
-0.335 -5.14 -10.044 -0 -1.2 0
-0.325 -5.268 -9.862 -0 -1.2 0
-0.324 -5.509 -9.944 -0 -1.2 0
-0.31 -5.573 -9.63 -0 -1.2 0
-0.302 -5.714 -9.497 -0 -1.2 0
-0.305 -6.037 -9.729 -0 -1.2 0
-0.297 -6.178 -9.589 -0 -1.2 0
-0.331 -7.032 -10.752 -0 -1.2 0
-0.273 -6.332 -9.094 -0 -1.2 0
-0.298 -7.067 -9.973 -0 -1.2 0
-0.409 -10.03 -13.829 -0 -1.2 0
-0.363 -9.515 -12.541 -0 -1.2 0
-0.318 -8.935 -11.243 -0 -1.2 0
-0.245 -7.564 -8.932 -0 -1.2 0
-0.235 -7.672 -8.754 -0 -1.2 0
-0.259 -8.675 -9.738 -0 -1.2 0
-0.226 -8.136 -8.723 -0 -1.2 0
-0.219 -8.339 -8.662 -0 -1.2 0
-0.133 -5.996 -5.641 -0 -1.2 0
-0.11 -5.475 -4.861 -0 -1.2 0
-0.114 -5.872 -5.123 -0 -1.2 0
-0.227 -10.406 -9.684 -0 -1.2 0
-0.241 -11.523 -10.48 -0 -1.2 0
-0.223 -11.39 -9.989 -0 -1.2 0
-0.101 -6.59 -5.129 -0 -1.2 0
-0.192 -11.282 -9.215 -0 -1.2 0
-0.188 -11.802 -9.354 -0 -1.2 0
-0.089 -7.133 -5.076 -0 -1.2 0
-0.1 -0.05 -1.251 -0 -1.2 0
-0.103 -0.054 -1.293 -0 -1.2 0
-0.106 -0.058 -1.335 -0 -1.2 0
-0.11 -0.064 -1.377 -0 -1.2 0
-0.115 -0.059 -1.436 -0 -1.2 0
-0.12 -0.051 -1.503 -0 -1.2 0
-0.124 -0.055 -1.555 -0 -1.2 0
-0.129 -0.057 -1.615 -0 -1.2 0
-0.134 -0.059 -1.676 -0 -1.2 0
-0.139 -0.058 -1.745 -0 -1.2 0
-0.146 -0.054 -1.824 -0 -1.2 0
-0.149 -0.068 -1.877 -0 -1.2 0
-0.157 -0.063 -1.965 -0 -1.2 0
-0.163 -0.072 -2.037 -0 -1.2 0
-0.17 -0.072 -2.127 -0 -1.2 0
-0.178 -0.069 -2.235 -0 -1.2 0
-0.186 -0.072 -2.335 -0 -1.2 0
-0.196 -0.07 -2.455 -0 -1.2 0
-0.204 -0.077 -2.564 -0 -1.2 0
-0.215 -0.076 -2.704 -0 -1.2 0
-0.225 -0.082 -2.834 -0 -1.2 0
-0.236 -0.091 -2.975 -0 -1.2 0
-0.249 -0.094 -3.144 -0 -1.2 0
-0.266 -0.094 -3.343 -0 -1.2 0
-0.281 -0.101 -3.542 -0 -1.2 0
-0.301 -0.102 -3.791 -0 -1.2 0
-0.321 -0.111 -4.04 -0 -1.2 0
-0.342 -0.123 -4.31 -0 -1.2 0
-0.28 -0.362 -3.566 -0 -1.2 0
-0.28 -0.427 -3.569 -0 -1.2 0
-0.44 -0.142 -5.544 -0 -1.2 0
-0.484 -0.154 -6.102 -0 -1.2 0
-0.539 -0.167 -6.789 -0 -1.2 0
-0.272 -0.691 -3.52 -0 -1.2 0
-0.275 -0.749 -3.578 -0 -1.2 0
-0.28 -0.806 -3.643 -0 -1.2 0
-0.276 -0.873 -3.618 -0 -1.2 0
-0.274 -0.938 -3.602 -0 -1.2 0
-0.268 -1.004 -3.536 -0 -1.2 0
-0.267 -1.066 -3.527 -0 -1.2 0
-0.266 -1.129 -3.528 -0 -1.2 0
-0.265 -1.191 -3.527 -0 -1.2 0
-0.264 -1.254 -3.526 -0 -1.2 0
-0.251 -1.308 -3.374 -0 -1.2 0
-0.248 -1.365 -3.341 -0 -1.2 0
-0.242 -1.419 -3.286 -0 -1.2 0
-0.25 -1.49 -3.399 -0 -1.2 0
-0.268 -1.579 -3.631 -0 -1.2 0
-0.268 -1.647 -3.652 -0 -1.2 0
-0.263 -1.703 -3.593 -0 -1.2 0
-0.262 -1.768 -3.592 -0 -1.2 0
-0.258 -1.824 -3.541 -0 -1.2 0
-0.26 -1.9 -3.588 -0 -1.2 0
-0.988 -6.059 -13.483 -0 -1.2 0
-0.945 -6.126 -12.958 -0 -1.2 0
-0.673 -5.336 -9.4 -0 -1.2 0
-0.699 -5.72 -9.795 -0 -1.2 0
-0.929 -7.496 -12.995 -0 -1.2 0
-0.684 -6.079 -9.665 -0 -1.2 0
-0.629 -5.911 -8.944 -0 -1.2 0
-0.844 -7.797 -11.974 -0 -1.2 0
-0.612 -6.231 -8.79 -0 -1.2 0
-0.674 -6.983 -9.692 -0 -1.2 0
-0.81 -8.45 -11.661 -0 -1.2 0
-0.726 -8.005 -10.536 -0 -1.2 0
-0.689 -7.954 -10.068 -0 -1.2 0
-0.667 -8.027 -9.801 -0 -1.2 0
-0.814 -9.866 -11.972 -0 -1.2 0
-0.653 -8.475 -9.699 -0 -1.2 0
-0.722 -9.579 -10.765 -0 -1.2 0
-0.584 -8.288 -8.794 -0 -1.2 0
-0.546 -8.127 -8.294 -0 -1.2 0
-0.339 -5.939 -5.301 -0 -1.2 0
-0.642 -10.409 -9.903 -0 -1.2 0
-0.66 -11.067 -10.243 -0 -1.2 0
-0.631 -11.054 -9.878 -0 -1.2 0
-0.586 -11.627 -9.407 -0 -1.2 0
-0.293 -7.026 -4.911 -0 -1.2 0
-0.153 -0.063 -1.222 -0 -1.2 0
-0.158 -0.067 -1.262 -0 -1.2 0
-0.163 -0.072 -1.304 -0 -1.2 0
-0.169 -0.072 -1.354 -0 -1.2 0
-0.177 -0.067 -1.413 -0 -1.2 0
-0.184 -0.065 -1.473 -0 -1.2 0
-0.19 -0.069 -1.523 -0 -1.2 0
-0.197 -0.071 -1.583 -0 -1.2 0
-0.204 -0.073 -1.643 -0 -1.2 0
-0.214 -0.068 -1.721 -0 -1.2 0
-0.221 -0.074 -1.783 -0 -1.2 0
-0.228 -0.082 -1.844 -0 -1.2 0
-0.238 -0.083 -1.924 -0 -1.2 0
-0.249 -0.083 -2.012 -0 -1.2 0
-0.258 -0.093 -2.083 -0 -1.2 0
-0.27 -0.089 -2.192 -0 -1.2 0
-0.284 -0.088 -2.301 -0 -1.2 0
-0.297 -0.092 -2.41 -0 -1.2 0
-0.31 -0.098 -2.52 -0 -1.2 0
-0.326 -0.101 -2.648 -0 -1.2 0
-0.342 -0.105 -2.787 -0 -1.2 0
-0.36 -0.113 -2.927 -0 -1.2 0
-0.383 -0.111 -3.114 -0 -1.2 0
-0.401 -0.123 -3.274 -0 -1.2 0
-0.403 -0.182 -3.291 -0 -1.2 0
-0.41 -0.228 -3.355 -0 -1.2 0
-0.417 -0.276 -3.418 -0 -1.2 0
-0.419 -0.336 -3.443 -0 -1.2 0
-0.417 -0.401 -3.437 -0 -1.2 0
-0.42 -0.461 -3.458 -0 -1.2 0
-0.416 -0.528 -3.44 -0 -1.2 0
-0.417 -0.589 -3.45 -0 -1.2 0
-0.417 -0.652 -3.449 -0 -1.2 0
-0.416 -0.713 -3.457 -0 -1.2 0
-0.415 -0.776 -3.454 -0 -1.2 0
-0.419 -0.836 -3.489 -0 -1.2 0
-0.419 -0.897 -3.503 -0 -1.2 0
-0.42 -0.96 -3.508 -0 -1.2 0
-0.422 -1.022 -3.529 -0 -1.2 0
-0.422 -1.085 -3.54 -0 -1.2 0
-0.42 -1.148 -3.532 -0 -1.2 0
-0.42 -1.211 -3.54 -0 -1.2 0
-0.402 -1.268 -3.399 -0 -1.2 0
-0.402 -1.329 -3.397 -0 -1.2 0
-0.396 -1.387 -3.354 -0 -1.2 0
-0.386 -1.44 -3.279 -0 -1.2 0
-0.38 -1.494 -3.234 -0 -1.2 0
-0.421 -1.597 -3.582 -0 -1.2 0
-0.426 -1.67 -3.632 -0 -1.2 0
-0.438 -1.753 -3.74 -0 -1.2 0
-1.323 -7.166 -11.575 -0 -1.2 0
-1.297 -7.601 -11.411 -0 -1.2 0
-1.349 -8.149 -11.89 -0 -1.2 0
-1.287 -8.415 -11.405 -0 -1.2 0
-1.392 -9.334 -12.366 -0 -1.2 0
-1.083 -7.793 -9.66 -0 -1.2 0
-1.179 -8.679 -10.549 -0 -1.2 0
-1.222 -9.591 -10.993 -0 -1.2 0
-1.237 -10.032 -11.157 -0 -1.2 0
-1.159 -9.81 -10.494 -0 -1.2 0
-1.113 -9.8 -10.115 -0 -1.2 0
-1.14 -10.353 -10.389 -0 -1.2 0
-1.12 -10.555 -10.25 -0 -1.2 0
-0.206 -0.065 -1.194 -0 -1.2 0
-0.212 -0.069 -1.236 -0 -1.2 0
-0.219 -0.074 -1.278 -0 -1.2 0
-0.228 -0.074 -1.327 -0 -1.2 0
-0.236 -0.076 -1.377 -0 -1.2 0
-0.244 -0.079 -1.428 -0 -1.2 0
-0.252 -0.083 -1.479 -0 -1.2 0
-0.263 -0.079 -1.546 -0 -1.2 0
-0.275 -0.076 -1.614 -0 -1.2 0
-0.285 -0.076 -1.683 -0 -1.2 0
-0.295 -0.083 -1.744 -0 -1.2 0
-0.307 -0.086 -1.814 -0 -1.2 0
-0.319 -0.092 -1.883 -0 -1.2 0
-0.333 -0.091 -1.972 -0 -1.2 0
-0.344 -0.102 -2.043 -0 -1.2 0
-0.359 -0.106 -2.132 -0 -1.2 0
-0.378 -0.101 -2.249 -0 -1.2 0
-0.398 -0.1 -2.367 -0 -1.2 0
-0.415 -0.106 -2.475 -0 -1.2 0
-0.435 -0.114 -2.594 -0 -1.2 0
-0.459 -0.114 -2.742 -0 -1.2 0
-0.482 -0.122 -2.88 -0 -1.2 0
-0.511 -0.123 -3.057 -0 -1.2 0
-0.536 -0.136 -3.215 -0 -1.2 0
-0.572 -0.138 -3.432 -0 -1.2 0
-0.611 -0.143 -3.669 -0 -1.2 0
-0.649 -0.155 -3.905 -0 -1.2 0
-0.696 -0.165 -4.192 -0 -1.2 0
-0.748 -0.179 -4.507 -0 -1.2 0
-0.812 -0.188 -4.901 -0 -1.2 0
-0.884 -0.203 -5.345 -0 -1.2 0
-0.974 -0.218 -5.887 -0 -1.2 0
-1.083 -0.236 -6.557 -0 -1.2 0
-1.212 -0.264 -7.346 -0 -1.2 0
-1.382 -0.294 -8.381 -0 -1.2 0
-1.616 -0.329 -9.811 -0 -1.2 0
-1.918 -0.388 -11.655 -0 -1.2 0
-2.666 -0.967 -16.256 -0 -1.2 0
-2.654 -1.254 -16.199 -0 -1.2 0
-2.646 -1.541 -16.164 -0 -1.2 0
-2.669 -1.836 -16.323 -0 -1.2 0
-1.809 -9.174 -11.52 -0 -1.2 0
-1.809 -9.489 -11.533 -0 -1.2 0
-1.789 -9.721 -11.427 -0 -1.2 0
-1.558 -9.209 -9.986 -0 -1.2 0
-1.596 -10.045 -10.268 -0 -1.2 0
-1.508 -10.21 -9.742 -0 -1.2 0
-0.254 -0.077 -1.152 -0 -1.2 0
-0.263 -0.074 -1.201 -0 -1.2 0
-0.272 -0.078 -1.241 -0 -1.2 0
-0.282 -0.079 -1.29 -0 -1.2 0
-0.292 -0.081 -1.34 -0 -1.2 0
-0.305 -0.078 -1.398 -0 -1.2 0
-0.315 -0.082 -1.449 -0 -1.2 0
-0.327 -0.083 -1.508 -0 -1.2 0
-0.339 -0.086 -1.567 -0 -1.2 0
-0.353 -0.086 -1.635 -0 -1.2 0
-0.368 -0.086 -1.703 -0 -1.2 0
-0.382 -0.09 -1.773 -0 -1.2 0
-0.396 -0.096 -1.842 -0 -1.2 0
-0.412 -0.099 -1.921 -0 -1.2 0
-0.428 -0.105 -2 -0 -1.2 0
-0.446 -0.11 -2.089 -0 -1.2 0
-0.469 -0.108 -2.195 -0 -1.2 0
-0.491 -0.11 -2.303 -0 -1.2 0
-0.515 -0.113 -2.42 -0 -1.2 0
-0.539 -0.119 -2.538 -0 -1.2 0
-0.565 -0.127 -2.665 -0 -1.2 0
-0.598 -0.128 -2.822 -0 -1.2 0
-0.628 -0.138 -2.969 -0 -1.2 0
-0.665 -0.144 -3.145 -0 -1.2 0
-0.707 -0.148 -3.35 -0 -1.2 0
-0.755 -0.152 -3.584 -0 -1.2 0
-0.804 -0.164 -3.82 -0 -1.2 0
-0.854 -0.181 -4.065 -0 -1.2 0
-0.919 -0.194 -4.378 -0 -1.2 0
-0.993 -0.208 -4.739 -0 -1.2 0
-1.088 -0.217 -5.199 -0 -1.2 0
-1.199 -0.231 -5.736 -0 -1.2 0
-1.332 -0.25 -6.382 -0 -1.2 0
-1.498 -0.273 -7.184 -0 -1.2 0
-1.697 -0.308 -8.152 -0 -1.2 0
-1.979 -0.346 -9.512 -0 -1.2 0
-0.728 -0.901 -3.475 -0 -1.2 0
-0.732 -0.964 -3.498 -0 -1.2 0
-0.716 -1.03 -3.422 -0 -1.2 0
-0.679 -1.094 -3.247 -0 -1.2 0
-0.679 -1.153 -3.247 -0 -1.2 0
-0.686 -1.214 -3.285 -0 -1.2 0
-0.692 -1.275 -3.313 -0 -1.2 0
-0.703 -1.34 -3.368 -0 -1.2 0
-0.706 -1.403 -3.384 -0 -1.2 0
-0.708 -1.466 -3.398 -0 -1.2 0
-0.715 -1.533 -3.431 -0 -1.2 0
-0.718 -1.599 -3.453 -0 -1.2 0
-0.717 -1.663 -3.444 -0 -1.2 0
-0.722 -1.732 -3.473 -0 -1.2 0
-2.259 -9.292 -11.151 -0 -1.2 0
-2.22 -9.46 -10.971 -0 -1.2 0
-2.031 -9.962 -10.07 -0 -1.2 0
-0.306 -0.081 -1.114 -0 -1.2 0
-0.318 -0.078 -1.162 -0 -1.2 0
-0.328 -0.083 -1.203 -0 -1.2 0
-0.34 -0.083 -1.251 -0 -1.2 0
-0.353 -0.084 -1.3 -0 -1.2 0
-0.365 -0.087 -1.349 -0 -1.2 0
-0.377 -0.092 -1.399 -0 -1.2 0
-0.397 -0.081 -1.473 -0 -1.2 0
-0.412 -0.084 -1.532 -0 -1.2 0
-0.427 -0.088 -1.591 -0 -1.2 0
-0.442 -0.094 -1.651 -0 -1.2 0
-0.459 -0.097 -1.719 -0 -1.2 0
-0.476 -0.103 -1.787 -0 -1.2 0
-0.494 -0.111 -1.857 -0 -1.2 0
-0.515 -0.111 -1.943 -0 -1.2 0
-0.537 -0.116 -2.031 -0 -1.2 0
-0.565 -0.114 -2.137 -0 -1.2 0
-0.587 -0.124 -2.225 -0 -1.2 0
-0.618 -0.122 -2.35 -0 -1.2 0
-0.65 -0.124 -2.475 -0 -1.2 0
-0.677 -0.138 -2.583 -0 -1.2 0
-0.717 -0.139 -2.737 -0 -1.2 0
-0.753 -0.148 -2.883 -0 -1.2 0
-0.795 -0.156 -3.048 -0 -1.2 0
-0.841 -0.166 -3.232 -0 -1.2 0
-0.896 -0.172 -3.445 -0 -1.2 0
-0.916 -0.221 -3.526 -0 -1.2 0
-0.941 -0.267 -3.626 -0 -1.2 0
-0.946 -0.332 -3.649 -0 -1.2 0
-0.947 -0.402 -3.653 -0 -1.2 0
-0.943 -0.474 -3.636 -0 -1.2 0
-0.936 -0.548 -3.608 -0 -1.2 0
-0.923 -0.623 -3.559 -0 -1.2 0
-0.916 -0.694 -3.53 -0 -1.2 0
-0.91 -0.762 -3.507 -0 -1.2 0
-0.901 -0.83 -3.474 -0 -1.2 0
-0.892 -0.897 -3.44 -0 -1.2 0
-0.866 -0.966 -3.337 -0 -1.2 0
-0.863 -1.029 -3.329 -0 -1.2 0
-0.862 -1.09 -3.32 -0 -1.2 0
-0.861 -1.153 -3.321 -0 -1.2 0
-0.861 -1.215 -3.32 -0 -1.2 0
-0.86 -1.276 -3.318 -0 -1.2 0
-0.861 -1.339 -3.324 -0 -1.2 0
-0.861 -1.401 -3.32 -0 -1.2 0
-0.861 -1.462 -3.325 -0 -1.2 0
-0.865 -1.526 -3.338 -0 -1.2 0
-0.862 -1.588 -3.331 -0 -1.2 0
-0.867 -1.654 -3.351 -0 -1.2 0
-0.877 -1.725 -3.39 -0 -1.2 0
-0.886 -1.797 -3.426 -0 -1.2 0
-0.89 -1.866 -3.443 -0 -1.2 0
-0.896 -1.938 -3.468 -0 -1.2 0
-0.874 -1.984 -3.378 -0 -1.2 0
-0.874 -2.052 -3.382 -0 -1.2 0
-0.893 -2.142 -3.459 -0 -1.2 0
-0.355 -0.079 -1.08 -0 -1.2 0
-0.367 -0.082 -1.12 -0 -1.2 0
-0.382 -0.08 -1.168 -0 -1.2 0
-0.391 -0.093 -1.2 -0 -1.2 0
-0.408 -0.088 -1.257 -0 -1.2 0
-0.419 -0.096 -1.297 -0 -1.2 0
-0.439 -0.089 -1.362 -0 -1.2 0
-0.454 -0.095 -1.412 -0 -1.2 0
-0.471 -0.097 -1.469 -0 -1.2 0
-0.491 -0.096 -1.535 -0 -1.2 0
-0.511 -0.096 -1.603 -0 -1.2 0
-0.531 -0.1 -1.67 -0 -1.2 0
-0.551 -0.105 -1.737 -0 -1.2 0
-0.571 -0.112 -1.806 -0 -1.2 0
-0.592 -0.122 -1.874 -0 -1.2 0
-0.615 -0.13 -1.952 -0 -1.2 0
-0.646 -0.127 -2.056 -0 -1.2 0
-0.677 -0.13 -2.161 -0 -1.2 0
-0.708 -0.134 -2.266 -0 -1.2 0
-0.739 -0.143 -2.373 -0 -1.2 0
-0.779 -0.145 -2.506 -0 -1.2 0
-0.816 -0.155 -2.631 -0 -1.2 0
-0.859 -0.163 -2.775 -0 -1.2 0
-0.913 -0.165 -2.955 -0 -1.2 0
-0.967 -0.173 -3.137 -0 -1.2 0
-0.952 -0.251 -3.088 -0 -1.2 0
-0.951 -0.314 -3.083 -0 -1.2 0
-0.96 -0.368 -3.115 -0 -1.2 0
-0.97 -0.423 -3.146 -0 -1.2 0
-0.979 -0.48 -3.176 -0 -1.2 0
-0.984 -0.538 -3.195 -0 -1.2 0
-0.989 -0.598 -3.214 -0 -1.2 0
-0.993 -0.658 -3.223 -0 -1.2 0
-0.986 -0.723 -3.202 -0 -1.2 0
-0.988 -0.784 -3.207 -0 -1.2 0
-0.99 -0.845 -3.213 -0 -1.2 0
-0.996 -0.904 -3.236 -0 -1.2 0
-0.998 -0.966 -3.239 -0 -1.2 0
-1.001 -1.026 -3.251 -0 -1.2 0
-0.989 -1.089 -3.213 -0 -1.2 0
-0.999 -1.15 -3.242 -0 -1.2 0
-1.004 -1.212 -3.26 -0 -1.2 0
-1.007 -1.274 -3.268 -0 -1.2 0
-1.008 -1.336 -3.274 -0 -1.2 0
-1.007 -1.398 -3.271 -0 -1.2 0
-1.009 -1.461 -3.275 -0 -1.2 0
-1.007 -1.522 -3.269 -0 -1.2 0
-1.013 -1.588 -3.29 -0 -1.2 0
-1.022 -1.656 -3.319 -0 -1.2 0
-1.03 -1.725 -3.348 -0 -1.2 0
-1.044 -1.799 -3.394 -0 -1.2 0
-1.043 -1.865 -3.392 -0 -1.2 0
-1.034 -1.925 -3.36 -0 -1.2 0
-1.021 -1.981 -3.318 -0 -1.2 0
-1.008 -2.037 -3.275 -0 -1.2 0
-1.028 -2.122 -3.343 -0 -1.2 0
-0.398 -0.09 -1.032 -0 -1.2 0
-0.411 -0.093 -1.071 -0 -1.2 0
-0.425 -0.098 -1.111 -0 -1.2 0
-0.441 -0.097 -1.158 -0 -1.2 0
-0.454 -0.103 -1.198 -0 -1.2 0
-0.473 -0.1 -1.253 -0 -1.2 0
-0.492 -0.099 -1.31 -0 -1.2 0
-0.504 -0.115 -1.342 -0 -1.2 0
-0.523 -0.116 -1.399 -0 -1.2 0
-0.548 -0.11 -1.472 -0 -1.2 0
-0.568 -0.115 -1.529 -0 -1.2 0
-0.593 -0.113 -1.604 -0 -1.2 0
-0.613 -0.122 -1.662 -0 -1.2 0
-0.639 -0.124 -1.738 -0 -1.2 0
-0.665 -0.129 -1.814 -0 -1.2 0
-0.689 -0.141 -1.882 -0 -1.2 0
-0.717 -0.146 -1.967 -0 -1.2 0
-0.756 -0.143 -2.079 -0 -1.2 0
-0.791 -0.147 -2.182 -0 -1.2 0
-0.83 -0.152 -2.296 -0 -1.2 0
-0.865 -0.164 -2.401 -0 -1.2 0
-0.91 -0.169 -2.533 -0 -1.2 0
-0.959 -0.177 -2.674 -0 -1.2 0
-1.014 -0.183 -2.835 -0 -1.2 0
-1.069 -0.195 -2.996 -0 -1.2 0
-1.102 -0.231 -3.093 -0 -1.2 0
-1.038 -0.343 -2.904 -0 -1.2 0
-1.289 -0.23 -3.638 -0 -1.2 0
-1.378 -0.245 -3.902 -0 -1.2 0
-1.488 -0.259 -4.223 -0 -1.2 0
-1.611 -0.278 -4.582 -0 -1.2 0
-1.766 -0.295 -5.034 -0 -1.2 0
-1.94 -0.322 -5.545 -0 -1.2 0
-2.149 -0.353 -6.159 -0 -1.2 0
-2.398 -0.396 -6.886 -0 -1.2 0
-2.731 -0.444 -7.859 -0 -1.2 0
-3.177 -0.507 -9.163 -0 -1.2 0
-1.172 -0.958 -3.291 -0 -1.2 0
-1.171 -1.022 -3.283 -0 -1.2 0
-1.206 -1.085 -3.389 -0 -1.2 0
-1.21 -1.15 -3.398 -0 -1.2 0
-1.23 -1.217 -3.454 -0 -1.2 0
-1.229 -1.283 -3.452 -0 -1.2 0
-1.218 -1.348 -3.42 -0 -1.2 0
-1.22 -1.414 -3.426 -0 -1.2 0
-1.225 -1.482 -3.438 -0 -1.2 0
-1.22 -1.546 -3.423 -0 -1.2 0
-1.214 -1.611 -3.406 -0 -1.2 0
-1.211 -1.676 -3.397 -0 -1.2 0
-1.211 -1.744 -3.397 -0 -1.2 0
-4.303 -6.326 -12.397 -0 -1.2 0
-4.246 -6.522 -12.23 -0 -1.2 0
-4.509 -9.268 -12.97 -0 -1.2 0
-0.445 -0.094 -0.988 -0 -1.2 0
-0.457 -0.103 -1.018 -0 -1.2 0
-0.472 -0.107 -1.057 -0 -1.2 0
-0.493 -0.1 -1.111 -0 -1.2 0
-0.509 -0.107 -1.15 -0 -1.2 0
-0.53 -0.104 -1.204 -0 -1.2 0
-0.546 -0.113 -1.245 -0 -1.2 0
-0.563 -0.117 -1.292 -0 -1.2 0
-0.582 -0.124 -1.339 -0 -1.2 0
-0.607 -0.122 -1.404 -0 -1.2 0
-0.63 -0.128 -1.46 -0 -1.2 0
-0.655 -0.129 -1.525 -0 -1.2 0
-0.681 -0.133 -1.591 -0 -1.2 0
-0.707 -0.139 -1.656 -0 -1.2 0
-0.736 -0.144 -1.73 -0 -1.2 0
-0.761 -0.155 -1.797 -0 -1.2 0
-0.797 -0.155 -1.889 -0 -1.2 0
-0.837 -0.155 -1.991 -0 -1.2 0
-0.874 -0.163 -2.084 -0 -1.2 0
-0.914 -0.17 -2.186 -0 -1.2 0
-0.961 -0.174 -2.307 -0 -1.2 0
-1.012 -0.179 -2.436 -0 -1.2 0
-1.055 -0.195 -2.549 -0 -1.2 0
-1.117 -0.2 -2.706 -0 -1.2 0
-1.176 -0.214 -2.855 -0 -1.2 0
-1.248 -0.223 -3.041 -0 -1.2 0
-1.317 -0.241 -3.217 -0 -1.2 0
-1.411 -0.25 -3.459 -0 -1.2 0
-1.51 -0.266 -3.71 -0 -1.2 0
-1.625 -0.282 -4.007 -0 -1.2 0
-1.757 -0.302 -4.341 -0 -1.2 0
-1.912 -0.323 -4.741 -0 -1.2 0
-2.109 -0.345 -5.242 -0 -1.2 0
-2.319 -0.382 -5.781 -0 -1.2 0
-2.581 -0.423 -6.451 -0 -1.2 0
-2.909 -0.476 -7.287 -0 -1.2 0
-3.345 -0.541 -8.402 -0 -1.2 0
-3.912 -0.632 -9.852 -0 -1.2 0
-4.708 -0.759 -11.889 -0 -1.2 0
-4.741 -0.984 -11.966 -0 -1.2 0
-4.738 -1.212 -11.956 -0 -1.2 0
-4.735 -1.439 -11.944 -0 -1.2 0
-4.745 -1.667 -11.964 -0 -1.2 0
-4.745 -1.895 -11.961 -0 -1.2 0
-4.749 -2.123 -11.965 -0 -1.2 0
-4.751 -2.352 -11.965 -0 -1.2 0
-4.704 -2.566 -11.84 -0 -1.2 0
-4.807 -2.831 -12.101 -0 -1.2 0
-4.812 -3.067 -12.107 -0 -1.2 0
-4.818 -3.305 -12.119 -0 -1.2 0
-4.826 -3.546 -12.136 -0 -1.2 0
-4.83 -3.786 -12.14 -0 -1.2 0
-4.839 -4.031 -12.158 -0 -1.2 0
-4.846 -4.278 -12.172 -0 -1.2 0
-4.847 -4.524 -12.171 -0 -1.2 0
-4.869 -4.787 -12.222 -0 -1.2 0
-4.875 -5.042 -12.231 -0 -1.2 0
-4.878 -5.297 -12.236 -0 -1.2 0
-4.887 -5.561 -12.253 -0 -1.2 0
-4.898 -5.83 -12.275 -0 -1.2 0
-4.896 -6.09 -12.266 -0 -1.2 0
-4.873 -6.33 -12.2 -0 -1.2 0
-4.897 -6.626 -12.259 -0 -1.2 0
-4.908 -6.91 -12.278 -0 -1.2 0
-4.912 -7.192 -12.283 -0 -1.2 0
-4.913 -7.476 -12.283 -0 -1.2 0
-4.919 -7.772 -12.293 -0 -1.2 0
-4.92 -8.064 -12.29 -0 -1.2 0
-4.926 -8.368 -12.297 -0 -1.2 0
-4.931 -8.679 -12.307 -0 -1.2 0
-4.926 -8.978 -12.285 -0 -1.2 0
-4.82 -9.116 -12.012 -0 -1.2 0
-4.624 -9.093 -11.511 -0 -1.2 0
-4.543 -9.255 -11.301 -0 -1.2 0
-4.401 -9.301 -10.937 -0 -1.2 0
-0.484 -0.105 -0.937 -0 -1.2 0
-0.501 -0.107 -0.974 -0 -1.2 0
-0.517 -0.111 -1.012 -0 -1.2 0
-0.537 -0.111 -1.058 -0 -1.2 0
-0.553 -0.117 -1.095 -0 -1.2 0
-0.578 -0.113 -1.149 -0 -1.2 0
-0.597 -0.116 -1.195 -0 -1.2 0
-0.614 -0.127 -1.234 -0 -1.2 0
-0.639 -0.128 -1.288 -0 -1.2 0
-0.66 -0.136 -1.336 -0 -1.2 0
-0.687 -0.135 -1.399 -0 -1.2 0
-0.711 -0.142 -1.455 -0 -1.2 0
-0.739 -0.145 -1.519 -0 -1.2 0
-0.771 -0.147 -1.591 -0 -1.2 0
-0.8 -0.154 -1.656 -0 -1.2 0
-0.836 -0.157 -1.738 -0 -1.2 0
-0.868 -0.165 -1.812 -0 -1.2 0
-0.911 -0.165 -1.912 -0 -1.2 0
-0.952 -0.172 -2.004 -0 -1.2 0
-0.996 -0.178 -2.104 -0 -1.2 0
-1.043 -0.186 -2.214 -0 -1.2 0
-1.092 -0.196 -2.323 -0 -1.2 0
-1.144 -0.207 -2.442 -0 -1.2 0
-1.204 -0.217 -2.58 -0 -1.2 0
-1.277 -0.225 -2.743 -0 -1.2 0
-1.344 -0.24 -2.899 -0 -1.2 0
-1.424 -0.255 -3.081 -0 -1.2 0
-1.525 -0.264 -3.31 -0 -1.2 0
-1.624 -0.283 -3.537 -0 -1.2 0
-1.748 -0.299 -3.821 -0 -1.2 0
-1.884 -0.32 -4.132 -0 -1.2 0
-2.052 -0.341 -4.515 -0 -1.2 0
-2.249 -0.367 -4.962 -0 -1.2 0
-2.474 -0.401 -5.474 -0 -1.2 0
-2.734 -0.447 -6.067 -0 -1.2 0
-3.078 -0.498 -6.853 -0 -1.2 0
-3.471 -0.571 -7.749 -0 -1.2 0
-4.047 -0.656 -9.065 -0 -1.2 0
-4.625 -0.792 -10.379 -0 -1.2 0
-4.628 -0.993 -10.382 -0 -1.2 0
-4.63 -1.195 -10.382 -0 -1.2 0
-4.635 -1.397 -10.387 -0 -1.2 0
-4.638 -1.598 -10.39 -0 -1.2 0
-4.636 -1.8 -10.379 -0 -1.2 0
-4.64 -2.002 -10.384 -0 -1.2 0
-4.636 -2.204 -10.368 -0 -1.2 0
-4.633 -2.406 -10.357 -0 -1.2 0
-4.59 -2.595 -10.252 -0 -1.2 0
-4.938 -2.924 -11.041 -0 -1.2 0
-4.935 -3.142 -11.028 -0 -1.2 0
-4.934 -3.361 -11.02 -0 -1.2 0
-4.936 -3.582 -11.018 -0 -1.2 0
-4.935 -3.804 -11.011 -0 -1.2 0
-4.929 -4.024 -10.992 -0 -1.2 0
-4.922 -4.244 -10.97 -0 -1.2 0
-4.924 -4.472 -10.971 -0 -1.2 0
-4.926 -4.702 -10.967 -0 -1.2 0
-4.759 -4.803 -10.584 -0 -1.2 0
-4.761 -5.03 -10.583 -0 -1.2 0
-4.769 -5.266 -10.596 -0 -1.2 0
-4.771 -5.498 -10.595 -0 -1.2 0
-4.777 -5.736 -10.6 -0 -1.2 0
-4.779 -5.975 -10.6 -0 -1.2 0
-4.787 -6.225 -10.612 -0 -1.2 0
-4.767 -6.447 -10.561 -0 -1.2 0
-4.738 -6.659 -10.489 -0 -1.2 0
-4.893 -7.098 -10.833 -0 -1.2 0
-4.892 -7.358 -10.824 -0 -1.2 0
-4.892 -7.625 -10.818 -0 -1.2 0
-4.884 -7.882 -10.791 -0 -1.2 0
-4.883 -8.157 -10.783 -0 -1.2 0
-4.891 -8.449 -10.792 -0 -1.2 0
-4.872 -8.706 -10.742 -0 -1.2 0
-4.775 -8.842 -10.52 -0 -1.2 0
-4.746 -9.085 -10.446 -0 -1.2 0
-4.589 -9.108 -10.085 -0 -1.2 0
-4.423 -9.101 -9.706 -0 -1.2 0
-4.367 -9.288 -9.575 -0 -1.2 0
-4.209 -9.275 -9.213 -0 -1.2 0
-0.527 -0.105 -0.89 -0 -1.2 0
-0.541 -0.114 -0.919 -0 -1.2 0
-0.559 -0.118 -0.956 -0 -1.2 0
-0.578 -0.122 -0.993 -0 -1.2 0
-0.596 -0.128 -1.031 -0 -1.2 0
-0.625 -0.118 -1.09 -0 -1.2 0
-0.639 -0.132 -1.12 -0 -1.2 0
-0.665 -0.131 -1.173 -0 -1.2 0
-0.688 -0.136 -1.219 -0 -1.2 0
-0.714 -0.139 -1.273 -0 -1.2 0
-0.737 -0.148 -1.319 -0 -1.2 0
-0.772 -0.144 -1.39 -0 -1.2 0
-0.798 -0.151 -1.444 -0 -1.2 0
-0.829 -0.157 -1.507 -0 -1.2 0
-0.864 -0.159 -1.579 -0 -1.2 0
-0.895 -0.169 -1.642 -0 -1.2 0
-0.934 -0.173 -1.722 -0 -1.2 0
-0.978 -0.176 -1.812 -0 -1.2 0
-1.025 -0.178 -1.909 -0 -1.2 0
-1.066 -0.19 -1.991 -0 -1.2 0
-1.117 -0.196 -2.099 -0 -1.2 0
-1.171 -0.205 -2.206 -0 -1.2 0
-1.223 -0.219 -2.314 -0 -1.2 0
-1.289 -0.227 -2.448 -0 -1.2 0
-1.359 -0.238 -2.591 -0 -1.2 0
-1.433 -0.252 -2.744 -0 -1.2 0
-1.512 -0.268 -2.904 -0 -1.2 0
-1.626 -0.274 -3.136 -0 -1.2 0
-1.727 -0.294 -3.343 -0 -1.2 0
-1.85 -0.312 -3.594 -0 -1.2 0
-1.989 -0.333 -3.88 -0 -1.2 0
-2.173 -0.35 -4.256 -0 -1.2 0
-2.357 -0.382 -4.632 -0 -1.2 0
-2.593 -0.413 -5.116 -0 -1.2 0
-2.844 -0.46 -5.626 -0 -1.2 0
-3.177 -0.511 -6.307 -0 -1.2 0
-3.575 -0.578 -7.122 -0 -1.2 0
-4.114 -0.662 -8.224 -0 -1.2 0
-4.552 -0.795 -9.119 -0 -1.2 0
-4.561 -0.976 -9.13 -0 -1.2 0
-4.558 -1.158 -9.121 -0 -1.2 0
-4.564 -1.339 -9.127 -0 -1.2 0
-4.559 -1.519 -9.112 -0 -1.2 0
-4.567 -1.702 -9.121 -0 -1.2 0
-4.558 -1.882 -9.101 -0 -1.2 0
-4.563 -2.064 -9.104 -0 -1.2 0
-4.562 -2.245 -9.096 -0 -1.2 0
-4.559 -2.428 -9.085 -0 -1.2 0
-4.484 -2.587 -8.928 -0 -1.2 0
-4.649 -2.827 -9.257 -0 -1.2 0
-4.65 -3.017 -9.254 -0 -1.2 0
-4.65 -3.206 -9.248 -0 -1.2 0
-4.643 -3.394 -9.23 -0 -1.2 0
-4.649 -3.589 -9.236 -0 -1.2 0
-4.649 -3.782 -9.23 -0 -1.2 0
-4.651 -3.978 -9.228 -0 -1.2 0
-4.656 -4.178 -9.233 -0 -1.2 0
-4.655 -4.376 -9.226 -0 -1.2 0
-4.657 -4.578 -9.223 -0 -1.2 0
-4.656 -4.78 -9.216 -0 -1.2 0
-4.663 -4.991 -9.224 -0 -1.2 0
-4.672 -5.206 -9.236 -0 -1.2 0
-4.675 -5.42 -9.236 -0 -1.2 0
-4.672 -5.631 -9.223 -0 -1.2 0
-4.683 -5.858 -9.24 -0 -1.2 0
-4.681 -6.076 -9.228 -0 -1.2 0
-4.683 -6.303 -9.229 -0 -1.2 0
-4.688 -6.537 -9.232 -0 -1.2 0
-4.68 -6.757 -9.208 -0 -1.2 0
-4.685 -6.999 -9.211 -0 -1.2 0
-4.683 -7.237 -9.201 -0 -1.2 0
-4.68 -7.476 -9.187 -0 -1.2 0
-4.682 -7.727 -9.183 -0 -1.2 0
-4.681 -7.981 -9.174 -0 -1.2 0
-4.681 -8.241 -9.167 -0 -1.2 0
-4.676 -8.498 -9.148 -0 -1.2 0
-4.645 -8.721 -9.081 -0 -1.2 0
-4.66 -9.022 -9.101 -0 -1.2 0
-4.558 -9.128 -8.891 -0 -1.2 0
-4.388 -9.102 -8.541 -0 -1.2 0
-4.297 -9.213 -8.352 -0 -1.2 0
-4.196 -9.3 -8.142 -0 -1.2 0
-4.078 -9.348 -7.899 -0 -1.2 0
-0.557 -0.107 -0.839 -0 -1.2 0
-0.576 -0.109 -0.875 -0 -1.2 0
-0.592 -0.118 -0.904 -0 -1.2 0
-0.615 -0.116 -0.947 -0 -1.2 0
-0.631 -0.128 -0.977 -0 -1.2 0
-0.658 -0.123 -1.028 -0 -1.2 0
-0.678 -0.131 -1.065 -0 -1.2 0
-0.706 -0.129 -1.116 -0 -1.2 0
-0.734 -0.129 -1.169 -0 -1.2 0
-0.753 -0.14 -1.207 -0 -1.2 0
-0.786 -0.139 -1.268 -0 -1.2 0
-0.815 -0.144 -1.321 -0 -1.2 0
-0.843 -0.151 -1.374 -0 -1.2 0
-0.876 -0.156 -1.435 -0 -1.2 0
-0.913 -0.157 -1.506 -0 -1.2 0
-0.95 -0.162 -1.576 -0 -1.2 0
-0.993 -0.165 -1.655 -0 -1.2 0
-1.035 -0.17 -1.734 -0 -1.2 0
-1.078 -0.179 -1.814 -0 -1.2 0
-1.12 -0.19 -1.894 -0 -1.2 0
-1.168 -0.202 -1.982 -0 -1.2 0
-1.224 -0.209 -2.087 -0 -1.2 0
-1.284 -0.217 -2.202 -0 -1.2 0
-1.351 -0.227 -2.325 -0 -1.2 0
-1.425 -0.235 -2.465 -0 -1.2 0
-1.501 -0.249 -2.606 -0 -1.2 0
-1.59 -0.261 -2.773 -0 -1.2 0
-1.684 -0.277 -2.949 -0 -1.2 0
-1.792 -0.294 -3.151 -0 -1.2 0
-1.927 -0.307 -3.405 -0 -1.2 0
-2.068 -0.328 -3.668 -0 -1.2 0
-2.241 -0.348 -3.994 -0 -1.2 0
-2.443 -0.372 -4.371 -0 -1.2 0
-2.654 -0.408 -4.768 -0 -1.2 0
-2.931 -0.445 -5.287 -0 -1.2 0
-3.228 -0.499 -5.841 -0 -1.2 0
-3.631 -0.558 -6.597 -0 -1.2 0
-4.143 -0.634 -7.556 -0 -1.2 0
-4.443 -0.765 -8.117 -0 -1.2 0
-4.453 -0.93 -8.129 -0 -1.2 0
-4.446 -1.095 -8.112 -0 -1.2 0
-4.452 -1.259 -8.118 -0 -1.2 0
-4.448 -1.423 -8.105 -0 -1.2 0
-4.451 -1.589 -8.106 -0 -1.2 0
-4.458 -1.755 -8.115 -0 -1.2 0
-4.453 -1.919 -8.103 -0 -1.2 0
-4.457 -2.085 -8.105 -0 -1.2 0
-4.456 -2.251 -8.097 -0 -1.2 0
-4.443 -2.414 -8.068 -0 -1.2 0
-4.382 -2.561 -7.95 -0 -1.2 0
-4.874 -2.908 -8.863 -0 -1.2 0
-4.875 -3.093 -8.859 -0 -1.2 0
-4.873 -3.279 -8.852 -0 -1.2 0
-4.866 -3.462 -8.833 -0 -1.2 0
-4.88 -3.658 -8.854 -0 -1.2 0
-4.87 -3.843 -8.83 -0 -1.2 0
-4.798 -3.992 -8.692 -0 -1.2 0
-4.872 -4.228 -8.822 -0 -1.2 0
-4.857 -4.414 -8.788 -0 -1.2 0
-4.867 -4.618 -8.802 -0 -1.2 0
-4.782 -4.752 -8.638 -0 -1.2 0
-4.553 -4.766 -8.209 -0 -1.2 0
-4.547 -4.951 -8.191 -0 -1.2 0
-4.551 -5.149 -8.195 -0 -1.2 0
-4.549 -5.344 -8.186 -0 -1.2 0
-4.551 -5.543 -8.183 -0 -1.2 0
-4.55 -5.744 -8.175 -0 -1.2 0
-4.556 -5.956 -8.18 -0 -1.2 0
-4.56 -6.168 -8.181 -0 -1.2 0
-4.56 -6.382 -8.177 -0 -1.2 0
-4.478 -6.498 -8.018 -0 -1.2 0
-4.848 -7.179 -8.694 -0 -1.2 0
-4.844 -7.414 -8.68 -0 -1.2 0
-4.846 -7.66 -8.677 -0 -1.2 0
-4.846 -7.908 -8.669 -0 -1.2 0
-4.826 -8.136 -8.626 -0 -1.2 0
-4.839 -8.416 -8.643 -0 -1.2 0
-4.835 -8.674 -8.626 -0 -1.2 0
-4.675 -8.689 -8.328 -0 -1.2 0
-4.532 -8.72 -8.058 -0 -1.2 0
-4.53 -8.986 -8.046 -0 -1.2 0
-4.437 -9.097 -7.87 -0 -1.2 0
-4.281 -9.083 -7.575 -0 -1.2 0
-4.177 -9.163 -7.379 -0 -1.2 0
-4.102 -9.291 -7.234 -0 -1.2 0
-3.964 -9.29 -6.976 -0 -1.2 0
-0.59 -0.103 -0.796 -0 -1.2 0
-0.61 -0.106 -0.831 -0 -1.2 0
-0.623 -0.121 -0.853 -0 -1.2 0
-0.652 -0.112 -0.902 -0 -1.2 0
-0.672 -0.117 -0.938 -0 -1.2 0
-0.693 -0.124 -0.973 -0 -1.2 0
-0.715 -0.131 -1.009 -0 -1.2 0
-0.743 -0.129 -1.061 -0 -1.2 0
-0.769 -0.133 -1.104 -0 -1.2 0
-0.799 -0.134 -1.156 -0 -1.2 0
-0.828 -0.136 -1.207 -0 -1.2 0
-0.859 -0.141 -1.259 -0 -1.2 0
-0.89 -0.147 -1.312 -0 -1.2 0
-0.924 -0.151 -1.372 -0 -1.2 0
-0.96 -0.156 -1.433 -0 -1.2 0
-1.004 -0.156 -1.51 -0 -1.2 0
-1.04 -0.166 -1.57 -0 -1.2 0
-1.084 -0.171 -1.649 -0 -1.2 0
-1.125 -0.182 -1.718 -0 -1.2 0
-1.175 -0.188 -1.804 -0 -1.2 0
-1.225 -0.197 -1.89 -0 -1.2 0
-1.29 -0.201 -2.002 -0 -1.2 0
-1.351 -0.211 -2.106 -0 -1.2 0
-1.42 -0.219 -2.226 -0 -1.2 0
-1.49 -0.232 -2.347 -0 -1.2 0
-1.575 -0.242 -2.493 -0 -1.2 0
-1.651 -0.262 -2.623 -0 -1.2 0
-1.755 -0.273 -2.803 -0 -1.2 0
-1.87 -0.287 -3.002 -0 -1.2 0
-2 -0.303 -3.226 -0 -1.2 0
-2.154 -0.317 -3.493 -0 -1.2 0
-2.329 -0.337 -3.794 -0 -1.2 0
-2.515 -0.365 -4.113 -0 -1.2 0
-2.74 -0.396 -4.501 -0 -1.2 0
-3.006 -0.433 -4.958 -0 -1.2 0
-3.321 -0.479 -5.501 -0 -1.2 0
-3.691 -0.538 -6.139 -0 -1.2 0
-4.201 -0.606 -7.019 -0 -1.2 0
-4.362 -0.739 -7.293 -0 -1.2 0
-4.367 -0.891 -7.296 -0 -1.2 0
-4.354 -1.043 -7.271 -0 -1.2 0
-4.356 -1.195 -7.27 -0 -1.2 0
-4.362 -1.346 -7.275 -0 -1.2 0
-4.365 -1.498 -7.278 -0 -1.2 0
-4.373 -1.65 -7.287 -0 -1.2 0
-4.365 -1.801 -7.269 -0 -1.2 0
-4.364 -1.953 -7.264 -0 -1.2 0
-4.368 -2.106 -7.267 -0 -1.2 0
-4.365 -2.259 -7.258 -0 -1.2 0
-4.332 -2.402 -7.196 -0 -1.2 0
-4.292 -2.542 -7.123 -0 -1.2 0
-4.439 -2.749 -7.371 -0 -1.2 0
-4.445 -2.91 -7.378 -0 -1.2 0
-4.446 -3.07 -7.374 -0 -1.2 0
-4.439 -3.228 -7.359 -0 -1.2 0
-4.446 -3.394 -7.366 -0 -1.2 0
-4.447 -3.558 -7.363 -0 -1.2 0
-4.451 -3.725 -7.365 -0 -1.2 0
-4.448 -3.891 -7.356 -0 -1.2 0
-4.448 -4.059 -7.353 -0 -1.2 0
-4.443 -4.225 -7.338 -0 -1.2 0
-4.446 -4.399 -7.337 -0 -1.2 0
-4.451 -4.577 -7.342 -0 -1.2 0
-4.45 -4.753 -7.336 -0 -1.2 0
-4.456 -4.937 -7.341 -0 -1.2 0
-4.451 -5.116 -7.328 -0 -1.2 0
-4.449 -5.297 -7.32 -0 -1.2 0
-4.45 -5.486 -7.316 -0 -1.2 0
-4.453 -5.68 -7.317 -0 -1.2 0
-4.45 -5.87 -7.306 -0 -1.2 0
-4.454 -6.071 -7.307 -0 -1.2 0
-4.459 -6.279 -7.312 -0 -1.2 0
-4.449 -6.473 -7.29 -0 -1.2 0
-4.451 -6.683 -7.286 -0 -1.2 0
-4.454 -6.901 -7.286 -0 -1.2 0
-4.451 -7.116 -7.274 -0 -1.2 0
-4.454 -7.343 -7.272 -0 -1.2 0
-4.453 -7.571 -7.266 -0 -1.2 0
-4.454 -7.807 -7.261 -0 -1.2 0
-4.453 -8.045 -7.252 -0 -1.2 0
-4.46 -8.305 -7.258 -0 -1.2 0
-4.457 -8.554 -7.245 -0 -1.2 0
-4.416 -8.743 -7.169 -0 -1.2 0
-4.407 -8.994 -7.147 -0 -1.2 0
-4.294 -9.06 -6.951 -0 -1.2 0
-4.138 -9.037 -6.681 -0 -1.2 0
-4.062 -9.162 -6.548 -0 -1.2 0
-3.965 -9.24 -6.377 -0 -1.2 0
-3.856 -9.292 -6.189 -0 -1.2 0
-0.621 -0.106 -0.741 -0 -1.2 0
-0.643 -0.107 -0.776 -0 -1.2 0
-0.66 -0.116 -0.803 -0 -1.2 0
-0.686 -0.113 -0.844 -0 -1.2 0
-0.708 -0.117 -0.879 -0 -1.2 0
-0.739 -0.111 -0.928 -0 -1.2 0
-0.757 -0.124 -0.956 -0 -1.2 0
-0.784 -0.127 -0.998 -0 -1.2 0
-0.81 -0.13 -1.041 -0 -1.2 0
-0.838 -0.136 -1.084 -0 -1.2 0
-0.87 -0.137 -1.134 -0 -1.2 0
-0.906 -0.136 -1.192 -0 -1.2 0
-0.939 -0.142 -1.244 -0 -1.2 0
-0.971 -0.149 -1.295 -0 -1.2 0
-1.009 -0.155 -1.354 -0 -1.2 0
-1.046 -0.162 -1.413 -0 -1.2 0
-1.088 -0.167 -1.481 -0 -1.2 0
-1.137 -0.169 -1.557 -0 -1.2 0
-1.184 -0.176 -1.632 -0 -1.2 0
-1.237 -0.181 -1.716 -0 -1.2 0
-1.287 -0.193 -1.793 -0 -1.2 0
-1.345 -0.202 -1.885 -0 -1.2 0
-1.409 -0.21 -1.986 -0 -1.2 0
-1.478 -0.219 -2.095 -0 -1.2 0
-1.558 -0.227 -2.222 -0 -1.2 0
-1.638 -0.24 -2.348 -0 -1.2 0
-1.723 -0.255 -2.483 -0 -1.2 0
-1.824 -0.269 -2.643 -0 -1.2 0
-1.936 -0.284 -2.82 -0 -1.2 0
-2.079 -0.294 -3.047 -0 -1.2 0
-2.228 -0.312 -3.282 -0 -1.2 0
-2.409 -0.328 -3.568 -0 -1.2 0
-2.585 -0.358 -3.846 -0 -1.2 0
-2.819 -0.384 -4.217 -0 -1.2 0
-3.059 -0.424 -4.595 -0 -1.2 0
-3.406 -0.46 -5.143 -0 -1.2 0
-3.747 -0.519 -5.683 -0 -1.2 0
-4.232 -0.582 -6.449 -0 -1.2 0
-4.317 -0.713 -6.581 -0 -1.2 0
-4.327 -0.853 -6.594 -0 -1.2 0
-4.315 -0.995 -6.57 -0 -1.2 0
-4.311 -1.135 -6.561 -0 -1.2 0
-4.317 -1.276 -6.568 -0 -1.2 0
-4.311 -1.417 -6.555 -0 -1.2 0
-4.315 -1.557 -6.556 -0 -1.2 0
-4.317 -1.698 -6.555 -0 -1.2 0
-4.317 -1.839 -6.554 -0 -1.2 0
-4.322 -1.981 -6.558 -0 -1.2 0
-4.315 -2.121 -6.542 -0 -1.2 0
-4.312 -2.262 -6.533 -0 -1.2 0
-4.259 -2.389 -6.448 -0 -1.2 0
-4.254 -2.53 -6.435 -0 -1.2 0
-4.452 -2.745 -6.744 -0 -1.2 0
-4.453 -2.896 -6.742 -0 -1.2 0
-4.448 -3.045 -6.73 -0 -1.2 0
-4.446 -3.196 -6.724 -0 -1.2 0
-4.443 -3.348 -6.715 -0 -1.2 0
-4.444 -3.502 -6.712 -0 -1.2 0
-4.443 -3.658 -6.707 -0 -1.2 0
-4.441 -3.814 -6.699 -0 -1.2 0
-4.436 -3.97 -6.689 -0 -1.2 0
-4.431 -4.127 -6.676 -0 -1.2 0
-4.434 -4.291 -6.677 -0 -1.2 0
-4.43 -4.453 -6.667 -0 -1.2 0
-4.424 -4.616 -6.654 -0 -1.2 0
-4.397 -4.762 -6.608 -0 -1.2 0
-4.398 -4.933 -6.605 -0 -1.2 0
-4.402 -5.11 -6.607 -0 -1.2 0
-4.395 -5.279 -6.591 -0 -1.2 0
-4.399 -5.463 -6.593 -0 -1.2 0
-4.398 -5.643 -6.586 -0 -1.2 0
-4.408 -5.84 -6.597 -0 -1.2 0
-4.406 -6.027 -6.59 -0 -1.2 0
-4.412 -6.227 -6.594 -0 -1.2 0
-4.379 -6.384 -6.537 -0 -1.2 0
-4.321 -6.513 -6.443 -0 -1.2 0
-4.41 -6.83 -6.574 -0 -1.2 0
-4.413 -7.047 -6.576 -0 -1.2 0
-4.411 -7.26 -6.566 -0 -1.2 0
-4.41 -7.482 -6.559 -0 -1.2 0
-4.411 -7.71 -6.554 -0 -1.2 0
-4.408 -7.941 -6.544 -0 -1.2 0
-4.403 -8.173 -6.529 -0 -1.2 0
-4.406 -8.427 -6.529 -0 -1.2 0
-4.374 -8.629 -6.473 -0 -1.2 0
-4.356 -8.858 -6.439 -0 -1.2 0
-4.307 -9.038 -6.358 -0 -1.2 0
-4.159 -9.031 -6.123 -0 -1.2 0
-4.012 -9.014 -5.89 -0 -1.2 0
-3.979 -9.223 -5.833 -0 -1.2 0
-3.844 -9.22 -5.618 -0 -1.2 0
-0.653 -0.097 -0.703 -0 -1.2 0
-0.676 -0.098 -0.736 -0 -1.2 0
-0.695 -0.106 -0.763 -0 -1.2 0
-0.718 -0.109 -0.797 -0 -1.2 0
-0.741 -0.113 -0.831 -0 -1.2 0
-0.769 -0.113 -0.872 -0 -1.2 0
-0.788 -0.125 -0.899 -0 -1.2 0
-0.816 -0.126 -0.941 -0 -1.2 0
-0.844 -0.13 -0.983 -0 -1.2 0
-0.878 -0.13 -1.031 -0 -1.2 0
-0.906 -0.136 -1.073 -0 -1.2 0
-0.945 -0.134 -1.13 -0 -1.2 0
-0.978 -0.139 -1.18 -0 -1.2 0
-1.008 -0.151 -1.222 -0 -1.2 0
-1.042 -0.159 -1.273 -0 -1.2 0
-1.081 -0.166 -1.331 -0 -1.2 0
-1.132 -0.165 -1.404 -0 -1.2 0
-1.181 -0.167 -1.478 -0 -1.2 0
-1.227 -0.176 -1.544 -0 -1.2 0
-1.283 -0.18 -1.626 -0 -1.2 0
-1.349 -0.181 -1.724 -0 -1.2 0
-1.385 -0.205 -1.776 -0 -1.2 0
-1.463 -0.206 -1.89 -0 -1.2 0
-1.53 -0.217 -1.989 -0 -1.2 0
-1.603 -0.229 -2.096 -0 -1.2 0
-1.687 -0.24 -2.22 -0 -1.2 0
-1.782 -0.25 -2.359 -0 -1.2 0
-1.883 -0.264 -2.508 -0 -1.2 0
-1.989 -0.282 -2.664 -0 -1.2 0
-2.124 -0.295 -2.861 -0 -1.2 0
-2.281 -0.309 -3.091 -0 -1.2 0
-2.449 -0.329 -3.338 -0 -1.2 0
-2.645 -0.351 -3.626 -0 -1.2 0
-2.858 -0.381 -3.939 -0 -1.2 0
-3.116 -0.414 -4.319 -0 -1.2 0
-3.425 -0.453 -4.771 -0 -1.2 0
-3.767 -0.506 -5.273 -0 -1.2 0
-4.205 -0.567 -5.916 -0 -1.2 0
-4.245 -0.695 -5.972 -0 -1.2 0
-4.255 -0.825 -5.984 -0 -1.2 0
-4.248 -0.957 -5.969 -0 -1.2 0
-4.244 -1.089 -5.962 -0 -1.2 0
-4.25 -1.22 -5.968 -0 -1.2 0
-4.245 -1.351 -5.956 -0 -1.2 0
-4.248 -1.483 -5.959 -0 -1.2 0
-4.251 -1.614 -5.96 -0 -1.2 0
-4.246 -1.745 -5.95 -0 -1.2 0
-4.247 -1.877 -5.948 -0 -1.2 0
-4.251 -2.011 -5.951 -0 -1.2 0
-4.248 -2.143 -5.944 -0 -1.2 0
-4.244 -2.275 -5.935 -0 -1.2 0
-4.189 -2.393 -5.852 -0 -1.2 0
-4.182 -2.523 -5.839 -0 -1.2 0
-4.81 -2.891 -6.753 -0 -1.2 0
-4.793 -3.038 -6.726 -0 -1.2 0
-4.633 -3.124 -6.487 -0 -1.2 0
-4.799 -3.353 -6.727 -0 -1.2 0
-4.8 -3.512 -6.724 -0 -1.2 0
-4.777 -3.659 -6.688 -0 -1.2 0
-4.801 -3.833 -6.719 -0 -1.2 0
-4.641 -3.9 -6.483 -0 -1.2 0
-4.572 -4.014 -6.378 -0 -1.2 0
-4.687 -4.251 -6.542 -0 -1.2 0
-4.62 -4.368 -6.441 -0 -1.2 0
-4.719 -4.607 -6.581 -0 -1.2 0
-4.593 -4.679 -6.393 -0 -1.2 0
-4.403 -4.692 -6.115 -0 -1.2 0
-4.328 -4.792 -6.002 -0 -1.2 0
-4.328 -4.956 -5.999 -0 -1.2 0
-4.331 -5.124 -5.999 -0 -1.2 0
-4.327 -5.291 -5.99 -0 -1.2 0
-4.322 -5.458 -5.977 -0 -1.2 0
-4.329 -5.641 -5.984 -0 -1.2 0
-4.332 -5.825 -5.986 -0 -1.2 0
-4.335 -6.011 -5.984 -0 -1.2 0
-4.335 -6.199 -5.98 -0 -1.2 0
-4.328 -6.381 -5.965 -0 -1.2 0
-4.253 -6.483 -5.853 -0 -1.2 0
-4.679 -7.243 -6.464 -0 -1.2 0
-4.616 -7.378 -6.367 -0 -1.2 0
-4.666 -7.675 -6.435 -0 -1.2 0
-4.659 -7.9 -6.419 -0 -1.2 0
-4.55 -7.976 -6.257 -0 -1.2 0
-4.641 -8.36 -6.382 -0 -1.2 0
-4.625 -8.588 -6.354 -0 -1.2 0
-4.49 -8.624 -6.155 -0 -1.2 0
-4.332 -8.611 -5.922 -0 -1.2 0
-4.282 -8.784 -5.846 -0 -1.2 0
-4.251 -8.994 -5.795 -0 -1.2 0
-4.125 -9.024 -5.607 -0 -1.2 0
-3.976 -9.005 -5.39 -0 -1.2 0
-0.676 -0.1 -0.651 -0 -1.2 0
-0.696 -0.107 -0.677 -0 -1.2 0
-0.724 -0.102 -0.717 -0 -1.2 0
-0.743 -0.111 -0.743 -0 -1.2 0
-0.768 -0.114 -0.776 -0 -1.2 0
-0.796 -0.113 -0.815 -0 -1.2 0
-0.826 -0.114 -0.855 -0 -1.2 0
-0.845 -0.127 -0.883 -0 -1.2 0
-0.875 -0.129 -0.923 -0 -1.2 0
-0.91 -0.129 -0.971 -0 -1.2 0
-0.94 -0.134 -1.012 -0 -1.2 0
-0.97 -0.142 -1.053 -0 -1.2 0
-1.006 -0.146 -1.101 -0 -1.2 0
-1.046 -0.147 -1.158 -0 -1.2 0
-1.082 -0.155 -1.207 -0 -1.2 0
-1.123 -0.16 -1.263 -0 -1.2 0
-1.18 -0.154 -1.342 -0 -1.2 0
-1.222 -0.164 -1.399 -0 -1.2 0
-1.27 -0.173 -1.463 -0 -1.2 0
-1.323 -0.18 -1.537 -0 -1.2 0
-1.392 -0.179 -1.631 -0 -1.2 0
-1.446 -0.192 -1.705 -0 -1.2 0
-1.505 -0.204 -1.786 -0 -1.2 0
-1.575 -0.215 -1.882 -0 -1.2 0
-1.652 -0.225 -1.986 -0 -1.2 0
-1.729 -0.24 -2.092 -0 -1.2 0
-1.833 -0.245 -2.236 -0 -1.2 0
-1.934 -0.26 -2.372 -0 -1.2 0
-2.04 -0.278 -2.518 -0 -1.2 0
-2.18 -0.288 -2.71 -0 -1.2 0
-2.332 -0.303 -2.919 -0 -1.2 0
-2.492 -0.325 -3.136 -0 -1.2 0
-2.696 -0.343 -3.418 -0 -1.2 0
-2.908 -0.371 -3.707 -0 -1.2 0
-3.161 -0.403 -4.054 -0 -1.2 0
-3.466 -0.44 -4.472 -0 -1.2 0
-3.789 -0.491 -4.914 -0 -1.2 0
-4.171 -0.554 -5.438 -0 -1.2 0
-4.19 -0.676 -5.459 -0 -1.2 0
-4.194 -0.8 -5.464 -0 -1.2 0
-4.186 -0.924 -5.45 -0 -1.2 0
-4.182 -1.048 -5.443 -0 -1.2 0
-4.189 -1.171 -5.45 -0 -1.2 0
-4.183 -1.295 -5.439 -0 -1.2 0
-4.188 -1.419 -5.443 -0 -1.2 0
-4.185 -1.541 -5.437 -0 -1.2 0
-4.181 -1.664 -5.429 -0 -1.2 0
-4.182 -1.788 -5.427 -0 -1.2 0
-4.186 -1.914 -5.432 -0 -1.2 0
-4.185 -2.038 -5.427 -0 -1.2 0
-4.187 -2.164 -5.427 -0 -1.2 0
-4.183 -2.289 -5.419 -0 -1.2 0
-4.118 -2.395 -5.329 -0 -1.2 0
-4.135 -2.526 -5.348 -0 -1.2 0
-4.253 -2.698 -5.508 -0 -1.2 0
-4.249 -2.827 -5.499 -0 -1.2 0
-4.254 -2.961 -5.504 -0 -1.2 0
-4.252 -3.094 -5.499 -0 -1.2 0
-4.249 -3.228 -5.492 -0 -1.2 0
-4.256 -3.367 -5.5 -0 -1.2 0
-4.251 -3.501 -5.489 -0 -1.2 0
-4.254 -3.643 -5.491 -0 -1.2 0
-4.261 -3.788 -5.499 -0 -1.2 0
-4.262 -3.931 -5.496 -0 -1.2 0
-4.26 -4.075 -5.492 -0 -1.2 0
-4.257 -4.219 -5.485 -0 -1.2 0
-4.253 -4.364 -5.476 -0 -1.2 0
-4.258 -4.518 -5.479 -0 -1.2 0
-4.255 -4.67 -5.472 -0 -1.2 0
-4.255 -4.826 -5.47 -0 -1.2 0
-4.26 -4.987 -5.472 -0 -1.2 0
-4.261 -5.152 -5.472 -0 -1.2 0
-4.261 -5.316 -5.468 -0 -1.2 0
-4.259 -5.482 -5.462 -0 -1.2 0
-4.259 -5.654 -5.459 -0 -1.2 0
-4.257 -5.828 -5.453 -0 -1.2 0
-4.258 -6.008 -5.451 -0 -1.2 0
-4.257 -6.189 -5.445 -0 -1.2 0
-4.244 -6.361 -5.423 -0 -1.2 0
-4.218 -6.52 -5.385 -0 -1.2 0
-4.275 -6.792 -5.458 -0 -1.2 0
-4.295 -7.024 -5.481 -0 -1.2 0
-4.303 -7.246 -5.487 -0 -1.2 0
-4.307 -7.47 -5.489 -0 -1.2 0
-4.312 -7.702 -5.492 -0 -1.2 0
-4.318 -7.943 -5.495 -0 -1.2 0
-4.334 -8.208 -5.511 -0 -1.2 0
-4.328 -8.448 -5.498 -0 -1.2 0
-4.266 -8.594 -5.41 -0 -1.2 0
-4.213 -8.761 -5.335 -0 -1.2 0
-4.182 -8.972 -5.288 -0 -1.2 0
-0.709 -0.09 -0.608 -0 -1.2 0
-0.72 -0.11 -0.621 -0 -1.2 0
-0.754 -0.099 -0.666 -0 -1.2 0
-0.774 -0.106 -0.691 -0 -1.2 0
-0.799 -0.11 -0.724 -0 -1.2 0
-0.829 -0.109 -0.762 -0 -1.2 0
-0.855 -0.114 -0.794 -0 -1.2 0
-0.885 -0.116 -0.834 -0 -1.2 0
-0.912 -0.123 -0.867 -0 -1.2 0
-0.942 -0.127 -0.906 -0 -1.2 0
-0.974 -0.133 -0.946 -0 -1.2 0
-1.011 -0.134 -0.993 -0 -1.2 0
-1.042 -0.143 -1.033 -0 -1.2 0
-1.08 -0.149 -1.081 -0 -1.2 0
-1.122 -0.151 -1.135 -0 -1.2 0
-1.176 -0.147 -1.204 -0 -1.2 0
-1.209 -0.162 -1.245 -0 -1.2 0
-1.264 -0.163 -1.315 -0 -1.2 0
-1.313 -0.169 -1.378 -0 -1.2 0
-1.374 -0.172 -1.456 -0 -1.2 0
-1.435 -0.177 -1.533 -0 -1.2 0
-1.491 -0.189 -1.605 -0 -1.2 0
-1.559 -0.197 -1.691 -0 -1.2 0
-1.615 -0.215 -1.763 -0 -1.2 0
-1.701 -0.221 -1.872 -0 -1.2 0
-1.787 -0.231 -1.982 -0 -1.2 0
-1.879 -0.244 -2.099 -0 -1.2 0
-1.984 -0.257 -2.232 -0 -1.2 0
-2.094 -0.272 -2.373 -0 -1.2 0
-2.23 -0.284 -2.545 -0 -1.2 0
-2.389 -0.296 -2.748 -0 -1.2 0
-2.537 -0.321 -2.936 -0 -1.2 0
-2.733 -0.34 -3.187 -0 -1.2 0
-2.949 -0.365 -3.461 -0 -1.2 0
-3.189 -0.397 -3.767 -0 -1.2 0
-3.496 -0.43 -4.158 -0 -1.2 0
-3.816 -0.477 -4.566 -0 -1.2 0
-4.149 -0.541 -4.989 -0 -1.2 0
-4.15 -0.659 -4.987 -0 -1.2 0
-4.154 -0.776 -4.991 -0 -1.2 0
-4.145 -0.893 -4.978 -0 -1.2 0
-4.148 -1.01 -4.98 -0 -1.2 0
-4.15 -1.127 -4.98 -0 -1.2 0
-4.149 -1.244 -4.978 -0 -1.2 0
-4.148 -1.361 -4.974 -0 -1.2 0
-4.152 -1.477 -4.977 -0 -1.2 0
-4.16 -1.595 -4.986 -0 -1.2 0
-4.155 -1.712 -4.977 -0 -1.2 0
-4.155 -1.83 -4.975 -0 -1.2 0
-4.166 -1.95 -4.987 -0 -1.2 0
-4.156 -2.067 -4.974 -0 -1.2 0
-4.146 -2.183 -4.959 -0 -1.2 0
-4.16 -2.307 -4.973 -0 -1.2 0
-4.073 -2.4 -4.863 -0 -1.2 0
-4.12 -2.535 -4.92 -0 -1.2 0
-4.213 -2.692 -5.036 -0 -1.2 0
-4.22 -2.82 -5.044 -0 -1.2 0
-4.214 -2.943 -5.033 -0 -1.2 0
-4.218 -3.073 -5.037 -0 -1.2 0
-4.215 -3.199 -5.03 -0 -1.2 0
