# .PCD v.7 - Point Cloud Data file format
FIELDS x y z vp_x vp_y vp_z
SIZE 4 4 4 4 4 4
TYPE F F F F F F
COUNT 1 1 1 1 1 1
WIDTH 1590
HEIGHT 1
VIEWPOINT 0 -1.20013 0 1 0 0 0
POINTS 1590
DATA ascii
6.258 -13.496 -11.049 -0 -1.2 0
0.544 0.014 -1.086 -0 -1.2 0
0.562 0.015 -1.123 -0 -1.2 0
0.581 0.015 -1.16 -0 -1.2 0
0.599 0.012 -1.197 -0 -1.2 0
0.621 0.016 -1.242 -0 -1.2 0
0.644 0.018 -1.287 -0 -1.2 0
0.659 0.007 -1.318 -0 -1.2 0
0.682 0.007 -1.364 -0 -1.2 0
0.705 0.005 -1.41 -0 -1.2 0
0.732 0.008 -1.464 -0 -1.2 0
0.755 0.003 -1.51 -0 -1.2 0
0.782 0.002 -1.565 -0 -1.2 0
0.809 0 -1.62 -0 -1.2 0
0.833 -0.009 -1.667 -0 -1.2 0
0.865 -0.01 -1.73 -0 -1.2 0
0.9 -0.009 -1.802 -0 -1.2 0
0.936 -0.008 -1.874 -0 -1.2 0
0.968 -0.017 -1.938 -0 -1.2 0
1.004 -0.022 -2.01 -0 -1.2 0
1.053 -0.017 -2.109 -0 -1.2 0
1.097 -0.02 -2.199 -0 -1.2 0
1.159 -0.01 -2.322 -0 -1.2 0
1.217 -0.008 -2.438 -0 -1.2 0
1.275 -0.01 -2.555 -0 -1.2 0
1.325 -0.024 -2.655 -0 -1.2 0
1.404 -0.019 -2.816 -0 -1.2 0
1.48 -0.021 -2.968 -0 -1.2 0
1.565 -0.024 -3.138 -0 -1.2 0
1.667 -0.022 -3.344 -0 -1.2 0
1.774 -0.024 -3.558 -0 -1.2 0
1.903 -0.023 -3.817 -0 -1.2 0
2.041 -0.026 -4.095 -0 -1.2 0
2.21 -0.025 -4.435 -0 -1.2 0
2.392 -0.031 -4.802 -0 -1.2 0
2.606 -0.037 -5.232 -0 -1.2 0
2.873 -0.041 -5.769 -0 -1.2 0
3.194 -0.048 -6.413 -0 -1.2 0
3.59 -0.057 -7.21 -0 -1.2 0
4.12 -0.064 -8.275 -0 -1.2 0
4.797 -0.079 -9.636 -0 -1.2 0
5.635 -0.119 -11.319 -0 -1.2 0
7.299 -0.112 -14.667 -0 -1.2 0
12.513 -2.818 -25.037 -0 -1.2 0
12.501 -3.305 -24.993 -0 -1.2 0
12.631 -4.81 -25.19 -0 -1.2 0
12.622 -5.305 -25.15 -0 -1.2 0
7.344 -4.413 -14.574 -0 -1.2 0
7.339 -4.705 -14.552 -0 -1.2 0
8.211 -5.466 -16.272 -0 -1.2 0
7.289 -5.269 -14.426 -0 -1.2 0
7.836 -6.553 -15.473 -0 -1.2 0
6.1 -5.594 -12.022 -0 -1.2 0
5.801 -5.617 -11.418 -0 -1.2 0
5.756 -5.828 -11.319 -0 -1.2 0
6.693 -6.894 -13.159 -0 -1.2 0
4.943 -5.583 -9.694 -0 -1.2 0
6.945 -7.727 -13.628 -0 -1.2 0
5.05 -6.132 -9.886 -0 -1.2 0
5.063 -6.375 -9.901 -0 -1.2 0
5.089 -6.639 -9.942 -0 -1.2 0
4.819 -6.568 -9.403 -0 -1.2 0
5.206 -7.262 -10.152 -0 -1.2 0
4.848 -7.07 -9.44 -0 -1.2 0
4.568 -6.948 -8.883 -0 -1.2 0
4.716 -7.376 -9.161 -0 -1.2 0
4.708 -7.608 -9.135 -0 -1.2 0
4.816 -8.011 -9.335 -0 -1.2 0
6.38 -10.622 -12.369 -0 -1.2 0
4.403 -7.888 -8.51 -0 -1.2 0
6.961 -12.271 -13.468 -0 -1.2 0
4.358 -8.313 -8.403 -0 -1.2 0
4.347 -8.551 -8.371 -0 -1.2 0
4.473 -9.037 -8.602 -0 -1.2 0
4.41 -9.198 -8.468 -0 -1.2 0
4.415 -9.488 -8.465 -0 -1.2 0
4.565 -10.078 -8.744 -0 -1.2 0
5.137 -11.561 -9.829 -0 -1.2 0
5.849 -13.435 -11.182 -0 -1.2 0
0.507 0.021 -1.111 -0 -1.2 0
0.522 0.014 -1.142 -0 -1.2 0
0.545 0.027 -1.193 -0 -1.2 0
0.559 0.018 -1.225 -0 -1.2 0
0.577 0.015 -1.263 -0 -1.2 0
0.594 0.012 -1.302 -0 -1.2 0
0.618 0.019 -1.355 -0 -1.2 0
0.633 0.006 -1.387 -0 -1.2 0
0.654 0.004 -1.434 -0 -1.2 0
0.679 0.007 -1.489 -0 -1.2 0
0.7 0.002 -1.536 -0 -1.2 0
0.726 0 -1.592 -0 -1.2 0
0.751 -0.001 -1.647 -0 -1.2 0
0.773 -0.011 -1.696 -0 -1.2 0
0.806 -0.006 -1.768 -0 -1.2 0
0.839 -0.005 -1.841 -0 -1.2 0
0.872 -0.006 -1.914 -0 -1.2 0
0.898 -0.019 -1.971 -0 -1.2 0
0.939 -0.015 -2.062 -0 -1.2 0
0.98 -0.014 -2.153 -0 -1.2 0
1.018 -0.021 -2.235 -0 -1.2 0
1.064 -0.023 -2.336 -0 -1.2 0
1.125 -0.014 -2.471 -0 -1.2 0
1.175 -0.02 -2.582 -0 -1.2 0
1.237 -0.019 -2.718 -0 -1.2 0
1.303 -0.021 -2.864 -0 -1.2 0
1.373 -0.024 -3.019 -0 -1.2 0
1.456 -0.024 -3.201 -0 -1.2 0
1.551 -0.022 -3.409 -0 -1.2 0
1.65 -0.024 -3.628 -0 -1.2 0
1.769 -0.023 -3.892 -0 -1.2 0
1.898 -0.027 -4.174 -0 -1.2 0
2.038 -0.034 -4.484 -0 -1.2 0
2.212 -0.038 -4.866 -0 -1.2 0
2.41 -0.045 -5.303 -0 -1.2 0
2.65 -0.052 -5.83 -0 -1.2 0
2.964 -0.053 -6.523 -0 -1.2 0
3.327 -0.064 -7.323 -0 -1.2 0
3.803 -0.075 -8.37 -0 -1.2 0
4.406 -0.096 -9.7 -0 -1.2 0
5.229 -0.127 -11.512 -0 -1.2 0
6.777 -0.123 -14.926 -0 -1.2 0
11.374 -2.801 -24.938 -0 -1.2 0
11.36 -3.277 -24.886 -0 -1.2 0
11.767 -4.346 -25.734 -0 -1.2 0
11.527 -4.767 -25.187 -0 -1.2 0
11.421 -5.217 -24.933 -0 -1.2 0
11.734 -5.83 -25.596 -0 -1.2 0
11.76 -6.343 -25.629 -0 -1.2 0
6.668 -4.351 -14.494 -0 -1.2 0
6.919 -5.071 -15.014 -0 -1.2 0
6.869 -5.343 -14.893 -0 -1.2 0
6.927 -5.683 -15.005 -0 -1.2 0
6.97 -6.021 -15.084 -0 -1.2 0
5.127 -4.94 -11.071 -0 -1.2 0
5.15 -5.189 -11.109 -0 -1.2 0
5.159 -5.431 -11.118 -0 -1.2 0
5.154 -5.664 -11.098 -0 -1.2 0
5.019 -5.777 -10.794 -0 -1.2 0
5.142 -6.135 -11.051 -0 -1.2 0
5.634 -7.162 -12.086 -0 -1.2 0
4.798 -6.491 -10.276 -0 -1.2 0
4.819 -6.754 -10.309 -0 -1.2 0
4.358 -6.428 -9.308 -0 -1.2 0
4.582 -6.94 -9.777 -0 -1.2 0
6.432 -9.66 -13.734 -0 -1.2 0
5.39 -8.551 -11.487 -0 -1.2 0
4.466 -7.503 -9.497 -0 -1.2 0
6.663 -11.057 -14.179 -0 -1.2 0
4.334 -7.797 -9.195 -0 -1.2 0
4.642 -8.544 -9.839 -0 -1.2 0
4.283 -8.214 -9.062 -0 -1.2 0
4.289 -8.482 -9.063 -0 -1.2 0
4.086 -8.38 -8.62 -0 -1.2 0
4.366 -9.162 -9.202 -0 -1.2 0
4.314 -9.343 -9.078 -0 -1.2 0
4.081 -9.165 -8.574 -0 -1.2 0
4.121 -9.527 -8.646 -0 -1.2 0
4.297 -10.192 -9.002 -0 -1.2 0
0.47 0.02 -1.127 -0 -1.2 0
0.483 0.013 -1.159 -0 -1.2 0
0.499 0.013 -1.197 -0 -1.2 0
0.515 0.011 -1.236 -0 -1.2 0
0.534 0.014 -1.282 -0 -1.2 0
0.55 0.011 -1.321 -0 -1.2 0
0.57 0.011 -1.368 -0 -1.2 0
0.589 0.011 -1.415 -0 -1.2 0
0.612 0.015 -1.47 -0 -1.2 0
0.629 0.006 -1.51 -0 -1.2 0
0.649 0.001 -1.559 -0 -1.2 0
0.672 0 -1.615 -0 -1.2 0
0.696 -0.002 -1.671 -0 -1.2 0
0.723 -0.001 -1.736 -0 -1.2 0
0.743 -0.013 -1.786 -0 -1.2 0
0.777 -0.006 -1.867 -0 -1.2 0
0.808 -0.007 -1.942 -0 -1.2 0
0.839 -0.01 -2.017 -0 -1.2 0
0.87 -0.016 -2.092 -0 -1.2 0
0.908 -0.016 -2.184 -0 -1.2 0
0.943 -0.023 -2.268 -0 -1.2 0
0.993 -0.017 -2.388 -0 -1.2 0
1.035 -0.023 -2.489 -0 -1.2 0
1.089 -0.022 -2.619 -0 -1.2 0
1.142 -0.025 -2.748 -0 -1.2 0
1.211 -0.019 -2.914 -0 -1.2 0
1.269 -0.029 -3.053 -0 -1.2 0
1.342 -0.032 -3.228 -0 -1.2 0
1.429 -0.03 -3.441 -0 -1.2 0
1.532 -0.025 -3.69 -0 -1.2 0
1.639 -0.026 -3.948 -0 -1.2 0
1.769 -0.023 -4.261 -0 -1.2 0
1.896 -0.033 -4.567 -0 -1.2 0
2.049 -0.041 -4.937 -0 -1.2 0
2.222 -0.054 -5.352 -0 -1.2 0
2.448 -0.059 -5.897 -0 -1.2 0
2.731 -0.063 -6.58 -0 -1.2 0
3.068 -0.074 -7.393 -0 -1.2 0
3.504 -0.086 -8.446 -0 -1.2 0
4.079 -0.104 -9.831 -0 -1.2 0
4.818 -0.141 -11.614 -0 -1.2 0
5.959 -0.183 -14.366 -0 -1.2 0
10.277 -0.446 -24.776 -0 -1.2 0
10.468 -0.909 -25.214 -0 -1.2 0
10.472 -1.384 -25.2 -0 -1.2 0
10.484 -1.859 -25.207 -0 -1.2 0
10.489 -2.335 -25.197 -0 -1.2 0
10.484 -2.809 -25.161 -0 -1.2 0
10.483 -3.283 -25.136 -0 -1.2 0
10.746 -4.315 -25.722 -0 -1.2 0
10.655 -4.773 -25.48 -0 -1.2 0
10.374 -5.15 -24.784 -0 -1.2 0
10.673 -5.757 -25.476 -0 -1.2 0
10.659 -6.242 -25.421 -0 -1.2 0
10.717 -7.768 -25.486 -0 -1.2 0
10.713 -8.272 -25.452 -0 -1.2 0
4.886 -4.587 -11.565 -0 -1.2 0
4.676 -4.658 -11.055 -0 -1.2 0
4.659 -4.869 -11.004 -0 -1.2 0
5.363 -5.704 -12.66 -0 -1.2 0
5.319 -5.928 -12.547 -0 -1.2 0
4.818 -5.707 -11.345 -0 -1.2 0
4.75 -5.879 -11.174 -0 -1.2 0
4.624 -5.986 -10.864 -0 -1.2 0
5.685 -7.41 -13.356 -0 -1.2 0
4.374 -6.172 -10.253 -0 -1.2 0
4.227 -6.222 -9.894 -0 -1.2 0
4.688 -7.038 -10.97 -0 -1.2 0
3.561 -5.791 -8.31 -0 -1.2 0
5.381 -8.516 -12.571 -0 -1.2 0
5.126 -8.45 -11.96 -0 -1.2 0
3.968 -7.002 -9.233 -0 -1.2 0
5.183 -9.133 -12.065 -0 -1.2 0
4.801 -8.821 -11.158 -0 -1.2 0
4.47 -8.555 -10.371 -0 -1.2 0
3.816 -7.688 -8.833 -0 -1.2 0
4.04 -8.337 -9.344 -0 -1.2 0
3.89 -8.316 -8.982 -0 -1.2 0
4.041 -8.869 -9.322 -0 -1.2 0
3.927 -8.913 -9.043 -0 -1.2 0
4.446 -10.267 -10.231 -0 -1.2 0
3.866 -9.334 -8.874 -0 -1.2 0
4.126 -10.197 -9.46 -0 -1.2 0
0.429 0.012 -1.136 -0 -1.2 0
0.444 0.013 -1.174 -0 -1.2 0
0.458 0.012 -1.213 -0 -1.2 0
0.473 0.01 -1.252 -0 -1.2 0
0.493 0.02 -1.306 -0 -1.2 0
0.506 0.01 -1.339 -0 -1.2 0
0.524 0.01 -1.386 -0 -1.2 0
0.544 0.016 -1.441 -0 -1.2 0
0.562 0.014 -1.489 -0 -1.2 0
0.584 0.016 -1.546 -0 -1.2 0
0.602 0.011 -1.595 -0 -1.2 0
0.618 -0.001 -1.636 -0 -1.2 0
0.639 -0.003 -1.694 -0 -1.2 0
0.664 -0.002 -1.759 -0 -1.2 0
0.686 -0.009 -1.818 -0 -1.2 0
0.714 -0.008 -1.892 -0 -1.2 0
0.739 -0.012 -1.959 -0 -1.2 0
0.768 -0.016 -2.035 -0 -1.2 0
0.799 -0.017 -2.12 -0 -1.2 0
0.835 -0.017 -2.213 -0 -1.2 0
0.87 -0.02 -2.308 -0 -1.2 0
0.909 -0.023 -2.41 -0 -1.2 0
0.951 -0.025 -2.523 -0 -1.2 0
1.004 -0.02 -2.663 -0 -1.2 0
1.05 -0.027 -2.784 -0 -1.2 0
1.106 -0.028 -2.934 -0 -1.2 0
1.163 -0.034 -3.085 -0 -1.2 0
1.236 -0.031 -3.28 -0 -1.2 0
1.32 -0.026 -3.505 -0 -1.2 0
1.415 -0.021 -3.757 -0 -1.2 0
1.51 -0.026 -4.01 -0 -1.2 0
1.623 -0.028 -4.309 -0 -1.2 0
1.739 -0.038 -4.618 -0 -1.2 0
1.883 -0.045 -5.001 -0 -1.2 0
2.042 -0.058 -5.423 -0 -1.2 0
2.242 -0.067 -5.957 -0 -1.2 0
2.485 -0.077 -6.603 -0 -1.2 0
2.816 -0.08 -7.482 -0 -1.2 0
3.199 -0.098 -8.502 -0 -1.2 0
3.745 -0.111 -9.952 -0 -1.2 0
4.407 -0.153 -11.713 -0 -1.2 0
5.505 -0.187 -14.632 -0 -1.2 0
9.227 -0.477 -24.524 -0 -1.2 0
9.761 -4.293 -25.748 -0 -1.2 0
9.628 -4.727 -25.374 -0 -1.2 0
9.374 -5.097 -24.679 -0 -1.2 0
9.629 -5.685 -25.326 -0 -1.2 0
9.541 -6.121 -25.07 -0 -1.2 0
9.416 -6.529 -24.716 -0 -1.2 0
4.664 -4.013 -12.198 -0 -1.2 0
4.648 -4.239 -12.147 -0 -1.2 0
5.663 -5.219 -14.796 -0 -1.2 0
5.666 -5.512 -14.788 -0 -1.2 0
4.305 -4.669 -11.212 -0 -1.2 0
4.444 -5.016 -11.56 -0 -1.2 0
4.842 -5.625 -12.59 -0 -1.2 0
4.383 -5.426 -11.379 -0 -1.2 0
5.771 -7.119 -14.984 -0 -1.2 0
4.332 -5.843 -11.219 -0 -1.2 0
3.924 -5.608 -10.147 -0 -1.2 0
4.123 -6.069 -10.653 -0 -1.2 0
4.771 -7.128 -12.325 -0 -1.2 0
3.891 -6.229 -10.027 -0 -1.2 0
4.693 -7.57 -12.092 -0 -1.2 0
3.308 -5.838 -8.496 -0 -1.2 0
3.576 -6.44 -9.178 -0 -1.2 0
4.331 -7.845 -11.115 -0 -1.2 0
4.727 -8.765 -12.125 -0 -1.2 0
4.131 -8.051 -10.575 -0 -1.2 0
3.75 -7.643 -9.58 -0 -1.2 0
3.888 -8.141 -9.921 -0 -1.2 0
4.134 -8.871 -10.539 -0 -1.2 0
3.826 -8.547 -9.736 -0 -1.2 0
3.713 -8.584 -9.432 -0 -1.2 0
3.735 -8.899 -9.477 -0 -1.2 0
3.439 -8.525 -8.707 -0 -1.2 0
3.702 -9.381 -9.365 -0 -1.2 0
3.81 -10.223 -9.608 -0 -1.2 0
0.386 0.004 -1.144 -0 -1.2 0
0.401 0.012 -1.189 -0 -1.2 0
0.414 0.011 -1.229 -0 -1.2 0
0.428 0.009 -1.268 -0 -1.2 0
0.443 0.012 -1.315 -0 -1.2 0
0.457 0.009 -1.356 -0 -1.2 0
0.473 0.009 -1.404 -0 -1.2 0
0.492 0.015 -1.46 -0 -1.2 0
0.508 0.013 -1.509 -0 -1.2 0
0.525 0.009 -1.558 -0 -1.2 0
0.541 0.004 -1.608 -0 -1.2 0
0.561 0.003 -1.665 -0 -1.2 0
0.58 0 -1.724 -0 -1.2 0
0.603 0.001 -1.79 -0 -1.2 0
0.62 -0.01 -1.841 -0 -1.2 0
0.645 -0.009 -1.917 -0 -1.2 0
0.674 -0.005 -2.001 -0 -1.2 0
0.697 -0.013 -2.07 -0 -1.2 0
0.722 -0.019 -2.147 -0 -1.2 0
0.757 -0.015 -2.251 -0 -1.2 0
0.786 -0.022 -2.336 -0 -1.2 0
0.824 -0.02 -2.451 -0 -1.2 0
0.866 -0.019 -2.574 -0 -1.2 0
0.904 -0.025 -2.687 -0 -1.2 0
0.952 -0.025 -2.83 -0 -1.2 0
1.003 -0.027 -2.981 -0 -1.2 0
1.054 -0.033 -3.133 -0 -1.2 0
1.123 -0.027 -3.342 -0 -1.2 0
1.274 0.046 -3.796 -0 -1.2 0
1.357 0.044 -4.043 -0 -1.2 0
1.38 -0.017 -4.107 -0 -1.2 0
1.466 -0.031 -4.364 -0 -1.2 0
1.575 -0.04 -4.687 -0 -1.2 0
1.699 -0.05 -5.056 -0 -1.2 0
1.839 -0.065 -5.474 -0 -1.2 0
2.027 -0.071 -6.033 -0 -1.2 0
2.231 -0.089 -6.641 -0 -1.2 0
2.523 -0.094 -7.512 -0 -1.2 0
2.895 -0.103 -8.621 -0 -1.2 0
3.347 -0.129 -9.967 -0 -1.2 0
3.989 -0.16 -11.882 -0 -1.2 0
4.994 -0.194 -14.877 -0 -1.2 0
8.188 -0.505 -24.385 -0 -1.2 0
8.859 -0.94 -26.361 -0 -1.2 0
8.86 -1.424 -26.338 -0 -1.2 0
8.868 -1.907 -26.335 -0 -1.2 0
8.874 -2.392 -26.325 -0 -1.2 0
8.88 -2.876 -26.316 -0 -1.2 0
8.883 -3.36 -26.298 -0 -1.2 0
8.89 -3.847 -26.292 -0 -1.2 0
8.847 -4.317 -26.136 -0 -1.2 0
8.569 -4.685 -25.288 -0 -1.2 0
8.343 -5.049 -24.595 -0 -1.2 0
8.514 -5.598 -25.074 -0 -1.2 0
8.58 -6.108 -25.244 -0 -1.2 0
8.613 -6.606 -25.313 -0 -1.2 0
5.061 -4.608 -14.832 -0 -1.2 0
5.011 -4.854 -14.668 -0 -1.2 0
8.63 -8.073 -25.282 -0 -1.2 0
4.467 -4.948 -13.038 -0 -1.2 0
3.906 -4.685 -11.384 -0 -1.2 0
3.462 -4.472 -10.068 -0 -1.2 0
3.933 -5.164 -11.436 -0 -1.2 0
3.532 -4.953 -10.252 -0 -1.2 0
3.625 -5.271 -10.513 -0 -1.2 0
3.327 -5.123 -9.632 -0 -1.2 0
4.069 -6.277 -11.781 -0 -1.2 0
3.129 -5.261 -9.033 -0 -1.2 0
2.936 -5.184 -8.463 -0 -1.2 0
3.85 -6.716 -11.103 -0 -1.2 0
3.186 -5.941 -9.166 -0 -1.2 0
3.576 -6.772 -10.281 -0 -1.2 0
3.633 -7.104 -10.434 -0 -1.2 0
4.544 -8.932 -13.049 -0 -1.2 0
3.938 -8.146 -11.283 -0 -1.2 0
3.859 -8.273 -11.043 -0 -1.2 0
4.414 -9.629 -12.623 -0 -1.2 0
4.121 -9.356 -11.764 -0 -1.2 0
3.671 -8.718 -10.459 -0 -1.2 0
3.337 -8.269 -9.486 -0 -1.2 0
3.495 -8.883 -9.926 -0 -1.2 0
3.55 -9.284 -10.064 -0 -1.2 0
3.615 -9.731 -10.235 -0 -1.2 0
3.58 -9.943 -10.119 -0 -1.2 0
3.362 -9.684 -9.483 -0 -1.2 0
3.441 -10.19 -9.692 -0 -1.2 0
0.351 0.018 -1.169 -0 -1.2 0
0.361 0.011 -1.202 -0 -1.2 0
0.373 0.011 -1.242 -0 -1.2 0
0.387 0.015 -1.289 -0 -1.2 0
0.401 0.018 -1.337 -0 -1.2 0
0.411 0.008 -1.37 -0 -1.2 0
0.426 0.008 -1.419 -0 -1.2 0
0.44 0.008 -1.468 -0 -1.2 0
0.455 0.006 -1.517 -0 -1.2 0
0.472 0.008 -1.575 -0 -1.2 0
0.49 0.009 -1.633 -0 -1.2 0
0.502 -0.003 -1.675 -0 -1.2 0
0.52 -0.006 -1.734 -0 -1.2 0
0.54 -0.004 -1.801 -0 -1.2 0
0.563 -0.001 -1.877 -0 -1.2 0
0.583 -0.005 -1.946 -0 -1.2 0
0.606 -0.006 -2.023 -0 -1.2 0
0.629 -0.009 -2.101 -0 -1.2 0
0.65 -0.02 -2.169 -0 -1.2 0
0.684 -0.011 -2.283 -0 -1.2 0
0.71 -0.02 -2.371 -0 -1.2 0
0.742 -0.022 -2.477 -0 -1.2 0
0.776 -0.024 -2.591 -0 -1.2 0
0.816 -0.023 -2.726 -0 -1.2 0
0.859 -0.023 -2.869 -0 -1.2 0
0.902 -0.029 -3.013 -0 -1.2 0
0.951 -0.032 -3.176 -0 -1.2 0
1.059 0.024 -3.541 -0 -1.2 0
1.155 0.053 -3.864 -0 -1.2 0
1.238 0.057 -4.141 -0 -1.2 0
1.31 0.042 -4.383 -0 -1.2 0
1.339 -0.017 -4.476 -0 -1.2 0
1.412 -0.046 -4.717 -0 -1.2 0
1.532 -0.051 -5.12 -0 -1.2 0
1.661 -0.065 -5.551 -0 -1.2 0
1.816 -0.079 -6.069 -0 -1.2 0
1.999 -0.098 -6.683 -0 -1.2 0
2.259 -0.104 -7.554 -0 -1.2 0
2.591 -0.114 -8.665 -0 -1.2 0
3.004 -0.138 -10.045 -0 -1.2 0
3.562 -0.175 -11.912 -0 -1.2 0
4.43 -0.216 -14.815 -0 -1.2 0
7.276 -0.527 -24.327 -0 -1.2 0
7.989 -0.956 -26.688 -0 -1.2 0
8.219 -1.45 -27.431 -0 -1.2 0
8.228 -1.948 -27.429 -0 -1.2 0
8.233 -2.447 -27.418 -0 -1.2 0
8.254 -2.95 -27.456 -0 -1.2 0
8.265 -3.453 -27.466 -0 -1.2 0
7.919 -4.313 -26.253 -0 -1.2 0
7.606 -4.649 -25.187 -0 -1.2 0
7.413 -5.009 -24.516 -0 -1.2 0
7.486 -5.505 -24.728 -0 -1.2 0
4.107 -3.759 -13.52 -0 -1.2 0
4.047 -3.968 -13.304 -0 -1.2 0
4.052 -4.222 -13.309 -0 -1.2 0
4.043 -4.466 -13.263 -0 -1.2 0
4.133 -4.799 -13.546 -0 -1.2 0
3.925 -4.858 -12.845 -0 -1.2 0
3.706 -4.881 -12.111 -0 -1.2 0
3.568 -4.967 -11.643 -0 -1.2 0
3.707 -5.357 -12.084 -0 -1.2 0
3.65 -5.528 -11.883 -0 -1.2 0
4.039 -6.27 -13.14 -0 -1.2 0
3.232 -5.444 -10.491 -0 -1.2 0
3.292 -5.745 -10.672 -0 -1.2 0
3.132 -5.729 -10.136 -0 -1.2 0
2.796 -5.419 -9.031 -0 -1.2 0
3.113 -6.133 -10.052 -0 -1.2 0
3.081 -6.297 -9.931 -0 -1.2 0
3.065 -6.49 -9.867 -0 -1.2 0
2.976 -6.548 -9.565 -0 -1.2 0
3.909 -8.569 -12.567 -0 -1.2 0
3.653 -8.352 -11.724 -0 -1.2 0
3.743 -8.821 -11.999 -0 -1.2 0
3.738 -9.103 -11.963 -0 -1.2 0
3.686 -9.286 -11.779 -0 -1.2 0
3.325 -8.747 -10.603 -0 -1.2 0
3.15 -8.601 -10.023 -0 -1.2 0
3.624 -10.055 -11.525 -0 -1.2 0
3.235 -9.364 -10.263 -0 -1.2 0
3.093 -9.274 -9.795 -0 -1.2 0
0.31 0.01 -1.174 -0 -1.2 0
0.32 0.01 -1.213 -0 -1.2 0
0.331 0.01 -1.254 -0 -1.2 0
0.343 0.014 -1.301 -0 -1.2 0
0.354 0.011 -1.342 -0 -1.2 0
0.367 0.013 -1.391 -0 -1.2 0
0.378 0.008 -1.432 -0 -1.2 0
0.393 0.013 -1.489 -0 -1.2 0
0.404 0.005 -1.532 -0 -1.2 0
0.419 0.007 -1.59 -0 -1.2 0
0.432 0.002 -1.64 -0 -1.2 0
0.448 0.001 -1.699 -0 -1.2 0
0.466 0.003 -1.767 -0 -1.2 0
0.481 -0.001 -1.826 -0 -1.2 0
0.499 -0.003 -1.895 -0 -1.2 0
0.518 -0.006 -1.964 -0 -1.2 0
0.538 -0.007 -2.042 -0 -1.2 0
0.559 -0.01 -2.12 -0 -1.2 0
0.579 -0.017 -2.199 -0 -1.2 0
0.605 -0.018 -2.296 -0 -1.2 0
0.635 -0.012 -2.411 -0 -1.2 0
0.661 -0.02 -2.509 -0 -1.2 0
0.691 -0.022 -2.626 -0 -1.2 0
0.725 -0.025 -2.752 -0 -1.2 0
0.765 -0.022 -2.906 -0 -1.2 0
0.801 -0.03 -3.041 -0 -1.2 0
0.842 -0.037 -3.197 -0 -1.2 0
0.964 0.051 -3.668 -0 -1.2 0
1.028 0.053 -3.909 -0 -1.2 0
1.099 0.055 -4.18 -0 -1.2 0
1.17 0.047 -4.452 -0 -1.2 0
1.242 0.03 -4.726 -0 -1.2 0
1.293 -0.016 -4.914 -0 -1.2 0
1.362 -0.052 -5.177 -0 -1.2 0
1.472 -0.07 -5.594 -0 -1.2 0
1.614 -0.081 -6.136 -0 -1.2 0
1.78 -0.098 -6.765 -0 -1.2 0
1.542 -0.344 -5.84 -0 -1.2 0
1.536 -0.453 -5.813 -0 -1.2 0
1.539 -0.557 -5.813 -0 -1.2 0
1.55 -0.659 -5.849 -0 -1.2 0
1.55 -0.764 -5.847 -0 -1.2 0
1.556 -0.867 -5.86 -0 -1.2 0
1.566 -0.972 -5.892 -0 -1.2 0
7.201 -0.97 -27.345 -0 -1.2 0
7.21 -1.462 -27.351 -0 -1.2 0
7.216 -1.954 -27.339 -0 -1.2 0
7.224 -2.447 -27.338 -0 -1.2 0
7.233 -2.941 -27.338 -0 -1.2 0
7.249 -3.438 -27.369 -0 -1.2 0
7.004 -4.314 -26.376 -0 -1.2 0
6.672 -4.616 -25.09 -0 -1.2 0
6.523 -4.985 -24.499 -0 -1.2 0
6.547 -5.449 -24.561 -0 -1.2 0
3.821 -3.892 -14.284 -0 -1.2 0
3.651 -4.019 -13.628 -0 -1.2 0
3.795 -4.398 -14.151 -0 -1.2 0
3.736 -4.607 -13.914 -0 -1.2 0
3.602 -4.732 -13.394 -0 -1.2 0
3.186 -4.533 -11.823 -0 -1.2 0
3.218 -4.797 -11.929 -0 -1.2 0
3.335 -5.172 -12.352 -0 -1.2 0
3.166 -5.191 -11.705 -0 -1.2 0
3.09 -5.317 -11.405 -0 -1.2 0
2.491 -4.857 -9.156 -0 -1.2 0
2.561 -5.157 -9.402 -0 -1.2 0
2.609 -5.434 -9.57 -0 -1.2 0
3.747 -7.637 -13.755 -0 -1.2 0
2.716 -6.248 -9.922 -0 -1.2 0
3.229 -8.025 -11.757 -0 -1.2 0
3.439 -8.773 -12.508 -0 -1.2 0
3.303 -8.749 -11.99 -0 -1.2 0
2.921 -8.91 -10.526 -0 -1.2 0
0.269 0.016 -1.191 -0 -1.2 0
0.276 0.01 -1.224 -0 -1.2 0
0.287 0.015 -1.272 -0 -1.2 0
0.294 0.007 -1.306 -0 -1.2 0
0.305 0.01 -1.354 -0 -1.2 0
0.315 0.006 -1.396 -0 -1.2 0
0.326 0.007 -1.445 -0 -1.2 0
0.337 0.006 -1.495 -0 -1.2 0
0.35 0.01 -1.553 -0 -1.2 0
0.36 0.001 -1.596 -0 -1.2 0
0.373 0.001 -1.655 -0 -1.2 0
0.384 -0.005 -1.706 -0 -1.2 0
0.4 -0.002 -1.774 -0 -1.2 0
0.415 -0.002 -1.843 -0 -1.2 0
0.429 -0.009 -1.903 -0 -1.2 0
0.446 -0.008 -1.981 -0 -1.2 0
0.464 -0.009 -2.06 -0 -1.2 0
0.482 -0.012 -2.139 -0 -1.2 0
0.5 -0.019 -2.219 -0 -1.2 0
0.524 -0.014 -2.325 -0 -1.2 0
0.546 -0.019 -2.423 -0 -1.2 0
0.568 -0.025 -2.521 -0 -1.2 0
0.598 -0.02 -2.658 -0 -1.2 0
0.625 -0.026 -2.775 -0 -1.2 0
0.66 -0.023 -2.931 -0 -1.2 0
0.689 -0.035 -3.059 -0 -1.2 0
0.726 -0.038 -3.225 -0 -1.2 0
0.827 0.042 -3.681 -0 -1.2 0
0.888 0.054 -3.953 -0 -1.2 0
0.941 0.044 -4.189 -0 -1.2 0
1.012 0.046 -4.501 -0 -1.2 0
1.082 0.038 -4.815 -0 -1.2 0
1.157 0.022 -5.148 -0 -1.2 0
1.225 -0.011 -5.444 -0 -1.2 0
1.278 -0.066 -5.682 -0 -1.2 0
1.386 -0.089 -6.161 -0 -1.2 0
1.513 -0.119 -6.718 -0 -1.2 0
1.307 -0.361 -5.784 -0 -1.2 0
1.306 -0.466 -5.777 -0 -1.2 0
1.309 -0.569 -5.777 -0 -1.2 0
1.312 -0.671 -5.784 -0 -1.2 0
1.314 -0.773 -5.791 -0 -1.2 0
1.324 -0.875 -5.824 -0 -1.2 0
1.337 -0.976 -5.876 -0 -1.2 0
1.348 -1.081 -5.916 -0 -1.2 0
1.365 -1.186 -5.983 -0 -1.2 0
1.377 -1.293 -6.029 -0 -1.2 0
6.162 -2.447 -27.247 -0 -1.2 0
6.165 -2.934 -27.228 -0 -1.2 0
6.181 -3.425 -27.259 -0 -1.2 0
6.016 -4.313 -26.463 -0 -1.2 0
5.693 -4.589 -25.001 -0 -1.2 0
5.576 -4.958 -24.455 -0 -1.2 0
5.583 -5.406 -24.451 -0 -1.2 0
5.697 -5.949 -24.919 -0 -1.2 0
5.69 -6.397 -24.849 -0 -1.2 0
2.746 -4.082 -11.916 -0 -1.2 0
5.746 -7.842 -24.994 -0 -1.2 0
5.746 -8.312 -24.958 -0 -1.2 0
5.603 -8.592 -24.297 -0 -1.2 0
2.857 -5.137 -12.332 -0 -1.2 0
5.753 -9.754 -24.883 -0 -1.2 0
2.58 -5.171 -11.094 -0 -1.2 0
2.582 -5.393 -11.086 -0 -1.2 0
5.793 -11.298 -24.946 -0 -1.2 0
2.293 -5.302 -9.808 -0 -1.2 0
2.292 -5.499 -9.788 -0 -1.2 0
2.46 -6.046 -10.499 -0 -1.2 0
2.36 -6.269 -10.036 -0 -1.2 0
2.441 -6.674 -10.368 -0 -1.2 0
2.33 -6.856 -9.858 -0 -1.2 0
2.932 -8.648 -12.402 -0 -1.2 0
2.868 -8.767 -12.114 -0 -1.2 0
2.898 -9.139 -12.217 -0 -1.2 0
0.228 0.015 -1.199 -0 -1.2 0
0.236 0.016 -1.24 -0 -1.2 0
0.243 0.008 -1.274 -0 -1.2 0
0.252 0.013 -1.322 -0 -1.2 0
0.261 0.016 -1.371 -0 -1.2 0
0.268 0.006 -1.405 -0 -1.2 0
0.277 0.006 -1.455 -0 -1.2 0
0.288 0.011 -1.513 -0 -1.2 0
0.296 0.003 -1.556 -0 -1.2 0
0.307 0.006 -1.615 -0 -1.2 0
0.317 0 -1.666 -0 -1.2 0
0.329 0 -1.726 -0 -1.2 0
0.342 0.001 -1.795 -0 -1.2 0
0.353 -0.003 -1.855 -0 -1.2 0
0.366 -0.005 -1.925 -0 -1.2 0
0.378 -0.014 -1.987 -0 -1.2 0
0.393 -0.015 -2.066 -0 -1.2 0
0.408 -0.018 -2.145 -0 -1.2 0
0.427 -0.015 -2.243 -0 -1.2 0
0.447 -0.012 -2.35 -0 -1.2 0
0.466 -0.015 -2.449 -0 -1.2 0
0.487 -0.019 -2.558 -0 -1.2 0
0.511 -0.017 -2.685 -0 -1.2 0
0.533 -0.024 -2.804 -0 -1.2 0
0.558 -0.032 -2.932 -0 -1.2 0
0.586 -0.037 -3.08 -0 -1.2 0
0.628 -0.022 -3.304 -0 -1.2 0
0.707 0.047 -3.726 -0 -1.2 0
0.749 0.04 -3.943 -0 -1.2 0
0.801 0.042 -4.218 -0 -1.2 0
0.855 0.037 -4.504 -0 -1.2 0
0.926 0.042 -4.877 -0 -1.2 0
1.001 0.039 -5.27 -0 -1.2 0
1.076 0.022 -5.665 -0 -1.2 0
1.153 -0.006 -6.07 -0 -1.2 0
1.187 -0.086 -6.243 -0 -1.2 0
1.297 -0.115 -6.814 -0 -1.2 0
1.148 -0.341 -6.01 -0 -1.2 0
1.103 -0.475 -5.767 -0 -1.2 0
1.103 -0.577 -5.758 -0 -1.2 0
1.106 -0.679 -5.766 -0 -1.2 0
1.111 -0.78 -5.781 -0 -1.2 0
1.118 -0.88 -5.806 -0 -1.2 0
1.127 -0.982 -5.848 -0 -1.2 0
1.189 -1.407 -6.135 -0 -1.2 0
5.265 -2.954 -27.486 -0 -1.2 0
5.271 -3.443 -27.469 -0 -1.2 0
5.126 -4.325 -26.627 -0 -1.2 0
4.8 -4.564 -24.893 -0 -1.2 0
4.713 -4.937 -24.401 -0 -1.2 0
4.701 -5.363 -24.301 -0 -1.2 0
4.749 -5.849 -24.513 -0 -1.2 0
4.756 -6.302 -24.513 -0 -1.2 0
4.905 -6.927 -25.243 -0 -1.2 0
4.91 -7.396 -25.233 -0 -1.2 0
4.855 -7.787 -24.912 -0 -1.2 0
4.856 -8.252 -24.877 -0 -1.2 0
4.733 -8.525 -24.203 -0 -1.2 0
4.868 -9.209 -24.857 -0 -1.2 0
2.382 -5.275 -12.095 -0 -1.2 0
2.211 -5.407 -11.182 -0 -1.2 0
2.066 -5.325 -10.422 -0 -1.2 0
2.047 -5.493 -10.311 -0 -1.2 0
1.895 -5.356 -9.525 -0 -1.2 0
4.919 -12.76 -24.824 -0 -1.2 0
4.924 -13.289 -24.804 -0 -1.2 0
1.967 -6.135 -9.835 -0 -1.2 0
2.02 -6.489 -10.085 -0 -1.2 0
0.187 0.008 -1.199 -0 -1.2 0
0.193 0.008 -1.24 -0 -1.2 0
0.2 0.008 -1.281 -0 -1.2 0
0.207 0.012 -1.33 -0 -1.2 0
0.214 0.008 -1.371 -0 -1.2 0
0.22 0.005 -1.414 -0 -1.2 0
0.228 0.005 -1.464 -0 -1.2 0
0.237 0.01 -1.522 -0 -1.2 0
0.245 0.008 -1.573 -0 -1.2 0
0.253 0.005 -1.624 -0 -1.2 0
0.261 0 -1.676 -0 -1.2 0
0.269 -0.007 -1.728 -0 -1.2 0
0.281 0 -1.805 -0 -1.2 0
0.291 -0.004 -1.866 -0 -1.2 0
0.3 -0.011 -1.928 -0 -1.2 0
0.314 -0.005 -2.015 -0 -1.2 0
0.325 -0.011 -2.086 -0 -1.2 0
0.336 -0.019 -2.158 -0 -1.2 0
0.35 -0.021 -2.246 -0 -1.2 0
0.367 -0.017 -2.355 -0 -1.2 0
0.382 -0.021 -2.455 -0 -1.2 0
0.401 -0.02 -2.573 -0 -1.2 0
0.419 -0.023 -2.692 -0 -1.2 0
0.439 -0.026 -2.82 -0 -1.2 0
0.461 -0.03 -2.958 -0 -1.2 0
0.484 -0.036 -3.107 -0 -1.2 0
0.526 -0.005 -3.379 -0 -1.2 0
0.588 0.056 -3.785 -0 -1.2 0
0.622 0.049 -4.004 -0 -1.2 0
0.664 0.047 -4.271 -0 -1.2 0
0.712 0.047 -4.578 -0 -1.2 0
0.763 0.039 -4.905 -0 -1.2 0
0.818 0.028 -5.262 -0 -1.2 0
0.892 0.027 -5.736 -0 -1.2 0
0.893 -0.076 -5.735 -0 -1.2 0
0.9 -0.174 -5.761 -0 -1.2 0
0.899 -0.28 -5.748 -0 -1.2 0
0.905 -0.377 -5.78 -0 -1.2 0
0.906 -0.48 -5.771 -0 -1.2 0
0.936 -0.565 -5.959 -0 -1.2 0
0.904 -0.686 -5.74 -0 -1.2 0
0.908 -0.786 -5.756 -0 -1.2 0
0.915 -0.886 -5.79 -0 -1.2 0
0.923 -0.986 -5.832 -0 -1.2 0
0.967 -1.405 -6.072 -0 -1.2 0
4.094 -2.861 -26.048 -0 -1.2 0
4.098 -3.32 -26.022 -0 -1.2 0
4.1 -3.78 -25.989 -0 -1.2 0
4.102 -4.239 -25.957 -0 -1.2 0
3.929 -4.546 -24.812 -0 -1.2 0
3.854 -4.91 -24.289 -0 -1.2 0
3.846 -5.334 -24.199 -0 -1.2 0
3.945 -5.887 -24.782 -0 -1.2 0
3.924 -6.303 -24.598 -0 -1.2 0
4.016 -6.882 -25.138 -0 -1.2 0
4.024 -7.35 -25.14 -0 -1.2 0
3.988 -7.752 -24.874 -0 -1.2 0
3.983 -8.2 -24.793 -0 -1.2 0
3.882 -8.468 -24.117 -0 -1.2 0
3.939 -9.036 -24.428 -0 -1.2 0
3.999 -9.627 -24.753 -0 -1.2 0
1.724 -4.946 -10.586 -0 -1.2 0
1.724 -5.153 -10.573 -0 -1.2 0
1.691 -5.274 -10.345 -0 -1.2 0
4.028 -11.622 -24.738 -0 -1.2 0
3.94 -11.874 -24.146 -0 -1.2 0
1.718 -5.97 -10.446 -0 -1.2 0
4.038 -13.154 -24.646 -0 -1.2 0
0.144 0.007 -1.205 -0 -1.2 0
0.149 0.008 -1.246 -0 -1.2 0
0.154 0.007 -1.287 -0 -1.2 0
0.159 0.004 -1.329 -0 -1.2 0
0.165 0.008 -1.378 -0 -1.2 0
0.17 0.004 -1.421 -0 -1.2 0
0.176 0.004 -1.471 -0 -1.2 0
0.183 0.009 -1.529 -0 -1.2 0
0.188 0.002 -1.573 -0 -1.2 0
0.195 0.004 -1.632 -0 -1.2 0
0.201 -0.001 -1.684 -0 -1.2 0
0.21 0.003 -1.753 -0 -1.2 0
0.216 -0.005 -1.806 -0 -1.2 0
0.223 -0.01 -1.867 -0 -1.2 0
0.232 -0.012 -1.937 -0 -1.2 0
0.241 -0.011 -2.017 -0 -1.2 0
0.251 -0.012 -2.097 -0 -1.2 0
0.26 -0.015 -2.177 -0 -1.2 0
0.27 -0.022 -2.257 -0 -1.2 0
0.283 -0.018 -2.366 -0 -1.2 0
0.296 -0.018 -2.476 -0 -1.2 0
0.309 -0.021 -2.585 -0 -1.2 0
0.325 -0.02 -2.714 -0 -1.2 0
0.339 -0.027 -2.833 -0 -1.2 0
0.356 -0.031 -2.973 -0 -1.2 0
0.373 -0.04 -3.113 -0 -1.2 0
0.414 0.015 -3.462 -0 -1.2 0
0.456 0.06 -3.822 -0 -1.2 0
0.484 0.056 -4.052 -0 -1.2 0
0.513 0.045 -4.292 -0 -1.2 0
0.549 0.045 -4.6 -0 -1.2 0
0.59 0.04 -4.938 -0 -1.2 0
0.634 0.029 -5.307 -0 -1.2 0
0.682 0.012 -5.706 -0 -1.2 0
0.689 -0.081 -5.753 -0 -1.2 0
0.688 -0.187 -5.731 -0 -1.2 0
0.691 -0.287 -5.746 -0 -1.2 0
0.696 -0.384 -5.779 -0 -1.2 0
0.696 -0.488 -5.76 -0 -1.2 0
0.72 -0.573 -5.948 -0 -1.2 0
0.696 -0.691 -5.739 -0 -1.2 0
0.701 -0.79 -5.764 -0 -1.2 0
0.704 -0.89 -5.779 -0 -1.2 0
0.712 -0.99 -5.831 -0 -1.2 0
0.744 -1.405 -6.042 -0 -1.2 0
3.392 -4.463 -27.819 -0 -1.2 0
3.202 -4.734 -26.192 -0 -1.2 0
2.948 -4.868 -24.055 -0 -1.2 0
2.955 -5.301 -24.053 -0 -1.2 0
3.204 -6.119 -26.033 -0 -1.2 0
3.21 -7.996 -25.859 -0 -1.2 0
3.21 -8.465 -25.792 -0 -1.2 0
3.001 -8.426 -24.055 -0 -1.2 0
3 -8.868 -23.99 -0 -1.2 0
3.231 -11.424 -25.601 -0 -1.2 0
3.245 -11.969 -25.646 -0 -1.2 0
3.055 -11.807 -24.083 -0 -1.2 0
3.045 -12.248 -23.938 -0 -1.2 0
3.09 -15.467 -23.915 -0 -1.2 0
0.105 0.014 -1.216 -0 -1.2 0
0.108 0.007 -1.25 -0 -1.2 0
0.112 0.006 -1.292 -0 -1.2 0
0.115 0.004 -1.333 -0 -1.2 0
0.12 0.007 -1.383 -0 -1.2 0
0.124 0.009 -1.433 -0 -1.2 0
0.128 0.01 -1.484 -0 -1.2 0
0.133 0.009 -1.535 -0 -1.2 0
0.136 0.001 -1.578 -0 -1.2 0
0.141 -0.002 -1.63 -0 -1.2 0
0.146 -0.002 -1.69 -0 -1.2 0
0.151 -0.003 -1.751 -0 -1.2 0
0.156 -0.011 -1.803 -0 -1.2 0
0.162 -0.011 -1.873 -0 -1.2 0
0.169 -0.008 -1.952 -0 -1.2 0
0.174 -0.017 -2.015 -0 -1.2 0
0.182 -0.013 -2.104 -0 -1.2 0
0.188 -0.021 -2.175 -0 -1.2 0
0.196 -0.024 -2.265 -0 -1.2 0
0.206 -0.019 -2.374 -0 -1.2 0
0.215 -0.019 -2.484 -0 -1.2 0
0.225 -0.023 -2.594 -0 -1.2 0
0.237 -0.018 -2.732 -0 -1.2 0
0.247 -0.026 -2.853 -0 -1.2 0
0.258 -0.036 -2.974 -0 -1.2 0
0.272 -0.039 -3.133 -0 -1.2 0
0.311 0.053 -3.597 -0 -1.2 0
0.331 0.058 -3.835 -0 -1.2 0
0.351 0.051 -4.056 -0 -1.2 0
0.375 0.051 -4.335 -0 -1.2 0
0.395 0.03 -4.567 -0 -1.2 0
0.419 0.012 -4.848 -0 -1.2 0
0.462 0.028 -5.335 -0 -1.2 0
0.497 0.013 -5.745 -0 -1.2 0
0.542 0.002 -6.253 -0 -1.2 0
0.504 -0.186 -5.779 -0 -1.2 0
0.503 -0.291 -5.756 -0 -1.2 0
0.511 -0.382 -5.838 -0 -1.2 0
0.516 -0.48 -5.879 -0 -1.2 0
0.506 -0.596 -5.739 -0 -1.2 0
0.506 -0.697 -5.728 -0 -1.2 0
0.509 -0.796 -5.734 -0 -1.2 0
0.512 -0.894 -5.759 -0 -1.2 0
0.543 -1.406 -6.023 -0 -1.2 0
2.434 -5.36 -27.196 -0 -1.2 0
2.457 -8.767 -26.895 -0 -1.2 0
0.065 0.006 -1.212 -0 -1.2 0
0.067 0.006 -1.253 -0 -1.2 0
0.069 0.006 -1.295 -0 -1.2 0
0.071 0.003 -1.336 -0 -1.2 0
0.074 0.006 -1.386 -0 -1.2 0
0.076 0.003 -1.429 -0 -1.2 0
0.079 0.003 -1.479 -0 -1.2 0
0.082 0.002 -1.53 -0 -1.2 0
0.085 0.006 -1.59 -0 -1.2 0
0.088 -0.003 -1.633 -0 -1.2 0
0.091 0.002 -1.702 -0 -1.2 0
0.094 -0.009 -1.746 -0 -1.2 0
0.097 -0.012 -1.807 -0 -1.2 0
0.101 -0.011 -1.878 -0 -1.2 0
0.105 -0.014 -1.948 -0 -1.2 0
0.108 -0.018 -2.019 -0 -1.2 0
0.113 -0.014 -2.109 -0 -1.2 0
0.117 -0.022 -2.18 -0 -1.2 0
0.122 -0.025 -2.27 -0 -1.2 0
0.128 -0.016 -2.389 -0 -1.2 0
0.133 -0.025 -2.48 -0 -1.2 0
0.14 -0.02 -2.609 -0 -1.2 0
0.147 -0.019 -2.739 -0 -1.2 0
0.153 -0.03 -2.85 -0 -1.2 0
0.161 -0.034 -2.99 -0 -1.2 0
0.169 -0.04 -3.14 -0 -1.2 0
0.192 0.045 -3.586 -0 -1.2 0
0.206 0.057 -3.844 -0 -1.2 0
0.22 0.059 -4.104 -0 -1.2 0
0.234 0.054 -4.364 -0 -1.2 0
0.248 0.037 -4.617 -0 -1.2 0
0.265 0.028 -4.937 -0 -1.2 0
0.287 0.022 -5.328 -0 -1.2 0
0.311 0.017 -5.787 -0 -1.2 0
0.342 0.015 -6.357 -0 -1.2 0
0.317 -0.183 -5.822 -0 -1.2 0
0.314 -0.297 -5.748 -0 -1.2 0
0.314 -0.399 -5.732 -0 -1.2 0
0.315 -0.501 -5.724 -0 -1.2 0
0.315 -0.603 -5.703 -0 -1.2 0
0.319 -0.699 -5.751 -0 -1.2 0
0.319 -0.8 -5.717 -0 -1.2 0
0.322 -0.898 -5.742 -0 -1.2 0
0.343 -1.406 -5.987 -0 -1.2 0
0.022 0.005 -1.214 -0 -1.2 0
0.023 0.006 -1.255 -0 -1.2 0
0.023 0.005 -1.296 -0 -1.2 0
0.024 0.009 -1.346 -0 -1.2 0
0.025 0.006 -1.388 -0 -1.2 0
0.026 0.002 -1.43 -0 -1.2 0
0.027 0.002 -1.481 -0 -1.2 0
0.028 -0.004 -1.524 -0 -1.2 0
0.029 0 -1.584 -0 -1.2 0
0.03 -0.003 -1.636 -0 -1.2 0
0.031 -0.003 -1.696 -0 -1.2 0
0.032 -0.004 -1.757 -0 -1.2 0
0.033 -0.007 -1.818 -0 -1.2 0
0.035 -0.012 -1.88 -0 -1.2 0
0.036 -0.014 -1.951 -0 -1.2 0
0.037 -0.014 -2.031 -0 -1.2 0
0.039 -0.02 -2.101 -0 -1.2 0
0.04 -0.023 -2.183 -0 -1.2 0
0.042 -0.021 -2.283 -0 -1.2 0
0.044 -0.021 -2.383 -0 -1.2 0
0.046 -0.021 -2.493 -0 -1.2 0
0.049 -0.021 -2.613 -0 -1.2 0
0.051 -0.02 -2.742 -0 -1.2 0
0.053 -0.028 -2.863 -0 -1.2 0
0.056 -0.035 -2.994 -0 -1.2 0
0.059 -0.038 -3.154 -0 -1.2 0
0.067 0.052 -3.619 -0 -1.2 0
0.072 0.067 -3.887 -0 -1.2 0
0.076 0.06 -4.118 -0 -1.2 0
0.081 0.047 -4.351 -0 -1.2 0
0.086 0.04 -4.642 -0 -1.2 0
0.092 0.028 -4.953 -0 -1.2 0
0.099 0.02 -5.334 -0 -1.2 0
0.108 0.014 -5.795 -0 -1.2 0
0.119 0.006 -6.335 -0 -1.2 0
0.112 -0.185 -5.83 -0 -1.2 0
0.112 -0.297 -5.766 -0 -1.2 0
0.112 -0.404 -5.73 -0 -1.2 0
0.114 -0.506 -5.711 -0 -1.2 0
0.115 -0.604 -5.73 -0 -1.2 0
0.116 -0.703 -5.729 -0 -1.2 0
0.118 -0.802 -5.735 -0 -1.2 0
0.12 -0.901 -5.749 -0 -1.2 0
0.069 -1.245 -2.809 -0 -1.2 0
0.07 -1.295 -2.827 -0 -1.2 0
0.071 -1.346 -2.853 -0 -1.2 0
0.072 -1.396 -2.868 -0 -1.2 0
0.074 -1.453 -2.922 -0 -1.2 0
-0.017 0.005 -1.214 -0 -1.2 0
-0.017 0.005 -1.255 -0 -1.2 0
-0.018 -0.001 -1.289 -0 -1.2 0
-0.019 0.009 -1.346 -0 -1.2 0
-0.019 0.005 -1.388 -0 -1.2 0
-0.02 0.001 -1.431 -0 -1.2 0
-0.02 0.002 -1.481 -0 -1.2 0
-0.021 0.001 -1.532 -0 -1.2 0
-0.022 0 -1.584 -0 -1.2 0
-0.023 0.001 -1.644 -0 -1.2 0
-0.024 -0.004 -1.696 -0 -1.2 0
-0.024 -0.011 -1.749 -0 -1.2 0
-0.025 -0.008 -1.818 -0 -1.2 0
-0.026 -0.018 -1.871 -0 -1.2 0
-0.027 -0.01 -1.96 -0 -1.2 0
-0.028 -0.019 -2.021 -0 -1.2 0
-0.029 -0.021 -2.102 -0 -1.2 0
-0.03 -0.024 -2.183 -0 -1.2 0
-0.032 -0.027 -2.273 -0 -1.2 0
-0.033 -0.023 -2.382 -0 -1.2 0
-0.035 -0.022 -2.493 -0 -1.2 0
-0.036 -0.026 -2.603 -0 -1.2 0
-0.038 -0.021 -2.742 -0 -1.2 0
-0.04 -0.03 -2.863 -0 -1.2 0
-0.042 -0.034 -3.003 -0 -1.2 0
-0.044 -0.039 -3.154 -0 -1.2 0
-0.043 -0.106 -3.134 -0 -1.2 0
-0.054 0.042 -3.811 -0 -1.2 0
-0.059 0.061 -4.128 -0 -1.2 0
-0.062 0.05 -4.37 -0 -1.2 0
-0.066 0.036 -4.633 -0 -1.2 0
-0.07 0.027 -4.964 -0 -1.2 0
-0.076 0.021 -5.354 -0 -1.2 0
-0.082 0.01 -5.785 -0 -1.2 0
-0.09 0.004 -6.335 -0 -1.2 0
-0.079 -0.192 -5.811 -0 -1.2 0
-0.077 -0.304 -5.736 -0 -1.2 0
-0.031 -0.754 -2.911 -0 -1.2 0
-0.031 -0.806 -2.898 -0 -1.2 0
-0.03 -0.855 -2.913 -0 -1.2 0
-0.029 -0.906 -2.896 -0 -1.2 0
-0.028 -0.959 -2.839 -0 -1.2 0
-0.027 -1.008 -2.821 -0 -1.2 0
-0.026 -1.056 -2.834 -0 -1.2 0
-0.026 -1.104 -2.824 -0 -1.2 0
-0.025 -1.152 -2.843 -0 -1.2 0
-0.022 -1.194 -2.652 -0 -1.2 0
-0.021 -1.238 -2.63 -0 -1.2 0
-0.021 -1.287 -2.678 -0 -1.2 0
-0.021 -1.333 -2.684 -0 -1.2 0
-0.019 -1.371 -2.609 -0 -1.2 0
-0.018 -1.413 -2.585 -0 -1.2 0
-0.017 -1.451 -2.54 -0 -1.2 0
-0.021 -1.551 -2.888 -0 -1.2 0
-0.021 -1.619 -2.989 -0 -1.2 0
-0.057 0.004 -1.213 -0 -1.2 0
-0.059 0.005 -1.254 -0 -1.2 0
-0.061 0.004 -1.295 -0 -1.2 0
-0.063 0.001 -1.337 -0 -1.2 0
-0.066 0.004 -1.387 -0 -1.2 0
-0.068 0.001 -1.429 -0 -1.2 0
-0.07 0.001 -1.48 -0 -1.2 0
-0.072 -0.005 -1.523 -0 -1.2 0
-0.074 -0.007 -1.574 -0 -1.2 0
-0.077 -0.005 -1.634 -0 -1.2 0
-0.08 -0.01 -1.686 -0 -1.2 0
-0.082 -0.017 -1.738 -0 -1.2 0
-0.086 -0.009 -1.817 -0 -1.2 0
-0.088 -0.019 -1.869 -0 -1.2 0
-0.092 -0.016 -1.949 -0 -1.2 0
-0.096 -0.015 -2.029 -0 -1.2 0
-0.099 -0.022 -2.1 -0 -1.2 0
-0.103 -0.025 -2.18 -0 -1.2 0
-0.107 -0.031 -2.262 -0 -1.2 0
-0.113 -0.024 -2.38 -0 -1.2 0
-0.118 -0.023 -2.489 -0 -1.2 0
-0.123 -0.023 -2.61 -0 -1.2 0
-0.129 -0.026 -2.729 -0 -1.2 0
-0.131 -0.059 -2.786 -0 -1.2 0
-0.133 -0.093 -2.841 -0 -1.2 0
-0.135 -0.132 -2.887 -0 -1.2 0
-0.138 -0.166 -2.951 -0 -1.2 0
-0.136 -0.225 -2.938 -0 -1.2 0
-0.136 -0.278 -2.943 -0 -1.2 0
-0.136 -0.329 -2.958 -0 -1.2 0
-0.134 -0.389 -2.932 -0 -1.2 0
-0.132 -0.447 -2.915 -0 -1.2 0
-0.132 -0.501 -2.907 -0 -1.2 0
-0.129 -0.56 -2.868 -0 -1.2 0
-0.128 -0.611 -2.867 -0 -1.2 0
-0.128 -0.66 -2.875 -0 -1.2 0
-0.127 -0.712 -2.862 -0 -1.2 0
-0.125 -0.763 -2.849 -0 -1.2 0
-0.125 -0.813 -2.836 -0 -1.2 0
-0.123 -0.864 -2.82 -0 -1.2 0
-0.121 -0.914 -2.804 -0 -1.2 0
-0.12 -0.963 -2.767 -0 -1.2 0
-0.118 -1.011 -2.759 -0 -1.2 0
-0.118 -1.058 -2.78 -0 -1.2 0
-0.118 -1.105 -2.771 -0 -1.2 0
-0.117 -1.152 -2.78 -0 -1.2 0
-0.112 -1.195 -2.659 -0 -1.2 0
-0.108 -1.237 -2.597 -0 -1.2 0
-0.106 -1.281 -2.585 -0 -1.2 0
-0.108 -1.328 -2.611 -0 -1.2 0
-0.107 -1.373 -2.617 -0 -1.2 0
-0.105 -1.413 -2.573 -0 -1.2 0
-0.102 -1.452 -2.537 -0 -1.2 0
-0.117 -1.55 -2.876 -0 -1.2 0
-0.12 -1.614 -2.956 -0 -1.2 0
-0.118 -1.66 -2.918 -0 -1.2 0
-0.117 -1.712 -2.918 -0 -1.2 0
-0.115 -1.756 -2.887 -0 -1.2 0
-0.114 -1.806 -2.875 -0 -1.2 0
-0.114 -1.862 -2.891 -0 -1.2 0
-0.101 0.004 -1.21 -0 -1.2 0
-0.104 0.004 -1.251 -0 -1.2 0
-0.108 0.004 -1.292 -0 -1.2 0
-0.112 0.008 -1.341 -0 -1.2 0
-0.115 0.004 -1.383 -0 -1.2 0
-0.119 0 -1.426 -0 -1.2 0
-0.123 0 -1.476 -0 -1.2 0
-0.127 0 -1.527 -0 -1.2 0
-0.132 -0.002 -1.578 -0 -1.2 0
-0.137 0 -1.638 -0 -1.2 0
-0.141 -0.005 -1.69 -0 -1.2 0
-0.146 -0.007 -1.751 -0 -1.2 0
-0.15 -0.02 -1.795 -0 -1.2 0
-0.156 -0.015 -1.874 -0 -1.2 0
-0.162 -0.017 -1.944 -0 -1.2 0
-0.169 -0.016 -2.024 -0 -1.2 0
-0.174 -0.026 -2.086 -0 -1.2 0
-0.181 -0.026 -2.175 -0 -1.2 0
-0.188 -0.032 -2.257 -0 -1.2 0
-0.198 -0.025 -2.374 -0 -1.2 0
-0.207 -0.024 -2.484 -0 -1.2 0
-0.217 -0.025 -2.603 -0 -1.2 0
-0.227 -0.028 -2.723 -0 -1.2 0
-0.239 -0.028 -2.862 -0 -1.2 0
-0.249 -0.039 -2.984 -0 -1.2 0
-0.248 -0.094 -2.993 -0 -1.2 0
-0.246 -0.158 -2.972 -0 -1.2 0
-0.248 -0.206 -2.998 -0 -1.2 0
-0.249 -0.255 -3.023 -0 -1.2 0
-0.246 -0.318 -2.999 -0 -1.2 0
-0.244 -0.376 -2.983 -0 -1.2 0
-0.243 -0.432 -2.976 -0 -1.2 0
-0.243 -0.485 -2.978 -0 -1.2 0
-0.242 -0.538 -2.978 -0 -1.2 0
-0.24 -0.593 -2.968 -0 -1.2 0
-0.239 -0.647 -2.957 -0 -1.2 0
-0.236 -0.703 -2.925 -0 -1.2 0
-0.234 -0.754 -2.921 -0 -1.2 0
-0.232 -0.809 -2.888 -0 -1.2 0
-0.229 -0.861 -2.863 -0 -1.2 0
-0.226 -0.912 -2.837 -0 -1.2 0
-0.218 -0.965 -2.75 -0 -1.2 0
-0.218 -1.012 -2.752 -0 -1.2 0
-0.217 -1.059 -2.753 -0 -1.2 0
-0.218 -1.106 -2.764 -0 -1.2 0
-0.217 -1.153 -2.764 -0 -1.2 0
-0.218 -1.201 -2.772 -0 -1.2 0
-0.219 -1.249 -2.8 -0 -1.2 0
-0.204 -1.286 -2.629 -0 -1.2 0
-0.202 -1.329 -2.605 -0 -1.2 0
-0.201 -1.374 -2.601 -0 -1.2 0
-0.197 -1.413 -2.557 -0 -1.2 0
-0.193 -1.452 -2.521 -0 -1.2 0
-0.221 -1.551 -2.869 -0 -1.2 0
-0.225 -1.612 -2.929 -0 -1.2 0
-0.22 -1.653 -2.872 -0 -1.2 0
-0.219 -1.702 -2.862 -0 -1.2 0
-0.214 -1.745 -2.822 -0 -1.2 0
-0.214 -1.795 -2.82 -0 -1.2 0
-0.219 -1.864 -2.884 -0 -1.2 0
-0.142 0.01 -1.213 -0 -1.2 0
-0.146 0.004 -1.246 -0 -1.2 0
-0.151 0.003 -1.288 -0 -1.2 0
-0.157 0.007 -1.337 -0 -1.2 0
-0.161 -0.001 -1.371 -0 -1.2 0
-0.166 -0.006 -1.413 -0 -1.2 0
-0.172 0 -1.471 -0 -1.2 0
-0.177 -0.006 -1.514 -0 -1.2 0
-0.184 -0.002 -1.573 -0 -1.2 0
-0.191 0 -1.633 -0 -1.2 0
-0.196 -0.011 -1.677 -0 -1.2 0
-0.202 -0.018 -1.728 -0 -1.2 0
-0.21 -0.016 -1.798 -0 -1.2 0
-0.219 -0.015 -1.868 -0 -1.2 0
-0.227 -0.018 -1.938 -0 -1.2 0
-0.235 -0.022 -2.008 -0 -1.2 0
-0.244 -0.023 -2.088 -0 -1.2 0
-0.254 -0.027 -2.168 -0 -1.2 0
-0.263 -0.033 -2.249 -0 -1.2 0
-0.277 -0.025 -2.366 -0 -1.2 0
-0.29 -0.025 -2.475 -0 -1.2 0
-0.302 -0.029 -2.585 -0 -1.2 0
-0.317 -0.029 -2.714 -0 -1.2 0
-0.33 -0.04 -2.825 -0 -1.2 0
-0.329 -0.096 -2.825 -0 -1.2 0
-0.34 -0.118 -2.917 -0 -1.2 0
-0.363 -0.11 -3.113 -0 -1.2 0
-0.351 -0.198 -3.017 -0 -1.2 0
-0.353 -0.248 -3.041 -0 -1.2 0
-0.345 -0.321 -2.979 -0 -1.2 0
-0.342 -0.379 -2.964 -0 -1.2 0
-0.343 -0.433 -2.966 -0 -1.2 0
-0.338 -0.493 -2.939 -0 -1.2 0
-0.333 -0.552 -2.9 -0 -1.2 0
-0.331 -0.606 -2.89 -0 -1.2 0
-0.33 -0.659 -2.878 -0 -1.2 0
-0.329 -0.71 -2.876 -0 -1.2 0
-0.326 -0.761 -2.862 -0 -1.2 0
-0.326 -0.812 -2.859 -0 -1.2 0
-0.323 -0.863 -2.844 -0 -1.2 0
-0.322 -0.912 -2.837 -0 -1.2 0
-0.315 -0.964 -2.781 -0 -1.2 0
-0.314 -1.012 -2.783 -0 -1.2 0
-0.314 -1.06 -2.784 -0 -1.2 0
-0.314 -1.108 -2.785 -0 -1.2 0
-0.314 -1.155 -2.794 -0 -1.2 0
-0.315 -1.203 -2.803 -0 -1.2 0
-0.315 -1.252 -2.811 -0 -1.2 0
-0.314 -1.299 -2.807 -0 -1.2 0
-0.31 -1.346 -2.775 -0 -1.2 0
-0.311 -1.395 -2.79 -0 -1.2 0
-0.321 -1.455 -2.883 -0 -1.2 0
-0.325 -1.51 -2.916 -0 -1.2 0
-0.328 -1.567 -2.948 -0 -1.2 0
-0.331 -1.626 -2.988 -0 -1.2 0
-0.342 -1.699 -3.086 -0 -1.2 0
-0.181 0.003 -1.2 -0 -1.2 0
-0.188 0.003 -1.241 -0 -1.2 0
-0.193 -0.003 -1.275 -0 -1.2 0
-0.201 0.007 -1.331 -0 -1.2 0
-0.206 -0.002 -1.365 -0 -1.2 0
-0.214 0 -1.415 -0 -1.2 0
-0.221 0 -1.465 -0 -1.2 0
-0.229 -0.001 -1.515 -0 -1.2 0
-0.235 -0.009 -1.558 -0 -1.2 0
-0.244 -0.007 -1.618 -0 -1.2 0
-0.253 -0.007 -1.677 -0 -1.2 0
-0.261 -0.014 -1.729 -0 -1.2 0
-0.27 -0.017 -1.79 -0 -1.2 0
-0.281 -0.016 -1.859 -0 -1.2 0
-0.288 -0.028 -1.911 -0 -1.2 0
-0.303 -0.018 -2.008 -0 -1.2 0
-0.315 -0.019 -2.088 -0 -1.2 0
-0.326 -0.028 -2.159 -0 -1.2 0
-0.338 -0.034 -2.239 -0 -1.2 0
-0.354 -0.031 -2.347 -0 -1.2 0
-0.37 -0.031 -2.456 -0 -1.2 0
-0.388 -0.03 -2.574 -0 -1.2 0
-0.406 -0.033 -2.693 -0 -1.2 0
-0.427 -0.034 -2.831 -0 -1.2 0
-0.448 -0.039 -2.97 -0 -1.2 0
-0.469 -0.048 -3.11 -0 -1.2 0
-0.476 -0.089 -3.165 -0 -1.2 0
-0.578 0.055 -3.835 -0 -1.2 0
-0.618 0.061 -4.102 -0 -1.2 0
-0.651 0.043 -4.322 -0 -1.2 0
-0.688 0.023 -4.562 -0 -1.2 0
-0.738 0.018 -4.899 -0 -1.2 0
-0.799 0.015 -5.305 -0 -1.2 0
-0.866 0.006 -5.75 -0 -1.2 0
-0.944 -0.005 -6.265 -0 -1.2 0
-0.468 -0.615 -3.149 -0 -1.2 0
-0.469 -0.669 -3.157 -0 -1.2 0
-0.853 -0.412 -5.696 -0 -1.2 0
-0.85 -0.515 -5.678 -0 -1.2 0
-0.849 -0.615 -5.677 -0 -1.2 0
-0.849 -0.714 -5.686 -0 -1.2 0
-0.436 -0.955 -2.956 -0 -1.2 0
-0.434 -1.007 -2.948 -0 -1.2 0
-0.427 -1.059 -2.91 -0 -1.2 0
-0.427 -1.109 -2.911 -0 -1.2 0
-0.431 -1.159 -2.94 -0 -1.2 0
-0.418 -1.256 -2.857 -0 -1.2 0
-0.407 -1.3 -2.795 -0 -1.2 0
-0.408 -1.35 -2.802 -0 -1.2 0
-0.426 -1.412 -2.925 -0 -1.2 0
-0.426 -1.464 -2.929 -0 -1.2 0
-0.428 -1.518 -2.952 -0 -1.2 0
-0.442 -1.585 -3.042 -0 -1.2 0
-0.224 0.003 -1.193 -0 -1.2 0
-0.232 0.003 -1.233 -0 -1.2 0
-0.24 0.002 -1.274 -0 -1.2 0
-0.247 0 -1.315 -0 -1.2 0
-0.255 -0.002 -1.357 -0 -1.2 0
-0.264 0 -1.406 -0 -1.2 0
-0.272 -0.006 -1.448 -0 -1.2 0
-0.281 -0.007 -1.498 -0 -1.2 0
-0.292 -0.003 -1.557 -0 -1.2 0
-0.302 -0.007 -1.608 -0 -1.2 0
-0.311 -0.012 -1.659 -0 -1.2 0
-0.323 -0.014 -1.719 -0 -1.2 0
-0.334 -0.017 -1.778 -0 -1.2 0
-0.345 -0.022 -1.839 -0 -1.2 0
-0.36 -0.019 -1.917 -0 -1.2 0
-0.373 -0.023 -1.987 -0 -1.2 0
-0.388 -0.025 -2.066 -0 -1.2 0
-0.403 -0.028 -2.146 -0 -1.2 0
-0.419 -0.031 -2.235 -0 -1.2 0
-0.439 -0.027 -2.342 -0 -1.2 0
-0.459 -0.027 -2.45 -0 -1.2 0
-0.48 -0.031 -2.558 -0 -1.2 0
-0.504 -0.031 -2.686 -0 -1.2 0
-0.526 -0.038 -2.805 -0 -1.2 0
-0.553 -0.04 -2.952 -0 -1.2 0
-0.583 -0.043 -3.11 -0 -1.2 0
-0.578 -0.109 -3.09 -0 -1.2 0
-0.577 -0.168 -3.088 -0 -1.2 0
-0.576 -0.228 -3.085 -0 -1.2 0
-0.582 -0.277 -3.119 -0 -1.2 0
-0.586 -0.329 -3.143 -0 -1.2 0
-0.578 -0.395 -3.107 -0 -1.2 0
-0.574 -0.455 -3.09 -0 -1.2 0
-0.571 -0.515 -3.072 -0 -1.2 0
-0.57 -0.57 -3.073 -0 -1.2 0
-0.566 -0.629 -3.053 -0 -1.2 0
-0.561 -0.685 -3.031 -0 -1.2 0
-0.562 -0.738 -3.038 -0 -1.2 0
-0.554 -0.797 -2.995 -0 -1.2 0
-0.548 -0.851 -2.97 -0 -1.2 0
-0.55 -0.902 -2.984 -0 -1.2 0
-0.554 -0.953 -3.007 -0 -1.2 0
-0.561 -1.004 -3.048 -0 -1.2 0
-0.576 -1.056 -3.129 -0 -1.2 0
-0.572 -1.11 -3.11 -0 -1.2 0
-0.571 -1.164 -3.109 -0 -1.2 0
-0.574 -1.218 -3.127 -0 -1.2 0
-0.55 -1.319 -3.004 -0 -1.2 0
-0.548 -1.371 -3 -0 -1.2 0
-0.544 -1.42 -2.976 -0 -1.2 0
-0.264 0.002 -1.185 -0 -1.2 0
-0.273 0.002 -1.225 -0 -1.2 0
-0.28 -0.004 -1.259 -0 -1.2 0
-0.291 0 -1.307 -0 -1.2 0
-0.3 -0.003 -1.348 -0 -1.2 0
-0.311 -0.001 -1.397 -0 -1.2 0
-0.32 -0.007 -1.439 -0 -1.2 0
-0.331 -0.008 -1.488 -0 -1.2 0
-0.344 -0.004 -1.546 -0 -1.2 0
-0.355 -0.008 -1.597 -0 -1.2 0
-0.366 -0.013 -1.648 -0 -1.2 0
-0.38 -0.015 -1.707 -0 -1.2 0
-0.391 -0.023 -1.758 -0 -1.2 0
-0.404 -0.028 -1.818 -0 -1.2 0
-0.423 -0.02 -1.904 -0 -1.2 0
-0.439 -0.024 -1.973 -0 -1.2 0
-0.454 -0.029 -2.043 -0 -1.2 0
-0.474 -0.029 -2.131 -0 -1.2 0
-0.491 -0.036 -2.211 -0 -1.2 0
-0.515 -0.033 -2.317 -0 -1.2 0
-0.54 -0.028 -2.433 -0 -1.2 0
-0.562 -0.036 -2.532 -0 -1.2 0
-0.59 -0.035 -2.659 -0 -1.2 0
-0.619 -0.039 -2.786 -0 -1.2 0
-0.651 -0.041 -2.932 -0 -1.2 0
-0.65 -0.099 -2.932 -0 -1.2 0
-0.684 -0.104 -3.088 -0 -1.2 0
-0.685 -0.161 -3.095 -0 -1.2 0
-0.691 -0.212 -3.12 -0 -1.2 0
-0.7 -0.26 -3.164 -0 -1.2 0
-0.696 -0.323 -3.15 -0 -1.2 0
-1.062 0.003 -4.789 -0 -1.2 0
-1.164 0.014 -5.246 -0 -1.2 0
-1.265 0.008 -5.706 -0 -1.2 0
-1.382 -0.002 -6.234 -0 -1.2 0
-1.277 -0.19 -5.77 -0 -1.2 0
-1.263 -0.302 -5.707 -0 -1.2 0
-0.676 -0.732 -3.075 -0 -1.2 0
-0.642 -0.803 -2.926 -0 -1.2 0
-0.64 -0.854 -2.921 -0 -1.2 0
-0.64 -0.906 -2.925 -0 -1.2 0
-0.643 -0.957 -2.938 -0 -1.2 0
-0.643 -1.008 -2.94 -0 -1.2 0
-0.638 -1.06 -2.921 -0 -1.2 0
-0.638 -1.111 -2.923 -0 -1.2 0
-0.638 -1.162 -2.922 -0 -1.2 0
-0.641 -1.213 -2.94 -0 -1.2 0
-0.643 -1.265 -2.948 -0 -1.2 0
-0.645 -1.317 -2.964 -0 -1.2 0
-0.648 -1.372 -2.979 -0 -1.2 0
-0.656 -1.427 -3.013 -0 -1.2 0
-0.664 -1.486 -3.056 -0 -1.2 0
-0.677 -1.55 -3.117 -0 -1.2 0
-0.7 -1.623 -3.225 -0 -1.2 0
-0.305 0.009 -1.182 -0 -1.2 0
-0.313 0.002 -1.215 -0 -1.2 0
-0.326 0.007 -1.263 -0 -1.2 0
-0.336 0.005 -1.303 -0 -1.2 0
-0.345 -0.003 -1.337 -0 -1.2 0
-0.357 -0.001 -1.386 -0 -1.2 0
-0.368 -0.007 -1.427 -0 -1.2 0
-0.38 -0.008 -1.477 -0 -1.2 0
-0.393 -0.01 -1.526 -0 -1.2 0
-0.408 -0.008 -1.584 -0 -1.2 0
-0.421 -0.013 -1.635 -0 -1.2 0
-0.434 -0.02 -1.685 -0 -1.2 0
-0.451 -0.019 -1.752 -0 -1.2 0
-0.466 -0.023 -1.812 -0 -1.2 0
-0.488 -0.015 -1.898 -0 -1.2 0
-0.504 -0.025 -1.958 -0 -1.2 0
-0.524 -0.026 -2.036 -0 -1.2 0
-0.544 -0.03 -2.114 -0 -1.2 0
-0.566 -0.032 -2.202 -0 -1.2 0
-0.595 -0.025 -2.316 -0 -1.2 0
-0.621 -0.029 -2.414 -0 -1.2 0
-0.648 -0.033 -2.521 -0 -1.2 0
-0.678 -0.036 -2.638 -0 -1.2 0
-0.71 -0.04 -2.764 -0 -1.2 0
-0.745 -0.044 -2.9 -0 -1.2 0
-0.753 -0.09 -2.936 -0 -1.2 0
-0.765 -0.132 -2.981 -0 -1.2 0
-0.778 -0.174 -3.034 -0 -1.2 0
-0.781 -0.227 -3.049 -0 -1.2 0
-0.785 -0.282 -3.064 -0 -1.2 0
-0.788 -0.336 -3.077 -0 -1.2 0
-0.773 -0.406 -3.024 -0 -1.2 0
-0.768 -0.465 -3.007 -0 -1.2 0
-0.753 -0.531 -2.951 -0 -1.2 0
-0.751 -0.587 -2.941 -0 -1.2 0
-0.742 -0.646 -2.912 -0 -1.2 0
-0.736 -0.701 -2.89 -0 -1.2 0
-0.737 -0.752 -2.898 -0 -1.2 0
-0.729 -0.808 -2.865 -0 -1.2 0
-0.727 -0.859 -2.86 -0 -1.2 0
-0.727 -0.91 -2.863 -0 -1.2 0
-0.726 -0.961 -2.856 -0 -1.2 0
-0.725 -1.011 -2.858 -0 -1.2 0
-0.725 -1.062 -2.86 -0 -1.2 0
-0.72 -1.111 -2.841 -0 -1.2 0
-0.719 -1.161 -2.841 -0 -1.2 0
-0.723 -1.212 -2.859 -0 -1.2 0
-0.728 -1.263 -2.876 -0 -1.2 0
-0.729 -1.314 -2.882 -0 -1.2 0
-0.73 -1.366 -2.888 -0 -1.2 0
-0.733 -1.42 -2.904 -0 -1.2 0
-0.736 -1.473 -2.917 -0 -1.2 0
-0.746 -1.532 -2.958 -0 -1.2 0
-0.752 -1.588 -2.98 -0 -1.2 0
-0.761 -1.649 -3.019 -0 -1.2 0
-0.75 -1.697 -2.98 -0 -1.2 0
-0.731 -1.735 -2.903 -0 -1.2 0
-0.727 -1.785 -2.892 -0 -1.2 0
-0.733 -1.846 -2.918 -0 -1.2 0
-0.723 -1.89 -2.878 -0 -1.2 0
-0.738 -1.962 -2.939 -0 -1.2 0
-0.345 0.002 -1.164 -0 -1.2 0
-0.358 0.009 -1.211 -0 -1.2 0
-0.37 0.007 -1.251 -0 -1.2 0
-0.382 0.005 -1.291 -0 -1.2 0
-0.394 0.001 -1.331 -0 -1.2 0
-0.406 -0.002 -1.372 -0 -1.2 0
-0.42 -0.002 -1.421 -0 -1.2 0
-0.435 -0.003 -1.47 -0 -1.2 0
-0.449 -0.005 -1.519 -0 -1.2 0
-0.464 -0.009 -1.569 -0 -1.2 0
-0.478 -0.014 -1.619 -0 -1.2 0
-0.5 -0.004 -1.693 -0 -1.2 0
-0.515 -0.013 -1.744 -0 -1.2 0
-0.535 -0.014 -1.812 -0 -1.2 0
-0.55 -0.026 -1.862 -0 -1.2 0
-0.573 -0.025 -1.939 -0 -1.2 0
-0.595 -0.027 -2.016 -0 -1.2 0
-0.618 -0.03 -2.094 -0 -1.2 0
-0.644 -0.033 -2.181 -0 -1.2 0
-0.675 -0.029 -2.285 -0 -1.2 0
-0.705 -0.029 -2.391 -0 -1.2 0
-0.737 -0.034 -2.497 -0 -1.2 0
-0.771 -0.037 -2.612 -0 -1.2 0
-0.807 -0.04 -2.738 -0 -1.2 0
-0.85 -0.042 -2.881 -0 -1.2 0
-0.89 -0.052 -3.017 -0 -1.2 0
-0.986 -0.001 -3.344 -0 -1.2 0
-0.909 -0.149 -3.088 -0 -1.2 0
-0.888 -0.228 -3.02 -0 -1.2 0
-0.881 -0.293 -2.997 -0 -1.2 0
-0.877 -0.353 -2.983 -0 -1.2 0
-0.872 -0.413 -2.967 -0 -1.2 0
-0.874 -0.466 -2.978 -0 -1.2 0
-0.871 -0.523 -2.97 -0 -1.2 0
-0.871 -0.578 -2.969 -0 -1.2 0
-0.862 -0.638 -2.94 -0 -1.2 0
-0.861 -0.692 -2.939 -0 -1.2 0
-0.86 -0.745 -2.936 -0 -1.2 0
-0.836 -0.806 -2.856 -0 -1.2 0
-0.814 -0.864 -2.784 -0 -1.2 0
-0.814 -0.914 -2.788 -0 -1.2 0
-0.824 -0.962 -2.819 -0 -1.2 0
-0.835 -1.011 -2.859 -0 -1.2 0
-0.832 -1.062 -2.851 -0 -1.2 0
-0.832 -1.113 -2.852 -0 -1.2 0
-0.834 -1.163 -2.861 -0 -1.2 0
-0.836 -1.214 -2.869 -0 -1.2 0
-0.838 -1.265 -2.877 -0 -1.2 0
-0.842 -1.318 -2.893 -0 -1.2 0
-0.843 -1.371 -2.898 -0 -1.2 0
-0.834 -1.419 -2.866 -0 -1.2 0
-0.826 -1.468 -2.841 -0 -1.2 0
-0.834 -1.523 -2.872 -0 -1.2 0
-0.843 -1.581 -2.903 -0 -1.2 0
-0.851 -1.64 -2.932 -0 -1.2 0
-0.856 -1.698 -2.951 -0 -1.2 0
-0.848 -1.745 -2.922 -0 -1.2 0
-0.849 -1.803 -2.93 -0 -1.2 0
-0.842 -1.852 -2.908 -0 -1.2 0
-0.843 -1.909 -2.914 -0 -1.2 0
-0.851 -1.972 -2.937 -0 -1.2 0
-3.116 -8.992 -10.837 -0 -1.2 0
-0.383 0.001 -1.152 -0 -1.2 0
-0.398 0.008 -1.198 -0 -1.2 0
-0.409 0.001 -1.231 -0 -1.2 0
-0.424 0.005 -1.278 -0 -1.2 0
-0.435 -0.004 -1.311 -0 -1.2 0
-0.451 -0.002 -1.358 -0 -1.2 0
-0.467 -0.002 -1.406 -0 -1.2 0
-0.48 -0.009 -1.447 -0 -1.2 0
-0.499 -0.005 -1.504 -0 -1.2 0
-0.515 -0.009 -1.553 -0 -1.2 0
-0.534 -0.009 -1.61 -0 -1.2 0
-0.55 -0.016 -1.659 -0 -1.2 0
-0.57 -0.02 -1.718 -0 -1.2 0
-0.592 -0.019 -1.784 -0 -1.2 0
-0.611 -0.026 -1.843 -0 -1.2 0
-0.639 -0.021 -1.927 -0 -1.2 0
-0.661 -0.027 -1.996 -0 -1.2 0
-0.687 -0.031 -2.073 -0 -1.2 0
-0.715 -0.034 -2.158 -0 -1.2 0
-0.749 -0.03 -2.262 -0 -1.2 0
-0.784 -0.03 -2.366 -0 -1.2 0
-0.818 -0.034 -2.471 -0 -1.2 0
-0.856 -0.038 -2.586 -0 -1.2 0
-0.897 -0.041 -2.71 -0 -1.2 0
-0.938 -0.05 -2.834 -0 -1.2 0
-0.988 -0.053 -2.986 -0 -1.2 0
-1.119 0.022 -3.382 -0 -1.2 0
-1.203 0.036 -3.637 -0 -1.2 0
-1.279 0.033 -3.866 -0 -1.2 0
-1.357 0.024 -4.105 -0 -1.2 0
-1.451 0.019 -4.389 -0 -1.2 0
-1.558 0.012 -4.713 -0 -1.2 0
-1.687 0.009 -5.102 -0 -1.2 0
-1.837 0.005 -5.559 -0 -1.2 0
-1.87 -0.08 -5.661 -0 -1.2 0
-1.872 -0.185 -5.668 -0 -1.2 0
-1.875 -0.288 -5.683 -0 -1.2 0
-1.873 -0.394 -5.677 -0 -1.2 0
-1.869 -0.5 -5.669 -0 -1.2 0
-0.905 -0.865 -2.756 -0 -1.2 0
-0.909 -0.913 -2.769 -0 -1.2 0
-0.904 -0.964 -2.752 -0 -1.2 0
-0.907 -1.013 -2.764 -0 -1.2 0
-0.907 -1.063 -2.765 -0 -1.2 0
-0.907 -1.113 -2.766 -0 -1.2 0
-0.906 -1.162 -2.765 -0 -1.2 0
-0.908 -1.212 -2.774 -0 -1.2 0
-0.911 -1.263 -2.781 -0 -1.2 0
-0.912 -1.313 -2.787 -0 -1.2 0
-0.917 -1.365 -2.802 -0 -1.2 0
-0.922 -1.418 -2.817 -0 -1.2 0
-0.922 -1.47 -2.821 -0 -1.2 0
-0.919 -1.52 -2.815 -0 -1.2 0
-0.927 -1.575 -2.836 -0 -1.2 0
-0.942 -1.637 -2.884 -0 -1.2 0
-4.651 -7.178 -14.253 -0 -1.2 0
-4.582 -7.7 -14.054 -0 -1.2 0
-5.323 -11.897 -16.401 -0 -1.2 0
-3.565 -8.609 -10.995 -0 -1.2 0
-3.54 -8.849 -10.924 -0 -1.2 0
-3.422 -8.88 -10.57 -0 -1.2 0
-3.635 -9.678 -11.231 -0 -1.2 0
-3.559 -9.816 -11.004 -0 -1.2 0
-0.423 0.008 -1.146 -0 -1.2 0
-0.437 0.008 -1.185 -0 -1.2 0
-0.452 0.006 -1.224 -0 -1.2 0
-0.464 -0.001 -1.256 -0 -1.2 0
-0.481 0.001 -1.303 -0 -1.2 0
-0.495 -0.002 -1.343 -0 -1.2 0
-0.513 -0.002 -1.39 -0 -1.2 0
-0.53 -0.003 -1.438 -0 -1.2 0
-0.545 -0.011 -1.479 -0 -1.2 0
-0.566 -0.009 -1.535 -0 -1.2 0
-0.584 -0.014 -1.584 -0 -1.2 0
-0.605 -0.017 -1.64 -0 -1.2 0
-0.626 -0.02 -1.698 -0 -1.2 0
-0.653 -0.014 -1.773 -0 -1.2 0
-0.674 -0.022 -1.83 -0 -1.2 0
-0.702 -0.021 -1.905 -0 -1.2 0
-0.73 -0.023 -1.981 -0 -1.2 0
-0.754 -0.031 -2.049 -0 -1.2 0
-0.789 -0.029 -2.142 -0 -1.2 0
-0.823 -0.03 -2.236 -0 -1.2 0
-0.861 -0.03 -2.339 -0 -1.2 0
-0.902 -0.031 -2.452 -0 -1.2 0
-0.944 -0.034 -2.565 -0 -1.2 0
-0.988 -0.039 -2.688 -0 -1.2 0
-1.034 -0.046 -2.811 -0 -1.2 0
-1.089 -0.05 -2.961 -0 -1.2 0
-1.186 -0.018 -3.228 -0 -1.2 0
-1.318 0.032 -3.587 -0 -1.2 0
-1.401 0.029 -3.813 -0 -1.2 0
-1.491 0.023 -4.057 -0 -1.2 0
-1.591 0.015 -4.33 -0 -1.2 0
-1.718 0.016 -4.678 -0 -1.2 0
-1.856 0.01 -5.054 -0 -1.2 0
-2.035 0.014 -5.542 -0 -1.2 0
-2.224 0.004 -6.059 -0 -1.2 0
-2.141 -0.148 -5.836 -0 -1.2 0
-2.081 -0.281 -5.674 -0 -1.2 0
-2.096 -0.382 -5.715 -0 -1.2 0
-2.154 -0.47 -5.876 -0 -1.2 0
-2.074 -0.599 -5.66 -0 -1.2 0
-2.09 -0.701 -5.706 -0 -1.2 0
-1.047 -1.375 -2.873 -0 -1.2 0
-1.038 -1.425 -2.851 -0 -1.2 0
-1.039 -1.478 -2.854 -0 -1.2 0
-1.063 -1.542 -2.922 -0 -1.2 0
-5.027 -7.071 -13.838 -0 -1.2 0
-5.014 -7.358 -13.809 -0 -1.2 0
-4.986 -7.629 -13.739 -0 -1.2 0
-4.191 -6.846 -11.554 -0 -1.2 0
