# .PCD v.7 - Point Cloud Data file format
FIELDS x y z vp_x vp_y vp_z
SIZE 4 4 4 4 4 4
TYPE F F F F F F
COUNT 1 1 1 1 1 1
WIDTH 1632
HEIGHT 1
VIEWPOINT 0 -1.20013 0 1 0 0 0
POINTS 1632
DATA ascii
-7.777 -0.081 2.861 -0 -1.2 0
-9.077 -0.08 3.376 -0 -1.2 0
-10.824 -0.086 4.067 -0 -1.2 0
-13.122 -0.115 4.976 -0 -1.2 0
-16.719 -0.156 6.399 -0 -1.2 0
-16.759 -0.468 6.419 -0 -1.2 0
-24.269 -0.636 9.392 -0 -1.2 0
-24.308 -1.091 9.414 -0 -1.2 0
-1.118 0.002 0.276 -0 -1.2 0
-1.156 0.002 0.292 -0 -1.2 0
-1.187 -0.005 0.306 -0 -1.2 0
-1.232 0 0.324 -0 -1.2 0
-1.263 -0.009 0.338 -0 -1.2 0
-1.317 -0.001 0.361 -0 -1.2 0
-1.356 -0.006 0.379 -0 -1.2 0
-1.402 -0.006 0.399 -0 -1.2 0
-1.457 -0.002 0.423 -0 -1.2 0
-1.496 -0.012 0.44 -0 -1.2 0
-1.551 -0.011 0.464 -0 -1.2 0
-1.615 -0.007 0.491 -0 -1.2 0
-1.663 -0.015 0.512 -0 -1.2 0
-1.735 -0.009 0.543 -0 -1.2 0
-1.792 -0.016 0.568 -0 -1.2 0
-1.866 -0.016 0.6 -0 -1.2 0
-1.932 -0.021 0.628 -0 -1.2 0
-2.022 -0.016 0.667 -0 -1.2 0
-2.097 -0.023 0.7 -0 -1.2 0
-2.205 -0.015 0.747 -0 -1.2 0
-2.298 -0.019 0.787 -0 -1.2 0
-2.4 -0.022 0.831 -0 -1.2 0
-2.51 -0.025 0.879 -0 -1.2 0
-2.638 -0.026 0.934 -0 -1.2 0
-2.758 -0.033 0.987 -0 -1.2 0
-2.905 -0.035 1.051 -0 -1.2 0
-3.061 -0.04 1.118 -0 -1.2 0
-3.236 -0.044 1.194 -0 -1.2 0
-3.446 -0.044 1.286 -0 -1.2 0
-3.684 -0.043 1.388 -0 -1.2 0
-3.932 -0.049 1.496 -0 -1.2 0
-4.216 -0.055 1.619 -0 -1.2 0
-4.564 -0.056 1.77 -0 -1.2 0
-4.95 -0.064 1.937 -0 -1.2 0
-5.427 -0.068 2.143 -0 -1.2 0
-6.022 -0.07 2.402 -0 -1.2 0
-6.728 -0.076 2.708 -0 -1.2 0
-7.699 -0.074 3.129 -0 -1.2 0
-8.983 -0.073 3.685 -0 -1.2 0
-10.744 -0.074 4.449 -0 -1.2 0
-13.011 -0.103 5.431 -0 -1.2 0
-16.569 -0.143 6.975 -0 -1.2 0
-16.563 -0.458 6.977 -0 -1.2 0
-1.1 0.002 0.321 -0 -1.2 0
-1.131 -0.003 0.336 -0 -1.2 0
-1.175 0.002 0.356 -0 -1.2 0
-1.213 0 0.374 -0 -1.2 0
-1.251 -0.002 0.392 -0 -1.2 0
-1.296 0 0.414 -0 -1.2 0
-1.341 0 0.435 -0 -1.2 0
-1.38 -0.006 0.454 -0 -1.2 0
-1.427 -0.007 0.476 -0 -1.2 0
-1.481 -0.005 0.501 -0 -1.2 0
-1.528 -0.01 0.525 -0 -1.2 0
-1.583 -0.011 0.551 -0 -1.2 0
-1.646 -0.009 0.581 -0 -1.2 0
-1.709 -0.008 0.611 -0 -1.2 0
-1.765 -0.015 0.637 -0 -1.2 0
-1.845 -0.01 0.675 -0 -1.2 0
-1.901 -0.02 0.702 -0 -1.2 0
-1.99 -0.014 0.745 -0 -1.2 0
-2.08 -0.013 0.787 -0 -1.2 0
-2.171 -0.014 0.83 -0 -1.2 0
-2.262 -0.017 0.873 -0 -1.2 0
-2.362 -0.021 0.922 -0 -1.2 0
-2.479 -0.02 0.977 -0 -1.2 0
-2.597 -0.024 1.033 -0 -1.2 0
-2.724 -0.028 1.093 -0 -1.2 0
-2.868 -0.031 1.162 -0 -1.2 0
-3.031 -0.032 1.239 -0 -1.2 0
-3.193 -0.04 1.318 -0 -1.2 0
-3.401 -0.039 1.416 -0 -1.2 0
-3.626 -0.041 1.523 -0 -1.2 0
-3.87 -0.047 1.639 -0 -1.2 0
-4.168 -0.048 1.781 -0 -1.2 0
-4.502 -0.052 1.939 -0 -1.2 0
-4.899 -0.055 2.129 -0 -1.2 0
-5.368 -0.059 2.351 -0 -1.2 0
-5.945 -0.062 2.626 -0 -1.2 0
-6.685 -0.062 2.978 -0 -1.2 0
-7.65 -0.059 3.437 -0 -1.2 0
-8.887 -0.062 4.025 -0 -1.2 0
-10.638 -0.061 4.858 -0 -1.2 0
-13.004 -0.08 5.983 -0 -1.2 0
-24.291 -0.595 11.359 -0 -1.2 0
-1.075 -0.003 0.361 -0 -1.2 0
-1.118 0.003 0.383 -0 -1.2 0
-1.149 -0.003 0.398 -0 -1.2 0
-1.192 0.001 0.421 -0 -1.2 0
-1.236 0.004 0.443 -0 -1.2 0
-1.267 -0.005 0.459 -0 -1.2 0
-1.319 0.001 0.486 -0 -1.2 0
-1.364 0 0.509 -0 -1.2 0
-1.41 -0.001 0.533 -0 -1.2 0
-1.456 -0.005 0.556 -0 -1.2 0
-1.51 -0.004 0.584 -0 -1.2 0
-1.571 0 0.616 -0 -1.2 0
-1.618 -0.008 0.64 -0 -1.2 0
-1.681 -0.008 0.672 -0 -1.2 0
-1.743 -0.01 0.705 -0 -1.2 0
-1.807 -0.014 0.737 -0 -1.2 0
-1.871 -0.019 0.771 -0 -1.2 0
-1.958 -0.013 0.816 -0 -1.2 0
-2.047 -0.012 0.862 -0 -1.2 0
-2.144 -0.009 0.912 -0 -1.2 0
-2.225 -0.016 0.954 -0 -1.2 0
-2.332 -0.016 1.009 -0 -1.2 0
-2.439 -0.019 1.064 -0 -1.2 0
-2.554 -0.023 1.124 -0 -1.2 0
-2.679 -0.027 1.188 -0 -1.2 0
-2.83 -0.025 1.265 -0 -1.2 0
-2.973 -0.034 1.34 -0 -1.2 0
-3.125 -0.044 1.419 -0 -1.2 0
-3.354 -0.035 1.537 -0 -1.2 0
-3.568 -0.039 1.647 -0 -1.2 0
-3.808 -0.044 1.771 -0 -1.2 0
-4.083 -0.05 1.913 -0 -1.2 0
-4.437 -0.047 2.096 -0 -1.2 0
-4.846 -0.047 2.306 -0 -1.2 0
-5.282 -0.056 2.532 -0 -1.2 0
-5.868 -0.056 2.833 -0 -1.2 0
-6.64 -0.049 3.232 -0 -1.2 0
-7.527 -0.055 3.69 -0 -1.2 0
-8.85 -0.044 4.373 -0 -1.2 0
-10.511 -0.051 5.231 -0 -1.2 0
-12.981 -0.058 6.505 -0 -1.2 0
-24.035 -0.578 12.217 -0 -1.2 0
-1.064 0.003 0.405 -0 -1.2 0
-1.1 0.004 0.425 -0 -1.2 0
-1.136 0.003 0.445 -0 -1.2 0
-1.166 -0.004 0.462 -0 -1.2 0
-1.209 -0.001 0.486 -0 -1.2 0
-1.26 0.007 0.514 -0 -1.2 0
-1.297 0.001 0.535 -0 -1.2 0
-1.342 0.001 0.56 -0 -1.2 0
-1.386 0 0.585 -0 -1.2 0
-1.432 -0.004 0.61 -0 -1.2 0
-1.484 -0.003 0.639 -0 -1.2 0
-1.552 0.006 0.677 -0 -1.2 0
-1.598 -0.002 0.703 -0 -1.2 0
-1.652 -0.007 0.733 -0 -1.2 0
-1.722 -0.004 0.771 -0 -1.2 0
-1.775 -0.013 0.802 -0 -1.2 0
-1.853 -0.009 0.845 -0 -1.2 0
-1.924 -0.013 0.885 -0 -1.2 0
-2.019 -0.006 0.937 -0 -1.2 0
-2.107 -0.008 0.986 -0 -1.2 0
-2.187 -0.015 1.031 -0 -1.2 0
-2.283 -0.019 1.086 -0 -1.2 0
-2.397 -0.018 1.149 -0 -1.2 0
-2.519 -0.018 1.217 -0 -1.2 0
-2.642 -0.022 1.285 -0 -1.2 0
-2.782 -0.024 1.363 -0 -1.2 0
-2.922 -0.033 1.442 -0 -1.2 0
-3.097 -0.034 1.539 -0 -1.2 0
-3.297 -0.033 1.65 -0 -1.2 0
-3.515 -0.035 1.773 -0 -1.2 0
-3.759 -0.038 1.909 -0 -1.2 0
-4.047 -0.039 2.07 -0 -1.2 0
-4.361 -0.046 2.245 -0 -1.2 0
-4.771 -0.043 2.474 -0 -1.2 0
-5.234 -0.046 2.732 -0 -1.2 0
-5.827 -0.043 3.062 -0 -1.2 0
-6.56 -0.041 3.471 -0 -1.2 0
-7.458 -0.044 3.973 -0 -1.2 0
-8.758 -0.034 4.698 -0 -1.2 0
-10.348 -0.046 5.585 -0 -1.2 0
-12.888 -0.043 7.003 -0 -1.2 0
-16.581 -0.068 9.063 -0 -1.2 0
-16.611 -0.397 9.085 -0 -1.2 0
-1.041 0.004 0.448 -0 -1.2 0
-1.077 0.004 0.469 -0 -1.2 0
-1.106 -0.002 0.487 -0 -1.2 0
-1.141 -0.004 0.508 -0 -1.2 0
-1.184 -0.001 0.534 -0 -1.2 0
-1.22 -0.004 0.556 -0 -1.2 0
-1.27 0.002 0.586 -0 -1.2 0
-1.32 0.007 0.616 -0 -1.2 0
-1.357 0 0.639 -0 -1.2 0
-1.402 -0.003 0.667 -0 -1.2 0
-1.467 0.007 0.705 -0 -1.2 0
-1.512 0.001 0.734 -0 -1.2 0
-1.565 -0.001 0.765 -0 -1.2 0
-1.625 -0.001 0.802 -0 -1.2 0
-1.686 -0.003 0.838 -0 -1.2 0
-1.747 -0.008 0.875 -0 -1.2 0
-1.816 -0.009 0.917 -0 -1.2 0
-1.893 -0.008 0.963 -0 -1.2 0
-1.978 -0.006 1.015 -0 -1.2 0
-2.056 -0.011 1.062 -0 -1.2 0
-2.15 -0.011 1.119 -0 -1.2 0
-2.253 -0.01 1.181 -0 -1.2 0
-2.348 -0.017 1.238 -0 -1.2 0
-2.468 -0.017 1.311 -0 -1.2 0
-2.588 -0.021 1.383 -0 -1.2 0
-2.724 -0.024 1.466 -0 -1.2 0
-2.87 -0.028 1.554 -0 -1.2 0
-3.033 -0.033 1.654 -0 -1.2 0
-3.238 -0.03 1.777 -0 -1.2 0
-3.451 -0.031 1.907 -0 -1.2 0
-3.666 -0.042 2.036 -0 -1.2 0
-3.99 -0.032 2.232 -0 -1.2 0
-4.29 -0.04 2.413 -0 -1.2 0
-4.691 -0.038 2.656 -0 -1.2 0
-5.145 -0.041 2.93 -0 -1.2 0
-5.743 -0.035 3.292 -0 -1.2 0
-6.452 -0.035 3.721 -0 -1.2 0
-7.435 -0.023 4.315 -0 -1.2 0
-8.667 -0.02 5.06 -0 -1.2 0
-10.241 -0.032 6.012 -0 -1.2 0
-12.568 -0.044 7.42 -0 -1.2 0
-24.204 -0.539 14.465 -0 -1.2 0
-1.021 0.004 0.487 -0 -1.2 0
-1.056 0.005 0.51 -0 -1.2 0
-1.084 -0.002 0.528 -0 -1.2 0
-1.126 0.002 0.555 -0 -1.2 0
-1.167 0.006 0.582 -0 -1.2 0
-1.209 0.008 0.609 -0 -1.2 0
-1.252 0.008 0.637 -0 -1.2 0
-1.295 0.007 0.665 -0 -1.2 0
-1.338 0.006 0.693 -0 -1.2 0
-1.381 0.002 0.721 -0 -1.2 0
-1.425 -0.002 0.75 -0 -1.2 0
-1.483 0.001 0.787 -0 -1.2 0
-1.542 0.003 0.825 -0 -1.2 0
-1.593 -0.001 0.859 -0 -1.2 0
-1.653 -0.003 0.897 -0 -1.2 0
-1.713 -0.007 0.936 -0 -1.2 0
-1.795 0.001 0.99 -0 -1.2 0
-1.856 -0.007 1.029 -0 -1.2 0
-1.947 -0.001 1.088 -0 -1.2 0
-2.031 -0.002 1.144 -0 -1.2 0
-2.099 -0.014 1.189 -0 -1.2 0
-2.208 -0.01 1.259 -0 -1.2 0
-2.301 -0.016 1.32 -0 -1.2 0
-2.418 -0.016 1.396 -0 -1.2 0
-2.536 -0.02 1.473 -0 -1.2 0
-2.67 -0.023 1.56 -0 -1.2 0
-2.821 -0.024 1.658 -0 -1.2 0
-2.973 -0.032 1.756 -0 -1.2 0
-3.173 -0.029 1.886 -0 -1.2 0
-3.383 -0.03 2.023 -0 -1.2 0
-3.626 -0.032 2.18 -0 -1.2 0
-3.894 -0.035 2.354 -0 -1.2 0
-4.221 -0.035 2.566 -0 -1.2 0
-4.598 -0.037 2.812 -0 -1.2 0
-5.058 -0.036 3.111 -0 -1.2 0
-5.636 -0.032 3.487 -0 -1.2 0
-6.365 -0.026 3.96 -0 -1.2 0
-7.345 -0.013 4.596 -0 -1.2 0
-8.535 -0.013 5.37 -0 -1.2 0
-10.112 -0.022 6.394 -0 -1.2 0
-12.76 -0.002 8.115 -0 -1.2 0
-0.999 0.005 0.526 -0 -1.2 0
-1.021 -0.008 0.541 -0 -1.2 0
-1.061 -0.002 0.569 -0 -1.2 0
-1.101 0.003 0.597 -0 -1.2 0
-1.136 0 0.621 -0 -1.2 0
-1.177 0.001 0.65 -0 -1.2 0
-1.218 0.003 0.679 -0 -1.2 0
-1.26 0.002 0.708 -0 -1.2 0
-1.302 0 0.737 -0 -1.2 0
-1.352 0.002 0.771 -0 -1.2 0
-1.408 0.008 0.811 -0 -1.2 0
-1.451 0.002 0.841 -0 -1.2 0
-1.508 0.004 0.881 -0 -1.2 0
-1.566 0.004 0.921 -0 -1.2 0
-1.624 0.002 0.961 -0 -1.2 0
-1.683 -0.002 1.002 -0 -1.2 0
-1.749 -0.003 1.048 -0 -1.2 0
-1.816 -0.007 1.095 -0 -1.2 0
-1.897 -0.004 1.151 -0 -1.2 0
-1.98 -0.006 1.209 -0 -1.2 0
-2.055 -0.013 1.261 -0 -1.2 0
-2.153 -0.013 1.33 -0 -1.2 0
-2.26 -0.012 1.404 -0 -1.2 0
-2.367 -0.016 1.478 -0 -1.2 0
-2.49 -0.017 1.564 -0 -1.2 0
-2.614 -0.022 1.65 -0 -1.2 0
-2.761 -0.024 1.753 -0 -1.2 0
-2.918 -0.028 1.862 -0 -1.2 0
-3.106 -0.028 1.993 -0 -1.2 0
-3.327 -0.025 2.147 -0 -1.2 0
-3.541 -0.033 2.297 -0 -1.2 0
-3.811 -0.034 2.485 -0 -1.2 0
-4.131 -0.034 2.708 -0 -1.2 0
-4.492 -0.037 2.959 -0 -1.2 0
-4.942 -0.036 3.273 -0 -1.2 0
-5.5 -0.033 3.661 -0 -1.2 0
-6.269 -0.017 4.197 -0 -1.2 0
-7.204 -0.009 4.848 -0 -1.2 0
-8.352 -0.011 5.647 -0 -1.2 0
-9.968 -0.012 6.773 -0 -1.2 0
-12.357 -0.011 8.436 -0 -1.2 0
-16.442 0.001 11.281 -0 -1.2 0
-16.494 -0.345 11.324 -0 -1.2 0
-0.975 0.005 0.568 -0 -1.2 0
-0.996 -0.007 0.584 -0 -1.2 0
-1.035 -0.001 0.613 -0 -1.2 0
-1.068 -0.003 0.638 -0 -1.2 0
-1.108 0 0.667 -0 -1.2 0
-1.154 0.009 0.702 -0 -1.2 0
-1.194 0.009 0.732 -0 -1.2 0
-1.235 0.008 0.763 -0 -1.2 0
-1.27 0.001 0.789 -0 -1.2 0
-1.324 0.009 0.83 -0 -1.2 0
-1.373 0.009 0.866 -0 -1.2 0
-1.415 0.002 0.898 -0 -1.2 0
-1.478 0.01 0.944 -0 -1.2 0
-1.52 0 0.977 -0 -1.2 0
-1.584 0.003 1.024 -0 -1.2 0
-1.641 -0.001 1.067 -0 -1.2 0
-1.692 -0.012 1.105 -0 -1.2 0
-1.771 -0.006 1.164 -0 -1.2 0
-1.857 0 1.229 -0 -1.2 0
-1.923 -0.009 1.279 -0 -1.2 0
-2.004 -0.013 1.339 -0 -1.2 0
-2.1 -0.012 1.411 -0 -1.2 0
-2.204 -0.011 1.489 -0 -1.2 0
-2.308 -0.015 1.567 -0 -1.2 0
-2.428 -0.016 1.657 -0 -1.2 0
-2.556 -0.018 1.753 -0 -1.2 0
-2.693 -0.023 1.855 -0 -1.2 0
-2.844 -0.028 1.969 -0 -1.2 0
-3.029 -0.027 2.107 -0 -1.2 0
-3.244 -0.024 2.268 -0 -1.2 0
-3.452 -0.032 2.425 -0 -1.2 0
-3.708 -0.035 2.617 -0 -1.2 0
-4.02 -0.035 2.85 -0 -1.2 0
-4.403 -0.031 3.137 -0 -1.2 0
-4.819 -0.035 3.449 -0 -1.2 0
-5.355 -0.034 3.85 -0 -1.2 0
-6.137 -0.012 4.437 -0 -1.2 0
-7.041 -0.004 5.114 -0 -1.2 0
-8.201 -0.002 5.982 -0 -1.2 0
-9.753 -0.005 7.145 -0 -1.2 0
-12.018 -0.011 8.842 -0 -1.2 0
-0.945 -0.001 0.601 -0 -1.2 0
-0.977 0 0.627 -0 -1.2 0
-1.015 0.005 0.657 -0 -1.2 0
-1.047 0.004 0.683 -0 -1.2 0
-1.08 0 0.71 -0 -1.2 0
-1.113 -0.003 0.736 -0 -1.2 0
-1.159 0.003 0.773 -0 -1.2 0
-1.205 0.009 0.809 -0 -1.2 0
-1.239 0.001 0.837 -0 -1.2 0
-1.285 0.003 0.874 -0 -1.2 0
-1.339 0.009 0.917 -0 -1.2 0
-1.38 0.002 0.95 -0 -1.2 0
-1.428 0 0.988 -0 -1.2 0
-1.483 0 1.032 -0 -1.2 0
-1.538 -0.001 1.076 -0 -1.2 0
-1.594 -0.005 1.121 -0 -1.2 0
-1.657 -0.007 1.171 -0 -1.2 0
-1.72 -0.01 1.222 -0 -1.2 0
-1.797 -0.008 1.284 -0 -1.2 0
-1.876 -0.009 1.346 -0 -1.2 0
-1.954 -0.012 1.409 -0 -1.2 0
-2.048 -0.012 1.484 -0 -1.2 0
-2.142 -0.014 1.559 -0 -1.2 0
-2.244 -0.018 1.641 -0 -1.2 0
-2.368 -0.016 1.741 -0 -1.2 0
-2.486 -0.021 1.835 -0 -1.2 0
-2.626 -0.022 1.947 -0 -1.2 0
-2.775 -0.027 2.066 -0 -1.2 0
-2.969 -0.02 2.222 -0 -1.2 0
-3.156 -0.026 2.372 -0 -1.2 0
-3.367 -0.031 2.541 -0 -1.2 0
-3.617 -0.034 2.741 -0 -1.2 0
-3.913 -0.036 2.979 -0 -1.2 0
-4.256 -0.039 3.253 -0 -1.2 0
-4.693 -0.036 3.603 -0 -1.2 0
-5.262 -0.024 4.058 -0 -1.2 0
-5.987 -0.01 4.639 -0 -1.2 0
-6.891 0 5.362 -0 -1.2 0
-8.008 0 6.256 -0 -1.2 0
-9.537 0 7.481 -0 -1.2 0
-11.8 -0.001 9.293 -0 -1.2 0
-14.72 -0.056 11.633 -0 -1.2 0
-15.104 -0.366 11.945 -0 -1.2 0
-14.632 -0.716 11.575 -0 -1.2 0
-14.662 -1.042 11.607 -0 -1.2 0
-14.628 -1.367 11.584 -0 -1.2 0
-14.493 -1.688 11.484 -0 -1.2 0
-0.919 0 0.637 -0 -1.2 0
-0.956 0.006 0.668 -0 -1.2 0
-0.982 0 0.69 -0 -1.2 0
-1.019 0.004 0.722 -0 -1.2 0
-1.045 -0.005 0.745 -0 -1.2 0
-1.083 -0.002 0.777 -0 -1.2 0
-1.127 0.004 0.815 -0 -1.2 0
-1.166 0.003 0.848 -0 -1.2 0
-1.205 0.001 0.882 -0 -1.2 0
-1.257 0.009 0.926 -0 -1.2 0
-1.296 0.004 0.96 -0 -1.2 0
-1.336 -0.002 0.994 -0 -1.2 0
-1.389 0 1.04 -0 -1.2 0
-1.436 -0.004 1.08 -0 -1.2 0
-1.49 -0.006 1.126 -0 -1.2 0
-1.544 -0.01 1.172 -0 -1.2 0
-1.612 -0.006 1.23 -0 -1.2 0
-1.667 -0.014 1.277 -0 -1.2 0
-1.735 -0.016 1.336 -0 -1.2 0
-1.818 -0.012 1.407 -0 -1.2 0
-1.895 -0.016 1.473 -0 -1.2 0
-1.986 -0.015 1.551 -0 -1.2 0
-2.077 -0.018 1.629 -0 -1.2 0
-2.183 -0.018 1.72 -0 -1.2 0
-2.297 -0.018 1.817 -0 -1.2 0
-2.426 -0.017 1.928 -0 -1.2 0
-2.555 -0.022 2.039 -0 -1.2 0
-2.7 -0.026 2.163 -0 -1.2 0
-2.881 -0.023 2.318 -0 -1.2 0
-3.078 -0.022 2.487 -0 -1.2 0
-3.269 -0.033 2.65 -0 -1.2 0
-3.534 -0.029 2.876 -0 -1.2 0
-3.8 -0.038 3.104 -0 -1.2 0
-4.135 -0.04 3.391 -0 -1.2 0
-4.552 -0.038 3.748 -0 -1.2 0
-5.151 -0.017 4.26 -0 -1.2 0
-5.826 -0.009 4.837 -0 -1.2 0
-6.714 0.003 5.598 -0 -1.2 0
-7.784 0.001 6.515 -0 -1.2 0
-9.235 -0.004 7.757 -0 -1.2 0
-11.287 -0.018 9.513 -0 -1.2 0
-16.392 -0.277 13.889 -0 -1.2 0
-16.373 -0.654 13.881 -0 -1.2 0
-14.128 -1.362 11.972 -0 -1.2 0
-14.005 -1.679 11.874 -0 -1.2 0
-14.007 -2.002 11.882 -0 -1.2 0
-13.566 -2.285 11.51 -0 -1.2 0
-13.598 -2.602 11.544 -0 -1.2 0
-13.573 -2.913 11.529 -0 -1.2 0
-13.438 -3.207 11.419 -0 -1.2 0
-0.896 0.006 0.681 -0 -1.2 0
-0.921 0 0.704 -0 -1.2 0
-0.951 0 0.732 -0 -1.2 0
-0.987 0.004 0.765 -0 -1.2 0
-1.018 0.001 0.794 -0 -1.2 0
-1.05 -0.002 0.822 -0 -1.2 0
-1.092 0.005 0.862 -0 -1.2 0
-1.13 0.004 0.896 -0 -1.2 0
-1.168 0.002 0.931 -0 -1.2 0
-1.212 0.004 0.972 -0 -1.2 0
-1.25 0 1.007 -0 -1.2 0
-1.302 0.004 1.054 -0 -1.2 0
-1.34 -0.004 1.09 -0 -1.2 0
-1.392 -0.003 1.137 -0 -1.2 0
-1.444 -0.005 1.185 -0 -1.2 0
-1.503 -0.004 1.239 -0 -1.2 0
-1.555 -0.01 1.288 -0 -1.2 0
-1.615 -0.013 1.343 -0 -1.2 0
-1.675 -0.019 1.398 -0 -1.2 0
-1.763 -0.011 1.478 -0 -1.2 0
-1.837 -0.015 1.546 -0 -1.2 0
-1.925 -0.014 1.627 -0 -1.2 0
-2.014 -0.017 1.709 -0 -1.2 0
-2.116 -0.016 1.803 -0 -1.2 0
-2.22 -0.02 1.899 -0 -1.2 0
-2.344 -0.019 2.012 -0 -1.2 0
-2.477 -0.02 2.134 -0 -1.2 0
-2.617 -0.025 2.263 -0 -1.2 0
-2.8 -0.018 2.432 -0 -1.2 0
-2.977 -0.023 2.594 -0 -1.2 0
-3.183 -0.026 2.784 -0 -1.2 0
-3.411 -0.032 2.994 -0 -1.2 0
-3.684 -0.036 3.245 -0 -1.2 0
-4.007 -0.038 3.541 -0 -1.2 0
-4.419 -0.034 3.92 -0 -1.2 0
-4.999 -0.013 4.453 -0 -1.2 0
-5.668 -0.001 5.067 -0 -1.2 0
-6.493 0.004 5.825 -0 -1.2 0
-7.515 0 6.766 -0 -1.2 0
-8.958 0 8.092 -0 -1.2 0
-10.902 -0.016 9.879 -0 -1.2 0
-13.065 -2.894 11.928 -0 -1.2 0
-12.942 -3.188 11.821 -0 -1.2 0
-12.859 -3.484 11.751 -0 -1.2 0
-12.525 -3.725 11.45 -0 -1.2 0
-12.573 -4.041 11.501 -0 -1.2 0
-12.581 -4.353 11.514 -0 -1.2 0
-12.599 -4.668 11.537 -0 -1.2 0
-0.863 0 0.711 -0 -1.2 0
-0.893 0 0.74 -0 -1.2 0
-0.917 -0.006 0.764 -0 -1.2 0
-0.952 -0.001 0.798 -0 -1.2 0
-0.992 0.009 0.838 -0 -1.2 0
-1.023 0.004 0.868 -0 -1.2 0
-1.059 0.005 0.903 -0 -1.2 0
-1.101 0.011 0.944 -0 -1.2 0
-1.132 0.003 0.975 -0 -1.2 0
-1.163 -0.006 1.006 -0 -1.2 0
-1.217 0.005 1.059 -0 -1.2 0
-1.255 0 1.096 -0 -1.2 0
-1.293 -0.008 1.133 -0 -1.2 0
-1.349 -0.002 1.188 -0 -1.2 0
-1.393 -0.009 1.232 -0 -1.2 0
-1.45 -0.008 1.288 -0 -1.2 0
-1.501 -0.013 1.338 -0 -1.2 0
-1.565 -0.012 1.4 -0 -1.2 0
-1.623 -0.018 1.457 -0 -1.2 0
-1.707 -0.01 1.54 -0 -1.2 0
-1.779 -0.014 1.611 -0 -1.2 0
-1.865 -0.012 1.695 -0 -1.2 0
-1.951 -0.015 1.779 -0 -1.2 0
-2.044 -0.018 1.871 -0 -1.2 0
-2.158 -0.015 1.982 -0 -1.2 0
-2.265 -0.021 2.088 -0 -1.2 0
-2.393 -0.021 2.214 -0 -1.2 0
-2.529 -0.026 2.348 -0 -1.2 0
-2.706 -0.019 2.521 -0 -1.2 0
-2.885 -0.021 2.696 -0 -1.2 0
-3.085 -0.024 2.892 -0 -1.2 0
-3.313 -0.027 3.117 -0 -1.2 0
-3.563 -0.035 3.362 -0 -1.2 0
-3.89 -0.033 3.683 -0 -1.2 0
-4.304 -0.025 4.089 -0 -1.2 0
-4.866 -0.004 4.64 -0 -1.2 0
-5.487 0 5.25 -0 -1.2 0
-6.272 0.004 6.019 -0 -1.2 0
-7.327 0.013 7.056 -0 -1.2 0
-8.704 0.01 8.408 -0 -1.2 0
-10.539 -0.011 10.208 -0 -1.2 0
-16.705 -0.186 16.264 -0 -1.2 0
-16.716 -0.593 16.285 -0 -1.2 0
-12.076 -2.504 11.772 -0 -1.2 0
-12.102 -2.806 11.805 -0 -1.2 0
-12.14 -3.111 11.849 -0 -1.2 0
-11.835 -3.355 11.555 -0 -1.2 0
-11.71 -3.623 11.439 -0 -1.2 0
-11.701 -3.915 11.436 -0 -1.2 0
-11.634 -4.194 11.376 -0 -1.2 0
-11.673 -4.502 11.422 -0 -1.2 0
-11.682 -4.804 11.437 -0 -1.2 0
-0.83 -0.005 0.74 -0 -1.2 0
-0.858 -0.005 0.77 -0 -1.2 0
-0.887 -0.005 0.799 -0 -1.2 0
-0.92 0 0.835 -0 -1.2 0
-0.955 0.002 0.871 -0 -1.2 0
-0.99 0.005 0.907 -0 -1.2 0
-1.025 0.006 0.943 -0 -1.2 0
-1.054 0 0.975 -0 -1.2 0
-1.095 0.004 1.018 -0 -1.2 0
-1.137 0.006 1.061 -0 -1.2 0
-1.173 0.001 1.099 -0 -1.2 0
-1.209 -0.004 1.137 -0 -1.2 0
-1.257 -0.002 1.187 -0 -1.2 0
-1.299 -0.006 1.231 -0 -1.2 0
-1.348 -0.008 1.282 -0 -1.2 0
-1.403 -0.007 1.34 -0 -1.2 0
-1.459 -0.008 1.398 -0 -1.2 0
-1.508 -0.016 1.451 -0 -1.2 0
-1.571 -0.017 1.516 -0 -1.2 0
-1.646 -0.013 1.595 -0 -1.2 0
-1.722 -0.013 1.674 -0 -1.2 0
-1.804 -0.011 1.761 -0 -1.2 0
-1.881 -0.017 1.842 -0 -1.2 0
-1.991 -0.009 1.956 -0 -1.2 0
-2.081 -0.017 2.051 -0 -1.2 0
-2.192 -0.019 2.166 -0 -1.2 0
-2.316 -0.019 2.297 -0 -1.2 0
-2.447 -0.024 2.434 -0 -1.2 0
-2.618 -0.017 2.614 -0 -1.2 0
-2.785 -0.021 2.789 -0 -1.2 0
-2.991 -0.019 3.004 -0 -1.2 0
-3.205 -0.025 3.229 -0 -1.2 0
-3.467 -0.026 3.504 -0 -1.2 0
-3.785 -0.024 3.837 -0 -1.2 0
-4.205 -0.012 4.276 -0 -1.2 0
-4.735 0.004 4.831 -0 -1.2 0
-5.336 0.01 5.461 -0 -1.2 0
-6.088 0.014 6.249 -0 -1.2 0
-7.061 0.014 7.269 -0 -1.2 0
-8.469 0.023 8.744 -0 -1.2 0
-10.237 0.001 10.597 -0 -1.2 0
-16.111 -0.177 16.757 -0 -1.2 0
-16.143 -0.582 16.8 -0 -1.2 0
-10.825 -2.118 11.262 -0 -1.2 0
-10.905 -2.402 11.352 -0 -1.2 0
-10.891 -2.678 11.344 -0 -1.2 0
-10.921 -2.962 11.383 -0 -1.2 0
-11.188 -3.295 11.67 -0 -1.2 0
-11.252 -3.598 11.744 -0 -1.2 0
-12.099 -4.101 12.642 -0 -1.2 0
-12.112 -4.421 12.663 -0 -1.2 0
-11.196 -4.465 11.706 -0 -1.2 0
-11.064 -4.718 11.573 -0 -1.2 0
-7.055 -6.487 7.414 -0 -1.2 0
-0.804 0.001 0.781 -0 -1.2 0
-0.826 -0.004 0.806 -0 -1.2 0
-0.853 -0.005 0.837 -0 -1.2 0
-0.891 0.007 0.879 -0 -1.2 0
-0.919 0.003 0.91 -0 -1.2 0
-0.947 0 0.942 -0 -1.2 0
-0.98 0.001 0.98 -0 -1.2 0
-1.019 0.006 1.023 -0 -1.2 0
-1.048 0 1.055 -0 -1.2 0
-1.088 0.001 1.1 -0 -1.2 0
-1.134 0.007 1.151 -0 -1.2 0
-1.163 -0.003 1.184 -0 -1.2 0
-1.203 -0.006 1.23 -0 -1.2 0
-1.251 -0.005 1.283 -0 -1.2 0
-1.303 -0.002 1.342 -0 -1.2 0
-1.351 -0.006 1.395 -0 -1.2 0
-1.398 -0.01 1.449 -0 -1.2 0
-1.458 -0.01 1.516 -0 -1.2 0
-1.512 -0.016 1.577 -0 -1.2 0
-1.59 -0.007 1.665 -0 -1.2 0
-1.657 -0.011 1.741 -0 -1.2 0
-1.737 -0.01 1.829 -0 -1.2 0
-1.817 -0.012 1.919 -0 -1.2 0
-1.91 -0.012 2.024 -0 -1.2 0
-2.004 -0.015 2.129 -0 -1.2 0
-2.11 -0.017 2.249 -0 -1.2 0
-2.229 -0.018 2.383 -0 -1.2 0
-2.355 -0.022 2.526 -0 -1.2 0
-2.521 -0.015 2.71 -0 -1.2 0
-2.7 -0.011 2.912 -0 -1.2 0
-2.873 -0.019 3.107 -0 -1.2 0
-3.099 -0.017 3.36 -0 -1.2 0
-3.338 -0.023 3.629 -0 -1.2 0
-3.67 -0.014 4.002 -0 -1.2 0
-4.075 -0.001 4.456 -0 -1.2 0
-4.566 0.01 5.007 -0 -1.2 0
-5.163 0.02 5.679 -0 -1.2 0
-5.874 0.02 6.478 -0 -1.2 0
-6.818 0.022 7.539 -0 -1.2 0
-8.142 0.028 9.025 -0 -1.2 0
-9.784 0 10.871 -0 -1.2 0
-10.006 -0.759 11.139 -0 -1.2 0
-10.105 -1.02 11.257 -0 -1.2 0
-10.121 -1.284 11.281 -0 -1.2 0
-10.068 -1.546 11.228 -0 -1.2 0
-10.243 -1.822 11.432 -0 -1.2 0
-10.389 -2.106 11.602 -0 -1.2 0
-10.465 -2.389 11.695 -0 -1.2 0
-12.024 -4.515 13.498 -0 -1.2 0
-11.985 -4.832 13.463 -0 -1.2 0
-7.128 -5.817 8.03 -0 -1.2 0
-6.696 -5.96 7.547 -0 -1.2 0
-6.697 -6.407 7.558 -0 -1.2 0
-6.214 -6.9 7.028 -0 -1.2 0
-6.735 -7.641 7.631 -0 -1.2 0
-6.481 -8.153 7.359 -0 -1.2 0
-0.775 0.002 0.812 -0 -1.2 0
-0.801 0.003 0.844 -0 -1.2 0
-0.827 0.002 0.876 -0 -1.2 0
-0.859 0.008 0.913 -0 -1.2 0
-0.886 0.004 0.945 -0 -1.2 0
-0.908 -0.004 0.971 -0 -1.2 0
-0.94 -0.004 1.01 -0 -1.2 0
-0.977 0.001 1.055 -0 -1.2 0
-1.015 0.006 1.101 -0 -1.2 0
-1.048 0.002 1.141 -0 -1.2 0
-1.087 0.003 1.187 -0 -1.2 0
-1.126 0.002 1.234 -0 -1.2 0
-1.165 0 1.281 -0 -1.2 0
-1.204 -0.004 1.328 -0 -1.2 0
-1.256 -0.001 1.389 -0 -1.2 0
-1.301 -0.004 1.444 -0 -1.2 0
-1.353 -0.005 1.506 -0 -1.2 0
-1.399 -0.013 1.562 -0 -1.2 0
-1.457 -0.014 1.631 -0 -1.2 0
-1.526 -0.011 1.714 -0 -1.2 0
-1.602 -0.005 1.805 -0 -1.2 0
-1.679 -0.004 1.898 -0 -1.2 0
-1.757 -0.007 1.99 -0 -1.2 0
-1.84 -0.01 2.091 -0 -1.2 0
-1.936 -0.01 2.206 -0 -1.2 0
-2.038 -0.012 2.329 -0 -1.2 0
-2.147 -0.016 2.459 -0 -1.2 0
-2.275 -0.017 2.613 -0 -1.2 0
-2.435 -0.01 2.804 -0 -1.2 0
-2.601 -0.009 3.004 -0 -1.2 0
-2.781 -0.012 3.218 -0 -1.2 0
-2.985 -0.015 3.464 -0 -1.2 0
-3.229 -0.016 3.756 -0 -1.2 0
-3.561 -0.002 4.154 -0 -1.2 0
-3.925 0.001 4.591 -0 -1.2 0
-4.423 0.02 5.188 -0 -1.2 0
-5.006 0.032 5.886 -0 -1.2 0
-5.703 0.034 6.724 -0 -1.2 0
-6.632 0.039 7.838 -0 -1.2 0
-7.83 0.033 9.273 -0 -1.2 0
-9.323 -0.003 11.065 -0 -1.2 0
-9.445 -0.245 11.218 -0 -1.2 0
-9.373 -0.506 11.139 -0 -1.2 0
-9.644 -0.751 11.47 -0 -1.2 0
-9.688 -1.012 11.53 -0 -1.2 0
-9.774 -1.277 11.639 -0 -1.2 0
-11.974 -4.623 14.365 -0 -1.2 0
-6.881 -5.823 8.285 -0 -1.2 0
-7.315 -6.366 8.819 -0 -1.2 0
-6.418 -5.933 7.732 -0 -1.2 0
-6.242 -6.014 7.524 -0 -1.2 0
-5.173 -5.531 6.23 -0 -1.2 0
-4.02 -4.683 4.826 -0 -1.2 0
-6.2 -6.873 7.495 -0 -1.2 0
-5.879 -6.795 7.109 -0 -1.2 0
-5.785 -6.929 7 -0 -1.2 0
-6.406 -8.072 7.774 -0 -1.2 0
-6.059 -7.944 7.354 -0 -1.2 0
-5.863 -7.972 7.12 -0 -1.2 0
-6.117 -8.542 7.44 -0 -1.2 0
-0.744 0.003 0.843 -0 -1.2 0
-0.769 0.003 0.875 -0 -1.2 0
-0.795 0.003 0.908 -0 -1.2 0
-0.82 0.001 0.94 -0 -1.2 0
-0.846 0 0.973 -0 -1.2 0
-0.872 -0.004 1.006 -0 -1.2 0
-0.908 0.003 1.052 -0 -1.2 0
-0.94 0.002 1.092 -0 -1.2 0
-0.976 0.007 1.139 -0 -1.2 0
-1.013 0.009 1.186 -0 -1.2 0
-1.045 0.004 1.228 -0 -1.2 0
-1.082 0.003 1.276 -0 -1.2 0
-1.12 0 1.324 -0 -1.2 0
-1.158 -0.003 1.373 -0 -1.2 0
-1.206 0 1.435 -0 -1.2 0
-1.25 -0.003 1.492 -0 -1.2 0
-1.3 -0.004 1.555 -0 -1.2 0
-1.35 -0.007 1.618 -0 -1.2 0
-1.416 0 1.704 -0 -1.2 0
-1.472 -0.004 1.776 -0 -1.2 0
-1.54 -0.004 1.863 -0 -1.2 0
-1.613 -0.003 1.957 -0 -1.2 0
-1.688 -0.005 2.052 -0 -1.2 0
-1.774 -0.005 2.163 -0 -1.2 0
-1.855 -0.012 2.265 -0 -1.2 0
-1.959 -0.01 2.399 -0 -1.2 0
-2.076 -0.008 2.549 -0 -1.2 0
-2.187 -0.015 2.691 -0 -1.2 0
-2.345 -0.005 2.894 -0 -1.2 0
-2.511 -0.002 3.107 -0 -1.2 0
-2.677 -0.007 3.32 -0 -1.2 0
-2.875 -0.011 3.572 -0 -1.2 0
-3.114 -0.009 3.88 -0 -1.2 0
-3.446 0.007 4.303 -0 -1.2 0
-3.777 0.006 4.73 -0 -1.2 0
-4.256 0.026 5.343 -0 -1.2 0
-4.834 0.041 6.082 -0 -1.2 0
-5.481 0.039 6.91 -0 -1.2 0
-6.384 0.046 8.068 -0 -1.2 0
-7.535 0.041 9.543 -0 -1.2 0
-8.962 0.004 11.373 -0 -1.2 0
-11.93 -4.393 15.293 -0 -1.2 0
-11.918 -4.741 15.287 -0 -1.2 0
-7.632 -4.576 9.792 -0 -1.2 0
-7.635 -5.295 9.815 -0 -1.2 0
-5.195 -4.804 6.675 -0 -1.2 0
-4.559 -4.665 5.857 -0 -1.2 0
-5.563 -5.654 7.169 -0 -1.2 0
-6.319 -6.507 8.162 -0 -1.2 0
-4.134 -4.78 5.315 -0 -1.2 0
-4.985 -5.732 6.431 -0 -1.2 0
-4.238 -5.197 5.459 -0 -1.2 0
-4.161 -5.285 5.362 -0 -1.2 0
-4.15 -5.44 5.352 -0 -1.2 0
-5.949 -7.585 7.716 -0 -1.2 0
-6.051 -7.953 7.856 -0 -1.2 0
-6.18 -8.37 8.034 -0 -1.2 0
-6.109 -8.558 7.947 -0 -1.2 0
-0.71 0.003 0.874 -0 -1.2 0
-0.734 0.004 0.908 -0 -1.2 0
-0.754 -0.002 0.935 -0 -1.2 0
-0.787 0.009 0.981 -0 -1.2 0
-0.807 0 1.009 -0 -1.2 0
-0.841 0.008 1.055 -0 -1.2 0
-0.866 0.004 1.09 -0 -1.2 0
-0.896 0.003 1.131 -0 -1.2 0
-0.926 0.002 1.173 -0 -1.2 0
-0.962 0.004 1.221 -0 -1.2 0
-0.993 0 1.264 -0 -1.2 0
-1.033 0.004 1.319 -0 -1.2 0
-1.069 0.001 1.369 -0 -1.2 0
-1.11 0.002 1.426 -0 -1.2 0
-1.146 -0.003 1.475 -0 -1.2 0
-1.193 -0.002 1.54 -0 -1.2 0
-1.24 -0.003 1.605 -0 -1.2 0
-1.299 0.002 1.685 -0 -1.2 0
-1.342 -0.008 1.744 -0 -1.2 0
-1.411 0 1.84 -0 -1.2 0
-1.47 -0.002 1.922 -0 -1.2 0
-1.54 -0.001 2.019 -0 -1.2 0
-1.612 -0.004 2.116 -0 -1.2 0
-1.694 -0.003 2.229 -0 -1.2 0
-1.776 -0.007 2.343 -0 -1.2 0
-1.875 -0.005 2.48 -0 -1.2 0
-1.982 -0.006 2.626 -0 -1.2 0
-2.088 -0.013 2.772 -0 -1.2 0
-2.24 -0.003 2.981 -0 -1.2 0
-2.392 -0.002 3.191 -0 -1.2 0
-2.563 -0.003 3.425 -0 -1.2 0
-2.745 -0.008 3.677 -0 -1.2 0
-2.997 0.002 4.023 -0 -1.2 0
-3.284 0.008 4.419 -0 -1.2 0
-3.625 0.015 4.888 -0 -1.2 0
-4.082 0.034 5.517 -0 -1.2 0
-4.622 0.048 6.261 -0 -1.2 0
-5.258 0.049 7.134 -0 -1.2 0
-6.11 0.055 8.307 -0 -1.2 0
-7.249 0.056 9.877 -0 -1.2 0
-8.841 0.049 12.07 -0 -1.2 0
-14.795 -0.05 20.27 -0 -1.2 0
-11.841 -4.512 16.329 -0 -1.2 0
-11.643 -4.814 16.066 -0 -1.2 0
-7.358 -4.133 10.147 -0 -1.2 0
-7.287 -4.569 10.059 -0 -1.2 0
-7.342 -4.834 10.144 -0 -1.2 0
-7.466 -5.143 10.324 -0 -1.2 0
-7.117 -5.189 9.843 -0 -1.2 0
-7.077 -5.404 9.794 -0 -1.2 0
-4.313 -3.862 5.945 -0 -1.2 0
-4.342 -4.03 5.989 -0 -1.2 0
-5.985 -5.358 8.29 -0 -1.2 0
-6.46 -5.928 8.961 -0 -1.2 0
-4.837 -4.884 6.696 -0 -1.2 0
-5.022 -5.213 6.959 -0 -1.2 0
-4.337 -4.812 6.006 -0 -1.2 0
-5.845 -6.335 8.126 -0 -1.2 0
-3.965 -4.796 5.493 -0 -1.2 0
-4.53 -5.506 6.291 -0 -1.2 0
-4.482 -5.641 6.229 -0 -1.2 0
-3.831 -5.134 5.318 -0 -1.2 0
-5.144 -6.746 7.171 -0 -1.2 0
-5.999 -7.95 8.382 -0 -1.2 0
-6.137 -8.661 8.592 -0 -1.2 0
-6.589 -9.53 9.24 -0 -1.2 0
-0.679 0.004 0.904 -0 -1.2 0
-0.701 0.005 0.937 -0 -1.2 0
-0.725 0.004 0.971 -0 -1.2 0
-0.749 0.003 1.005 -0 -1.2 0
-0.772 0 1.04 -0 -1.2 0
-0.8 0.003 1.081 -0 -1.2 0
-0.824 -0.002 1.117 -0 -1.2 0
-0.857 0.004 1.165 -0 -1.2 0
-0.89 0.008 1.214 -0 -1.2 0
-0.919 0.005 1.257 -0 -1.2 0
-0.948 0 1.301 -0 -1.2 0
-0.982 0 1.351 -0 -1.2 0
-1.016 -0.002 1.402 -0 -1.2 0
-1.061 0.003 1.467 -0 -1.2 0
-1.101 0.001 1.525 -0 -1.2 0
-1.141 -0.001 1.583 -0 -1.2 0
-1.191 0.002 1.657 -0 -1.2 0
-1.236 0 1.725 -0 -1.2 0
-1.292 0.001 1.807 -0 -1.2 0
-1.349 0.001 1.89 -0 -1.2 0
-1.405 -0.001 1.974 -0 -1.2 0
-1.472 0 2.073 -0 -1.2 0
-1.54 -0.002 2.173 -0 -1.2 0
-1.619 -0.002 2.288 -0 -1.2 0
-1.698 -0.005 2.404 -0 -1.2 0
-1.798 0 2.553 -0 -1.2 0
-1.893 -0.005 2.694 -0 -1.2 0
-1.995 -0.011 2.844 -0 -1.2 0
-2.151 0.004 3.073 -0 -1.2 0
-2.286 0 3.272 -0 -1.2 0
-2.443 -0.002 3.503 -0 -1.2 0
-2.628 -0.003 3.777 -0 -1.2 0
-2.869 0.006 4.131 -0 -1.2 0
-3.16 0.019 4.56 -0 -1.2 0
-3.469 0.02 5.015 -0 -1.2 0
-3.918 0.042 5.675 -0 -1.2 0
-4.423 0.052 6.42 -0 -1.2 0
-5.046 0.058 7.337 -0 -1.2 0
-5.837 0.06 8.505 -0 -1.2 0
-6.966 0.069 10.168 -0 -1.2 0
-8.627 0.081 12.617 -0 -1.2 0
-15.337 0.051 22.507 -0 -1.2 0
-13.973 -0.917 20.525 -0 -1.2 0
-13.792 -1.347 20.272 -0 -1.2 0
-13.749 -1.772 20.219 -0 -1.2 0
-11.79 -4.647 17.419 -0 -1.2 0
-7.637 -4.645 11.297 -0 -1.2 0
-7.351 -4.759 10.879 -0 -1.2 0
-7.104 -5.122 10.526 -0 -1.2 0
-7.134 -5.387 10.578 -0 -1.2 0
-6.7 -5.361 9.937 -0 -1.2 0
-4.488 -4.108 6.64 -0 -1.2 0
-4.057 -3.964 6.002 -0 -1.2 0
-4.242 -4.251 6.283 -0 -1.2 0
-4.173 -4.355 6.184 -0 -1.2 0
-4.296 -4.613 6.372 -0 -1.2 0
-4.674 -5.105 6.945 -0 -1.2 0
-6.18 -6.646 9.209 -0 -1.2 0
-4.083 -4.919 6.067 -0 -1.2 0
-3.985 -4.988 5.924 -0 -1.2 0
-3.747 -4.91 5.572 -0 -1.2 0
-3.655 -4.971 5.438 -0 -1.2 0
-3.544 -5.006 5.276 -0 -1.2 0
-3.424 -5.025 5.101 -0 -1.2 0
-3.366 -5.109 5.016 -0 -1.2 0
-3.333 -5.225 4.972 -0 -1.2 0
-5.207 -7.813 7.81 -0 -1.2 0
-5.647 -8.66 8.484 -0 -1.2 0
-5.526 -8.776 8.31 -0 -1.2 0
-0.646 0.005 0.931 -0 -1.2 0
-0.668 0.005 0.965 -0 -1.2 0
-0.685 -0.001 0.994 -0 -1.2 0
-0.712 0.003 1.036 -0 -1.2 0
-0.734 0.001 1.071 -0 -1.2 0
-0.761 0.004 1.113 -0 -1.2 0
-0.788 0.005 1.156 -0 -1.2 0
-0.811 0 1.192 -0 -1.2 0
-0.842 0.003 1.241 -0 -1.2 0
-0.87 0 1.285 -0 -1.2 0
-0.902 0.001 1.336 -0 -1.2 0
-0.934 0 1.388 -0 -1.2 0
-0.971 0.003 1.446 -0 -1.2 0
-1.005 0 1.499 -0 -1.2 0
-1.047 0.002 1.566 -0 -1.2 0
-1.09 0.004 1.633 -0 -1.2 0
-1.133 0.003 1.702 -0 -1.2 0
-1.181 0.004 1.778 -0 -1.2 0
-1.229 0.002 1.854 -0 -1.2 0
-1.288 0.006 1.947 -0 -1.2 0
-1.337 0 2.025 -0 -1.2 0
-1.396 -0.003 2.117 -0 -1.2 0
-1.46 -0.005 2.219 -0 -1.2 0
-1.539 -0.001 2.345 -0 -1.2 0
-1.619 -0.001 2.472 -0 -1.2 0
-1.711 0 2.616 -0 -1.2 0
-1.806 0 2.768 -0 -1.2 0
-1.913 0 2.936 -0 -1.2 0
-2.052 0.008 3.155 -0 -1.2 0
-2.19 0.009 3.375 -0 -1.2 0
-2.335 0.003 3.604 -0 -1.2 0
-2.511 0.003 3.882 -0 -1.2 0
-2.767 0.023 4.286 -0 -1.2 0
-3.017 0.025 4.683 -0 -1.2 0
-3.321 0.029 5.165 -0 -1.2 0
-3.754 0.054 5.847 -0 -1.2 0
-4.219 0.058 6.582 -0 -1.2 0
-4.822 0.067 7.537 -0 -1.2 0
-5.603 0.073 8.771 -0 -1.2 0
-6.741 0.094 10.571 -0 -1.2 0
-8.343 0.106 13.106 -0 -1.2 0
-14.301 0.038 22.535 -0 -1.2 0
-13.009 -2.184 20.56 -0 -1.2 0
-12.804 -2.587 20.249 -0 -1.2 0
-12.777 -3.004 20.219 -0 -1.2 0
-12.73 -3.417 20.158 -0 -1.2 0
-11.731 -4.407 18.607 -0 -1.2 0
-6.365 -4.2 10.111 -0 -1.2 0
-6.206 -4.564 9.871 -0 -1.2 0
-6.927 -5.219 11.033 -0 -1.2 0
-6.719 -5.341 10.707 -0 -1.2 0
-6.062 -5.149 9.661 -0 -1.2 0
-6.996 -6.039 11.167 -0 -1.2 0
-5.146 -4.923 8.206 -0 -1.2 0
-3.882 -4.129 6.182 -0 -1.2 0
-4.089 -4.452 6.519 -0 -1.2 0
-3.906 -4.457 6.23 -0 -1.2 0
-4.234 -4.912 6.763 -0 -1.2 0
-4.253 -5.104 6.798 -0 -1.2 0
-3.993 -5.027 6.385 -0 -1.2 0
-4.135 -5.343 6.618 -0 -1.2 0
-3.932 -5.307 6.298 -0 -1.2 0
-3.886 -5.431 6.228 -0 -1.2 0
-3.964 -5.699 6.36 -0 -1.2 0
-3.76 -5.636 6.034 -0 -1.2 0
-3.457 -5.432 5.549 -0 -1.2 0
-3.445 -5.586 5.534 -0 -1.2 0
-3.166 -5.379 5.087 -0 -1.2 0
-5.502 -8.847 8.891 -0 -1.2 0
-3.264 -5.854 5.257 -0 -1.2 0
-4.428 -7.805 7.16 -0 -1.2 0
-4.424 -8.046 7.16 -0 -1.2 0
-4.951 -9.167 8.03 -0 -1.2 0
-0.61 0.005 0.959 -0 -1.2 0
-0.626 0 0.989 -0 -1.2 0
-0.652 0.005 1.03 -0 -1.2 0
-0.673 0.004 1.066 -0 -1.2 0
-0.694 0.002 1.103 -0 -1.2 0
-0.715 -0.001 1.139 -0 -1.2 0
-0.74 0 1.183 -0 -1.2 0
-0.766 0 1.227 -0 -1.2 0
-0.796 0.004 1.278 -0 -1.2 0
-0.822 0 1.322 -0 -1.2 0
-0.856 0.008 1.381 -0 -1.2 0
-0.882 0.001 1.427 -0 -1.2 0
-0.917 0.004 1.487 -0 -1.2 0
-0.948 0 1.54 -0 -1.2 0
-0.989 0.003 1.609 -0 -1.2 0
-1.03 0.005 1.678 -0 -1.2 0
-1.066 0 1.74 -0 -1.2 0
-1.111 0.001 1.818 -0 -1.2 0
-1.165 0.008 1.91 -0 -1.2 0
-1.211 0.003 1.989 -0 -1.2 0
-1.262 0 2.076 -0 -1.2 0
-1.322 0.001 2.18 -0 -1.2 0
-1.384 0 2.284 -0 -1.2 0
-1.45 -0.003 2.397 -0 -1.2 0
-1.525 -0.003 2.526 -0 -1.2 0
-1.615 0.002 2.681 -0 -1.2 0
-1.71 0.004 2.845 -0 -1.2 0
-1.812 0.003 3.018 -0 -1.2 0
-1.937 0.01 3.232 -0 -1.2 0
-2.063 0.008 3.448 -0 -1.2 0
-2.205 0.005 3.69 -0 -1.2 0
-2.385 0.012 4 -0 -1.2 0
-2.607 0.023 4.378 -0 -1.2 0
-2.859 0.032 4.809 -0 -1.2 0
-3.142 0.034 5.293 -0 -1.2 0
-3.559 0.061 6.007 -0 -1.2 0
-3.984 0.061 6.732 -0 -1.2 0
-4.578 0.078 7.75 -0 -1.2 0
-5.335 0.088 9.045 -0 -1.2 0
-6.384 0.102 10.842 -0 -1.2 0
-7.857 0.109 13.363 -0 -1.2 0
-11.816 -0.093 20.148 -0 -1.2 0
-11.813 -0.501 20.154 -0 -1.2 0
-11.805 -0.909 20.155 -0 -1.2 0
-11.809 -1.316 20.176 -0 -1.2 0
-11.794 -1.723 20.165 -0 -1.2 0
-11.787 -2.131 20.164 -0 -1.2 0
-11.755 -2.536 20.123 -0 -1.2 0
-11.709 -2.939 20.058 -0 -1.2 0
-11.64 -3.335 19.954 -0 -1.2 0
-11.663 -3.749 20.007 -0 -1.2 0
-11.657 -4.159 20.01 -0 -1.2 0
-11.627 -4.564 19.972 -0 -1.2 0
-6.046 -4.443 10.415 -0 -1.2 0
-4.757 -3.907 8.19 -0 -1.2 0
-4.52 -3.94 7.784 -0 -1.2 0
-6.302 -5.31 10.879 -0 -1.2 0
-6.322 -5.572 10.922 -0 -1.2 0
-6.586 -6.022 11.39 -0 -1.2 0
-4.608 -4.725 7.962 -0 -1.2 0
-4.616 -4.919 7.979 -0 -1.2 0
-3.88 -4.468 6.705 -0 -1.2 0
-3.834 -4.591 6.631 -0 -1.2 0
-4.25 -5.154 7.362 -0 -1.2 0
-3.828 -4.919 6.633 -0 -1.2 0
-3.784 -5.042 6.56 -0 -1.2 0
-3.707 -5.13 6.432 -0 -1.2 0
-3.648 -5.234 6.334 -0 -1.2 0
-3.562 -5.306 6.189 -0 -1.2 0
-3.544 -5.455 6.163 -0 -1.2 0
-3.562 -5.654 6.2 -0 -1.2 0
-3.358 -5.562 5.849 -0 -1.2 0
-3.239 -5.572 5.646 -0 -1.2 0
-4.634 -7.759 8.105 -0 -1.2 0
-4.401 -7.665 7.704 -0 -1.2 0
-3.065 -5.833 5.356 -0 -1.2 0
-4.22 -7.876 7.402 -0 -1.2 0
-4.131 -7.979 7.252 -0 -1.2 0
-4.34 -9.157 7.649 -0 -1.2 0
-0.571 0 0.98 -0 -1.2 0
-0.591 0 1.015 -0 -1.2 0
-0.61 0 1.052 -0 -1.2 0
-0.633 0.005 1.094 -0 -1.2 0
-0.653 0.002 1.131 -0 -1.2 0
-0.673 0 1.168 -0 -1.2 0
-0.694 -0.005 1.205 -0 -1.2 0
-0.721 0 1.257 -0 -1.2 0
-0.749 0.004 1.309 -0 -1.2 0
-0.774 0.001 1.354 -0 -1.2 0
-0.803 0.002 1.407 -0 -1.2 0
-0.835 0.007 1.468 -0 -1.2 0
-0.86 0 1.515 -0 -1.2 0
-0.898 0.006 1.584 -0 -1.2 0
-0.927 0 1.639 -0 -1.2 0
-0.97 0.005 1.717 -0 -1.2 0
-1.004 0 1.78 -0 -1.2 0
-1.051 0.006 1.867 -0 -1.2 0
-1.098 0.009 1.954 -0 -1.2 0
-1.142 0.004 2.035 -0 -1.2 0
-1.19 0.001 2.123 -0 -1.2 0
-1.246 0.002 2.229 -0 -1.2 0
-1.295 -0.007 2.319 -0 -1.2 0
-1.37 0.001 2.458 -0 -1.2 0
-1.446 0.005 2.598 -0 -1.2 0
-1.527 0.006 2.748 -0 -1.2 0
-1.608 0.001 2.897 -0 -1.2 0
-1.707 0.005 3.081 -0 -1.2 0
-1.825 0.011 3.3 -0 -1.2 0
-1.954 0.015 3.537 -0 -1.2 0
-2.073 0.004 3.759 -0 -1.2 0
-2.258 0.018 4.1 -0 -1.2 0
-2.462 0.028 4.478 -0 -1.2 0
-2.69 0.032 4.899 -0 -1.2 0
-2.965 0.038 5.409 -0 -1.2 0
-3.341 0.059 6.102 -0 -1.2 0
-3.749 0.064 6.858 -0 -1.2 0
-4.334 0.086 7.94 -0 -1.2 0
-5.038 0.095 9.241 -0 -1.2 0
-6.055 0.115 11.123 -0 -1.2 0
-7.43 0.119 13.665 -0 -1.2 0
-12.152 0.007 22.406 -0 -1.2 0
-12.033 -0.443 22.203 -0 -1.2 0
-10.86 -2.9 20.118 -0 -1.2 0
-10.866 -3.305 20.143 -0 -1.2 0
-10.854 -3.708 20.135 -0 -1.2 0
-10.868 -4.118 20.174 -0 -1.2 0
-10.849 -4.522 20.154 -0 -1.2 0
-4.799 -3.343 8.918 -0 -1.2 0
-6.586 -4.962 12.283 -0 -1.2 0
-4.363 -3.83 8.13 -0 -1.2 0
-4.539 -4.126 8.467 -0 -1.2 0
-5.917 -5.293 11.055 -0 -1.2 0
-6.006 -5.607 11.232 -0 -1.2 0
-6.084 -5.923 11.387 -0 -1.2 0
-6.131 -6.224 11.485 -0 -1.2 0
-3.665 -4.315 6.855 -0 -1.2 0
-3.717 -4.526 6.96 -0 -1.2 0
-3.674 -4.65 6.883 -0 -1.2 0
-4.314 -5.47 8.096 -0 -1.2 0
-4.342 -5.7 8.155 -0 -1.2 0
-3.404 -4.864 6.392 -0 -1.2 0
-4.32 -6.091 8.128 -0 -1.2 0
-3.767 -5.636 7.09 -0 -1.2 0
-4.43 -6.663 8.353 -0 -1.2 0
-4.254 -6.66 8.027 -0 -1.2 0
-5.145 -8.101 9.725 -0 -1.2 0
-4.224 -7.072 7.986 -0 -1.2 0
-3.056 -5.58 5.772 -0 -1.2 0
-2.907 -5.525 5.495 -0 -1.2 0
-2.834 -5.579 5.363 -0 -1.2 0
-3.289 -6.5 6.235 -0 -1.2 0
-3.333 -6.777 6.326 -0 -1.2 0
-3.669 -7.588 6.977 -0 -1.2 0
-4.26 -8.92 8.118 -0 -1.2 0
-4.137 -9.261 7.902 -0 -1.2 0
-0.536 0 1.004 -0 -1.2 0
-0.554 0 1.04 -0 -1.2 0
-0.572 0 1.077 -0 -1.2 0
-0.594 0.005 1.121 -0 -1.2 0
-0.609 -0.003 1.152 -0 -1.2 0
-0.628 -0.006 1.19 -0 -1.2 0
-0.651 -0.005 1.235 -0 -1.2 0
-0.677 0.001 1.287 -0 -1.2 0
-0.703 0.005 1.34 -0 -1.2 0
-0.726 0.002 1.386 -0 -1.2 0
-0.753 0.003 1.44 -0 -1.2 0
-0.78 0.003 1.495 -0 -1.2 0
-0.807 0 1.549 -0 -1.2 0
-0.838 0.002 1.612 -0 -1.2 0
-0.87 0 1.675 -0 -1.2 0
-0.905 0.001 1.747 -0 -1.2 0
-0.937 -0.002 1.811 -0 -1.2 0
-0.981 0.003 1.9 -0 -1.2 0
-1.026 0.005 1.989 -0 -1.2 0
-1.071 0.005 2.078 -0 -1.2 0
-1.116 0.002 2.169 -0 -1.2 0
-1.165 0 2.267 -0 -1.2 0
-1.223 0.001 2.383 -0 -1.2 0
-1.285 0.002 2.508 -0 -1.2 0
-1.356 0.006 2.651 -0 -1.2 0
-1.431 0.007 2.803 -0 -1.2 0
-1.511 0.007 2.964 -0 -1.2 0
-1.6 0.006 3.143 -0 -1.2 0
-1.708 0.01 3.357 -0 -1.2 0
-1.828 0.014 3.598 -0 -1.2 0
-1.952 0.011 3.849 -0 -1.2 0
-2.117 0.02 4.18 -0 -1.2 0
-2.304 0.027 4.555 -0 -1.2 0
-2.517 0.032 4.984 -0 -1.2 0
-2.785 0.043 5.52 -0 -1.2 0
-3.114 0.055 6.181 -0 -1.2 0
-3.489 0.057 6.933 -0 -1.2 0
-4.027 0.079 8.016 -0 -1.2 0
-4.732 0.1 9.429 -0 -1.2 0
-5.65 0.114 11.273 -0 -1.2 0
-7.059 0.142 14.101 -0 -1.2 0
-11.118 -0.009 22.262 -0 -1.2 0
-11.024 -0.449 22.091 -0 -1.2 0
-11.076 -0.879 22.208 -0 -1.2 0
-9.991 -1.68 20.06 -0 -1.2 0
-9.993 -2.072 20.078 -0 -1.2 0
-10.128 -2.484 20.366 -0 -1.2 0
-5.6 -4.126 11.332 -0 -1.2 0
-5.526 -4.555 11.199 -0 -1.2 0
-4.15 -3.869 8.408 -0 -1.2 0
-4.419 -4.242 8.965 -0 -1.2 0
-4.388 -4.413 8.907 -0 -1.2 0
-4.114 -4.389 8.356 -0 -1.2 0
-4.073 -4.54 8.279 -0 -1.2 0
-3.515 -4.227 7.147 -0 -1.2 0
-3.472 -4.35 7.064 -0 -1.2 0
-4.028 -5.064 8.209 -0 -1.2 0
-4.023 -5.252 8.204 -0 -1.2 0
-4.035 -5.462 8.237 -0 -1.2 0
-4.888 -6.634 9.994 -0 -1.2 0
-5.226 -7.283 10.697 -0 -1.2 0
-3.078 -4.891 6.293 -0 -1.2 0
-4.717 -7.173 9.671 -0 -1.2 0
-3.266 -5.473 6.692 -0 -1.2 0
-3.955 -6.619 8.119 -0 -1.2 0
-4.538 -7.694 9.332 -0 -1.2 0
-3.644 -6.6 7.495 -0 -1.2 0
-3.581 -6.716 7.372 -0 -1.2 0
-3.765 -7.234 7.76 -0 -1.2 0
-3.624 -7.23 7.475 -0 -1.2 0
-2.608 -5.669 5.378 -0 -1.2 0
-3.59 -7.639 7.422 -0 -1.2 0
-3.493 -7.699 7.23 -0 -1.2 0
-3.985 -8.916 8.265 -0 -1.2 0
-3.412 -8.034 7.082 -0 -1.2 0
-3.544 -8.569 7.366 -0 -1.2 0
-3.752 -9.302 7.813 -0 -1.2 0
-3.517 -9.066 7.33 -0 -1.2 0
-4.228 -11.039 8.832 -0 -1.2 0
-0.496 0 1.029 -0 -1.2 0
-0.51 -0.005 1.06 -0 -1.2 0
-0.527 -0.006 1.097 -0 -1.2 0
-0.547 0 1.142 -0 -1.2 0
-0.564 -0.002 1.18 -0 -1.2 0
-0.582 -0.006 1.218 -0 -1.2 0
-0.602 -0.004 1.264 -0 -1.2 0
-0.627 0.001 1.317 -0 -1.2 0
-0.648 0 1.364 -0 -1.2 0
-0.672 0.002 1.418 -0 -1.2 0
-0.694 -0.001 1.466 -0 -1.2 0
-0.722 0.003 1.528 -0 -1.2 0
-0.748 0.001 1.584 -0 -1.2 0
-0.776 0.002 1.648 -0 -1.2 0
-0.809 0.006 1.72 -0 -1.2 0
-0.839 0.002 1.785 -0 -1.2 0
-0.868 -0.001 1.85 -0 -1.2 0
-0.905 0 1.932 -0 -1.2 0
-0.954 0.011 2.039 -0 -1.2 0
-0.995 0.01 2.13 -0 -1.2 0
-1.033 0.003 2.214 -0 -1.2 0
-1.082 0.004 2.323 -0 -1.2 0
-1.132 0.002 2.433 -0 -1.2 0
-1.19 0.003 2.56 -0 -1.2 0
-1.259 0.011 2.714 -0 -1.2 0
-1.326 0.009 2.86 -0 -1.2 0
-1.4 0.008 3.024 -0 -1.2 0
-1.482 0.008 3.206 -0 -1.2 0
-1.582 0.012 3.424 -0 -1.2 0
-1.693 0.015 3.669 -0 -1.2 0
-1.805 0.01 3.916 -0 -1.2 0
-1.957 0.019 4.252 -0 -1.2 0
-2.134 0.029 4.642 -0 -1.2 0
-2.337 0.037 5.088 -0 -1.2 0
-2.596 0.053 5.66 -0 -1.2 0
-2.881 0.056 6.288 -0 -1.2 0
-3.232 0.06 7.062 -0 -1.2 0
-3.715 0.078 8.127 -0 -1.2 0
-4.38 0.104 9.591 -0 -1.2 0
-5.26 0.124 11.531 -0 -1.2 0
-6.614 0.162 14.517 -0 -1.2 0
-9.079 -0.131 19.964 -0 -1.2 0
-9.099 -0.511 20.024 -0 -1.2 0
-9.113 -0.894 20.07 -0 -1.2 0
-9.256 -1.281 20.401 -0 -1.2 0
-5.793 -4.478 12.893 -0 -1.2 0
-5.516 -4.565 12.282 -0 -1.2 0
-5.466 -4.787 12.183 -0 -1.2 0
-5.306 -4.925 11.835 -0 -1.2 0
-4.819 -4.799 10.755 -0 -1.2 0
-5.078 -5.241 11.345 -0 -1.2 0
-3.203 -4.018 7.162 -0 -1.2 0
-3.157 -4.132 7.065 -0 -1.2 0
-4.842 -6.761 10.886 -0 -1.2 0
-3.582 -5.475 8.054 -0 -1.2 0
-4.78 -7.21 10.767 -0 -1.2 0
-4.714 -7.39 10.629 -0 -1.2 0
-4.183 -7.163 9.447 -0 -1.2 0
-4.036 -7.19 9.125 -0 -1.2 0
-4.482 -8.141 10.148 -0 -1.2 0
-4.636 -8.675 10.509 -0 -1.2 0
-4.568 -8.857 10.365 -0 -1.2 0
-3.405 -7.098 7.729 -0 -1.2 0
-3.42 -7.357 7.774 -0 -1.2 0
-3.222 -7.218 7.332 -0 -1.2 0
-3.16 -7.325 7.199 -0 -1.2 0
-3.239 -7.721 7.389 -0 -1.2 0
-3.247 -7.984 7.416 -0 -1.2 0
-3.396 -8.568 7.767 -0 -1.2 0
-3.336 -8.708 7.642 -0 -1.2 0
-3.232 -8.741 7.414 -0 -1.2 0
-3.174 -8.88 7.293 -0 -1.2 0
-3.102 -8.982 7.137 -0 -1.2 0
-0.459 0 1.051 -0 -1.2 0
-0.472 -0.005 1.082 -0 -1.2 0
-0.488 -0.005 1.12 -0 -1.2 0
-0.507 0 1.165 -0 -1.2 0
-0.523 -0.002 1.204 -0 -1.2 0
-0.539 -0.005 1.243 -0 -1.2 0
-0.558 -0.004 1.289 -0 -1.2 0
-0.583 0.008 1.351 -0 -1.2 0
-0.6 0.001 1.391 -0 -1.2 0
-0.62 -0.002 1.438 -0 -1.2 0
-0.643 0 1.494 -0 -1.2 0
-0.666 -0.001 1.55 -0 -1.2 0
-0.696 0.007 1.622 -0 -1.2 0
-0.719 0.003 1.679 -0 -1.2 0
-0.749 0.007 1.752 -0 -1.2 0
-0.773 -0.001 1.81 -0 -1.2 0
-0.807 0.002 1.892 -0 -1.2 0
-0.838 0 1.967 -0 -1.2 0
-0.88 0.007 2.067 -0 -1.2 0
-0.918 0.007 2.16 -0 -1.2 0
-0.953 0 2.245 -0 -1.2 0
-0.999 0.001 2.355 -0 -1.2 0
-1.049 0.003 2.475 -0 -1.2 0
-1.098 0 2.597 -0 -1.2 0
-1.166 0.012 2.761 -0 -1.2 0
-1.228 0.01 2.909 -0 -1.2 0
-1.293 0.006 3.067 -0 -1.2 0
-1.373 0.009 3.26 -0 -1.2 0
-1.465 0.013 3.482 -0 -1.2 0
-1.564 0.014 3.722 -0 -1.2 0
-1.671 0.012 3.98 -0 -1.2 0
-1.812 0.021 4.321 -0 -1.2 0
-1.968 0.027 4.699 -0 -1.2 0
-2.148 0.03 5.133 -0 -1.2 0
-2.384 0.045 5.705 -0 -1.2 0
-2.637 0.045 6.315 -0 -1.2 0
-2.969 0.054 7.118 -0 -1.2 0
-3.423 0.075 8.216 -0 -1.2 0
-4.027 0.1 9.675 -0 -1.2 0
-4.841 0.122 11.643 -0 -1.2 0
-5.854 0.112 14.093 -0 -1.2 0
-5.214 -4.899 12.759 -0 -1.2 0
-4.162 -4.341 10.193 -0 -1.2 0
-4.112 -4.511 10.079 -0 -1.2 0
-4.815 -5.345 11.816 -0 -1.2 0
-4.807 -5.589 11.809 -0 -1.2 0
-5.144 -6.177 12.647 -0 -1.2 0
-2.914 -4.126 7.165 -0 -1.2 0
-4.736 -6.287 11.665 -0 -1.2 0
-4.551 -6.594 11.232 -0 -1.2 0
-4.484 -6.77 11.075 -0 -1.2 0
-4.478 -7.293 11.086 -0 -1.2 0
-4.518 -7.624 11.198 -0 -1.2 0
-4.302 -7.577 10.672 -0 -1.2 0
-4.236 -7.747 10.52 -0 -1.2 0
-3.759 -7.238 9.343 -0 -1.2 0
-4.117 -8.1 10.246 -0 -1.2 0
-3.052 -6.489 7.6 -0 -1.2 0
-2.948 -6.511 7.352 -0 -1.2 0
-2.952 -6.73 7.37 -0 -1.2 0
-4.287 -9.605 10.724 -0 -1.2 0
-2.971 -7.209 7.437 -0 -1.2 0
-2.774 -7.018 6.952 -0 -1.2 0
-2.666 -7.001 6.692 -0 -1.2 0
-2.793 -7.514 7.02 -0 -1.2 0
-3.03 -8.319 7.628 -0 -1.2 0
-2.987 -8.482 7.532 -0 -1.2 0
-2.719 -8.064 6.865 -0 -1.2 0
-2.899 -8.801 7.33 -0 -1.2 0
-2.94 -9.2 7.448 -0 -1.2 0
-0.419 -0.005 1.066 -0 -1.2 0
-0.436 0.002 1.111 -0 -1.2 0
-0.448 -0.005 1.143 -0 -1.2 0
-0.463 -0.005 1.182 -0 -1.2 0
-0.48 -0.001 1.228 -0 -1.2 0
-0.495 -0.005 1.267 -0 -1.2 0
-0.512 -0.003 1.314 -0 -1.2 0
-0.533 0.003 1.369 -0 -1.2 0
-0.551 0.001 1.417 -0 -1.2 0
-0.569 -0.001 1.465 -0 -1.2 0
-0.59 0 1.522 -0 -1.2 0
-0.611 0 1.578 -0 -1.2 0
-0.636 0.002 1.643 -0 -1.2 0
-0.657 -0.001 1.701 -0 -1.2 0
-0.685 0.002 1.775 -0 -1.2 0
-0.71 0 1.842 -0 -1.2 0
-0.741 0.003 1.925 -0 -1.2 0
-0.769 0.001 2.001 -0 -1.2 0
-0.801 0 2.086 -0 -1.2 0
-0.843 0.008 2.196 -0 -1.2 0
-0.877 0.005 2.291 -0 -1.2 0
-0.916 0.003 2.394 -0 -1.2 0
-0.959 0.001 2.507 -0 -1.2 0
-1.014 0.009 2.655 -0 -1.2 0
-1.067 0.009 2.796 -0 -1.2 0
-1.126 0.011 2.955 -0 -1.2 0
-1.186 0.007 3.115 -0 -1.2 0
-1.26 0.01 3.311 -0 -1.2 0
-1.344 0.014 3.535 -0 -1.2 0
-1.432 0.013 3.769 -0 -1.2 0
-1.533 0.014 4.04 -0 -1.2 0
-1.663 0.023 4.385 -0 -1.2 0
-1.806 0.029 4.769 -0 -1.2 0
-1.967 0.03 5.2 -0 -1.2 0
-2.177 0.042 5.761 -0 -1.2 0
-2.416 0.047 6.397 -0 -1.2 0
-2.707 0.05 7.174 -0 -1.2 0
-3.123 0.072 8.287 -0 -1.2 0
-3.663 0.094 9.729 -0 -1.2 0
-4.382 0.11 11.648 -0 -1.2 0
-5.399 0.124 14.364 -0 -1.2 0
-5.196 -4.388 14.035 -0 -1.2 0
-4.736 -4.603 12.814 -0 -1.2 0
-4.865 -5.232 13.189 -0 -1.2 0
-4.793 -5.438 13.005 -0 -1.2 0
-3.68 -4.635 9.995 -0 -1.2 0
-3.671 -4.837 9.981 -0 -1.2 0
-2.769 -4.075 7.535 -0 -1.2 0
-2.742 -4.207 7.469 -0 -1.2 0
-4.925 -6.988 13.432 -0 -1.2 0
-4.73 -7.042 12.913 -0 -1.2 0
-4.82 -7.454 13.175 -0 -1.2 0
-3.983 -7.114 10.924 -0 -1.2 0
-3.956 -7.334 10.857 -0 -1.2 0
-3.931 -7.564 10.804 -0 -1.2 0
-3.454 -7.261 9.513 -0 -1.2 0
-3.921 -8.678 10.831 -0 -1.2 0
-2.758 -6.848 7.635 -0 -1.2 0
-3.918 -9.595 10.865 -0 -1.2 0
-2.627 -7.005 7.295 -0 -1.2 0
-2.676 -7.344 7.442 -0 -1.2 0
-2.526 -7.214 7.034 -0 -1.2 0
-2.736 -7.972 7.629 -0 -1.2 0
-2.701 -8.138 7.545 -0 -1.2 0
-2.899 -8.937 8.11 -0 -1.2 0
-2.541 -8.22 7.119 -0 -1.2 0
-2.694 -8.931 7.562 -0 -1.2 0
-2.681 -9.183 7.538 -0 -1.2 0
-0.38 0.002 1.094 -0 -1.2 0
-0.396 0.009 1.139 -0 -1.2 0
-0.406 0.002 1.171 -0 -1.2 0
-0.417 -0.004 1.204 -0 -1.2 0
-0.432 0 1.251 -0 -1.2 0
-0.448 0.002 1.299 -0 -1.2 0
-0.461 -0.002 1.339 -0 -1.2 0
-0.477 -0.001 1.387 -0 -1.2 0
-0.499 0.008 1.451 -0 -1.2 0
-0.512 0 1.492 -0 -1.2 0
-0.532 0 1.549 -0 -1.2 0
-0.551 0 1.606 -0 -1.2 0
-0.57 0 1.664 -0 -1.2 0
-0.592 0 1.731 -0 -1.2 0
-0.615 0 1.798 -0 -1.2 0
-0.64 0 1.873 -0 -1.2 0
-0.665 0.001 1.95 -0 -1.2 0
-0.694 0.002 2.035 -0 -1.2 0
-0.723 0 2.121 -0 -1.2 0
-0.757 0.006 2.224 -0 -1.2 0
-0.789 0.002 2.32 -0 -1.2 0
-0.827 0.004 2.433 -0 -1.2 0
-0.865 0.002 2.547 -0 -1.2 0
-0.912 0.007 2.689 -0 -1.2 0
-0.96 0.007 2.831 -0 -1.2 0
-1.017 0.013 3.001 -0 -1.2 0
-1.068 0.006 3.154 -0 -1.2 0
-1.134 0.01 3.352 -0 -1.2 0
-1.213 0.017 3.588 -0 -1.2 0
-1.288 0.013 3.816 -0 -1.2 0
-1.383 0.016 4.1 -0 -1.2 0
-1.487 0.017 4.413 -0 -1.2 0
-1.62 0.025 4.81 -0 -1.2 0
-1.772 0.032 5.265 -0 -1.2 0
-1.956 0.041 5.814 -0 -1.2 0
-2.165 0.043 6.44 -0 -1.2 0
-2.434 0.05 7.247 -0 -1.2 0
-2.809 0.074 8.374 -0 -1.2 0
-3.269 0.086 9.748 -0 -1.2 0
-3.918 0.106 11.692 -0 -1.2 0
-4.864 0.132 14.528 -0 -1.2 0
-6.498 0.189 19.422 -0 -1.2 0
-4.069 -4.433 12.389 -0 -1.2 0
-4.209 -5.321 12.854 -0 -1.2 0
-4.163 -5.536 12.728 -0 -1.2 0
-3.27 -4.79 10.01 -0 -1.2 0
-2.542 -4.129 7.792 -0 -1.2 0
-2.517 -4.264 7.724 -0 -1.2 0
-3.748 -6.068 11.513 -0 -1.2 0
-4.01 -6.687 12.328 -0 -1.2 0
-4.175 -7.205 12.851 -0 -1.2 0
-3.11 -5.862 9.587 -0 -1.2 0
-3.575 -6.831 11.033 -0 -1.2 0
-3.602 -7.138 11.131 -0 -1.2 0
-3.543 -7.302 10.963 -0 -1.2 0
-3.75 -8.241 11.632 -0 -1.2 0
-2.348 -5.749 7.296 -0 -1.2 0
-3.673 -8.989 11.439 -0 -1.2 0
-3.631 -9.53 11.345 -0 -1.2 0
-2.325 -6.698 7.278 -0 -1.2 0
-2.485 -7.316 7.791 -0 -1.2 0
-2.498 -7.587 7.844 -0 -1.2 0
-2.249 -7.159 7.074 -0 -1.2 0
-2.172 -7.169 6.843 -0 -1.2 0
-2.271 -7.689 7.17 -0 -1.2 0
-2.36 -8.203 7.463 -0 -1.2 0
-2.408 -8.619 7.628 -0 -1.2 0
-2.54 -9.331 8.062 -0 -1.2 0
-2.388 -9.128 7.598 -0 -1.2 0
-0.342 0.002 1.112 -0 -1.2 0
-0.354 0.003 1.152 -0 -1.2 0
-0.363 -0.003 1.183 -0 -1.2 0
-0.377 0.002 1.231 -0 -1.2 0
-0.389 0 1.271 -0 -1.2 0
-0.403 0.003 1.319 -0 -1.2 0
-0.416 -0.001 1.36 -0 -1.2 0
-0.428 -0.006 1.401 -0 -1.2 0
-0.444 -0.002 1.457 -0 -1.2 0
-0.461 0 1.514 -0 -1.2 0
-0.476 -0.002 1.564 -0 -1.2 0
-0.496 0.001 1.63 -0 -1.2 0
-0.516 0.005 1.697 -0 -1.2 0
-0.533 0 1.756 -0 -1.2 0
-0.556 0.005 1.832 -0 -1.2 0
-0.574 -0.003 1.892 -0 -1.2 0
-0.599 0.002 1.977 -0 -1.2 0
-0.624 0.003 2.063 -0 -1.2 0
-0.647 -0.001 2.141 -0 -1.2 0
-0.684 0.011 2.263 -0 -1.2 0
-0.713 0.008 2.36 -0 -1.2 0
-0.743 0.006 2.466 -0 -1.2 0
-0.775 0 2.572 -0 -1.2 0
-0.82 0.009 2.724 -0 -1.2 0
-0.862 0.009 2.868 -0 -1.2 0
-0.908 0.008 3.021 -0 -1.2 0
-0.957 0.005 3.185 -0 -1.2 0
-1.016 0.009 3.385 -0 -1.2 0
-1.084 0.013 3.615 -0 -1.2 0
-1.158 0.016 3.863 -0 -1.2 0
-1.235 0.011 4.123 -0 -1.2 0
-1.335 0.017 4.457 -0 -1.2 0
-1.448 0.022 4.84 -0 -1.2 0
-1.588 0.032 5.309 -0 -1.2 0
-1.75 0.039 5.854 -0 -1.2 0
-1.946 0.047 6.515 -0 -1.2 0
-2.174 0.048 7.282 -0 -1.2 0
-2.506 0.07 8.403 -0 -1.2 0
-2.62 -0.037 8.792 -0 -1.2 0
-2.634 -0.192 8.848 -0 -1.2 0
-2.655 -0.346 8.93 -0 -1.2 0
-2.673 -0.505 8.999 -0 -1.2 0
-2.679 -0.667 9.028 -0 -1.2 0
-2.683 -0.829 9.054 -0 -1.2 0
-2.699 -0.993 9.115 -0 -1.2 0
-2.699 -1.158 9.126 -0 -1.2 0
-2.721 -1.324 9.21 -0 -1.2 0
-6.38 -2.021 21.585 -0 -1.2 0
-6.337 -2.406 21.463 -0 -1.2 0
-6.326 -2.797 21.449 -0 -1.2 0
-6.327 -3.191 21.477 -0 -1.2 0
-6.315 -3.583 21.459 -0 -1.2 0
-6.313 -3.98 21.473 -0 -1.2 0
-6.332 -4.392 21.566 -0 -1.2 0
-6.334 -4.797 21.595 -0 -1.2 0
-4.422 -3.964 15.103 -0 -1.2 0
-4.393 -4.23 15.017 -0 -1.2 0
-6.328 -6.027 21.648 -0 -1.2 0
-6.307 -6.428 21.601 -0 -1.2 0
-4.258 -4.98 14.61 -0 -1.2 0
-4.739 -5.74 16.275 -0 -1.2 0
-6.289 -7.688 21.614 -0 -1.2 0
-3.798 -5.339 13.079 -0 -1.2 0
-3.756 -5.556 12.953 -0 -1.2 0
-2.912 -4.76 10.06 -0 -1.2 0
-2.299 -4.152 7.954 -0 -1.2 0
-3.765 -6.381 13.028 -0 -1.2 0
-4.134 -7.209 14.326 -0 -1.2 0
-3.192 -6.057 11.081 -0 -1.2 0
-3.204 -6.323 11.138 -0 -1.2 0
-3.035 -6.283 10.564 -0 -1.2 0
-2.919 -6.318 10.175 -0 -1.2 0
-6.16 -12.63 21.476 -0 -1.2 0
-6.265 -13.349 21.873 -0 -1.2 0
-3.531 -8.298 12.357 -0 -1.2 0
-2.147 -5.657 7.531 -0 -1.2 0
-2.766 -7.221 9.713 -0 -1.2 0
-2.242 -6.262 7.887 -0 -1.2 0
-3.71 -10.004 13.064 -0 -1.2 0
-3.481 -9.787 12.278 -0 -1.2 0
-3.254 -9.539 11.496 -0 -1.2 0
-2.233 -7.115 7.913 -0 -1.2 0
-2.18 -7.196 7.736 -0 -1.2 0
-2.519 -8.419 8.954 -0 -1.2 0
-1.998 -7.122 7.119 -0 -1.2 0
-2.024 -7.43 7.223 -0 -1.2 0
-2.18 -8.18 7.796 -0 -1.2 0
-2.496 -9.519 8.944 -0 -1.2 0
-2.081 -8.375 7.472 -0 -1.2 0
-1.965 -8.228 7.074 -0 -1.2 0
-2.128 -9.116 7.679 -0 -1.2 0
-0.302 0.003 1.129 -0 -1.2 0
-0.312 0.004 1.168 -0 -1.2 0
-0.323 0.004 1.208 -0 -1.2 0
-0.331 -0.002 1.241 -0 -1.2 0
-0.346 0.007 1.296 -0 -1.2 0
-0.355 -0.002 1.329 -0 -1.2 0
-0.367 0 1.378 -0 -1.2 0
-0.38 0 1.427 -0 -1.2 0
-0.393 -0.001 1.476 -0 -1.2 0
-0.408 0.001 1.534 -0 -1.2 0
-0.421 -0.001 1.584 -0 -1.2 0
-0.438 0.002 1.651 -0 -1.2 0
-0.454 0.001 1.71 -0 -1.2 0
-0.474 0.007 1.786 -0 -1.2 0
-0.491 0.006 1.854 -0 -1.2 0
-0.505 -0.006 1.906 -0 -1.2 0
-0.53 0.003 2.002 -0 -1.2 0
-0.55 0 2.08 -0 -1.2 0
-0.575 0.003 2.176 -0 -1.2 0
-0.603 0.009 2.282 -0 -1.2 0
-0.628 0.005 2.379 -0 -1.2 0
-0.656 0.003 2.486 -0 -1.2 0
-0.689 0.006 2.612 -0 -1.2 0
-0.726 0.011 2.756 -0 -1.2 0
-0.764 0.011 2.901 -0 -1.2 0
-0.805 0.01 3.056 -0 -1.2 0
-0.848 0.007 3.221 -0 -1.2 0
-0.901 0.011 3.424 -0 -1.2 0
-0.963 0.019 3.664 -0 -1.2 0
-1.031 0.023 3.925 -0 -1.2 0
-1.095 0.014 4.168 -0 -1.2 0
-1.183 0.02 4.506 -0 -1.2 0
-1.284 0.025 4.892 -0 -1.2 0
-1.402 0.031 5.346 -0 -1.2 0
-1.546 0.039 5.897 -0 -1.2 0
-1.722 0.049 6.573 -0 -1.2 0
-1.922 0.05 7.338 -0 -1.2 0
-2.209 0.069 8.44 -0 -1.2 0
-2.544 0.071 9.727 -0 -1.2 0
-2.533 -0.108 9.698 -0 -1.2 0
-2.497 -0.294 9.57 -0 -1.2 0
-2.532 -0.457 9.718 -0 -1.2 0
-2.382 -0.658 9.157 -0 -1.2 0
-2.389 -0.823 9.193 -0 -1.2 0
-2.437 -0.985 9.391 -0 -1.2 0
-2.404 -1.152 9.276 -0 -1.2 0
-2.419 -1.319 9.342 -0 -1.2 0
-5.628 -2.004 21.706 -0 -1.2 0
-5.619 -2.394 21.699 -0 -1.2 0
