# .PCD v.7 - Point Cloud Data file format
FIELDS x y z vp_x vp_y vp_z
SIZE 4 4 4 4 4 4
TYPE F F F F F F
COUNT 1 1 1 1 1 1
WIDTH 1501
HEIGHT 1
VIEWPOINT 0 -1.20013 0 1 0 0 0
POINTS 1501
DATA ascii
14.481 -17.797 20.439 -0 -1.2 0
14.31 -18.229 20.198 -0 -1.2 0
14.136 -18.656 19.95 -0 -1.2 0
13.957 -19.078 19.697 -0 -1.2 0
13.774 -19.494 19.437 -0 -1.2 0
13.586 -19.905 19.172 -0 -1.2 0
13.395 -20.31 18.902 -0 -1.2 0
13.199 -20.709 18.625 -0 -1.2 0
13 -21.102 18.343 -0 -1.2 0
12.797 -21.49 18.055 -0 -1.2 0
12.59 -21.871 17.761 -0 -1.2 0
18.209 -2.05 23.976 -0 -1.2 0
18.196 -2.572 23.96 -0 -1.2 0
18.178 -3.095 23.936 -0 -1.2 0
18.155 -3.617 23.904 -0 -1.2 0
18.125 -4.139 23.866 -0 -1.2 0
18.091 -4.659 23.82 -0 -1.2 0
18.05 -5.179 23.767 -0 -1.2 0
18.004 -5.697 23.707 -0 -1.2 0
17.953 -6.214 23.639 -0 -1.2 0
17.897 -6.729 23.564 -0 -1.2 0
17.834 -7.242 23.483 -0 -1.2 0
17.767 -7.753 23.393 -0 -1.2 0
17.694 -8.263 23.298 -0 -1.2 0
17.616 -8.771 23.195 -0 -1.2 0
17.532 -9.276 23.084 -0 -1.2 0
17.443 -9.778 22.968 -0 -1.2 0
17.349 -10.278 22.844 -0 -1.2 0
17.25 -10.775 22.712 -0 -1.2 0
17.145 -11.269 22.574 -0 -1.2 0
17.035 -11.76 22.43 -0 -1.2 0
16.92 -12.247 22.278 -0 -1.2 0
16.8 -12.733 22.12 -0 -1.2 0
16.675 -13.213 21.955 -0 -1.2 0
16.545 -13.691 21.783 -0 -1.2 0
16.408 -14.163 21.605 -0 -1.2 0
16.268 -14.633 21.42 -0 -1.2 0
16.123 -15.098 21.229 -0 -1.2 0
15.973 -15.56 21.031 -0 -1.2 0
15.818 -16.016 20.827 -0 -1.2 0
15.658 -16.468 20.617 -0 -1.2 0
15.494 -16.915 20.4 -0 -1.2 0
15.324 -17.357 20.177 -0 -1.2 0
15.15 -17.795 19.948 -0 -1.2 0
14.971 -18.228 19.713 -0 -1.2 0
14.789 -18.655 19.472 -0 -1.2 0
14.601 -19.076 19.225 -0 -1.2 0
14.409 -19.493 18.972 -0 -1.2 0
14.213 -19.904 18.714 -0 -1.2 0
14.012 -20.309 18.45 -0 -1.2 0
13.807 -20.708 18.18 -0 -1.2 0
13.598 -21.101 17.904 -0 -1.2 0
13.385 -21.489 17.624 -0 -1.2 0
13.168 -21.87 17.338 -0 -1.2 0
19.016 1.088 23.258 -0 -1.2 0
19.062 -0.48 23.316 -0 -1.2 0
18.93 -4.66 23.158 -0 -1.2 0
18.887 -5.18 23.107 -0 -1.2 0
18.839 -5.697 23.048 -0 -1.2 0
18.785 -6.214 22.983 -0 -1.2 0
18.726 -6.729 22.91 -0 -1.2 0
18.66 -7.242 22.832 -0 -1.2 0
18.59 -7.754 22.745 -0 -1.2 0
18.513 -8.263 22.652 -0 -1.2 0
18.431 -8.771 22.552 -0 -1.2 0
18.343 -9.276 22.445 -0 -1.2 0
18.249 -9.778 22.331 -0 -1.2 0
18.151 -10.279 22.212 -0 -1.2 0
18.047 -10.775 22.084 -0 -1.2 0
17.937 -11.27 21.95 -0 -1.2 0
17.821 -11.761 21.81 -0 -1.2 0
17.7 -12.248 21.663 -0 -1.2 0
17.574 -12.733 21.509 -0 -1.2 0
17.443 -13.214 21.349 -0 -1.2 0
17.306 -13.691 21.182 -0 -1.2 0
17.164 -14.164 21.009 -0 -1.2 0
17.017 -14.634 20.829 -0 -1.2 0
16.865 -15.099 20.644 -0 -1.2 0
16.708 -15.56 20.451 -0 -1.2 0
16.545 -16.017 20.254 -0 -1.2 0
16.377 -16.468 20.049 -0 -1.2 0
16.205 -16.916 19.839 -0 -1.2 0
16.027 -17.358 19.622 -0 -1.2 0
15.845 -17.796 19.4 -0 -1.2 0
15.658 -18.228 19.171 -0 -1.2 0
15.467 -18.655 18.937 -0 -1.2 0
15.27 -19.077 18.698 -0 -1.2 0
15.069 -19.494 18.452 -0 -1.2 0
14.863 -19.904 18.202 -0 -1.2 0
14.653 -20.309 17.944 -0 -1.2 0
14.438 -20.708 17.683 -0 -1.2 0
14.219 -21.102 17.415 -0 -1.2 0
13.996 -21.489 17.142 -0 -1.2 0
13.768 -21.871 16.865 -0 -1.2 0
19.78 1.086 22.611 -0 -1.2 0
19.827 -0.482 22.667 -0 -1.2 0
19.83 -1.005 22.673 -0 -1.2 0
19.828 -1.528 22.672 -0 -1.2 0
19.82 -2.052 22.662 -0 -1.2 0
19.805 -2.575 22.647 -0 -1.2 0
19.785 -3.098 22.624 -0 -1.2 0
19.759 -3.62 22.596 -0 -1.2 0
19.333 -7.756 22.117 -0 -1.2 0
19.252 -8.265 22.026 -0 -1.2 0
19.167 -8.773 21.929 -0 -1.2 0
19.075 -9.278 21.826 -0 -1.2 0
18.977 -9.78 21.715 -0 -1.2 0
18.875 -10.281 21.598 -0 -1.2 0
18.766 -10.777 21.475 -0 -1.2 0
18.651 -11.272 21.345 -0 -1.2 0
18.531 -11.763 21.208 -0 -1.2 0
18.405 -12.25 21.065 -0 -1.2 0
18.273 -12.735 20.916 -0 -1.2 0
18.136 -13.215 20.761 -0 -1.2 0
17.994 -13.693 20.599 -0 -1.2 0
17.846 -14.166 20.431 -0 -1.2 0
17.693 -14.635 20.257 -0 -1.2 0
17.534 -15.101 20.076 -0 -1.2 0
17.371 -15.562 19.89 -0 -1.2 0
17.202 -16.018 19.697 -0 -1.2 0
17.027 -16.47 19.499 -0 -1.2 0
16.662 -17.359 19.084 -0 -1.2 0
16.473 -17.797 18.868 -0 -1.2 0
16.278 -18.23 18.646 -0 -1.2 0
16.078 -18.657 18.419 -0 -1.2 0
15.874 -19.078 18.186 -0 -1.2 0
15.664 -19.495 17.948 -0 -1.2 0
15.45 -19.906 17.704 -0 -1.2 0
15.231 -20.311 17.454 -0 -1.2 0
15.007 -20.71 17.2 -0 -1.2 0
14.779 -21.103 16.94 -0 -1.2 0
14.547 -21.491 16.675 -0 -1.2 0
14.31 -21.872 16.405 -0 -1.2 0
20.523 1.083 21.94 -0 -1.2 0
20.545 0.56 21.964 -0 -1.2 0
20.561 0.037 21.983 -0 -1.2 0
20.571 -0.484 21.995 -0 -1.2 0
20.574 -1.007 22 -0 -1.2 0
20.571 -1.531 21.998 -0 -1.2 0
20.563 -2.055 21.991 -0 -1.2 0
20.547 -2.578 21.976 -0 -1.2 0
20.526 -3.1 21.954 -0 -1.2 0
20.497 -3.622 21.927 -0 -1.2 0
19.97 -8.268 21.376 -0 -1.2 0
19.881 -8.776 21.282 -0 -1.2 0
19.786 -9.281 21.181 -0 -1.2 0
19.685 -9.783 21.074 -0 -1.2 0
19.577 -10.283 20.962 -0 -1.2 0
19.465 -10.78 20.843 -0 -1.2 0
19.345 -11.274 20.717 -0 -1.2 0
19.22 -11.765 20.584 -0 -1.2 0
19.089 -12.252 20.446 -0 -1.2 0
18.953 -12.737 20.302 -0 -1.2 0
18.81 -13.218 20.151 -0 -1.2 0
18.662 -13.695 19.994 -0 -1.2 0
18.509 -14.168 19.831 -0 -1.2 0
18.35 -14.638 19.662 -0 -1.2 0
18.185 -15.103 19.487 -0 -1.2 0
18.015 -15.564 19.307 -0 -1.2 0
17.471 -16.92 18.729 -0 -1.2 0
17.279 -17.362 18.525 -0 -1.2 0
17.082 -17.8 18.316 -0 -1.2 0
16.879 -18.232 18.101 -0 -1.2 0
16.673 -18.659 17.88 -0 -1.2 0
16.46 -19.081 17.655 -0 -1.2 0
16.242 -19.497 17.424 -0 -1.2 0
16.02 -19.908 17.187 -0 -1.2 0
15.792 -20.313 16.945 -0 -1.2 0
15.56 -20.712 16.699 -0 -1.2 0
15.324 -21.105 16.446 -0 -1.2 0
15.082 -21.492 16.189 -0 -1.2 0
14.837 -21.874 15.928 -0 -1.2 0
21.304 1.08 21.181 -0 -1.2 0
21.353 -0.488 21.235 -0 -1.2 0
21.356 -1.011 21.241 -0 -1.2 0
21.353 -1.534 21.24 -0 -1.2 0
21.096 -5.705 20.999 -0 -1.2 0
20.726 -8.271 20.642 -0 -1.2 0
20.633 -8.779 20.551 -0 -1.2 0
20.535 -9.284 20.455 -0 -1.2 0
20.429 -9.786 20.352 -0 -1.2 0
20.317 -10.286 20.243 -0 -1.2 0
20.2 -10.783 20.128 -0 -1.2 0
20.076 -11.278 20.007 -0 -1.2 0
19.946 -11.768 19.879 -0 -1.2 0
19.81 -12.255 19.746 -0 -1.2 0
19.668 -12.741 19.607 -0 -1.2 0
19.366 -13.698 19.311 -0 -1.2 0
18.87 -15.106 18.823 -0 -1.2 0
18.321 -16.475 18.283 -0 -1.2 0
18.128 -16.923 18.091 -0 -1.2 0
17.513 -18.235 17.485 -0 -1.2 0
16.384 -20.316 16.37 -0 -1.2 0
16.142 -20.715 16.133 -0 -1.2 0
15.897 -21.108 15.889 -0 -1.2 0
15.646 -21.495 15.641 -0 -1.2 0
15.391 -21.876 15.39 -0 -1.2 0
22.012 1.076 20.445 -0 -1.2 0
22.011 -3.108 20.463 -0 -1.2 0
21.98 -3.63 20.437 -0 -1.2 0
21.944 -4.152 20.406 -0 -1.2 0
21.901 -4.672 20.367 -0 -1.2 0
21.85 -5.191 20.324 -0 -1.2 0
21.794 -5.709 20.273 -0 -1.2 0
21.73 -6.226 20.216 -0 -1.2 0
21.583 -7.254 20.085 -0 -1.2 0
21.501 -7.766 20.011 -0 -1.2 0
21.411 -8.275 19.929 -0 -1.2 0
21.314 -8.783 19.842 -0 -1.2 0
21.212 -9.288 19.749 -0 -1.2 0
21.103 -9.79 19.65 -0 -1.2 0
20.987 -10.29 19.546 -0 -1.2 0
20.866 -10.787 19.435 -0 -1.2 0
20.738 -11.281 19.318 -0 -1.2 0
20.603 -11.772 19.196 -0 -1.2 0
20.462 -12.259 19.067 -0 -1.2 0
20.162 -13.224 18.792 -0 -1.2 0
19.838 -14.175 18.496 -0 -1.2 0
19.307 -15.571 18.008 -0 -1.2 0
17.402 -19.503 16.257 -0 -1.2 0
16.67 -20.718 15.583 -0 -1.2 0
16.415 -21.111 15.349 -0 -1.2 0
16.156 -21.498 15.109 -0 -1.2 0
15.892 -21.879 14.867 -0 -1.2 0
22.747 -1.02 19.743 -0 -1.2 0
22.744 -1.543 19.742 -0 -1.2 0
22.733 -2.067 19.736 -0 -1.2 0
22.716 -2.59 19.723 -0 -1.2 0
22.692 -3.112 19.705 -0 -1.2 0
22.66 -3.634 19.68 -0 -1.2 0
22.622 -4.156 19.651 -0 -1.2 0
22.576 -4.677 19.614 -0 -1.2 0
22.525 -5.196 19.571 -0 -1.2 0
22.466 -5.714 19.524 -0 -1.2 0
22.249 -7.259 19.343 -0 -1.2 0
22.163 -7.77 19.271 -0 -1.2 0
22.071 -8.28 19.193 -0 -1.2 0
21.971 -8.787 19.111 -0 -1.2 0
21.866 -9.292 19.021 -0 -1.2 0
21.633 -10.295 18.825 -0 -1.2 0
21.376 -11.286 18.607 -0 -1.2 0
21.237 -11.776 18.489 -0 -1.2 0
17.687 -19.917 15.453 -0 -1.2 0
17.435 -20.322 15.237 -0 -1.2 0
17.178 -20.721 15.016 -0 -1.2 0
16.915 -21.114 14.79 -0 -1.2 0
16.648 -21.501 14.56 -0 -1.2 0
16.376 -21.883 14.327 -0 -1.2 0
23.399 1.066 18.841 -0 -1.2 0
23.423 0.542 18.864 -0 -1.2 0
23.451 -0.502 18.892 -0 -1.2 0
23.453 -1.025 18.898 -0 -1.2 0
23.45 -1.548 18.898 -0 -1.2 0
23.438 -2.073 18.891 -0 -1.2 0
23.42 -2.595 18.88 -0 -1.2 0
23.395 -3.118 18.863 -0 -1.2 0
23.362 -3.64 18.84 -0 -1.2 0
23.323 -4.162 18.811 -0 -1.2 0
23.276 -4.682 18.777 -0 -1.2 0
23.222 -5.202 18.737 -0 -1.2 0
23.161 -5.719 18.69 -0 -1.2 0
22.937 -7.264 18.519 -0 -1.2 0
22.753 -8.285 18.377 -0 -1.2 0
22.65 -8.793 18.297 -0 -1.2 0
22.301 -10.3 18.026 -0 -1.2 0
21.891 -11.782 17.704 -0 -1.2 0
18.974 -18.673 15.398 -0 -1.2 0
18.228 -19.922 14.804 -0 -1.2 0
17.703 -20.725 14.387 -0 -1.2 0
17.433 -21.118 14.171 -0 -1.2 0
17.157 -21.505 13.951 -0 -1.2 0
16.876 -21.887 13.727 -0 -1.2 0
24.043 0.536 18.066 -0 -1.2 0
24.061 0.014 18.084 -0 -1.2 0
24.071 -0.508 18.094 -0 -1.2 0
24.074 -1.031 18.1 -0 -1.2 0
24.07 -1.554 18.1 -0 -1.2 0
24.058 -2.079 18.095 -0 -1.2 0
24.039 -2.601 18.085 -0 -1.2 0
24.013 -3.124 18.068 -0 -1.2 0
23.979 -3.646 18.047 -0 -1.2 0
23.939 -4.168 18.019 -0 -1.2 0
23.89 -4.688 17.986 -0 -1.2 0
23.835 -5.207 17.949 -0 -1.2 0
23.772 -5.725 17.905 -0 -1.2 0
23.625 -6.757 17.802 -0 -1.2 0
23.542 -7.27 17.742 -0 -1.2 0
23.45 -7.781 17.676 -0 -1.2 0
23.246 -8.798 17.53 -0 -1.2 0
23.134 -9.303 17.449 -0 -1.2 0
22.152 -12.759 16.735 -0 -1.2 0
17.887 -21.122 13.586 -0 -1.2 0
17.604 -21.51 13.375 -0 -1.2 0
17.315 -21.891 13.162 -0 -1.2 0
24.609 1.054 17.231 -0 -1.2 0
24.661 -1.56 17.286 -0 -1.2 0
24.648 -2.085 17.281 -0 -1.2 0
24.629 -2.607 17.271 -0 -1.2 0
24.602 -3.13 17.256 -0 -1.2 0
24.567 -3.652 17.236 -0 -1.2 0
24.526 -4.174 17.21 -0 -1.2 0
24.476 -4.694 17.179 -0 -1.2 0
24.419 -5.214 17.143 -0 -1.2 0
24.204 -6.763 17.004 -0 -1.2 0
24.118 -7.276 16.947 -0 -1.2 0
24.024 -7.787 16.885 -0 -1.2 0
23.924 -8.297 16.818 -0 -1.2 0
23.447 -10.311 16.5 -0 -1.2 0
17.733 -21.895 12.584 -0 -1.2 0
25.214 1.047 16.332 -0 -1.2 0
25.258 0.001 16.369 -0 -1.2 0
25.17 -3.659 16.341 -0 -1.2 0
25.127 -4.181 16.317 -0 -1.2 0
25.076 -4.701 16.288 -0 -1.2 0
25.018 -5.22 16.255 -0 -1.2 0
24.878 -6.255 16.172 -0 -1.2 0
24.797 -6.77 16.124 -0 -1.2 0
24.709 -7.283 16.071 -0 -1.2 0
24.612 -7.794 16.012 -0 -1.2 0
24.509 -8.303 15.949 -0 -1.2 0
24.398 -8.811 15.881 -0 -1.2 0
24.279 -9.316 15.809 -0 -1.2 0
25.746 1.04 15.479 -0 -1.2 0
25.791 -0.005 15.515 -0 -1.2 0
25.8 -1.574 15.533 -0 -1.2 0
25.786 -2.098 15.529 -0 -1.2 0
25.766 -2.62 15.522 -0 -1.2 0
25.736 -3.143 15.508 -0 -1.2 0
25.402 -6.261 15.334 -0 -1.2 0
25.318 -6.776 15.288 -0 -1.2 0
25.228 -7.289 15.238 -0 -1.2 0
25.13 -7.8 15.183 -0 -1.2 0
25.024 -8.309 15.124 -0 -1.2 0
24.91 -8.817 15.06 -0 -1.2 0
24.789 -9.322 14.992 -0 -1.2 0
24.661 -9.824 14.919 -0 -1.2 0
24.072 -11.805 14.582 -0 -1.2 0
26.295 1.033 14.527 -0 -1.2 0
26.349 -1.581 14.58 -0 -1.2 0
26.335 -2.106 14.577 -0 -1.2 0
26.314 -2.628 14.571 -0 -1.2 0
26.284 -3.151 14.559 -0 -1.2 0
26.247 -3.673 14.544 -0 -1.2 0
25.941 -6.268 14.399 -0 -1.2 0
25.856 -6.783 14.356 -0 -1.2 0
25.764 -7.296 14.31 -0 -1.2 0
25.663 -7.808 14.259 -0 -1.2 0
25.555 -8.317 14.204 -0 -1.2 0
25.438 -8.824 14.144 -0 -1.2 0
25.314 -9.329 14.08 -0 -1.2 0
25.184 -9.831 14.013 -0 -1.2 0
24.744 -11.322 13.784 -0 -1.2 0
26.773 1.025 13.625 -0 -1.2 0
26.678 -4.203 13.628 -0 -1.2 0
26.446 -4.698 13.515 -0 -1.2 0
26.561 -5.242 13.577 -0 -1.2 0
26.412 -6.276 13.512 -0 -1.2 0
26.325 -6.791 13.474 -0 -1.2 0
26.231 -7.304 13.43 -0 -1.2 0
26.128 -7.815 13.383 -0 -1.2 0
26.018 -8.325 13.331 -0 -1.2 0
25.52 -8.718 13.083 -0 -1.2 0
25.773 -9.337 13.217 -0 -1.2 0
25.19 -11.329 12.94 -0 -1.2 0
24.853 -12.306 12.778 -0 -1.2 0
24.486 -13.271 12.601 -0 -1.2 0
24.089 -14.22 12.408 -0 -1.2 0
27.221 1.016 12.707 -0 -1.2 0
27.249 0.493 12.725 -0 -1.2 0
27.268 -0.029 12.74 -0 -1.2 0
27.261 -2.122 12.758 -0 -1.2 0
27.239 -2.645 12.753 -0 -1.2 0
27.208 -3.167 12.745 -0 -1.2 0
27.169 -3.689 12.731 -0 -1.2 0
27.123 -4.211 12.715 -0 -1.2 0
27.067 -4.731 12.694 -0 -1.2 0
27.003 -5.251 12.671 -0 -1.2 0
26.931 -5.768 12.642 -0 -1.2 0
26.504 -6.217 12.447 -0 -1.2 0
26.763 -6.8 12.575 -0 -1.2 0
26.667 -7.313 12.535 -0 -1.2 0
26.563 -7.824 12.492 -0 -1.2 0
26.451 -8.333 12.444 -0 -1.2 0
24.694 -13.756 11.68 -0 -1.2 0
23.591 -16.078 11.19 -0 -1.2 0
27.668 1.006 11.703 -0 -1.2 0
27.715 -0.039 11.734 -0 -1.2 0
27.726 -0.562 11.744 -0 -1.2 0
27.728 -1.085 11.751 -0 -1.2 0
27.722 -1.608 11.754 -0 -1.2 0
27.708 -2.132 11.754 -0 -1.2 0
27.685 -2.655 11.749 -0 -1.2 0
27.654 -3.178 11.742 -0 -1.2 0
27.614 -3.699 11.731 -0 -1.2 0
27.566 -4.221 11.717 -0 -1.2 0
27.51 -4.741 11.698 -0 -1.2 0
27.446 -5.261 11.677 -0 -1.2 0
27.372 -5.778 11.651 -0 -1.2 0
27.291 -6.295 11.623 -0 -1.2 0
27.201 -6.81 11.59 -0 -1.2 0
27.104 -7.323 11.555 -0 -1.2 0
26.997 -7.834 11.516 -0 -1.2 0
26.883 -8.343 11.472 -0 -1.2 0
26.76 -8.85 11.427 -0 -1.2 0
26.629 -9.355 11.377 -0 -1.2 0
25.096 -13.765 10.777 -0 -1.2 0
24.446 -15.171 10.517 -0 -1.2 0
28.078 0.472 10.772 -0 -1.2 0
28.098 -0.049 10.786 -0 -1.2 0
28.108 -0.572 10.795 -0 -1.2 0
28.111 -1.095 10.803 -0 -1.2 0
28.104 -1.618 10.806 -0 -1.2 0
28.09 -2.143 10.807 -0 -1.2 0
28.067 -2.665 10.804 -0 -1.2 0
28.034 -3.188 10.797 -0 -1.2 0
27.995 -3.71 10.789 -0 -1.2 0
27.945 -4.231 10.775 -0 -1.2 0
27.888 -4.752 10.76 -0 -1.2 0
27.823 -5.271 10.74 -0 -1.2 0
27.748 -5.788 10.718 -0 -1.2 0
27.666 -6.305 10.692 -0 -1.2 0
27.575 -6.82 10.664 -0 -1.2 0
27.476 -7.332 10.631 -0 -1.2 0
27.253 -8.353 10.557 -0 -1.2 0
26.995 -9.365 10.47 -0 -1.2 0
25.008 -14.715 9.77 -0 -1.2 0
24.781 -15.18 9.687 -0 -1.2 0
22.697 -18.729 8.93 -0 -1.2 0
28.428 0.461 9.812 -0 -1.2 0
28.448 -0.06 9.825 -0 -1.2 0
28.458 -0.583 9.835 -0 -1.2 0
28.461 -1.106 9.842 -0 -1.2 0
28.454 -1.629 9.847 -0 -1.2 0
28.439 -2.154 9.847 -0 -1.2 0
28.416 -2.676 9.846 -0 -1.2 0
28.383 -3.199 9.84 -0 -1.2 0
28.343 -3.72 9.833 -0 -1.2 0
28.292 -4.242 9.822 -0 -1.2 0
28.235 -4.762 9.808 -0 -1.2 0
28.169 -5.282 9.792 -0 -1.2 0
28.093 -5.799 9.772 -0 -1.2 0
28.01 -6.315 9.75 -0 -1.2 0
27.917 -6.83 9.724 -0 -1.2 0
27.817 -7.343 9.695 -0 -1.2 0
27.707 -7.854 9.664 -0 -1.2 0
27.59 -8.363 9.629 -0 -1.2 0
24.351 -16.556 8.611 -0 -1.2 0
27.511 -9.889 8.513 -0 -1.2 0
25.143 -15.66 7.865 -0 -1.2 0
24.639 -16.566 7.722 -0 -1.2 0
29.259 0.945 6.813 -0 -1.2 0
23.047 -19.605 5.636 -0 -1.2 0
29.483 0.93 5.764 -0 -1.2 0
22.704 -20.439 3.961 -0 -1.2 0
23.651 -19.675 0.863 -0 -1.2 0
21.87 -20.624 -6.711 -0 -1.2 0
27.919 -0.413 -11.214 -0 -1.2 0
20.046 -22.194 -7.577 -0 -1.2 0
21.604 -19.47 -10.015 -0 -1.2 0
26.558 1.092 -13.975 -0 -1.2 0
20.97 -19.897 -10.553 -0 -1.2 0
20.681 -20.302 -10.391 -0 -1.2 0
20.082 -21.094 -10.058 -0 -1.2 0
21.386 -18.665 -11.773 -0 -1.2 0
20.849 -19.503 -11.446 -0 -1.2 0
20.572 -19.914 -11.279 -0 -1.2 0
21.128 -18.175 -12.577 -0 -1.2 0
20.713 -19.104 -12.298 -0 -1.2 0
20.448 -19.519 -12.124 -0 -1.2 0
20.175 -19.93 -11.947 -0 -1.2 0
19.322 -21.126 -11.391 -0 -1.2 0
25.055 -0.016 -16.623 -0 -1.2 0
20.278 -17.854 -13.007 -0 -1.2 0
20.232 -19.078 -12.947 -0 -1.2 0
20.019 -19.536 -12.793 -0 -1.2 0
19.753 -19.946 -12.606 -0 -1.2 0
19.48 -20.35 -12.416 -0 -1.2 0
18.031 -22.282 -11.406 -0 -1.2 0
20.276 -18.291 -14.064 -0 -1.2 0
19.786 -19.138 -13.691 -0 -1.2 0
19.533 -19.553 -13.498 -0 -1.2 0
19.273 -19.964 -13.301 -0 -1.2 0
19.008 -20.368 -13.1 -0 -1.2 0
18.736 -20.766 -12.896 -0 -1.2 0
18.459 -21.158 -12.687 -0 -1.2 0
17.889 -21.924 -12.259 -0 -1.2 0
17.595 -22.298 -12.038 -0 -1.2 0
19.548 -18.734 -14.535 -0 -1.2 0
19.059 -19.57 -14.136 -0 -1.2 0
18.282 -20.782 -13.507 -0 -1.2 0
18.012 -21.174 -13.289 -0 -1.2 0
17.737 -21.559 -13.067 -0 -1.2 0
17.275 -21.575 -13.647 -0 -1.2 0
17.002 -21.954 -13.411 -0 -1.2 0
16.724 -22.328 -13.171 -0 -1.2 0
17.016 -21.206 -14.495 -0 -1.2 0
16.756 -21.591 -14.253 -0 -1.2 0
16.492 -21.971 -14.008 -0 -1.2 0
16.222 -22.344 -13.758 -0 -1.2 0
21.843 -1.17 -20.685 -0 -1.2 0
21.845 -1.693 -20.672 -0 -1.2 0
21.842 -2.215 -20.655 -0 -1.2 0
21.833 -2.739 -20.63 -0 -1.2 0
21.816 -3.261 -20.6 -0 -1.2 0
21.793 -3.783 -20.563 -0 -1.2 0
21.762 -4.304 -20.519 -0 -1.2 0
21.726 -4.824 -20.471 -0 -1.2 0
21.684 -5.343 -20.415 -0 -1.2 0
21.634 -5.861 -20.353 -0 -1.2 0
21.515 -6.891 -20.211 -0 -1.2 0
21.104 -9.434 -19.749 -0 -1.2 0
20.78 -10.931 -19.399 -0 -1.2 0
20.261 -12.883 -18.85 -0 -1.2 0
15.737 -22.359 -14.287 -0 -1.2 0
21.123 -0.668 -21.412 -0 -1.2 0
21.133 -1.191 -21.408 -0 -1.2 0
21.136 -1.713 -21.395 -0 -1.2 0
21.133 -2.236 -21.378 -0 -1.2 0
21.124 -2.76 -21.352 -0 -1.2 0
21.108 -3.282 -21.321 -0 -1.2 0
21.086 -3.804 -21.283 -0 -1.2 0
21.057 -4.324 -21.239 -0 -1.2 0
21.022 -4.845 -21.188 -0 -1.2 0
20.981 -5.364 -21.131 -0 -1.2 0
20.933 -5.881 -21.066 -0 -1.2 0
20.879 -6.397 -20.997 -0 -1.2 0
20.818 -6.912 -20.92 -0 -1.2 0
20.22 -10.454 -20.209 -0 -1.2 0
15.235 -22.374 -14.799 -0 -1.2 0
20.348 -0.69 -22.149 -0 -1.2 0
20.358 -1.213 -22.145 -0 -1.2 0
20.361 -1.735 -22.132 -0 -1.2 0
20.359 -2.258 -22.113 -0 -1.2 0
20.35 -2.782 -22.088 -0 -1.2 0
20.335 -3.304 -22.056 -0 -1.2 0
20.314 -3.826 -22.016 -0 -1.2 0
20.286 -4.346 -21.971 -0 -1.2 0
20.253 -4.867 -21.919 -0 -1.2 0
20.214 -5.386 -21.86 -0 -1.2 0
20.167 -5.903 -21.794 -0 -1.2 0
20.058 -6.933 -21.643 -0 -1.2 0
19.848 -8.465 -21.368 -0 -1.2 0
19.376 -10.972 -20.778 -0 -1.2 0
14.929 -22.017 -15.597 -0 -1.2 0
14.686 -22.389 -15.32 -0 -1.2 0
19.616 -1.233 -22.803 -0 -1.2 0
19.619 -1.756 -22.791 -0 -1.2 0
19.617 -2.278 -22.772 -0 -1.2 0
19.609 -2.802 -22.746 -0 -1.2 0
19.594 -3.324 -22.713 -0 -1.2 0
19.574 -3.846 -22.673 -0 -1.2 0
19.549 -4.366 -22.627 -0 -1.2 0
19.516 -4.887 -22.573 -0 -1.2 0
19.478 -5.406 -22.512 -0 -1.2 0
19.434 -5.923 -22.446 -0 -1.2 0
19.385 -6.439 -22.371 -0 -1.2 0
19.328 -6.953 -22.291 -0 -1.2 0
19.267 -7.466 -22.202 -0 -1.2 0
19.2 -7.976 -22.108 -0 -1.2 0
18.776 -10.495 -21.536 -0 -1.2 0
18.675 -10.991 -21.402 -0 -1.2 0
15.499 -20.079 -17.419 -0 -1.2 0
14.394 -22.031 -16.071 -0 -1.2 0
14.16 -22.404 -15.786 -0 -1.2 0
18.852 -1.253 -23.437 -0 -1.2 0
18.856 -1.776 -23.425 -0 -1.2 0
18.853 -2.299 -23.406 -0 -1.2 0
18.846 -2.822 -23.379 -0 -1.2 0
18.832 -3.344 -23.346 -0 -1.2 0
18.813 -3.866 -23.305 -0 -1.2 0
18.789 -4.386 -23.257 -0 -1.2 0
18.758 -4.907 -23.203 -0 -1.2 0
18.722 -5.426 -23.141 -0 -1.2 0
18.679 -5.943 -23.072 -0 -1.2 0
18.632 -6.459 -22.996 -0 -1.2 0
18.578 -6.973 -22.913 -0 -1.2 0
18.52 -7.485 -22.823 -0 -1.2 0
18.31 -9.01 -22.512 -0 -1.2 0
17.74 -11.992 -21.706 -0 -1.2 0
17.382 -13.439 -21.214 -0 -1.2 0
14.494 -20.893 -17.374 -0 -1.2 0
13.844 -22.046 -16.528 -0 -1.2 0
13.619 -22.418 -16.236 -0 -1.2 0
17.992 -0.752 -24.1 -0 -1.2 0
18.001 -1.275 -24.095 -0 -1.2 0
18.006 -1.797 -24.083 -0 -1.2 0
18.003 -2.32 -24.064 -0 -1.2 0
17.997 -2.844 -24.036 -0 -1.2 0
17.984 -3.366 -24.002 -0 -1.2 0
17.966 -3.887 -23.961 -0 -1.2 0
17.943 -4.408 -23.912 -0 -1.2 0
17.914 -4.928 -23.856 -0 -1.2 0
17.88 -5.447 -23.792 -0 -1.2 0
17.839 -5.964 -23.721 -0 -1.2 0
17.795 -6.48 -23.644 -0 -1.2 0
17.744 -6.994 -23.558 -0 -1.2 0
17.627 -8.017 -23.368 -0 -1.2 0
17.561 -8.525 -23.261 -0 -1.2 0
15.315 -17.583 -19.945 -0 -1.2 0
13.017 -22.433 -16.701 -0 -1.2 0
16.88 -7.526 -24.048 -0 -1.2 0
15.963 -12.998 -22.537 -0 -1.2 0
14.966 -13.97 -22.684 -0 -1.2 0
12.218 -21.713 -18.146 -0 -1.2 0
15.39 -0.813 -25.838 -0 -1.2 0
15.398 -1.336 -25.832 -0 -1.2 0
15.403 -1.859 -25.82 -0 -1.2 0
15.402 -2.382 -25.8 -0 -1.2 0
15.397 -2.905 -25.771 -0 -1.2 0
15.388 -3.427 -25.736 -0 -1.2 0
15.373 -3.949 -25.691 -0 -1.2 0
15.354 -4.469 -25.639 -0 -1.2 0
15.177 -4.95 -25.324 -0 -1.2 0
15.231 -6.541 -25.355 -0 -1.2 0
14.485 0.214 -26.322 -0 -1.2 0
14.529 -2.401 -26.299 -0 -1.2 0
14.525 -2.925 -26.27 -0 -1.2 0
14.516 -3.446 -26.233 -0 -1.2 0
14.503 -3.968 -26.19 -0 -1.2 0
14.337 -4.454 -25.867 -0 -1.2 0
14.332 -7.074 -25.755 -0 -1.2 0
14.069 -9.613 -25.177 -0 -1.2 0
13.86 -11.107 -24.74 -0 -1.2 0
13.782 -11.598 -24.579 -0 -1.2 0
13.33 -14.007 -23.661 -0 -1.2 0
10.556 -22.491 -18.285 -0 -1.2 0
13.608 0.195 -26.785 -0 -1.2 0
13.628 -3.986 -26.651 -0 -1.2 0
13.193 -5.935 -25.714 -0 -1.2 0
13.399 -6.534 -26.094 -0 -1.2 0
13.407 -7.064 -26.089 -0 -1.2 0
13.385 -7.582 -26.022 -0 -1.2 0
13.242 -8.039 -25.724 -0 -1.2 0
13.225 -9.631 -25.624 -0 -1.2 0
12.8 -12.59 -24.664 -0 -1.2 0
12.715 -13.071 -24.477 -0 -1.2 0
9.935 -22.504 -18.614 -0 -1.2 0
12.649 0.177 -27.252 -0 -1.2 0
12.509 -0.354 -26.929 -0 -1.2 0
12.576 -0.871 -27.051 -0 -1.2 0
12.571 -1.389 -27.019 -0 -1.2 0
12.598 -1.909 -27.052 -0 -1.2 0
12.603 -2.428 -27.04 -0 -1.2 0
12.671 -4.004 -27.117 -0 -1.2 0
12.245 -10.148 -25.931 -0 -1.2 0
12.054 -11.632 -25.455 -0 -1.2 0
11.831 -13.088 -24.909 -0 -1.2 0
10.619 -18.543 -22.061 -0 -1.2 0
9.552 -21.769 -19.618 -0 -1.2 0
9.405 -22.146 -19.285 -0 -1.2 0
9.255 -22.516 -18.946 -0 -1.2 0
11.743 0.161 -27.655 -0 -1.2 0
11.767 -4.02 -27.519 -0 -1.2 0
11.048 -10.428 -25.528 -0 -1.2 0
10.585 -15.453 -24.205 -0 -1.2 0
8.888 -21.781 -19.914 -0 -1.2 0
8.753 -22.157 -19.576 -0 -1.2 0
8.614 -22.528 -19.233 -0 -1.2 0
10.815 0.145 -28.031 -0 -1.2 0
10.842 -4.036 -27.894 -0 -1.2 0
8.452 -21.022 -20.857 -0 -1.2 0
8.332 -21.411 -20.528 -0 -1.2 0
8.209 -21.793 -20.191 -0 -1.2 0
8.085 -22.169 -19.849 -0 -1.2 0
7.957 -22.539 -19.5 -0 -1.2 0
9.797 0.128 -28.402 -0 -1.2 0
7.788 -20.641 -21.467 -0 -1.2 0
7.682 -21.035 -21.14 -0 -1.2 0
7.574 -21.423 -20.806 -0 -1.2 0
7.464 -21.805 -20.465 -0 -1.2 0
7.351 -22.181 -20.118 -0 -1.2 0
7.236 -22.551 -19.765 -0 -1.2 0
8.84 0.113 -28.715 -0 -1.2 0
8.869 -4.067 -28.567 -0 -1.2 0
8.783 -7.173 -28.109 -0 -1.2 0
8.76 -7.684 -28.001 -0 -1.2 0
8.559 -10.707 -27.175 -0 -1.2 0
6.959 -21.047 -21.377 -0 -1.2 0
6.863 -21.435 -21.04 -0 -1.2 0
6.764 -21.817 -20.695 -0 -1.2 0
6.662 -22.192 -20.344 -0 -1.2 0
6.559 -22.562 -19.988 -0 -1.2 0
7.907 -4.083 -28.856 -0 -1.2 0
7.562 -11.707 -27.098 -0 -1.2 0
7.331 -14.112 -26.092 -0 -1.2 0
6.846 -17.748 -24.075 -0 -1.2 0
6.776 -18.18 -23.789 -0 -1.2 0
6.63 -19.031 -23.196 -0 -1.2 0
6.554 -19.448 -22.888 -0 -1.2 0
6.476 -19.859 -22.573 -0 -1.2 0
6.395 -20.265 -22.253 -0 -1.2 0
6.314 -20.665 -21.924 -0 -1.2 0
6.23 -21.058 -21.59 -0 -1.2 0
6.144 -21.446 -21.249 -0 -1.2 0
6.056 -21.828 -20.901 -0 -1.2 0
5.967 -22.203 -20.547 -0 -1.2 0
5.875 -22.573 -20.187 -0 -1.2 0
6.859 -4.099 -29.121 -0 -1.2 0
6.784 -7.715 -28.536 -0 -1.2 0
6.607 -11.232 -27.526 -0 -1.2 0
6.378 -14.127 -26.333 -0 -1.2 0
5.964 -17.761 -24.298 -0 -1.2 0
5.904 -18.194 -24.01 -0 -1.2 0
5.843 -18.622 -23.715 -0 -1.2 0
5.779 -19.044 -23.412 -0 -1.2 0
5.714 -19.461 -23.101 -0 -1.2 0
5.647 -19.871 -22.784 -0 -1.2 0
5.577 -20.277 -22.461 -0 -1.2 0
5.508 -20.677 -22.129 -0 -1.2 0
5.436 -21.07 -21.792 -0 -1.2 0
5.362 -21.458 -21.448 -0 -1.2 0
5.286 -21.839 -21.097 -0 -1.2 0
5.209 -22.215 -20.74 -0 -1.2 0
5.131 -22.584 -20.376 -0 -1.2 0
5.858 -0.982 -29.491 -0 -1.2 0
5.865 -1.505 -29.487 -0 -1.2 0
5.876 -2.55 -29.452 -0 -1.2 0
5.118 -15.978 -24.529 -0 -1.2 0
5.179 -16.732 -24.777 -0 -1.2 0
5.186 -17.338 -24.759 -0 -1.2 0
5.137 -17.776 -24.476 -0 -1.2 0
5.086 -18.208 -24.186 -0 -1.2 0
5.034 -18.636 -23.888 -0 -1.2 0
4.981 -19.058 -23.583 -0 -1.2 0
4.925 -19.474 -23.27 -0 -1.2 0
4.869 -19.885 -22.952 -0 -1.2 0
4.811 -20.291 -22.625 -0 -1.2 0
4.751 -20.69 -22.291 -0 -1.2 0
4.69 -21.084 -21.952 -0 -1.2 0
4.628 -21.471 -21.605 -0 -1.2 0
4.564 -21.852 -21.252 -0 -1.2 0
4.499 -22.227 -20.892 -0 -1.2 0
4.432 -22.596 -20.526 -0 -1.2 0
4.866 -0.999 -29.67 -0 -1.2 0
4.873 -1.522 -29.666 -0 -1.2 0
4.879 -2.045 -29.653 -0 -1.2 0
4.554 -14.628 -26.457 -0 -1.2 0
4.522 -15.093 -26.219 -0 -1.2 0
4.284 -16.557 -24.627 -0 -1.2 0
4.343 -17.352 -24.911 -0 -1.2 0
4.303 -17.79 -24.626 -0 -1.2 0
4.263 -18.222 -24.334 -0 -1.2 0
4.22 -18.65 -24.034 -0 -1.2 0
4.177 -19.072 -23.727 -0 -1.2 0
4.131 -19.488 -23.413 -0 -1.2 0
4.086 -19.899 -23.091 -0 -1.2 0
4.038 -20.304 -22.764 -0 -1.2 0
3.99 -20.704 -22.428 -0 -1.2 0
3.94 -21.097 -22.086 -0 -1.2 0
3.889 -21.484 -21.738 -0 -1.2 0
3.836 -21.865 -21.382 -0 -1.2 0
3.783 -22.24 -21.02 -0 -1.2 0
3.729 -22.609 -20.652 -0 -1.2 0
3.796 -1.017 -29.825 -0 -1.2 0
3.803 -1.54 -29.821 -0 -1.2 0
3.809 -2.063 -29.808 -0 -1.2 0
3.818 -3.109 -29.755 -0 -1.2 0
3.82 -3.631 -29.715 -0 -1.2 0
3.822 -4.152 -29.666 -0 -1.2 0
3.801 -7.766 -29.07 -0 -1.2 0
3.793 -8.275 -28.949 -0 -1.2 0
3.358 -16.44 -24.546 -0 -1.2 0
3.379 -17.108 -24.642 -0 -1.2 0
3.388 -17.727 -24.64 -0 -1.2 0
3.374 -18.237 -24.462 -0 -1.2 0
3.34 -18.659 -24.153 -0 -1.2 0
3.309 -19.086 -23.852 -0 -1.2 0
3.275 -19.503 -23.536 -0 -1.2 0
3.241 -19.913 -23.213 -0 -1.2 0
3.205 -20.318 -22.883 -0 -1.2 0
3.168 -20.717 -22.546 -0 -1.2 0
3.131 -21.11 -22.203 -0 -1.2 0
3.092 -21.497 -21.852 -0 -1.2 0
3.053 -21.878 -21.495 -0 -1.2 0
3.011 -22.253 -21.131 -0 -1.2 0
2.97 -22.621 -20.761 -0 -1.2 0
2.81 -0.51 -29.928 -0 -1.2 0
2.818 -1.033 -29.933 -0 -1.2 0
2.825 -1.556 -29.929 -0 -1.2 0
2.831 -2.079 -29.916 -0 -1.2 0
2.842 -3.125 -29.863 -0 -1.2 0
2.845 -3.646 -29.822 -0 -1.2 0
2.848 -4.168 -29.773 -0 -1.2 0
2.85 -4.688 -29.714 -0 -1.2 0
2.808 -10.802 -28.316 -0 -1.2 0
2.798 -11.296 -28.143 -0 -1.2 0
2.788 -11.787 -27.96 -0 -1.2 0
2.778 -12.275 -27.77 -0 -1.2 0
2.753 -13.239 -27.364 -0 -1.2 0
2.739 -13.716 -27.149 -0 -1.2 0
2.726 -14.189 -26.924 -0 -1.2 0
2.711 -14.659 -26.692 -0 -1.2 0
2.695 -15.123 -26.452 -0 -1.2 0
2.622 -15.275 -25.646 -0 -1.2 0
2.661 -16.04 -25.948 -0 -1.2 0
2.642 -16.492 -25.683 -0 -1.2 0
2.623 -16.939 -25.412 -0 -1.2 0
2.604 -17.381 -25.132 -0 -1.2 0
2.584 -17.819 -24.845 -0 -1.2 0
2.562 -18.25 -24.55 -0 -1.2 0
2.54 -18.678 -24.248 -0 -1.2 0
2.516 -19.099 -23.938 -0 -1.2 0
2.493 -19.515 -23.621 -0 -1.2 0
2.468 -19.926 -23.297 -0 -1.2 0
2.443 -20.331 -22.966 -0 -1.2 0
2.418 -20.729 -22.628 -0 -1.2 0
2.391 -21.122 -22.283 -0 -1.2 0
2.364 -21.509 -21.931 -0 -1.2 0
2.336 -21.89 -21.573 -0 -1.2 0
2.307 -22.264 -21.208 -0 -1.2 0
2.277 -22.632 -20.836 -0 -1.2 0
1.83 -0.525 -30.003 -0 -1.2 0
1.838 -1.048 -30.008 -0 -1.2 0
1.844 -1.571 -30.005 -0 -1.2 0
1.851 -2.094 -29.991 -0 -1.2 0
1.863 -3.14 -29.938 -0 -1.2 0
1.867 -3.662 -29.898 -0 -1.2 0
1.871 -4.183 -29.848 -0 -1.2 0
1.875 -4.703 -29.79 -0 -1.2 0
1.877 -5.223 -29.722 -0 -1.2 0
1.88 -5.741 -29.645 -0 -1.2 0
1.883 -6.258 -29.559 -0 -1.2 0
1.883 -6.772 -29.465 -0 -1.2 0
1.885 -7.286 -29.361 -0 -1.2 0
1.884 -7.797 -29.248 -0 -1.2 0
1.884 -8.306 -29.127 -0 -1.2 0
1.883 -8.813 -28.996 -0 -1.2 0
1.882 -9.318 -28.857 -0 -1.2 0
1.879 -9.821 -28.71 -0 -1.2 0
1.877 -10.32 -28.553 -0 -1.2 0
1.874 -10.817 -28.388 -0 -1.2 0
1.871 -11.311 -28.214 -0 -1.2 0
1.866 -11.801 -28.032 -0 -1.2 0
1.861 -12.289 -27.841 -0 -1.2 0
1.855 -12.773 -27.641 -0 -1.2 0
1.85 -13.253 -27.433 -0 -1.2 0
1.843 -13.73 -27.217 -0 -1.2 0
1.836 -14.203 -26.992 -0 -1.2 0
1.828 -14.672 -26.76 -0 -1.2 0
1.82 -15.137 -26.519 -0 -1.2 0
1.811 -15.598 -26.27 -0 -1.2 0
1.802 -16.054 -26.013 -0 -1.2 0
1.792 -16.506 -25.748 -0 -1.2 0
1.781 -16.953 -25.476 -0 -1.2 0
1.771 -17.394 -25.196 -0 -1.2 0
1.76 -17.832 -24.908 -0 -1.2 0
1.747 -18.263 -24.612 -0 -1.2 0
1.735 -18.69 -24.309 -0 -1.2 0
1.721 -19.112 -23.999 -0 -1.2 0
1.708 -19.528 -23.681 -0 -1.2 0
1.694 -19.938 -23.356 -0 -1.2 0
1.679 -20.343 -23.023 -0 -1.2 0
1.665 -20.741 -22.685 -0 -1.2 0
1.649 -21.134 -22.339 -0 -1.2 0
1.633 -21.52 -21.986 -0 -1.2 0
1.617 -21.901 -21.627 -0 -1.2 0
1.6 -22.275 -21.262 -0 -1.2 0
1.581 -22.643 -20.889 -0 -1.2 0
0.772 -0.541 -30.049 -0 -1.2 0
0.78 -1.064 -30.054 -0 -1.2 0
0.786 -1.587 -30.051 -0 -1.2 0
0.793 -2.11 -30.037 -0 -1.2 0
0.823 -4.719 -29.834 -0 -1.2 0
0.827 -5.239 -29.767 -0 -1.2 0
0.832 -5.756 -29.69 -0 -1.2 0
0.836 -6.273 -29.604 -0 -1.2 0
0.841 -6.788 -29.509 -0 -1.2 0
0.846 -7.301 -29.406 -0 -1.2 0
0.849 -7.812 -29.293 -0 -1.2 0
0.853 -8.321 -29.171 -0 -1.2 0
0.856 -8.828 -29.041 -0 -1.2 0
0.859 -9.333 -28.902 -0 -1.2 0
0.862 -9.836 -28.753 -0 -1.2 0
0.865 -10.335 -28.596 -0 -1.2 0
0.867 -10.831 -28.431 -0 -1.2 0
0.869 -11.326 -28.257 -0 -1.2 0
0.871 -11.816 -28.074 -0 -1.2 0
0.873 -12.304 -27.883 -0 -1.2 0
0.874 -12.788 -27.683 -0 -1.2 0
0.874 -13.267 -27.474 -0 -1.2 0
0.875 -13.745 -27.258 -0 -1.2 0
0.876 -14.217 -27.033 -0 -1.2 0
0.876 -14.686 -26.8 -0 -1.2 0
0.876 -15.151 -26.559 -0 -1.2 0
0.876 -15.612 -26.309 -0 -1.2 0
0.875 -16.068 -26.052 -0 -1.2 0
0.874 -16.519 -25.788 -0 -1.2 0
0.874 -16.966 -25.514 -0 -1.2 0
0.873 -17.407 -25.234 -0 -1.2 0
0.87 -17.845 -24.945 -0 -1.2 0
0.869 -18.276 -24.649 -0 -1.2 0
0.866 -18.703 -24.346 -0 -1.2 0
0.865 -19.124 -24.035 -0 -1.2 0
0.862 -19.54 -23.717 -0 -1.2 0
0.858 -19.95 -23.391 -0 -1.2 0
0.856 -20.355 -23.058 -0 -1.2 0
0.852 -20.753 -22.719 -0 -1.2 0
0.849 -21.146 -22.372 -0 -1.2 0
0.845 -21.532 -22.019 -0 -1.2 0
0.841 -21.912 -21.66 -0 -1.2 0
0.836 -22.286 -21.293 -0 -1.2 0
0.831 -22.655 -20.92 -0 -1.2 0
-0.13 -6.801 -29.518 -0 -1.2 0
-0.123 -7.315 -29.414 -0 -1.2 0
-0.116 -7.826 -29.301 -0 -1.2 0
-0.109 -8.335 -29.18 -0 -1.2 0
-0.101 -8.842 -29.049 -0 -1.2 0
-0.094 -9.347 -28.91 -0 -1.2 0
-0.086 -9.849 -28.762 -0 -1.2 0
-0.079 -10.349 -28.604 -0 -1.2 0
-0.072 -10.845 -28.438 -0 -1.2 0
-0.064 -11.339 -28.264 -0 -1.2 0
-0.057 -11.829 -28.082 -0 -1.2 0
-0.049 -12.317 -27.89 -0 -1.2 0
-0.041 -12.801 -27.69 -0 -1.2 0
-0.033 -13.28 -27.482 -0 -1.2 0
-0.026 -13.758 -27.265 -0 -1.2 0
-0.018 -14.23 -27.041 -0 -1.2 0
-0.011 -14.699 -26.808 -0 -1.2 0
-0.003 -15.163 -26.566 -0 -1.2 0
0.004 -15.624 -26.317 -0 -1.2 0
0.011 -16.08 -26.059 -0 -1.2 0
0.018 -16.532 -25.795 -0 -1.2 0
0.026 -16.978 -25.521 -0 -1.2 0
0.034 -17.419 -25.24 -0 -1.2 0
0.041 -17.857 -24.952 -0 -1.2 0
0.049 -18.288 -24.656 -0 -1.2 0
0.057 -18.715 -24.352 -0 -1.2 0
0.064 -19.136 -24.041 -0 -1.2 0
0.072 -19.551 -23.723 -0 -1.2 0
0.08 -19.961 -23.397 -0 -1.2 0
0.087 -20.366 -23.064 -0 -1.2 0
0.095 -20.764 -22.725 -0 -1.2 0
0.102 -21.156 -22.378 -0 -1.2 0
0.11 -21.543 -22.025 -0 -1.2 0
0.117 -21.923 -21.666 -0 -1.2 0
0.125 -22.297 -21.298 -0 -1.2 0
0.131 -22.664 -20.925 -0 -1.2 0
-1.058 -9.36 -28.886 -0 -1.2 0
-1.047 -9.862 -28.738 -0 -1.2 0
-1.034 -10.362 -28.581 -0 -1.2 0
-1.021 -10.858 -28.416 -0 -1.2 0
-1.009 -11.352 -28.241 -0 -1.2 0
-0.995 -11.842 -28.058 -0 -1.2 0
-0.981 -12.33 -27.867 -0 -1.2 0
-0.968 -12.813 -27.667 -0 -1.2 0
-0.954 -13.293 -27.459 -0 -1.2 0
-0.939 -13.77 -27.243 -0 -1.2 0
-0.924 -14.242 -27.019 -0 -1.2 0
-0.909 -14.711 -26.785 -0 -1.2 0
-0.894 -15.175 -26.544 -0 -1.2 0
-0.878 -15.636 -26.295 -0 -1.2 0
-0.862 -16.092 -26.038 -0 -1.2 0
-0.846 -16.543 -25.773 -0 -1.2 0
-0.83 -16.99 -25.5 -0 -1.2 0
-0.813 -17.431 -25.219 -0 -1.2 0
-0.796 -17.868 -24.931 -0 -1.2 0
-0.779 -18.299 -24.635 -0 -1.2 0
-0.761 -18.726 -24.331 -0 -1.2 0
-0.744 -19.147 -24.021 -0 -1.2 0
-0.726 -19.562 -23.703 -0 -1.2 0
-0.707 -19.972 -23.378 -0 -1.2 0
-0.689 -20.376 -23.045 -0 -1.2 0
-0.671 -20.775 -22.706 -0 -1.2 0
-0.652 -21.167 -22.359 -0 -1.2 0
-0.633 -21.553 -22.007 -0 -1.2 0
-0.614 -21.933 -21.646 -0 -1.2 0
-0.594 -22.306 -21.28 -0 -1.2 0
-0.575 -22.674 -20.907 -0 -1.2 0
-2.096 -9.372 -28.825 -0 -1.2 0
-2.079 -9.874 -28.678 -0 -1.2 0
-2.061 -10.374 -28.521 -0 -1.2 0
-2.043 -10.87 -28.355 -0 -1.2 0
-2.024 -11.364 -28.182 -0 -1.2 0
-2.005 -11.854 -28 -0 -1.2 0
-1.984 -12.342 -27.809 -0 -1.2 0
-1.963 -12.825 -27.609 -0 -1.2 0
-1.942 -13.304 -27.402 -0 -1.2 0
-1.92 -13.782 -27.185 -0 -1.2 0
-1.898 -14.254 -26.961 -0 -1.2 0
-1.874 -14.723 -26.729 -0 -1.2 0
-1.851 -15.187 -26.488 -0 -1.2 0
-1.826 -15.647 -26.239 -0 -1.2 0
-1.801 -16.103 -25.983 -0 -1.2 0
-1.777 -16.554 -25.718 -0 -1.2 0
-1.751 -17.001 -25.446 -0 -1.2 0
-1.724 -17.442 -25.166 -0 -1.2 0
-1.697 -17.879 -24.878 -0 -1.2 0
-1.669 -18.31 -24.582 -0 -1.2 0
-1.642 -18.736 -24.28 -0 -1.2 0
-1.613 -19.157 -23.97 -0 -1.2 0
-1.584 -19.573 -23.652 -0 -1.2 0
-1.555 -19.982 -23.328 -0 -1.2 0
-1.525 -20.386 -22.996 -0 -1.2 0
-1.494 -20.784 -22.657 -0 -1.2 0
-1.463 -21.176 -22.312 -0 -1.2 0
-1.432 -21.562 -21.959 -0 -1.2 0
-1.401 -21.942 -21.6 -0 -1.2 0
-1.368 -22.316 -21.235 -0 -1.2 0
-1.336 -22.683 -20.863 -0 -1.2 0
-3.133 -7.35 -29.238 -0 -1.2 0
-3.115 -7.861 -29.125 -0 -1.2 0
-3.097 -8.37 -29.005 -0 -1.2 0
-3.076 -8.877 -28.875 -0 -1.2 0
-3.056 -9.381 -28.736 -0 -1.2 0
-3.035 -9.884 -28.589 -0 -1.2 0
-3.012 -10.383 -28.433 -0 -1.2 0
-2.988 -10.879 -28.269 -0 -1.2 0
-2.964 -11.373 -28.095 -0 -1.2 0
-2.938 -11.863 -27.913 -0 -1.2 0
-2.912 -12.351 -27.722 -0 -1.2 0
-2.885 -12.834 -27.524 -0 -1.2 0
-2.857 -13.313 -27.317 -0 -1.2 0
-2.829 -13.791 -27.102 -0 -1.2 0
-2.799 -14.263 -26.878 -0 -1.2 0
-2.768 -14.732 -26.646 -0 -1.2 0
-2.737 -15.195 -26.407 -0 -1.2 0
-2.705 -15.656 -26.158 -0 -1.2 0
-2.671 -16.111 -25.902 -0 -1.2 0
-2.638 -16.563 -25.639 -0 -1.2 0
-2.603 -17.009 -25.368 -0 -1.2 0
-2.567 -17.45 -25.088 -0 -1.2 0
-2.532 -17.887 -24.801 -0 -1.2 0
-2.494 -18.318 -24.507 -0 -1.2 0
-2.457 -18.744 -24.205 -0 -1.2 0
-2.418 -19.165 -23.896 -0 -1.2 0
-2.379 -19.58 -23.579 -0 -1.2 0
-2.339 -19.99 -23.255 -0 -1.2 0
-2.298 -20.394 -22.925 -0 -1.2 0
-2.256 -20.792 -22.587 -0 -1.2 0
-2.214 -21.184 -22.243 -0 -1.2 0
-2.171 -21.569 -21.891 -0 -1.2 0
-2.128 -21.949 -21.534 -0 -1.2 0
-2.084 -22.323 -21.169 -0 -1.2 0
-2.039 -22.69 -20.799 -0 -1.2 0
-4.125 -6.846 -29.218 -0 -1.2 0
-4.106 -7.359 -29.115 -0 -1.2 0
-4.084 -7.87 -29.004 -0 -1.2 0
-4.062 -8.379 -28.883 -0 -1.2 0
-4.038 -8.886 -28.754 -0 -1.2 0
-4.013 -9.39 -28.616 -0 -1.2 0
-3.987 -9.892 -28.468 -0 -1.2 0
-3.959 -10.392 -28.313 -0 -1.2 0
-3.931 -10.888 -28.149 -0 -1.2 0
-3.901 -11.382 -27.977 -0 -1.2 0
-3.869 -11.871 -27.796 -0 -1.2 0
-3.837 -12.359 -27.606 -0 -1.2 0
-3.804 -12.842 -27.408 -0 -1.2 0
-3.77 -13.322 -27.202 -0 -1.2 0
-3.734 -13.799 -26.987 -0 -1.2 0
-3.697 -14.271 -26.764 -0 -1.2 0
-3.659 -14.74 -26.534 -0 -1.2 0
-3.62 -15.203 -26.295 -0 -1.2 0
-3.58 -15.664 -26.049 -0 -1.2 0
-3.538 -16.119 -25.793 -0 -1.2 0
-3.496 -16.571 -25.531 -0 -1.2 0
-3.453 -17.017 -25.26 -0 -1.2 0
-3.408 -17.458 -24.982 -0 -1.2 0
-3.363 -17.895 -24.697 -0 -1.2 0
-3.316 -18.325 -24.404 -0 -1.2 0
-3.269 -18.752 -24.103 -0 -1.2 0
-3.22 -19.172 -23.795 -0 -1.2 0
-3.171 -19.588 -23.48 -0 -1.2 0
-3.12 -19.997 -23.158 -0 -1.2 0
-3.068 -20.401 -22.829 -0 -1.2 0
-3.016 -20.799 -22.492 -0 -1.2 0
-2.963 -21.19 -22.149 -0 -1.2 0
-2.908 -21.576 -21.799 -0 -1.2 0
-2.853 -21.956 -21.443 -0 -1.2 0
-2.798 -22.329 -21.08 -0 -1.2 0
-2.741 -22.696 -20.711 -0 -1.2 0
-5.301 -2.701 -29.547 -0 -1.2 0
-5.29 -3.224 -29.517 -0 -1.2 0
-5.279 -3.746 -29.476 -0 -1.2 0
-5.232 -5.307 -29.303 -0 -1.2 0
-5.213 -5.824 -29.227 -0 -1.2 0
-5.193 -6.341 -29.143 -0 -1.2 0
-5.171 -6.855 -29.049 -0 -1.2 0
-5.148 -7.368 -28.947 -0 -1.2 0
-5.122 -7.879 -28.836 -0 -1.2 0
-5.096 -8.388 -28.715 -0 -1.2 0
-5.068 -8.895 -28.587 -0 -1.2 0
-5.038 -9.399 -28.45 -0 -1.2 0
-5.008 -9.901 -28.304 -0 -1.2 0
-4.974 -10.401 -28.149 -0 -1.2 0
-4.94 -10.897 -27.986 -0 -1.2 0
-4.905 -11.39 -27.815 -0 -1.2 0
-4.867 -11.88 -27.635 -0 -1.2 0
-4.829 -12.368 -27.446 -0 -1.2 0
-4.788 -12.851 -27.249 -0 -1.2 0
-4.747 -13.33 -27.044 -0 -1.2 0
-4.704 -13.807 -26.832 -0 -1.2 0
-4.66 -14.279 -26.61 -0 -1.2 0
-4.614 -14.748 -26.38 -0 -1.2 0
-4.566 -15.212 -26.143 -0 -1.2 0
-4.517 -15.672 -25.897 -0 -1.2 0
-4.467 -16.127 -25.644 -0 -1.2 0
-4.415 -16.579 -25.383 -0 -1.2 0
-4.363 -17.025 -25.114 -0 -1.2 0
-4.309 -17.466 -24.838 -0 -1.2 0
-4.253 -17.902 -24.553 -0 -1.2 0
-4.197 -18.333 -24.261 -0 -1.2 0
-4.138 -18.759 -23.963 -0 -1.2 0
-4.079 -19.18 -23.656 -0 -1.2 0
-4.019 -19.595 -23.344 -0 -1.2 0
-3.958 -20.004 -23.023 -0 -1.2 0
-3.894 -20.408 -22.695 -0 -1.2 0
-3.83 -20.806 -22.362 -0 -1.2 0
-3.765 -21.198 -22.02 -0 -1.2 0
-3.698 -21.583 -21.672 -0 -1.2 0
-3.63 -21.963 -21.318 -0 -1.2 0
-3.562 -22.336 -20.958 -0 -1.2 0
-3.492 -22.703 -20.589 -0 -1.2 0
-5.948 -9.909 -28.119 -0 -1.2 0
-5.911 -10.408 -27.965 -0 -1.2 0
-5.872 -10.904 -27.803 -0 -1.2 0
-5.831 -11.398 -27.633 -0 -1.2 0
-5.788 -11.888 -27.454 -0 -1.2 0
-5.743 -12.375 -27.267 -0 -1.2 0
-5.697 -12.858 -27.071 -0 -1.2 0
-5.649 -13.338 -26.867 -0 -1.2 0
-5.599 -13.815 -26.655 -0 -1.2 0
-5.548 -14.286 -26.435 -0 -1.2 0
-5.494 -14.755 -26.207 -0 -1.2 0
-5.439 -15.219 -25.971 -0 -1.2 0
-5.383 -15.679 -25.727 -0 -1.2 0
-5.324 -16.134 -25.475 -0 -1.2 0
-5.264 -16.586 -25.216 -0 -1.2 0
-5.203 -17.032 -24.948 -0 -1.2 0
-5.14 -17.472 -24.674 -0 -1.2 0
-5.075 -17.909 -24.392 -0 -1.2 0
-5.009 -18.34 -24.102 -0 -1.2 0
-4.941 -18.766 -23.805 -0 -1.2 0
-4.872 -19.186 -23.501 -0 -1.2 0
-4.802 -19.601 -23.189 -0 -1.2 0
-4.729 -20.01 -22.872 -0 -1.2 0
-4.656 -20.414 -22.546 -0 -1.2 0
-4.581 -20.812 -22.214 -0 -1.2 0
-4.505 -21.204 -21.875 -0 -1.2 0
-4.427 -21.589 -21.53 -0 -1.2 0
-4.348 -21.968 -21.178 -0 -1.2 0
-4.267 -22.342 -20.818 -0 -1.2 0
-4.186 -22.709 -20.454 -0 -1.2 0
-6.884 -9.916 -27.902 -0 -1.2 0
-6.842 -10.415 -27.749 -0 -1.2 0
-6.798 -10.911 -27.589 -0 -1.2 0
-6.75 -11.405 -27.419 -0 -1.2 0
-6.702 -11.894 -27.242 -0 -1.2 0
-6.652 -12.382 -27.056 -0 -1.2 0
-6.599 -12.865 -26.862 -0 -1.2 0
-6.545 -13.344 -26.659 -0 -1.2 0
-6.488 -13.821 -26.45 -0 -1.2 0
-6.43 -14.293 -26.231 -0 -1.2 0
-6.369 -14.762 -26.004 -0 -1.2 0
-6.306 -15.225 -25.771 -0 -1.2 0
-6.242 -15.686 -25.528 -0 -1.2 0
-6.175 -16.141 -25.279 -0 -1.2 0
-6.107 -16.592 -25.021 -0 -1.2 0
-6.038 -17.038 -24.756 -0 -1.2 0
-5.965 -17.478 -24.483 -0 -1.2 0
-5.891 -17.915 -24.203 -0 -1.2 0
-5.816 -18.346 -23.916 -0 -1.2 0
-5.738 -18.772 -23.621 -0 -1.2 0
-5.66 -19.192 -23.319 -0 -1.2 0
-5.579 -19.607 -23.01 -0 -1.2 0
-5.496 -20.016 -22.694 -0 -1.2 0
-5.412 -20.42 -22.372 -0 -1.2 0
-5.327 -20.817 -22.041 -0 -1.2 0
-5.239 -21.209 -21.705 -0 -1.2 0
-5.15 -21.594 -21.363 -0 -1.2 0
-5.06 -21.974 -21.013 -0 -1.2 0
-4.968 -22.347 -20.657 -0 -1.2 0
-4.875 -22.714 -20.295 -0 -1.2 0
-8.071 -7.39 -28.266 -0 -1.2 0
-8.036 -7.901 -28.157 -0 -1.2 0
-7.999 -8.41 -28.04 -0 -1.2 0
-7.958 -8.916 -27.914 -0 -1.2 0
-7.916 -9.421 -27.78 -0 -1.2 0
-7.87 -9.923 -27.637 -0 -1.2 0
-7.823 -10.422 -27.486 -0 -1.2 0
-7.774 -10.918 -27.327 -0 -1.2 0
-7.721 -11.412 -27.159 -0 -1.2 0
-7.667 -11.901 -26.983 -0 -1.2 0
-7.61 -12.389 -26.799 -0 -1.2 0
-7.551 -12.872 -26.607 -0 -1.2 0
-7.49 -13.351 -26.407 -0 -1.2 0
-7.426 -13.828 -26.198 -0 -1.2 0
-7.36 -14.3 -25.981 -0 -1.2 0
-7.292 -14.768 -25.758 -0 -1.2 0
-7.221 -15.232 -25.525 -0 -1.2 0
-7.149 -15.692 -25.286 -0 -1.2 0
-7.073 -16.147 -25.038 -0 -1.2 0
-6.996 -16.598 -24.783 -0 -1.2 0
-6.836 -17.485 -24.251 -0 -1.2 0
-6.753 -17.921 -23.972 -0 -1.2 0
-6.668 -18.352 -23.687 -0 -1.2 0
-6.58 -18.778 -23.395 -0 -1.2 0
-6.491 -19.198 -23.097 -0 -1.2 0
-6.4 -19.613 -22.791 -0 -1.2 0
-6.306 -20.022 -22.478 -0 -1.2 0
-6.211 -20.425 -22.158 -0 -1.2 0
-6.114 -20.823 -21.831 -0 -1.2 0
-6.015 -21.214 -21.498 -0 -1.2 0
-5.914 -21.6 -21.158 -0 -1.2 0
-5.811 -21.979 -20.812 -0 -1.2 0
-5.707 -22.352 -20.46 -0 -1.2 0
-5.601 -22.719 -20.101 -0 -1.2 0
-9.031 -6.883 -28.083 -0 -1.2 0
-8.995 -7.396 -27.984 -0 -1.2 0
-8.957 -7.907 -27.876 -0 -1.2 0
-8.915 -8.416 -27.76 -0 -1.2 0
-8.871 -8.922 -27.636 -0 -1.2 0
-8.825 -9.426 -27.503 -0 -1.2 0
-8.775 -9.929 -27.362 -0 -1.2 0
-8.723 -10.428 -27.212 -0 -1.2 0
-8.669 -10.924 -27.055 -0 -1.2 0
-8.611 -11.417 -26.888 -0 -1.2 0
-8.489 -12.394 -26.532 -0 -1.2 0
-8.424 -12.877 -26.341 -0 -1.2 0
-8.285 -13.833 -25.937 -0 -1.2 0
-8.212 -14.305 -25.722 -0 -1.2 0
-8.137 -14.774 -25.5 -0 -1.2 0
-8.06 -15.237 -25.27 -0 -1.2 0
-7.98 -15.697 -25.032 -0 -1.2 0
-7.897 -16.152 -24.788 -0 -1.2 0
-7.811 -16.603 -24.535 -0 -1.2 0
-7.542 -17.926 -23.732 -0 -1.2 0
-7.048 -20.026 -22.252 -0 -1.2 0
-6.943 -20.43 -21.935 -0 -1.2 0
-6.835 -20.828 -21.612 -0 -1.2 0
-6.726 -21.219 -21.282 -0 -1.2 0
-6.614 -21.604 -20.945 -0 -1.2 0
-6.5 -21.983 -20.603 -0 -1.2 0
-6.384 -22.356 -20.254 -0 -1.2 0
-6.268 -22.723 -19.899 -0 -1.2 0
-10.169 0.403 -28.248 -0 -1.2 0
-10.174 -0.119 -28.269 -0 -1.2 0
-10.175 -0.643 -28.283 -0 -1.2 0
-10.173 -1.166 -28.287 -0 -1.2 0
-10.168 -1.689 -28.283 -0 -1.2 0
-10.16 -2.212 -28.271 -0 -1.2 0
-10.149 -2.735 -28.249 -0 -1.2 0
-10.134 -3.258 -28.219 -0 -1.2 0
-10.116 -3.779 -28.18 -0 -1.2 0
-10.097 -4.301 -28.134 -0 -1.2 0
-10.073 -4.82 -28.078 -0 -1.2 0
-10.047 -5.34 -28.014 -0 -1.2 0
-10.016 -5.858 -27.941 -0 -1.2 0
-9.983 -6.374 -27.859 -0 -1.2 0
-9.948 -6.888 -27.77 -0 -1.2 0
-9.909 -7.401 -27.672 -0 -1.2 0
-9.867 -7.912 -27.566 -0 -1.2 0
-9.822 -8.421 -27.45 -0 -1.2 0
-9.775 -8.927 -27.327 -0 -1.2 0
-9.724 -9.432 -27.196 -0 -1.2 0
-9.67 -9.934 -27.056 -0 -1.2 0
-9.614 -10.433 -26.908 -0 -1.2 0
-9.553 -10.929 -26.752 -0 -1.2 0
-9.491 -11.422 -26.588 -0 -1.2 0
-9.358 -12.399 -26.235 -0 -1.2 0
-9.056 -14.31 -25.434 -0 -1.2 0
-8.802 -15.702 -24.753 -0 -1.2 0
-8.618 -16.608 -24.26 -0 -1.2 0
-7.667 -20.434 -21.689 -0 -1.2 0
-7.549 -20.832 -21.369 -0 -1.2 0
-7.429 -21.223 -21.042 -0 -1.2 0
-7.307 -21.608 -20.71 -0 -1.2 0
-7.182 -21.987 -20.371 -0 -1.2 0
-7.055 -22.36 -20.026 -0 -1.2 0
-6.927 -22.727 -19.675 -0 -1.2 0
-11.163 -0.127 -27.894 -0 -1.2 0
-11.165 -0.651 -27.907 -0 -1.2 0
-11.163 -1.174 -27.911 -0 -1.2 0
-11.159 -1.697 -27.907 -0 -1.2 0
-11.15 -2.22 -27.894 -0 -1.2 0
-11.138 -2.742 -27.873 -0 -1.2 0
-11.123 -3.266 -27.843 -0 -1.2 0
-11.104 -3.787 -27.805 -0 -1.2 0
-11.083 -4.308 -27.759 -0 -1.2 0
-11.058 -4.828 -27.703 -0 -1.2 0
-11.029 -5.348 -27.64 -0 -1.2 0
-10.997 -5.865 -27.568 -0 -1.2 0
-10.961 -6.382 -27.488 -0 -1.2 0
-10.923 -6.896 -27.4 -0 -1.2 0
-10.881 -7.409 -27.302 -0 -1.2 0
-10.836 -7.92 -27.197 -0 -1.2 0
-10.787 -8.428 -27.084 -0 -1.2 0
-10.736 -8.935 -26.963 -0 -1.2 0
-10.68 -9.439 -26.833 -0 -1.2 0
-10.561 -10.44 -26.548 -0 -1.2 0
-10.495 -10.936 -26.394 -0 -1.2 0
-10.428 -11.43 -26.231 -0 -1.2 0
-10.357 -11.919 -26.061 -0 -1.2 0
-10.283 -12.407 -25.883 -0 -1.2 0
-9.578 -16.164 -24.181 -0 -1.2 0
-8.177 -21.229 -20.757 -0 -1.2 0
-8.043 -21.614 -20.429 -0 -1.2 0
-7.907 -21.993 -20.095 -0 -1.2 0
-7.627 -22.732 -19.407 -0 -1.2 0
-12.091 -0.133 -27.504 -0 -1.2 0
-12.088 -1.704 -27.517 -0 -1.2 0
-12.079 -2.227 -27.504 -0 -1.2 0
-12.067 -2.749 -27.483 -0 -1.2 0
-12.052 -3.273 -27.453 -0 -1.2 0
-12.032 -3.794 -27.416 -0 -1.2 0
-12.009 -4.315 -27.37 -0 -1.2 0
-11.982 -4.835 -27.316 -0 -1.2 0
-11.951 -5.354 -27.252 -0 -1.2 0
-11.918 -5.872 -27.182 -0 -1.2 0
-11.88 -6.388 -27.103 -0 -1.2 0
-11.839 -6.903 -27.015 -0 -1.2 0
-11.794 -7.416 -26.919 -0 -1.2 0
-11.746 -7.926 -26.816 -0 -1.2 0
-11.638 -8.941 -26.583 -0 -1.2 0
-9.296 -20.042 -21.396 -0 -1.2 0
-8.735 -21.619 -20.138 -0 -1.2 0
-8.588 -21.998 -19.808 -0 -1.2 0
-8.285 -22.737 -19.13 -0 -1.2 0
-13.005 -0.139 -27.084 -0 -1.2 0
-13.008 -1.187 -27.1 -0 -1.2 0
-13.004 -1.71 -27.095 -0 -1.2 0
-12.995 -2.233 -27.083 -0 -1.2 0
-12.982 -2.755 -27.062 -0 -1.2 0
-12.966 -3.279 -27.033 -0 -1.2 0
-12.946 -3.8 -26.995 -0 -1.2 0
-12.921 -4.321 -26.95 -0 -1.2 0
-12.893 -4.841 -26.896 -0 -1.2 0
-12.861 -5.361 -26.835 -0 -1.2 0
-12.825 -5.878 -26.765 -0 -1.2 0
-12.784 -6.394 -26.686 -0 -1.2 0
-12.741 -6.909 -26.6 -0 -1.2 0
-12.693 -7.422 -26.505 -0 -1.2 0
-12.463 -9.452 -26.048 -0 -1.2 0
-12.092 -11.931 -25.298 -0 -1.2 0
-11.417 -15.26 -23.927 -0 -1.2 0
-11.193 -16.175 -23.469 -0 -1.2 0
-13.973 -1.715 -26.608 -0 -1.2 0
-13.965 -2.238 -26.596 -0 -1.2 0
-13.952 -2.761 -26.575 -0 -1.2 0
-13.935 -3.284 -26.546 -0 -1.2 0
-13.913 -3.805 -26.509 -0 -1.2 0
-13.887 -4.326 -26.465 -0 -1.2 0
-13.858 -4.846 -26.411 -0 -1.2 0
-13.823 -5.366 -26.351 -0 -1.2 0
-13.786 -5.884 -26.281 -0 -1.2 0
-13.743 -6.4 -26.205 -0 -1.2 0
-13.697 -6.914 -26.119 -0 -1.2 0
-13.645 -7.427 -26.027 -0 -1.2 0
-13.174 -10.954 -25.157 -0 -1.2 0
-11.786 -17.076 -22.563 -0 -1.2 0
-14.852 -2.243 -26.11 -0 -1.2 0
-14.838 -2.765 -26.09 -0 -1.2 0
-14.821 -3.289 -26.061 -0 -1.2 0
-14.798 -3.81 -26.026 -0 -1.2 0
-14.771 -4.331 -25.981 -0 -1.2 0
-14.74 -4.851 -25.929 -0 -1.2 0
-14.703 -5.371 -25.869 -0 -1.2 0
-14.664 -5.888 -25.801 -0 -1.2 0
-14.618 -6.404 -25.725 -0 -1.2 0
-14.569 -6.918 -25.642 -0 -1.2 0
-14.515 -7.431 -25.551 -0 -1.2 0
-14.457 -7.942 -25.451 -0 -1.2 0
-14.328 -8.957 -25.231 -0 -1.2 0
-14.257 -9.461 -25.108 -0 -1.2 0
-10.248 -22.749 -18.14 -0 -1.2 0
-15.736 -1.724 -25.605 -0 -1.2 0
-15.728 -2.247 -25.592 -0 -1.2 0
-15.713 -2.769 -25.573 -0 -1.2 0
-15.694 -3.293 -25.544 -0 -1.2 0
-15.672 -3.814 -25.508 -0 -1.2 0
-15.643 -4.335 -25.465 -0 -1.2 0
-15.611 -4.855 -25.413 -0 -1.2 0
-15.573 -5.374 -25.355 -0 -1.2 0
-15.53 -5.892 -25.287 -0 -1.2 0
-15.484 -6.408 -25.214 -0 -1.2 0
-15.431 -6.922 -25.131 -0 -1.2 0
-15.375 -7.435 -25.042 -0 -1.2 0
-15.314 -7.946 -24.945 -0 -1.2 0
-15.249 -8.454 -24.839 -0 -1.2 0
-15.179 -8.961 -24.727 -0 -1.2 0
-15.103 -9.465 -24.607 -0 -1.2 0
-15.024 -9.967 -24.48 -0 -1.2 0
-14.66 -11.944 -23.896 -0 -1.2 0
-13.981 -14.809 -22.803 -0 -1.2 0
-13.298 -17.083 -21.702 -0 -1.2 0
-16.659 -1.727 -25.015 -0 -1.2 0
-16.651 -2.25 -25.002 -0 -1.2 0
-16.636 -2.772 -24.981 -0 -1.2 0
-16.616 -3.296 -24.954 -0 -1.2 0
-16.593 -3.817 -24.919 -0 -1.2 0
-16.563 -4.338 -24.877 -0 -1.2 0
-16.529 -4.858 -24.826 -0 -1.2 0
-16.489 -5.377 -24.768 -0 -1.2 0
-16.444 -5.895 -24.703 -0 -1.2 0
-16.396 -6.411 -24.63 -0 -1.2 0
-16.282 -7.438 -24.462 -0 -1.2 0
-12.716 -20.463 -19.14 -0 -1.2 0
-16.804 -9.47 -23.477 -0 -1.2 0
-16.525 -10.967 -23.089 -0 -1.2 0
-18.309 -1.729 -23.833 -0 -1.2 0
-17.922 -2.228 -23.33 -0 -1.2 0
-18.285 -2.774 -23.802 -0 -1.2 0
-18.264 -3.298 -23.775 -0 -1.2 0
-18.206 -4.34 -23.7 -0 -1.2 0
-18.169 -4.86 -23.652 -0 -1.2 0
-18.127 -5.38 -23.596 -0 -1.2 0
-17.965 -6.928 -23.387 -0 -1.2 0
-17.901 -7.44 -23.302 -0 -1.2 0
-17.83 -7.951 -23.211 -0 -1.2 0
-16.959 -12.436 -22.077 -0 -1.2 0
-16.146 -15.277 -21.017 -0 -1.2 0
-15.671 -16.642 -20.399 -0 -1.2 0
-14.973 -18.394 -19.49 -0 -1.2 0
-19.157 -1.205 -23.166 -0 -1.2 0
-19.153 -1.728 -23.161 -0 -1.2 0
-19.143 -2.25 -23.149 -0 -1.2 0
-19.128 -2.773 -23.13 -0 -1.2 0
-19.107 -3.296 -23.104 -0 -1.2 0
-19.081 -3.818 -23.07 -0 -1.2 0
-19.047 -4.339 -23.03 -0 -1.2 0
-19.008 -4.859 -22.983 -0 -1.2 0
-18.965 -5.378 -22.928 -0 -1.2 0
-18.914 -5.896 -22.868 -0 -1.2 0
-18.859 -6.412 -22.799 -0 -1.2 0
-18.797 -6.926 -22.724 -0 -1.2 0
-19.915 -1.726 -22.509 -0 -1.2 0
-19.905 -2.248 -22.498 -0 -1.2 0
-19.89 -2.771 -22.479 -0 -1.2 0
-19.868 -3.294 -22.454 -0 -1.2 0
-19.841 -3.816 -22.421 -0 -1.2 0
-19.807 -4.337 -22.382 -0 -1.2 0
-19.766 -4.857 -22.335 -0 -1.2 0
-19.721 -5.376 -22.283 -0 -1.2 0
-19.669 -5.894 -22.223 -0 -1.2 0
-19.611 -6.41 -22.157 -0 -1.2 0
-19.547 -6.924 -22.083 -0 -1.2 0
-19.478 -7.437 -22.003 -0 -1.2 0
-19.402 -7.948 -21.916 -0 -1.2 0
-19.321 -8.456 -21.823 -0 -1.2 0
-17.411 -15.734 -19.65 -0 -1.2 0
-13.827 -22.753 -15.581 -0 -1.2 0
-20.645 -2.246 -21.822 -0 -1.2 0
-20.629 -2.768 -21.803 -0 -1.2 0
-20.607 -3.292 -21.778 -0 -1.2 0
-20.578 -3.813 -21.746 -0 -1.2 0
-20.544 -4.334 -21.708 -0 -1.2 0
-20.502 -4.854 -21.663 -0 -1.2 0
-20.455 -5.373 -21.612 -0 -1.2 0
-20.401 -5.891 -21.553 -0 -1.2 0
-20.342 -6.407 -21.489 -0 -1.2 0
-20.276 -6.921 -21.417 -0 -1.2 0
-20.204 -7.434 -21.339 -0 -1.2 0
-20.126 -7.945 -21.256 -0 -1.2 0
-20.042 -8.454 -21.164 -0 -1.2 0
-19.951 -8.96 -21.067 -0 -1.2 0
-19.855 -9.464 -20.964 -0 -1.2 0
-19.529 -10.961 -20.615 -0 -1.2 0
-19.408 -11.454 -20.486 -0 -1.2 0
-19.282 -11.943 -20.351 -0 -1.2 0
-16.496 -19.234 -17.383 -0 -1.2 0
-15.59 -20.857 -16.419 -0 -1.2 0
-14.86 -22.012 -15.644 -0 -1.2 0
-14.608 -22.384 -15.376 -0 -1.2 0
-14.351 -22.751 -15.103 -0 -1.2 0
-21.426 -2.242 -21.056 -0 -1.2 0
-21.41 -2.765 -21.038 -0 -1.2 0
-21.387 -3.288 -21.014 -0 -1.2 0
-21.357 -3.809 -20.982 -0 -1.2 0
-21.322 -4.33 -20.946 -0 -1.2 0
-21.279 -4.85 -20.901 -0 -1.2 0
-21.231 -5.37 -20.852 -0 -1.2 0
-21.175 -5.887 -20.795 -0 -1.2 0
-21.113 -6.404 -20.733 -0 -1.2 0
-21.045 -6.918 -20.664 -0 -1.2 0
-20.97 -7.431 -20.588 -0 -1.2 0
-20.89 -7.942 -20.507 -0 -1.2 0
-20.803 -8.45 -20.419 -0 -1.2 0
-20.502 -9.963 -20.119 -0 -1.2 0
-18.755 -15.729 -18.377 -0 -1.2 0
-16.431 -20.458 -16.074 -0 -1.2 0
-16.189 -20.855 -15.833 -0 -1.2 0
-15.689 -21.631 -15.339 -0 -1.2 0
-15.171 -22.382 -14.826 -0 -1.2 0
-14.904 -22.748 -14.562 -0 -1.2 0
-22.13 -2.238 -20.315 -0 -1.2 0
-22.114 -2.761 -20.297 -0 -1.2 0
-22.09 -3.284 -20.274 -0 -1.2 0
-22.06 -3.805 -20.243 -0 -1.2 0
-22.023 -4.326 -20.207 -0 -1.2 0
-21.98 -4.846 -20.165 -0 -1.2 0
-21.93 -5.366 -20.116 -0 -1.2 0
-21.873 -5.883 -20.062 -0 -1.2 0
-21.809 -6.4 -20.001 -0 -1.2 0
-21.739 -6.914 -19.934 -0 -1.2 0
-21.662 -7.427 -19.862 -0 -1.2 0
-21.579 -7.938 -19.782 -0 -1.2 0
-21.488 -8.446 -19.697 -0 -1.2 0
-21.392 -8.953 -19.607 -0 -1.2 0
-21.29 -9.457 -19.51 -0 -1.2 0
-21.18 -9.959 -19.406 -0 -1.2 0
-21.064 -10.458 -19.298 -0 -1.2 0
