# .PCD v.7 - Point Cloud Data file format
FIELDS x y z vp_x vp_y vp_z
SIZE 4 4 4 4 4 4
TYPE F F F F F F
COUNT 1 1 1 1 1 1
WIDTH 1591
HEIGHT 1
VIEWPOINT 0 -1.2001 0 1 0 0 0
POINTS 1591
DATA ascii
2.038 -0.033 -1.953 -0 -1.2 0
2.134 -0.034 -2.024 -0 -1.2 0
2.232 -0.038 -2.095 -0 -1.2 0
2.329 -0.046 -2.167 -0 -1.2 0
2.45 -0.048 -2.255 -0 -1.2 0
2.595 -0.045 -2.362 -0 -1.2 0
2.732 -0.051 -2.463 -0 -1.2 0
2.885 -0.057 -2.575 -0 -1.2 0
3.078 -0.056 -2.717 -0 -1.2 0
3.279 -0.06 -2.865 -0 -1.2 0
3.497 -0.068 -3.025 -0 -1.2 0
3.763 -0.072 -3.22 -0 -1.2 0
4.084 -0.072 -3.457 -0 -1.2 0
4.454 -0.075 -3.729 -0 -1.2 0
4.857 -0.088 -4.026 -0 -1.2 0
5.309 -0.109 -4.357 -0 -1.2 0
5.937 -0.118 -4.818 -0 -1.2 0
5.944 -0.246 -4.819 -0 -1.2 0
5.95 -0.375 -4.818 -0 -1.2 0
5.946 -0.504 -4.81 -0 -1.2 0
5.955 -0.631 -4.813 -0 -1.2 0
5.956 -0.759 -4.808 -0 -1.2 0
5.961 -0.886 -4.808 -0 -1.2 0
5.966 -1.013 -4.807 -0 -1.2 0
5.977 -1.14 -4.81 -0 -1.2 0
5.978 -1.268 -4.806 -0 -1.2 0
5.977 -1.395 -4.801 -0 -1.2 0
5.99 -1.523 -4.806 -0 -1.2 0
5.994 -1.651 -4.804 -0 -1.2 0
5.988 -1.779 -4.794 -0 -1.2 0
5.996 -1.908 -4.796 -0 -1.2 0
6.002 -2.039 -4.795 -0 -1.2 0
6.006 -2.169 -4.793 -0 -1.2 0
5.961 -2.291 -4.755 -0 -1.2 0
5.969 -2.423 -4.757 -0 -1.2 0
5.968 -2.553 -4.751 -0 -1.2 0
5.973 -2.686 -4.75 -0 -1.2 0
5.976 -2.82 -4.746 -0 -1.2 0
5.984 -2.955 -4.748 -0 -1.2 0
5.99 -3.093 -4.748 -0 -1.2 0
5.995 -3.231 -4.746 -0 -1.2 0
5.998 -3.369 -4.743 -0 -1.2 0
6.006 -3.512 -4.743 -0 -1.2 0
6.012 -3.655 -4.742 -0 -1.2 0
6.007 -3.796 -4.735 -0 -1.2 0
6.016 -3.945 -4.735 -0 -1.2 0
6.023 -4.094 -4.735 -0 -1.2 0
6.027 -4.245 -4.733 -0 -1.2 0
6.029 -4.397 -4.728 -0 -1.2 0
6.035 -4.553 -4.727 -0 -1.2 0
6.04 -4.711 -4.724 -0 -1.2 0
6.048 -4.874 -4.725 -0 -1.2 0
6.054 -5.039 -4.723 -0 -1.2 0
6.056 -5.206 -4.719 -0 -1.2 0
6.057 -5.373 -4.712 -0 -1.2 0
6.068 -5.552 -4.715 -0 -1.2 0
6.069 -5.727 -4.709 -0 -1.2 0
6.08 -5.915 -4.71 -0 -1.2 0
6.089 -6.103 -4.709 -0 -1.2 0
6.1 -6.3 -4.71 -0 -1.2 0
6.094 -6.486 -4.698 -0 -1.2 0
6.104 -6.692 -4.699 -0 -1.2 0
6.111 -6.9 -4.696 -0 -1.2 0
6.164 -7.16 -4.726 -0 -1.2 0
5.993 -7.198 -4.598 -0 -1.2 0
5.908 -7.322 -4.532 -0 -1.2 0
5.986 -7.627 -4.578 -0 -1.2 0
6.009 -7.882 -4.585 -0 -1.2 0
5.91 -7.999 -4.507 -0 -1.2 0
0.901 -0.022 -1.147 -0 -1.2 0
0.933 -0.019 -1.172 -0 -1.2 0
0.971 -0.011 -1.201 -0 -1.2 0
1.003 -0.011 -1.227 -0 -1.2 0
1.035 -0.012 -1.252 -0 -1.2 0
1.068 -0.014 -1.278 -0 -1.2 0
1.101 -0.017 -1.303 -0 -1.2 0
1.14 -0.015 -1.335 -0 -1.2 0
1.18 -0.014 -1.366 -0 -1.2 0
1.22 -0.016 -1.397 -0 -1.2 0
1.267 -0.012 -1.434 -0 -1.2 0
1.307 -0.016 -1.465 -0 -1.2 0
1.355 -0.017 -1.503 -0 -1.2 0
1.403 -0.018 -1.541 -0 -1.2 0
1.458 -0.016 -1.584 -0 -1.2 0
1.506 -0.022 -1.622 -0 -1.2 0
1.569 -0.019 -1.671 -0 -1.2 0
1.619 -0.029 -1.709 -0 -1.2 0
1.682 -0.031 -1.759 -0 -1.2 0
1.745 -0.036 -1.81 -0 -1.2 0
1.823 -0.033 -1.871 -0 -1.2 0
1.903 -0.035 -1.932 -0 -1.2 0
1.996 -0.032 -2.006 -0 -1.2 0
2.076 -0.041 -2.069 -0 -1.2 0
2.178 -0.041 -2.149 -0 -1.2 0
2.288 -0.042 -2.235 -0 -1.2 0
2.398 -0.048 -2.322 -0 -1.2 0
2.532 -0.049 -2.427 -0 -1.2 0
2.659 -0.058 -2.527 -0 -1.2 0
2.823 -0.058 -2.656 -0 -1.2 0
3.011 -0.057 -2.804 -0 -1.2 0
3.193 -0.066 -2.946 -0 -1.2 0
3.421 -0.07 -3.125 -0 -1.2 0
3.696 -0.07 -3.341 -0 -1.2 0
3.994 -0.075 -3.575 -0 -1.2 0
4.379 -0.074 -3.877 -0 -1.2 0
4.779 -0.085 -4.193 -0 -1.2 0
5.198 -0.112 -4.52 -0 -1.2 0
5.748 -0.133 -4.952 -0 -1.2 0
5.748 -0.262 -4.947 -0 -1.2 0
5.746 -0.39 -4.939 -0 -1.2 0
5.749 -0.516 -4.937 -0 -1.2 0
5.751 -0.643 -4.934 -0 -1.2 0
5.758 -0.769 -4.935 -0 -1.2 0
5.765 -0.895 -4.935 -0 -1.2 0
5.769 -1.021 -4.934 -0 -1.2 0
5.772 -1.147 -4.931 -0 -1.2 0
5.773 -1.273 -4.927 -0 -1.2 0
5.78 -1.398 -4.928 -0 -1.2 0
5.785 -1.525 -4.927 -0 -1.2 0
5.797 -1.653 -4.931 -0 -1.2 0
5.799 -1.78 -4.928 -0 -1.2 0
5.798 -1.908 -4.923 -0 -1.2 0
5.805 -2.037 -4.923 -0 -1.2 0
5.816 -2.168 -4.927 -0 -1.2 0
5.773 -2.287 -4.888 -0 -1.2 0
5.773 -2.416 -4.884 -0 -1.2 0
5.78 -2.548 -4.885 -0 -1.2 0
5.777 -2.677 -4.877 -0 -1.2 0
5.78 -2.81 -4.874 -0 -1.2 0
5.796 -2.948 -4.882 -0 -1.2 0
5.796 -3.081 -4.876 -0 -1.2 0
5.801 -3.218 -4.875 -0 -1.2 0
5.803 -3.356 -4.872 -0 -1.2 0
5.812 -3.497 -4.872 -0 -1.2 0
5.817 -3.639 -4.872 -0 -1.2 0
5.814 -3.779 -4.864 -0 -1.2 0
5.823 -3.926 -4.865 -0 -1.2 0
5.823 -4.071 -4.859 -0 -1.2 0
5.835 -4.224 -4.863 -0 -1.2 0
5.836 -4.374 -4.859 -0 -1.2 0
5.837 -4.525 -4.853 -0 -1.2 0
5.848 -4.687 -4.856 -0 -1.2 0
5.849 -4.845 -4.852 -0 -1.2 0
5.856 -5.008 -4.85 -0 -1.2 0
5.86 -5.174 -4.846 -0 -1.2 0
5.867 -5.345 -4.846 -0 -1.2 0
5.871 -5.518 -4.843 -0 -1.2 0
5.88 -5.696 -4.842 -0 -1.2 0
5.885 -5.877 -4.839 -0 -1.2 0
5.893 -6.065 -4.839 -0 -1.2 0
5.899 -6.255 -4.836 -0 -1.2 0
5.907 -6.452 -4.835 -0 -1.2 0
5.912 -6.651 -4.831 -0 -1.2 0
5.919 -6.858 -4.829 -0 -1.2 0
5.916 -7.06 -4.818 -0 -1.2 0
6.178 -7.548 -5.006 -0 -1.2 0
5.808 -7.369 -4.722 -0 -1.2 0
5.717 -7.486 -4.646 -0 -1.2 0
5.824 -7.833 -4.717 -0 -1.2 0
5.802 -8.04 -4.692 -0 -1.2 0
0.874 -0.03 -1.155 -0 -1.2 0
0.909 -0.02 -1.185 -0 -1.2 0
0.945 -0.012 -1.216 -0 -1.2 0
0.978 -0.012 -1.242 -0 -1.2 0
1.009 -0.013 -1.269 -0 -1.2 0
1.041 -0.015 -1.295 -0 -1.2 0
1.074 -0.018 -1.322 -0 -1.2 0
1.112 -0.016 -1.354 -0 -1.2 0
1.144 -0.022 -1.382 -0 -1.2 0
1.196 -0.011 -1.425 -0 -1.2 0
1.241 -0.007 -1.463 -0 -1.2 0
1.274 -0.018 -1.491 -0 -1.2 0
1.321 -0.018 -1.53 -0 -1.2 0
1.368 -0.02 -1.57 -0 -1.2 0
1.415 -0.023 -1.609 -0 -1.2 0
1.469 -0.024 -1.654 -0 -1.2 0
1.523 -0.026 -1.7 -0 -1.2 0
1.584 -0.025 -1.75 -0 -1.2 0
1.639 -0.033 -1.797 -0 -1.2 0
1.708 -0.033 -1.855 -0 -1.2 0
1.77 -0.041 -1.906 -0 -1.2 0
1.861 -0.033 -1.983 -0 -1.2 0
1.939 -0.038 -2.048 -0 -1.2 0
2.024 -0.043 -2.118 -0 -1.2 0
2.123 -0.044 -2.202 -0 -1.2 0
2.222 -0.048 -2.286 -0 -1.2 0
2.338 -0.051 -2.382 -0 -1.2 0
2.46 -0.055 -2.486 -0 -1.2 0
2.598 -0.058 -2.6 -0 -1.2 0
2.758 -0.058 -2.736 -0 -1.2 0
2.928 -0.063 -2.876 -0 -1.2 0
3.119 -0.068 -3.037 -0 -1.2 0
3.334 -0.074 -3.217 -0 -1.2 0
3.601 -0.074 -3.441 -0 -1.2 0
3.915 -0.075 -3.705 -0 -1.2 0
4.274 -0.077 -4.006 -0 -1.2 0
4.657 -0.091 -4.327 -0 -1.2 0
5.065 -0.118 -4.668 -0 -1.2 0
5.563 -0.147 -5.086 -0 -1.2 0
5.555 -0.276 -5.073 -0 -1.2 0
5.553 -0.403 -5.066 -0 -1.2 0
5.556 -0.529 -5.064 -0 -1.2 0
5.558 -0.654 -5.061 -0 -1.2 0
5.566 -0.779 -5.062 -0 -1.2 0
5.572 -0.903 -5.062 -0 -1.2 0
5.576 -1.028 -5.061 -0 -1.2 0
5.579 -1.153 -5.058 -0 -1.2 0
5.58 -1.278 -5.054 -0 -1.2 0
5.579 -1.403 -5.049 -0 -1.2 0
5.592 -1.529 -5.054 -0 -1.2 0
5.596 -1.655 -5.052 -0 -1.2 0
5.597 -1.781 -5.049 -0 -1.2 0
5.606 -1.909 -5.051 -0 -1.2 0
5.611 -2.037 -5.051 -0 -1.2 0
5.624 -2.166 -5.055 -0 -1.2 0
5.581 -2.285 -5.015 -0 -1.2 0
5.582 -2.413 -5.011 -0 -1.2 0
5.588 -2.543 -5.011 -0 -1.2 0
5.586 -2.672 -5.004 -0 -1.2 0
5.597 -2.806 -5.008 -0 -1.2 0
5.598 -2.938 -5.004 -0 -1.2 0
5.605 -3.073 -5.005 -0 -1.2 0
5.602 -3.206 -4.997 -0 -1.2 0
5.613 -3.345 -5 -0 -1.2 0
5.621 -3.485 -5.001 -0 -1.2 0
5.62 -3.622 -4.995 -0 -1.2 0
5.625 -3.764 -4.993 -0 -1.2 0
5.634 -3.911 -4.995 -0 -1.2 0
5.641 -4.059 -4.995 -0 -1.2 0
5.638 -4.203 -4.987 -0 -1.2 0
5.641 -4.353 -4.984 -0 -1.2 0
5.655 -4.512 -4.99 -0 -1.2 0
5.646 -4.658 -4.976 -0 -1.2 0
5.655 -4.82 -4.977 -0 -1.2 0
5.662 -4.983 -4.976 -0 -1.2 0
5.665 -5.147 -4.973 -0 -1.2 0
5.674 -5.316 -4.972 -0 -1.2 0
5.679 -5.487 -4.971 -0 -1.2 0
5.688 -5.666 -4.971 -0 -1.2 0
5.693 -5.846 -4.968 -0 -1.2 0
5.696 -6.027 -4.963 -0 -1.2 0
5.72 -6.233 -4.976 -0 -1.2 0
5.711 -6.412 -4.96 -0 -1.2 0
5.709 -6.603 -4.952 -0 -1.2 0
5.723 -6.815 -4.955 -0 -1.2 0
5.721 -7.016 -4.945 -0 -1.2 0
5.817 -7.328 -5.012 -0 -1.2 0
5.565 -7.264 -4.803 -0 -1.2 0
5.622 -7.546 -4.841 -0 -1.2 0
5.544 -7.675 -4.77 -0 -1.2 0
5.643 -8.027 -4.839 -0 -1.2 0
0.864 -0.009 -1.183 -0 -1.2 0
0.884 -0.02 -1.2 -0 -1.2 0
0.914 -0.019 -1.228 -0 -1.2 0
0.955 -0.006 -1.266 -0 -1.2 0
0.986 -0.006 -1.293 -0 -1.2 0
1.012 -0.016 -1.316 -0 -1.2 0
1.054 -0.006 -1.354 -0 -1.2 0
1.086 -0.011 -1.383 -0 -1.2 0
1.117 -0.016 -1.411 -0 -1.2 0
1.156 -0.018 -1.445 -0 -1.2 0
1.205 -0.008 -1.49 -0 -1.2 0
1.244 -0.013 -1.525 -0 -1.2 0
1.283 -0.019 -1.56 -0 -1.2 0
1.329 -0.021 -1.6 -0 -1.2 0
1.374 -0.024 -1.642 -0 -1.2 0
1.426 -0.025 -1.689 -0 -1.2 0
1.485 -0.022 -1.742 -0 -1.2 0
1.539 -0.027 -1.79 -0 -1.2 0
1.592 -0.034 -1.837 -0 -1.2 0
1.659 -0.034 -1.898 -0 -1.2 0
1.727 -0.037 -1.958 -0 -1.2 0
1.808 -0.035 -2.031 -0 -1.2 0
1.882 -0.04 -2.099 -0 -1.2 0
1.972 -0.041 -2.178 -0 -1.2 0
2.054 -0.049 -2.252 -0 -1.2 0
2.166 -0.047 -2.352 -0 -1.2 0
2.27 -0.053 -2.446 -0 -1.2 0
2.389 -0.057 -2.553 -0 -1.2 0
2.523 -0.061 -2.674 -0 -1.2 0
2.686 -0.058 -2.82 -0 -1.2 0
2.849 -0.064 -2.968 -0 -1.2 0
3.028 -0.072 -3.128 -0 -1.2 0
3.236 -0.078 -3.315 -0 -1.2 0
3.518 -0.072 -3.568 -0 -1.2 0
3.793 -0.081 -3.816 -0 -1.2 0
4.157 -0.081 -4.142 -0 -1.2 0
4.522 -0.097 -4.47 -0 -1.2 0
4.953 -0.117 -4.858 -0 -1.2 0
5.364 -0.16 -5.226 -0 -1.2 0
5.357 -0.288 -5.213 -0 -1.2 0
5.346 -0.416 -5.2 -0 -1.2 0
5.364 -0.538 -5.211 -0 -1.2 0
5.374 -0.663 -5.214 -0 -1.2 0
5.373 -0.788 -5.209 -0 -1.2 0
5.372 -0.912 -5.203 -0 -1.2 0
5.376 -1.036 -5.202 -0 -1.2 0
5.386 -1.16 -5.206 -0 -1.2 0
5.395 -1.285 -5.208 -0 -1.2 0
5.386 -1.409 -5.196 -0 -1.2 0
5.392 -1.534 -5.195 -0 -1.2 0
5.403 -1.66 -5.2 -0 -1.2 0
5.405 -1.785 -5.197 -0 -1.2 0
5.397 -1.909 -5.186 -0 -1.2 0
5.411 -2.037 -5.192 -0 -1.2 0
5.423 -2.166 -5.197 -0 -1.2 0
5.381 -2.284 -5.155 -0 -1.2 0
5.383 -2.411 -5.151 -0 -1.2 0
5.389 -2.541 -5.152 -0 -1.2 0
5.387 -2.669 -5.145 -0 -1.2 0
5.397 -2.802 -5.149 -0 -1.2 0
5.399 -2.932 -5.145 -0 -1.2 0
5.399 -3.063 -5.139 -0 -1.2 0
5.403 -3.198 -5.139 -0 -1.2 0
5.414 -3.337 -5.142 -0 -1.2 0
5.422 -3.476 -5.144 -0 -1.2 0
5.429 -3.617 -5.144 -0 -1.2 0
5.426 -3.755 -5.136 -0 -1.2 0
5.427 -3.896 -5.132 -0 -1.2 0
5.434 -4.043 -5.133 -0 -1.2 0
5.439 -4.191 -5.132 -0 -1.2 0
5.436 -4.335 -5.122 -0 -1.2 0
5.45 -4.493 -5.128 -0 -1.2 0
5.448 -4.644 -5.12 -0 -1.2 0
5.464 -4.808 -5.128 -0 -1.2 0
5.458 -4.96 -5.117 -0 -1.2 0
5.468 -5.129 -5.119 -0 -1.2 0
5.47 -5.293 -5.113 -0 -1.2 0
5.476 -5.464 -5.112 -0 -1.2 0
5.484 -5.641 -5.113 -0 -1.2 0
5.49 -5.82 -5.111 -0 -1.2 0
5.487 -5.995 -5.1 -0 -1.2 0
5.517 -6.205 -5.12 -0 -1.2 0
5.509 -6.384 -5.105 -0 -1.2 0
5.514 -6.58 -5.102 -0 -1.2 0
5.516 -6.778 -5.095 -0 -1.2 0
5.526 -6.991 -5.096 -0 -1.2 0
5.625 -7.31 -5.172 -0 -1.2 0
5.284 -7.131 -4.872 -0 -1.2 0
5.499 -7.601 -5.047 -0 -1.2 0
5.372 -7.668 -4.93 -0 -1.2 0
5.354 -7.872 -4.906 -0 -1.2 0
0.834 -0.017 -1.189 -0 -1.2 0
0.858 -0.022 -1.211 -0 -1.2 0
0.893 -0.013 -1.244 -0 -1.2 0
0.928 -0.007 -1.278 -0 -1.2 0
0.953 -0.014 -1.302 -0 -1.2 0
0.982 -0.017 -1.331 -0 -1.2 0
1.018 -0.014 -1.365 -0 -1.2 0
1.054 -0.012 -1.399 -0 -1.2 0
1.086 -0.018 -1.429 -0 -1.2 0
1.122 -0.019 -1.464 -0 -1.2 0
1.165 -0.016 -1.506 -0 -1.2 0
1.203 -0.02 -1.541 -0 -1.2 0
1.246 -0.021 -1.583 -0 -1.2 0
1.296 -0.017 -1.632 -0 -1.2 0
1.341 -0.021 -1.674 -0 -1.2 0
1.386 -0.027 -1.717 -0 -1.2 0
1.442 -0.024 -1.771 -0 -1.2 0
1.494 -0.029 -1.82 -0 -1.2 0
1.546 -0.036 -1.871 -0 -1.2 0
1.611 -0.036 -1.932 -0 -1.2 0
1.67 -0.045 -1.989 -0 -1.2 0
1.755 -0.038 -2.071 -0 -1.2 0
1.828 -0.043 -2.141 -0 -1.2 0
1.914 -0.044 -2.223 -0 -1.2 0
2.001 -0.048 -2.307 -0 -1.2 0
2.103 -0.05 -2.404 -0 -1.2 0
2.211 -0.053 -2.507 -0 -1.2 0
2.334 -0.054 -2.624 -0 -1.2 0
2.45 -0.064 -2.735 -0 -1.2 0
2.608 -0.062 -2.887 -0 -1.2 0
2.774 -0.065 -3.047 -0 -1.2 0
2.941 -0.076 -3.206 -0 -1.2 0
3.15 -0.08 -3.406 -0 -1.2 0
3.423 -0.075 -3.668 -0 -1.2 0
3.705 -0.081 -3.938 -0 -1.2 0
4.043 -0.084 -4.263 -0 -1.2 0
4.433 -0.094 -4.636 -0 -1.2 0
4.788 -0.128 -4.975 -0 -1.2 0
5.152 -0.179 -5.322 -0 -1.2 0
5.158 -0.303 -5.323 -0 -1.2 0
5.162 -0.428 -5.322 -0 -1.2 0
5.159 -0.552 -5.313 -0 -1.2 0
5.167 -0.674 -5.316 -0 -1.2 0
5.174 -0.798 -5.319 -0 -1.2 0
5.173 -0.921 -5.312 -0 -1.2 0
5.177 -1.044 -5.311 -0 -1.2 0
5.179 -1.167 -5.308 -0 -1.2 0
5.18 -1.29 -5.304 -0 -1.2 0
5.187 -1.414 -5.305 -0 -1.2 0
5.192 -1.537 -5.306 -0 -1.2 0
5.195 -1.661 -5.304 -0 -1.2 0
5.204 -1.787 -5.307 -0 -1.2 0
5.205 -1.911 -5.303 -0 -1.2 0
5.211 -2.037 -5.304 -0 -1.2 0
5.215 -2.164 -5.303 -0 -1.2 0
5.217 -2.29 -5.3 -0 -1.2 0
5.226 -2.418 -5.303 -0 -1.2 0
5.232 -2.548 -5.304 -0 -1.2 0
5.23 -2.676 -5.296 -0 -1.2 0
5.24 -2.809 -5.3 -0 -1.2 0
5.241 -2.94 -5.297 -0 -1.2 0
5.248 -3.074 -5.298 -0 -1.2 0
5.253 -3.209 -5.298 -0 -1.2 0
5.256 -3.345 -5.295 -0 -1.2 0
5.264 -3.484 -5.297 -0 -1.2 0
5.263 -3.621 -5.291 -0 -1.2 0
5.274 -3.766 -5.296 -0 -1.2 0
5.27 -3.904 -5.285 -0 -1.2 0
5.277 -4.051 -5.286 -0 -1.2 0
5.282 -4.199 -5.284 -0 -1.2 0
5.284 -4.347 -5.281 -0 -1.2 0
5.297 -4.505 -5.288 -0 -1.2 0
5.29 -4.651 -5.274 -0 -1.2 0
5.305 -4.816 -5.282 -0 -1.2 0
5.305 -4.973 -5.276 -0 -1.2 0
5.308 -5.137 -5.273 -0 -1.2 0
5.317 -5.306 -5.274 -0 -1.2 0
5.321 -5.477 -5.272 -0 -1.2 0
5.324 -5.649 -5.268 -0 -1.2 0
5.335 -5.834 -5.271 -0 -1.2 0
5.332 -6.009 -5.262 -0 -1.2 0
5.332 -6.19 -5.254 -0 -1.2 0
5.323 -6.368 -5.238 -0 -1.2 0
5.323 -6.558 -5.23 -0 -1.2 0
5.326 -6.756 -5.225 -0 -1.2 0
5.33 -6.962 -5.221 -0 -1.2 0
5.37 -7.214 -5.249 -0 -1.2 0
5.107 -7.113 -5.001 -0 -1.2 0
5.201 -7.44 -5.078 -0 -1.2 0
5.279 -7.759 -5.14 -0 -1.2 0
5.171 -7.845 -5.032 -0 -1.2 0
0.813 -0.011 -1.204 -0 -1.2 0
0.836 -0.015 -1.228 -0 -1.2 0
0.869 -0.007 -1.263 -0 -1.2 0
0.888 -0.021 -1.281 -0 -1.2 0
0.922 -0.015 -1.316 -0 -1.2 0
0.957 -0.011 -1.352 -0 -1.2 0
0.987 -0.015 -1.382 -0 -1.2 0
1.016 -0.019 -1.411 -0 -1.2 0
1.047 -0.025 -1.442 -0 -1.2 0
1.087 -0.021 -1.484 -0 -1.2 0
1.128 -0.017 -1.527 -0 -1.2 0
1.166 -0.022 -1.564 -0 -1.2 0
1.208 -0.022 -1.607 -0 -1.2 0
1.256 -0.019 -1.656 -0 -1.2 0
1.293 -0.027 -1.694 -0 -1.2 0
1.343 -0.029 -1.744 -0 -1.2 0
1.391 -0.031 -1.795 -0 -1.2 0
1.454 -0.026 -1.859 -0 -1.2 0
1.492 -0.043 -1.896 -0 -1.2 0
1.561 -0.038 -1.967 -0 -1.2 0
1.624 -0.042 -2.032 -0 -1.2 0
1.701 -0.04 -2.111 -0 -1.2 0
1.772 -0.045 -2.182 -0 -1.2 0
1.856 -0.046 -2.268 -0 -1.2 0
1.946 -0.047 -2.36 -0 -1.2 0
2.037 -0.053 -2.454 -0 -1.2 0
2.143 -0.056 -2.561 -0 -1.2 0
2.255 -0.06 -2.676 -0 -1.2 0
2.38 -0.064 -2.804 -0 -1.2 0
2.528 -0.065 -2.953 -0 -1.2 0
2.681 -0.072 -3.111 -0 -1.2 0
2.863 -0.075 -3.296 -0 -1.2 0
3.059 -0.081 -3.496 -0 -1.2 0
3.317 -0.08 -3.759 -0 -1.2 0
3.583 -0.088 -4.031 -0 -1.2 0
3.925 -0.089 -4.381 -0 -1.2 0
4.282 -0.103 -4.744 -0 -1.2 0
4.689 -0.124 -5.159 -0 -1.2 0
4.958 -0.192 -5.432 -0 -1.2 0
4.957 -0.317 -5.426 -0 -1.2 0
4.962 -0.44 -5.425 -0 -1.2 0
4.972 -0.562 -5.431 -0 -1.2 0
4.966 -0.686 -5.42 -0 -1.2 0
4.965 -0.808 -5.415 -0 -1.2 0
4.978 -0.93 -5.422 -0 -1.2 0
4.989 -1.052 -5.429 -0 -1.2 0
4.991 -1.174 -5.426 -0 -1.2 0
4.999 -1.296 -5.43 -0 -1.2 0
4.998 -1.418 -5.424 -0 -1.2 0
4.997 -1.541 -5.417 -0 -1.2 0
5 -1.664 -5.415 -0 -1.2 0
5.009 -1.788 -5.42 -0 -1.2 0
5.009 -1.912 -5.415 -0 -1.2 0
5.021 -2.039 -5.422 -0 -1.2 0
5.018 -2.163 -5.415 -0 -1.2 0
5.028 -2.29 -5.42 -0 -1.2 0
5.029 -2.417 -5.416 -0 -1.2 0
5.043 -2.547 -5.425 -0 -1.2 0
5.04 -2.675 -5.417 -0 -1.2 0
5.043 -2.804 -5.415 -0 -1.2 0
5.051 -2.937 -5.418 -0 -1.2 0
5.058 -3.071 -5.419 -0 -1.2 0
5.063 -3.204 -5.419 -0 -1.2 0
5.066 -3.339 -5.417 -0 -1.2 0
5.067 -3.475 -5.413 -0 -1.2 0
5.073 -3.615 -5.413 -0 -1.2 0
5.077 -3.755 -5.412 -0 -1.2 0
5.08 -3.897 -5.408 -0 -1.2 0
5.079 -4.039 -5.403 -0 -1.2 0
5.084 -4.185 -5.402 -0 -1.2 0
5.081 -4.329 -5.393 -0 -1.2 0
5.088 -4.482 -5.394 -0 -1.2 0
5.093 -4.636 -5.393 -0 -1.2 0
5.102 -4.796 -5.396 -0 -1.2 0
5.102 -4.952 -5.389 -0 -1.2 0
5.1 -5.11 -5.381 -0 -1.2 0
5.108 -5.278 -5.383 -0 -1.2 0
5.107 -5.443 -5.375 -0 -1.2 0
5.116 -5.619 -5.377 -0 -1.2 0
5.122 -5.796 -5.377 -0 -1.2 0
5.125 -5.976 -5.372 -0 -1.2 0
5.131 -6.162 -5.372 -0 -1.2 0
5.134 -6.35 -5.367 -0 -1.2 0
5.134 -6.54 -5.359 -0 -1.2 0
5.142 -6.744 -5.359 -0 -1.2 0
5.146 -6.949 -5.356 -0 -1.2 0
5.127 -7.13 -5.327 -0 -1.2 0
4.942 -7.113 -5.139 -0 -1.2 0
4.939 -7.318 -5.128 -0 -1.2 0
5.073 -7.711 -5.25 -0 -1.2 0
5.019 -7.866 -5.189 -0 -1.2 0
0.784 -0.012 -1.217 -0 -1.2 0
0.811 -0.009 -1.247 -0 -1.2 0
0.833 -0.015 -1.271 -0 -1.2 0
0.866 -0.009 -1.307 -0 -1.2 0
0.889 -0.017 -1.332 -0 -1.2 0
0.917 -0.019 -1.363 -0 -1.2 0
0.951 -0.016 -1.4 -0 -1.2 0
0.985 -0.015 -1.436 -0 -1.2 0
1.019 -0.014 -1.474 -0 -1.2 0
1.053 -0.016 -1.512 -0 -1.2 0
1.088 -0.018 -1.55 -0 -1.2 0
1.118 -0.028 -1.581 -0 -1.2 0
1.169 -0.018 -1.639 -0 -1.2 0
1.21 -0.02 -1.684 -0 -1.2 0
1.247 -0.029 -1.722 -0 -1.2 0
1.305 -0.02 -1.788 -0 -1.2 0
1.353 -0.023 -1.84 -0 -1.2 0
1.396 -0.032 -1.886 -0 -1.2 0
1.45 -0.036 -1.945 -0 -1.2 0
1.51 -0.036 -2.012 -0 -1.2 0
1.566 -0.044 -2.072 -0 -1.2 0
1.639 -0.042 -2.153 -0 -1.2 0
1.708 -0.047 -2.227 -0 -1.2 0
1.789 -0.048 -2.316 -0 -1.2 0
1.876 -0.049 -2.412 -0 -1.2 0
1.965 -0.056 -2.508 -0 -1.2 0
2.059 -0.062 -2.612 -0 -1.2 0
2.179 -0.06 -2.743 -0 -1.2 0
2.289 -0.07 -2.863 -0 -1.2 0
2.436 -0.069 -3.024 -0 -1.2 0
2.597 -0.07 -3.201 -0 -1.2 0
2.773 -0.073 -3.393 -0 -1.2 0
2.962 -0.081 -3.599 -0 -1.2 0
3.198 -0.084 -3.858 -0 -1.2 0
3.467 -0.088 -4.152 -0 -1.2 0
3.797 -0.09 -4.513 -0 -1.2 0
4.167 -0.099 -4.919 -0 -1.2 0
4.606 -0.112 -5.399 -0 -1.2 0
4.773 -0.2 -5.577 -0 -1.2 0
4.772 -0.325 -5.572 -0 -1.2 0
4.783 -0.447 -5.578 -0 -1.2 0
4.785 -0.57 -5.577 -0 -1.2 0
4.787 -0.693 -5.573 -0 -1.2 0
4.793 -0.815 -5.575 -0 -1.2 0
4.792 -0.937 -5.569 -0 -1.2 0
4.795 -1.059 -5.568 -0 -1.2 0
4.798 -1.181 -5.566 -0 -1.2 0
4.805 -1.303 -5.569 -0 -1.2 0
4.812 -1.425 -5.571 -0 -1.2 0
4.816 -1.548 -5.571 -0 -1.2 0
4.813 -1.67 -5.562 -0 -1.2 0
4.814 -1.793 -5.56 -0 -1.2 0
4.822 -1.918 -5.562 -0 -1.2 0
4.82 -2.041 -5.556 -0 -1.2 0
4.831 -2.168 -5.563 -0 -1.2 0
4.827 -2.292 -5.553 -0 -1.2 0
4.835 -2.42 -5.557 -0 -1.2 0
4.834 -2.546 -5.552 -0 -1.2 0
4.845 -2.677 -5.558 -0 -1.2 0
4.855 -2.809 -5.564 -0 -1.2 0
4.856 -2.939 -5.56 -0 -1.2 0
4.863 -3.072 -5.562 -0 -1.2 0
4.867 -3.206 -5.562 -0 -1.2 0
4.863 -3.338 -5.553 -0 -1.2 0
4.864 -3.473 -5.548 -0 -1.2 0
4.877 -3.615 -5.556 -0 -1.2 0
4.881 -3.755 -5.556 -0 -1.2 0
4.877 -3.892 -5.546 -0 -1.2 0
4.884 -4.038 -5.547 -0 -1.2 0
4.895 -4.188 -5.553 -0 -1.2 0
4.891 -4.332 -5.543 -0 -1.2 0
4.892 -4.48 -5.538 -0 -1.2 0
4.897 -4.634 -5.537 -0 -1.2 0
4.899 -4.789 -5.534 -0 -1.2 0
4.906 -4.95 -5.535 -0 -1.2 0
4.91 -5.112 -5.533 -0 -1.2 0
4.906 -5.27 -5.522 -0 -1.2 0
4.911 -5.439 -5.522 -0 -1.2 0
4.92 -5.615 -5.523 -0 -1.2 0
4.926 -5.793 -5.523 -0 -1.2 0
4.923 -5.966 -5.514 -0 -1.2 0
4.929 -6.153 -5.512 -0 -1.2 0
4.932 -6.34 -5.509 -0 -1.2 0
4.938 -6.535 -5.507 -0 -1.2 0
4.946 -6.738 -5.508 -0 -1.2 0
4.956 -6.95 -5.51 -0 -1.2 0
4.983 -7.19 -5.531 -0 -1.2 0
4.814 -7.187 -5.347 -0 -1.2 0
4.74 -7.298 -5.26 -0 -1.2 0
4.733 -7.504 -5.245 -0 -1.2 0
4.852 -7.894 -5.36 -0 -1.2 0
0.761 -0.004 -1.231 -0 -1.2 0
0.783 -0.01 -1.256 -0 -1.2 0
0.814 -0.002 -1.293 -0 -1.2 0
0.841 -0.003 -1.325 -0 -1.2 0
0.858 -0.017 -1.344 -0 -1.2 0
0.895 -0.007 -1.388 -0 -1.2 0
0.922 -0.011 -1.419 -0 -1.2 0
0.951 -0.015 -1.452 -0 -1.2 0
0.983 -0.015 -1.491 -0 -1.2 0
1.016 -0.017 -1.529 -0 -1.2 0
1.05 -0.02 -1.568 -0 -1.2 0
1.089 -0.018 -1.614 -0 -1.2 0
1.128 -0.019 -1.66 -0 -1.2 0
1.168 -0.021 -1.706 -0 -1.2 0
1.208 -0.025 -1.752 -0 -1.2 0
1.259 -0.022 -1.813 -0 -1.2 0
1.3 -0.029 -1.86 -0 -1.2 0
1.352 -0.03 -1.921 -0 -1.2 0
1.399 -0.037 -1.975 -0 -1.2 0
1.463 -0.034 -2.051 -0 -1.2 0
1.516 -0.041 -2.113 -0 -1.2 0
1.587 -0.04 -2.195 -0 -1.2 0
1.653 -0.045 -2.272 -0 -1.2 0
1.731 -0.046 -2.364 -0 -1.2 0
1.816 -0.048 -2.462 -0 -1.2 0
1.907 -0.051 -2.568 -0 -1.2 0
1.999 -0.057 -2.675 -0 -1.2 0
2.109 -0.059 -2.804 -0 -1.2 0
2.226 -0.064 -2.941 -0 -1.2 0
2.356 -0.069 -3.093 -0 -1.2 0
2.518 -0.067 -3.281 -0 -1.2 0
2.674 -0.077 -3.465 -0 -1.2 0
2.863 -0.083 -3.685 -0 -1.2 0
3.103 -0.082 -3.965 -0 -1.2 0
3.363 -0.086 -4.268 -0 -1.2 0
3.688 -0.087 -4.647 -0 -1.2 0
4.026 -0.102 -5.042 -0 -1.2 0
4.487 -0.108 -5.58 -0 -1.2 0
4.937 -0.14 -6.105 -0 -1.2 0
5.774 -0.129 -7.084 -0 -1.2 0
5.768 -0.286 -7.07 -0 -1.2 0
5.767 -0.441 -7.062 -0 -1.2 0
5.776 -0.594 -7.067 -0 -1.2 0
5.784 -0.747 -7.071 -0 -1.2 0
5.797 -0.901 -7.08 -0 -1.2 0
5.795 -1.054 -7.071 -0 -1.2 0
5.791 -1.207 -7.061 -0 -1.2 0
5.799 -1.361 -7.063 -0 -1.2 0
5.797 -1.514 -7.056 -0 -1.2 0
5.808 -1.668 -7.063 -0 -1.2 0
5.81 -1.822 -7.06 -0 -1.2 0
5.824 -1.979 -7.069 -0 -1.2 0
5.816 -2.132 -7.054 -0 -1.2 0
5.819 -2.288 -7.052 -0 -1.2 0
5.834 -2.448 -7.062 -0 -1.2 0
5.821 -2.601 -7.041 -0 -1.2 0
5.819 -2.758 -7.032 -0 -1.2 0
5.808 -2.913 -7.014 -0 -1.2 0
5.816 -3.075 -7.016 -0 -1.2 0
5.821 -3.237 -7.016 -0 -1.2 0
5.831 -3.403 -7.02 -0 -1.2 0
5.831 -3.566 -7.016 -0 -1.2 0
5.837 -3.734 -7.016 -0 -1.2 0
5.841 -3.902 -7.013 -0 -1.2 0
5.836 -4.067 -7.001 -0 -1.2 0
5.835 -4.237 -6.994 -0 -1.2 0
5.827 -4.403 -6.977 -0 -1.2 0
5.846 -4.589 -6.993 -0 -1.2 0
5.84 -4.761 -6.978 -0 -1.2 0
5.842 -4.941 -6.974 -0 -1.2 0
5.842 -5.122 -6.968 -0 -1.2 0
5.835 -5.3 -6.952 -0 -1.2 0
5.842 -5.493 -6.953 -0 -1.2 0
5.842 -5.681 -6.944 -0 -1.2 0
5.843 -5.876 -6.94 -0 -1.2 0
5.832 -6.063 -6.918 -0 -1.2 0
5.823 -6.254 -6.901 -0 -1.2 0
5.812 -6.447 -6.88 -0 -1.2 0
5.881 -6.721 -6.951 -0 -1.2 0
5.865 -6.917 -6.922 -0 -1.2 0
5.773 -7.041 -6.811 -0 -1.2 0
5.611 -7.085 -6.62 -0 -1.2 0
6.696 -8.518 -7.832 -0 -1.2 0
6.478 -8.532 -7.576 -0 -1.2 0
4.966 -6.982 -5.871 -0 -1.2 0
4.977 -7.205 -5.875 -0 -1.2 0
4.809 -7.202 -5.679 -0 -1.2 0
4.592 -7.126 -5.428 -0 -1.2 0
4.579 -7.317 -5.405 -0 -1.2 0
4.631 -7.607 -5.455 -0 -1.2 0
4.621 -7.816 -5.435 -0 -1.2 0
0.733 -0.005 -1.239 -0 -1.2 0
0.753 -0.011 -1.265 -0 -1.2 0
0.779 -0.009 -1.297 -0 -1.2 0
0.805 -0.01 -1.329 -0 -1.2 0
0.83 -0.011 -1.361 -0 -1.2 0
0.857 -0.014 -1.394 -0 -1.2 0
0.888 -0.012 -1.433 -0 -1.2 0
0.919 -0.01 -1.472 -0 -1.2 0
0.947 -0.016 -1.505 -0 -1.2 0
0.984 -0.012 -1.552 -0 -1.2 0
1.016 -0.014 -1.592 -0 -1.2 0
1.053 -0.014 -1.638 -0 -1.2 0
1.086 -0.02 -1.679 -0 -1.2 0
1.124 -0.023 -1.727 -0 -1.2 0
1.167 -0.021 -1.782 -0 -1.2 0
1.217 -0.018 -1.844 -0 -1.2 0
1.262 -0.02 -1.899 -0 -1.2 0
1.301 -0.031 -1.947 -0 -1.2 0
1.352 -0.034 -2.01 -0 -1.2 0
1.408 -0.035 -2.08 -0 -1.2 0
1.476 -0.031 -2.166 -0 -1.2 0
1.539 -0.033 -2.244 -0 -1.2 0
1.613 -0.031 -2.338 -0 -1.2 0
1.683 -0.037 -2.424 -0 -1.2 0
1.759 -0.042 -2.518 -0 -1.2 0
1.852 -0.042 -2.634 -0 -1.2 0
1.941 -0.05 -2.744 -0 -1.2 0
2.046 -0.052 -2.877 -0 -1.2 0
2.159 -0.057 -3.018 -0 -1.2 0
2.29 -0.06 -3.181 -0 -1.2 0
2.446 -0.06 -3.375 -0 -1.2 0
2.604 -0.067 -3.57 -0 -1.2 0
2.791 -0.072 -3.804 -0 -1.2 0
3.016 -0.074 -4.085 -0 -1.2 0
3.272 -0.079 -4.404 -0 -1.2 0
3.585 -0.081 -4.794 -0 -1.2 0
3.959 -0.084 -5.262 -0 -1.2 0
4.385 -0.096 -5.791 -0 -1.2 0
4.835 -0.128 -6.353 -0 -1.2 0
5.803 -0.092 -7.561 -0 -1.2 0
6.971 -0.081 -9.019 -0 -1.2 0
7.825 -0.173 -10.081 -0 -1.2 0
7.832 -0.39 -10.081 -0 -1.2 0
7.836 -0.607 -10.078 -0 -1.2 0
7.863 -0.824 -10.104 -0 -1.2 0
7.863 -1.041 -10.095 -0 -1.2 0
7.86 -1.258 -10.083 -0 -1.2 0
7.88 -1.476 -10.1 -0 -1.2 0
7.873 -1.693 -10.082 -0 -1.2 0
7.869 -1.91 -10.07 -0 -1.2 0
7.869 -2.128 -10.061 -0 -1.2 0
7.88 -2.348 -10.066 -0 -1.2 0
7.869 -2.565 -10.044 -0 -1.2 0
7.875 -2.786 -10.043 -0 -1.2 0
7.904 -3.013 -10.069 -0 -1.2 0
7.929 -3.241 -10.091 -0 -1.2 0
7.927 -3.465 -10.081 -0 -1.2 0
7.941 -3.695 -10.089 -0 -1.2 0
7.952 -3.926 -10.095 -0 -1.2 0
7.937 -4.148 -10.067 -0 -1.2 0
7.937 -4.378 -10.058 -0 -1.2 0
7.953 -4.617 -10.069 -0 -1.2 0
7.948 -4.849 -10.053 -0 -1.2 0
7.946 -5.085 -10.041 -0 -1.2 0
7.965 -5.334 -10.056 -0 -1.2 0
7.987 -5.587 -10.073 -0 -1.2 0
7.971 -5.824 -10.044 -0 -1.2 0
7.964 -6.067 -10.025 -0 -1.2 0
8.024 -6.356 -10.089 -0 -1.2 0
8.073 -6.647 -10.14 -0 -1.2 0
7.987 -6.845 -10.025 -0 -1.2 0
7.768 -6.941 -9.746 -0 -1.2 0
7.667 -7.12 -9.614 -0 -1.2 0
8.758 -8.281 -10.929 -0 -1.2 0
8.66 -8.5 -10.8 -0 -1.2 0
6.786 -7.124 -8.515 -0 -1.2 0
6.565 -7.159 -8.237 -0 -1.2 0
6.289 -7.132 -7.895 -0 -1.2 0
6.044 -7.117 -7.588 -0 -1.2 0
5.81 -7.102 -7.298 -0 -1.2 0
5.615 -7.115 -7.054 -0 -1.2 0
5.474 -7.178 -6.876 -0 -1.2 0
5.384 -7.295 -6.759 -0 -1.2 0
5.389 -7.525 -6.757 -0 -1.2 0
4.766 -6.975 -6.001 -0 -1.2 0
5.394 -7.996 -6.745 -0 -1.2 0
5.36 -8.192 -6.694 -0 -1.2 0
0.696 -0.013 -1.241 -0 -1.2 0
0.716 -0.018 -1.268 -0 -1.2 0
0.74 -0.017 -1.301 -0 -1.2 0
0.773 -0.004 -1.346 -0 -1.2 0
0.799 -0.006 -1.379 -0 -1.2 0
0.819 -0.015 -1.406 -0 -1.2 0
0.85 -0.012 -1.446 -0 -1.2 0
0.884 -0.005 -1.493 -0 -1.2 0
0.909 -0.011 -1.527 -0 -1.2 0
0.945 -0.007 -1.575 -0 -1.2 0
0.98 -0.004 -1.623 -0 -1.2 0
1.011 -0.009 -1.664 -0 -1.2 0
1.049 -0.01 -1.713 -0 -1.2 0
1.085 -0.013 -1.762 -0 -1.2 0
1.127 -0.012 -1.818 -0 -1.2 0
1.164 -0.019 -1.868 -0 -1.2 0
1.207 -0.022 -1.925 -0 -1.2 0
1.259 -0.018 -1.997 -0 -1.2 0
1.308 -0.022 -2.062 -0 -1.2 0
1.351 -0.032 -2.119 -0 -1.2 0
1.417 -0.027 -2.207 -0 -1.2 0
1.482 -0.027 -2.294 -0 -1.2 0
1.543 -0.033 -2.375 -0 -1.2 0
1.615 -0.035 -2.471 -0 -1.2 0
1.704 -0.03 -2.591 -0 -1.2 0
1.776 -0.04 -2.688 -0 -1.2 0
1.861 -0.048 -2.801 -0 -1.2 0
1.974 -0.045 -2.953 -0 -1.2 0
2.087 -0.048 -3.105 -0 -1.2 0
2.208 -0.054 -3.265 -0 -1.2 0
2.367 -0.049 -3.48 -0 -1.2 0
2.512 -0.06 -3.673 -0 -1.2 0
2.703 -0.061 -3.93 -0 -1.2 0
2.924 -0.063 -4.226 -0 -1.2 0
3.186 -0.063 -4.578 -0 -1.2 0
3.479 -0.069 -4.97 -0 -1.2 0
3.861 -0.068 -5.483 -0 -1.2 0
4.251 -0.087 -6.003 -0 -1.2 0
4.795 -0.097 -6.732 -0 -1.2 0
5.696 -0.071 -7.941 -0 -1.2 0
6.938 -0.047 -9.606 -0 -1.2 0
8.98 0.004 -12.347 -0 -1.2 0
12.285 0.057 -16.778 -0 -1.2 0
12.874 -0.262 -17.556 -0 -1.2 0
12.907 -0.635 -17.585 -0 -1.2 0
12.928 -1.009 -17.599 -0 -1.2 0
12.923 -1.384 -17.577 -0 -1.2 0
12.93 -1.759 -17.573 -0 -1.2 0
12.815 -2.125 -17.404 -0 -1.2 0
12.821 -2.497 -17.399 -0 -1.2 0
12.925 -2.884 -17.522 -0 -1.2 0
12.948 -3.264 -17.538 -0 -1.2 0
13.055 -3.663 -17.667 -0 -1.2 0
13.092 -4.054 -17.702 -0 -1.2 0
13.102 -4.441 -17.7 -0 -1.2 0
13.109 -4.829 -17.693 -0 -1.2 0
12.998 -5.182 -17.532 -0 -1.2 0
13.131 -5.616 -17.694 -0 -1.2 0
13.036 -5.974 -17.552 -0 -1.2 0
13.019 -6.361 -17.516 -0 -1.2 0
13.016 -6.756 -17.495 -0 -1.2 0
10.436 -6.926 -14.031 -0 -1.2 0
9.98 -6.988 -13.418 -0 -1.2 0
9.426 -6.962 -12.675 -0 -1.2 0
9.064 -7.031 -12.188 -0 -1.2 0
11.587 -10.66 -15.43 -0 -1.2 0
10.006 -10.066 -13.334 -0 -1.2 0
10.144 -10.564 -13.498 -0 -1.2 0
10.159 -10.958 -13.504 -0 -1.2 0
10.946 -12.146 -14.513 -0 -1.2 0
9.947 -11.52 -13.199 -0 -1.2 0
9.72 -11.667 -12.889 -0 -1.2 0
10.677 -13.15 -14.115 -0 -1.2 0
10.764 -13.696 -14.21 -0 -1.2 0
9.024 -12.032 -11.942 -0 -1.2 0
8.967 -12.353 -11.852 -0 -1.2 0
10.042 -14.163 -13.226 -0 -1.2 0
9.481 -13.864 -12.484 -0 -1.2 0
8.924 -13.529 -11.749 -0 -1.2 0
0.663 -0.021 -1.242 -0 -1.2 0
0.694 -0.005 -1.286 -0 -1.2 0
0.717 -0.004 -1.32 -0 -1.2 0
0.74 -0.004 -1.354 -0 -1.2 0
0.769 0 -1.395 -0 -1.2 0
0.793 -0.002 -1.429 -0 -1.2 0
0.816 -0.006 -1.464 -0 -1.2 0
0.841 -0.012 -1.498 -0 -1.2 0
0.87 -0.012 -1.54 -0 -1.2 0
0.904 -0.007 -1.588 -0 -1.2 0
0.938 -0.005 -1.638 -0 -1.2 0
0.969 -0.01 -1.68 -0 -1.2 0
1.003 -0.011 -1.73 -0 -1.2 0
1.043 -0.009 -1.788 -0 -1.2 0
1.078 -0.013 -1.837 -0 -1.2 0
1.114 -0.02 -1.889 -0 -1.2 0
1.159 -0.018 -1.954 -0 -1.2 0
1.206 -0.02 -2.019 -0 -1.2 0
1.252 -0.023 -2.086 -0 -1.2 0
1.304 -0.024 -2.16 -0 -1.2 0
1.361 -0.025 -2.242 -0 -1.2 0
1.428 -0.02 -2.339 -0 -1.2 0
1.481 -0.031 -2.415 -0 -1.2 0
1.561 -0.026 -2.529 -0 -1.2 0
1.631 -0.032 -2.628 -0 -1.2 0
1.716 -0.033 -2.75 -0 -1.2 0
1.802 -0.037 -2.874 -0 -1.2 0
1.905 -0.039 -3.022 -0 -1.2 0
2.014 -0.042 -3.178 -0 -1.2 0
2.128 -0.049 -3.342 -0 -1.2 0
2.272 -0.05 -3.546 -0 -1.2 0
2.421 -0.057 -3.76 -0 -1.2 0
2.62 -0.052 -4.045 -0 -1.2 0
2.832 -0.054 -4.349 -0 -1.2 0
3.072 -0.06 -4.692 -0 -1.2 0
3.381 -0.059 -5.135 -0 -1.2 0
3.747 -0.06 -5.659 -0 -1.2 0
4.108 -0.085 -6.177 -0 -1.2 0
4.663 -0.089 -6.971 -0 -1.2 0
5.559 -0.061 -8.257 -0 -1.2 0
6.811 -0.032 -10.052 -0 -1.2 0
8.908 0.028 -13.06 -0 -1.2 0
10.097 -8.028 -14.446 -0 -1.2 0
8.685 -7.963 -12.426 -0 -1.2 0
8.609 -8.213 -12.308 -0 -1.2 0
8.864 -8.748 -12.651 -0 -1.2 0
9.46 -9.617 -13.471 -0 -1.2 0
11.048 -11.473 -15.673 -0 -1.2 0
10.66 -11.935 -15.101 -0 -1.2 0
8.607 -10.179 -12.227 -0 -1.2 0
9.231 -11.219 -13.082 -0 -1.2 0
9.625 -12.052 -13.612 -0 -1.2 0
9.682 -12.531 -13.676 -0 -1.2 0
8.371 -11.336 -11.843 -0 -1.2 0
7.423 -10.497 -10.518 -0 -1.2 0
9.519 -13.608 -13.4 -0 -1.2 0
8.954 -13.279 -12.603 -0 -1.2 0
8.24 -12.696 -11.602 -0 -1.2 0
8.06 -12.839 -11.34 -0 -1.2 0
9.948 -16.114 -13.915 -0 -1.2 0
8.937 -15.046 -12.509 -0 -1.2 0
10.04 -17.32 -14 -0 -1.2 0
9.363 -16.739 -13.052 -0 -1.2 0
0.636 -0.017 -1.252 -0 -1.2 0
0.662 -0.008 -1.292 -0 -1.2 0
0.681 -0.014 -1.32 -0 -1.2 0
0.711 -0.001 -1.368 -0 -1.2 0
0.73 -0.01 -1.396 -0 -1.2 0
0.753 -0.012 -1.431 -0 -1.2 0
0.775 -0.016 -1.467 -0 -1.2 0
0.808 -0.009 -1.515 -0 -1.2 0
0.831 -0.015 -1.551 -0 -1.2 0
0.868 -0.005 -1.607 -0 -1.2 0
0.892 -0.015 -1.644 -0 -1.2 0
0.928 -0.008 -1.701 -0 -1.2 0
0.958 -0.015 -1.745 -0 -1.2 0
0.996 -0.013 -1.803 -0 -1.2 0
1.034 -0.013 -1.862 -0 -1.2 0
1.068 -0.02 -1.915 -0 -1.2 0
1.107 -0.023 -1.974 -0 -1.2 0
1.156 -0.02 -2.048 -0 -1.2 0
1.195 -0.029 -2.109 -0 -1.2 0
1.25 -0.025 -2.193 -0 -1.2 0
1.309 -0.022 -2.284 -0 -1.2 0
1.364 -0.026 -2.367 -0 -1.2 0
1.429 -0.025 -2.469 -0 -1.2 0
1.49 -0.032 -2.562 -0 -1.2 0
1.571 -0.028 -2.686 -0 -1.2 0
1.648 -0.033 -2.804 -0 -1.2 0
1.731 -0.038 -2.93 -0 -1.2 0
1.823 -0.043 -3.072 -0 -1.2 0
1.933 -0.044 -3.24 -0 -1.2 0
2.048 -0.05 -3.416 -0 -1.2 0
2.194 -0.046 -3.641 -0 -1.2 0
2.331 -0.056 -3.851 -0 -1.2 0
2.511 -0.058 -4.127 -0 -1.2 0
2.724 -0.057 -4.453 -0 -1.2 0
2.964 -0.061 -4.821 -0 -1.2 0
3.258 -0.061 -5.273 -0 -1.2 0
3.612 -0.063 -5.817 -0 -1.2 0
3.958 -0.091 -6.346 -0 -1.2 0
4.595 -0.073 -7.325 -0 -1.2 0
5.489 -0.046 -8.696 -0 -1.2 0
6.803 -0.008 -10.714 -0 -1.2 0
8.924 0.049 -13.971 -0 -1.2 0
8.722 -7.401 -13.352 -0 -1.2 0
8.626 -7.642 -13.194 -0 -1.2 0
8.471 -8.147 -12.935 -0 -1.2 0
8.597 -8.577 -13.111 -0 -1.2 0
10.571 -10.71 -16.05 -0 -1.2 0
11.118 -11.642 -16.851 -0 -1.2 0
7.554 -8.544 -11.512 -0 -1.2 0
10.085 -11.877 -15.256 -0 -1.2 0
8.189 -10.53 -12.403 -0 -1.2 0
8.71 -11.513 -13.161 -0 -1.2 0
7.689 -10.625 -11.632 -0 -1.2 0
7.022 -10.111 -10.628 -0 -1.2 0
10.432 -15.012 -15.657 -0 -1.2 0
9.597 -14.349 -14.403 -0 -1.2 0
9.492 -14.669 -14.229 -0 -1.2 0
9.548 -15.229 -14.292 -0 -1.2 0
8.529 -14.153 -12.773 -0 -1.2 0
8.278 -14.206 -12.386 -0 -1.2 0
8.458 -14.956 -12.632 -0 -1.2 0
8.952 -16.794 -13.311 -0 -1.2 0
0.602 -0.02 -1.257 -0 -1.2 0
0.63 -0.004 -1.303 -0 -1.2 0
0.644 -0.017 -1.325 -0 -1.2 0
0.673 -0.004 -1.374 -0 -1.2 0
0.695 -0.006 -1.409 -0 -1.2 0
0.713 -0.016 -1.439 -0 -1.2 0
0.739 -0.013 -1.482 -0 -1.2 0
0.761 -0.019 -1.518 -0 -1.2 0
0.795 -0.007 -1.575 -0 -1.2 0
0.818 -0.015 -1.612 -0 -1.2 0
0.849 -0.013 -1.664 -0 -1.2 0
0.88 -0.013 -1.715 -0 -1.2 0
0.911 -0.015 -1.767 -0 -1.2 0
0.942 -0.018 -1.819 -0 -1.2 0
0.979 -0.018 -1.88 -0 -1.2 0
1.016 -0.02 -1.94 -0 -1.2 0
1.057 -0.019 -2.009 -0 -1.2 0
1.098 -0.02 -2.078 -0 -1.2 0
1.14 -0.024 -2.147 -0 -1.2 0
1.187 -0.027 -2.224 -0 -1.2 0
1.244 -0.023 -2.318 -0 -1.2 0
1.301 -0.024 -2.412 -0 -1.2 0
1.353 -0.032 -2.499 -0 -1.2 0
1.411 -0.039 -2.593 -0 -1.2 0
1.488 -0.035 -2.722 -0 -1.2 0
1.566 -0.037 -2.85 -0 -1.2 0
1.634 -0.049 -2.962 -0 -1.2 0
1.736 -0.044 -3.132 -0 -1.2 0
1.83 -0.053 -3.287 -0 -1.2 0
1.939 -0.059 -3.466 -0 -1.2 0
2.078 -0.056 -3.697 -0 -1.2 0
2.213 -0.064 -3.92 -0 -1.2 0
2.388 -0.064 -4.211 -0 -1.2 0
2.579 -0.069 -4.527 -0 -1.2 0
2.827 -0.066 -4.936 -0 -1.2 0
3.096 -0.072 -5.382 -0 -1.2 0
3.426 -0.077 -5.929 -0 -1.2 0
3.885 -0.07 -6.689 -0 -1.2 0
4.51 -0.055 -7.723 -0 -1.2 0
5.326 -0.044 -9.075 -0 -1.2 0
6.648 -0.003 -11.265 -0 -1.2 0
8.451 0.011 -14.252 -0 -1.2 0
8.448 -3.678 -14.083 -0 -1.2 0
8.835 -5.316 -14.65 -0 -1.2 0
9.86 -6.503 -16.293 -0 -1.2 0
10.187 -7.047 -16.809 -0 -1.2 0
9.904 -7.238 -16.333 -0 -1.2 0
8.441 -6.944 -13.925 -0 -1.2 0
8.755 -7.487 -14.421 -0 -1.2 0
7.899 -7.156 -13.018 -0 -1.2 0
8.308 -7.787 -13.666 -0 -1.2 0
7.857 -7.726 -12.924 -0 -1.2 0
8.364 -8.484 -13.729 -0 -1.2 0
10.455 -10.757 -17.089 -0 -1.2 0
7.566 -8.38 -12.412 -0 -1.2 0
7.439 -8.872 -12.181 -0 -1.2 0
7.73 -9.506 -12.634 -0 -1.2 0
7.3 -9.35 -11.929 -0 -1.2 0
7.494 -9.9 -12.225 -0 -1.2 0
8.662 -11.671 -14.079 -0 -1.2 0
6.892 -9.814 -11.233 -0 -1.2 0
6.126 -9.124 -9.996 -0 -1.2 0
6.464 -9.881 -10.522 -0 -1.2 0
7.238 -11.295 -11.739 -0 -1.2 0
7.17 -11.56 -11.615 -0 -1.2 0
8.955 -14.646 -14.432 -0 -1.2 0
7.591 -12.972 -12.249 -0 -1.2 0
7.938 -13.952 -12.781 -0 -1.2 0
7.834 -14.22 -12.596 -0 -1.2 0
7.966 -14.902 -12.785 -0 -1.2 0
7.796 -15.067 -12.495 -0 -1.2 0
8.515 -16.888 -13.604 -0 -1.2 0
0.579 -0.008 -1.272 -0 -1.2 0
0.594 -0.014 -1.301 -0 -1.2 0
0.615 -0.013 -1.336 -0 -1.2 0
0.638 -0.007 -1.379 -0 -1.2 0
0.656 -0.016 -1.409 -0 -1.2 0
0.676 -0.02 -1.445 -0 -1.2 0
0.704 -0.011 -1.495 -0 -1.2 0
0.717 -0.029 -1.518 -0 -1.2 0
0.75 -0.017 -1.577 -0 -1.2 0
0.775 -0.019 -1.621 -0 -1.2 0
0.809 -0.011 -1.681 -0 -1.2 0
0.834 -0.017 -1.726 -0 -1.2 0
0.863 -0.019 -1.779 -0 -1.2 0
0.894 -0.022 -1.832 -0 -1.2 0
0.928 -0.022 -1.894 -0 -1.2 0
0.967 -0.02 -1.963 -0 -1.2 0
1.002 -0.024 -2.025 -0 -1.2 0
1.042 -0.025 -2.095 -0 -1.2 0
1.081 -0.029 -2.166 -0 -1.2 0
1.126 -0.033 -2.244 -0 -1.2 0
1.183 -0.025 -2.347 -0 -1.2 0
1.233 -0.03 -2.436 -0 -1.2 0
1.288 -0.034 -2.532 -0 -1.2 0
1.337 -0.045 -2.62 -0 -1.2 0
1.411 -0.041 -2.751 -0 -1.2 0
1.484 -0.044 -2.882 -0 -1.2 0
1.553 -0.053 -3.004 -0 -1.2 0
1.637 -0.059 -3.153 -0 -1.2 0
1.73 -0.064 -3.319 -0 -1.2 0
1.842 -0.064 -3.519 -0 -1.2 0
1.965 -0.067 -3.736 -0 -1.2 0
2.106 -0.069 -3.989 -0 -1.2 0
2.263 -0.074 -4.267 -0 -1.2 0
2.444 -0.08 -4.589 -0 -1.2 0
2.674 -0.08 -4.999 -0 -1.2 0
2.938 -0.084 -5.469 -0 -1.2 0
3.256 -0.089 -6.034 -0 -1.2 0
3.706 -0.08 -6.835 -0 -1.2 0
4.298 -0.069 -7.889 -0 -1.2 0
5.104 -0.054 -9.326 -0 -1.2 0
6.323 -0.027 -11.496 -0 -1.2 0
8.153 -0.004 -14.756 -0 -1.2 0
7.987 -3.707 -14.285 -0 -1.2 0
7.468 -4.616 -13.318 -0 -1.2 0
8.435 -5.385 -15.003 -0 -1.2 0
7.95 -5.431 -14.136 -0 -1.2 0
7.907 -5.703 -14.048 -0 -1.2 0
8.412 -6.315 -14.919 -0 -1.2 0
8.458 -6.664 -14.983 -0 -1.2 0
7.951 -6.634 -14.081 -0 -1.2 0
8.229 -7.147 -14.553 -0 -1.2 0
7.671 -7.34 -13.551 -0 -1.2 0
6.459 -6.606 -11.427 -0 -1.2 0
7.367 -7.685 -12.992 -0 -1.2 0
7.784 -8.382 -13.702 -0 -1.2 0
7.26 -8.192 -12.778 -0 -1.2 0
8.173 -9.438 -14.344 -0 -1.2 0
6.959 -8.492 -12.229 -0 -1.2 0
7.053 -8.903 -12.376 -0 -1.2 0
6.738 -8.854 -11.819 -0 -1.2 0
7.273 -9.804 -12.726 -0 -1.2 0
6.339 -8.972 -11.103 -0 -1.2 0
6.709 -9.753 -11.724 -0 -1.2 0
6.655 -10.005 -11.617 -0 -1.2 0
6.398 -9.973 -11.159 -0 -1.2 0
5.833 -9.476 -10.177 -0 -1.2 0
6.352 -10.557 -11.05 -0 -1.2 0
6.147 -10.575 -10.685 -0 -1.2 0
7.231 -12.654 -12.516 -0 -1.2 0
7.055 -12.764 -12.197 -0 -1.2 0
6.699 -12.555 -11.573 -0 -1.2 0
6.424 -12.459 -11.089 -0 -1.2 0
6.371 -12.752 -10.981 -0 -1.2 0
7.023 -14.395 -12.065 -0 -1.2 0
8.064 -16.901 -13.799 -0 -1.2 0
0.549 -0.004 -1.278 -0 -1.2 0
0.568 -0.003 -1.314 -0 -1.2 0
0.58 -0.016 -1.337 -0 -1.2 0
0.603 -0.011 -1.381 -0 -1.2 0
0.626 -0.007 -1.425 -0 -1.2 0
0.642 -0.016 -1.455 -0 -1.2 0
0.665 -0.014 -1.5 -0 -1.2 0
0.685 -0.02 -1.537 -0 -1.2 0
0.712 -0.015 -1.589 -0 -1.2 0
0.732 -0.023 -1.627 -0 -1.2 0
0.76 -0.021 -1.681 -0 -1.2 0
0.792 -0.016 -1.741 -0 -1.2 0
0.816 -0.023 -1.788 -0 -1.2 0
0.848 -0.021 -1.85 -0 -1.2 0
0.877 -0.027 -1.904 -0 -1.2 0
0.91 -0.029 -1.967 -0 -1.2 0
0.943 -0.034 -2.03 -0 -1.2 0
0.98 -0.035 -2.102 -0 -1.2 0
1.022 -0.034 -2.181 -0 -1.2 0
1.068 -0.033 -2.269 -0 -1.2 0
1.118 -0.031 -2.367 -0 -1.2 0
1.169 -0.031 -2.463 -0 -1.2 0
1.217 -0.04 -2.554 -0 -1.2 0
1.273 -0.044 -2.661 -0 -1.2 0
1.333 -0.048 -2.776 -0 -1.2 0
1.398 -0.054 -2.9 -0 -1.2 0
1.468 -0.061 -3.034 -0 -1.2 0
1.547 -0.067 -3.184 -0 -1.2 0
1.639 -0.069 -3.361 -0 -1.2 0
1.746 -0.07 -3.565 -0 -1.2 0
1.866 -0.071 -3.794 -0 -1.2 0
1.995 -0.077 -4.042 -0 -1.2 0
2.143 -0.083 -4.326 -0 -1.2 0
2.324 -0.086 -4.671 -0 -1.2 0
2.528 -0.092 -5.06 -0 -1.2 0
2.787 -0.093 -5.556 -0 -1.2 0
3.088 -0.101 -6.132 -0 -1.2 0
3.513 -0.095 -6.946 -0 -1.2 0
4.082 -0.083 -8.034 -0 -1.2 0
4.868 -0.068 -9.539 -0 -1.2 0
6.015 -0.049 -11.737 -0 -1.2 0
8.184 0.026 -15.891 -0 -1.2 0
7.344 -4.226 -14.07 -0 -1.2 0
7.232 -4.456 -13.845 -0 -1.2 0
10.869 -6.995 -20.679 -0 -1.2 0
7.917 -6.009 -15.076 -0 -1.2 0
7.984 -6.37 -15.19 -0 -1.2 0
8.018 -6.713 -15.237 -0 -1.2 0
7.609 -6.734 -14.453 -0 -1.2 0
7.869 -7.249 -14.923 -0 -1.2 0
6.941 -6.807 -13.171 -0 -1.2 0
5.975 -6.257 -11.348 -0 -1.2 0
6.409 -6.907 -12.147 -0 -1.2 0
6.138 -6.923 -11.628 -0 -1.2 0
8.249 -9.3 -15.549 -0 -1.2 0
6.924 -8.281 -13.063 -0 -1.2 0
6.124 -7.721 -11.562 -0 -1.2 0
8.049 -10.187 -15.122 -0 -1.2 0
6.167 -8.336 -11.614 -0 -1.2 0
6.617 -9.18 -12.433 -0 -1.2 0
6.109 -8.849 -11.476 -0 -1.2 0
6.127 -9.171 -11.494 -0 -1.2 0
6.455 -9.93 -12.085 -0 -1.2 0
6.092 -9.74 -11.4 -0 -1.2 0
5.87 -9.728 -10.975 -0 -1.2 0
6.089 -10.378 -11.362 -0 -1.2 0
5.371 -9.567 -10.028 -0 -1.2 0
5.881 -11.045 -10.93 -0 -1.2 0
6.317 -12.16 -11.709 -0 -1.2 0
6.293 -12.498 -11.645 -0 -1.2 0
6.147 -12.615 -11.361 -0 -1.2 0
7.329 -15.317 -13.487 -0 -1.2 0
6.748 -14.627 -12.41 -0 -1.2 0
7.343 -16.331 -13.465 -0 -1.2 0
0.512 -0.014 -1.271 -0 -1.2 0
0.53 -0.013 -1.308 -0 -1.2 0
0.551 -0.007 -1.352 -0 -1.2 0
0.566 -0.014 -1.383 -0 -1.2 0
0.584 -0.016 -1.42 -0 -1.2 0
0.602 -0.02 -1.458 -0 -1.2 0
0.624 -0.018 -1.502 -0 -1.2 0
0.643 -0.024 -1.542 -0 -1.2 0
0.664 -0.025 -1.587 -0 -1.2 0
0.693 -0.015 -1.648 -0 -1.2 0
0.713 -0.026 -1.688 -0 -1.2 0
0.736 -0.031 -1.734 -0 -1.2 0
0.766 -0.028 -1.796 -0 -1.2 0
0.792 -0.031 -1.851 -0 -1.2 0
0.822 -0.032 -1.915 -0 -1.2 0
0.854 -0.034 -1.978 -0 -1.2 0
0.888 -0.034 -2.051 -0 -1.2 0
0.919 -0.04 -2.115 -0 -1.2 0
0.954 -0.045 -2.187 -0 -1.2 0
0.994 -0.048 -2.269 -0 -1.2 0
1.045 -0.041 -2.376 -0 -1.2 0
1.092 -0.042 -2.475 -0 -1.2 0
1.136 -0.05 -2.566 -0 -1.2 0
1.185 -0.058 -2.666 -0 -1.2 0
1.246 -0.059 -2.792 -0 -1.2 0
1.307 -0.064 -2.919 -0 -1.2 0
1.376 -0.068 -3.062 -0 -1.2 0
1.447 -0.078 -3.207 -0 -1.2 0
1.529 -0.083 -3.378 -0 -1.2 0
1.628 -0.085 -3.584 -0 -1.2 0
1.745 -0.084 -3.827 -0 -1.2 0
1.867 -0.089 -4.079 -0 -1.2 0
2.002 -0.098 -4.358 -0 -1.2 0
2.175 -0.1 -4.718 -0 -1.2 0
2.357 -0.111 -5.096 -0 -1.2 0
2.595 -0.114 -5.59 -0 -1.2 0
2.886 -0.119 -6.194 -0 -1.2 0
3.254 -0.124 -6.959 -0 -1.2 0
3.804 -0.11 -8.101 -0 -1.2 0
4.528 -0.1 -9.604 -0 -1.2 0
5.634 -0.08 -11.899 -0 -1.2 0
7.083 -0.099 -14.908 -0 -1.2 0
7.73 -3.714 -16.06 -0 -1.2 0
9.402 -4.662 -19.482 -0 -1.2 0
6.417 -4.047 -13.316 -0 -1.2 0
6.762 -4.483 -14.011 -0 -1.2 0
7.544 -5.499 -15.579 -0 -1.2 0
7.148 -5.865 -14.737 -0 -1.2 0
7.575 -6.472 -15.591 -0 -1.2 0
7.333 -6.614 -15.084 -0 -1.2 0
7.576 -7.125 -15.56 -0 -1.2 0
6.356 -6.425 -13.064 -0 -1.2 0
7.242 -7.492 -14.846 -0 -1.2 0
5.942 -6.604 -12.195 -0 -1.2 0
5.925 -6.855 -12.146 -0 -1.2 0
5.893 -7.094 -12.067 -0 -1.2 0
6.02 -7.503 -12.309 -0 -1.2 0
6.588 -8.422 -13.44 -0 -1.2 0
5.926 -7.964 -12.088 -0 -1.2 0
8.664 -11.583 -17.583 -0 -1.2 0
6.503 -9.275 -13.218 -0 -1.2 0
5.848 -8.742 -11.888 -0 -1.2 0
6.096 -9.379 -12.368 -0 -1.2 0
6.018 -9.587 -12.195 -0 -1.2 0
6.694 -10.904 -13.528 -0 -1.2 0
6.033 -10.256 -12.19 -0 -1.2 0
6.626 -11.531 -13.353 -0 -1.2 0
6.103 -11.049 -12.292 -0 -1.2 0
5.381 -10.177 -10.841 -0 -1.2 0
4.97 -9.773 -10.009 -0 -1.2 0
5.127 -10.362 -10.304 -0 -1.2 0
5.17 -10.764 -10.372 -0 -1.2 0
5.043 -10.848 -10.103 -0 -1.2 0
5.681 -12.47 -11.342 -0 -1.2 0
5.516 -12.513 -10.997 -0 -1.2 0
5.8 -13.512 -11.533 -0 -1.2 0
6.856 -16.288 -13.578 -0 -1.2 0
0.482 -0.01 -1.278 -0 -1.2 0
0.499 -0.009 -1.315 -0 -1.2 0
0.513 -0.017 -1.346 -0 -1.2 0
0.533 -0.011 -1.39 -0 -1.2 0
0.541 -0.032 -1.408 -0 -1.2 0
0.567 -0.017 -1.467 -0 -1.2 0
0.581 -0.027 -1.498 -0 -1.2 0
0.601 -0.028 -1.545 -0 -1.2 0
0.623 -0.028 -1.591 -0 -1.2 0
0.646 -0.025 -1.645 -0 -1.2 0
0.665 -0.035 -1.685 -0 -1.2 0
0.692 -0.029 -1.748 -0 -1.2 0
0.714 -0.037 -1.795 -0 -1.2 0
0.742 -0.035 -1.859 -0 -1.2 0
0.77 -0.036 -1.923 -0 -1.2 0
0.799 -0.039 -1.988 -0 -1.2 0
0.829 -0.043 -2.053 -0 -1.2 0
0.861 -0.045 -2.126 -0 -1.2 0
0.898 -0.045 -2.208 -0 -1.2 0
0.931 -0.053 -2.282 -0 -1.2 0
0.979 -0.046 -2.391 -0 -1.2 0
1.02 -0.052 -2.483 -0 -1.2 0
1.065 -0.056 -2.584 -0 -1.2 0
1.113 -0.06 -2.693 -0 -1.2 0
1.163 -0.07 -2.804 -0 -1.2 0
1.224 -0.071 -2.941 -0 -1.2 0
1.281 -0.081 -3.07 -0 -1.2 0
1.347 -0.091 -3.216 -0 -1.2 0
1.428 -0.094 -3.398 -0 -1.2 0
1.521 -0.095 -3.608 -0 -1.2 0
1.623 -0.1 -3.836 -0 -1.2 0
1.741 -0.104 -4.1 -0 -1.2 0
1.87 -0.111 -4.392 -0 -1.2 0
2.033 -0.113 -4.757 -0 -1.2 0
2.208 -0.123 -5.149 -0 -1.2 0
2.419 -0.133 -5.624 -0 -1.2 0
2.691 -0.139 -6.235 -0 -1.2 0
3.044 -0.141 -7.029 -0 -1.2 0
3.563 -0.129 -8.196 -0 -1.2 0
4.213 -0.13 -9.657 -0 -1.2 0
5.14 -0.134 -11.739 -0 -1.2 0
6.404 -0.169 -14.58 -0 -1.2 0
6.635 -2.678 -14.96 -0 -1.2 0
6.565 -2.942 -14.786 -0 -1.2 0
6.329 -3.146 -14.245 -0 -1.2 0
7.23 -3.748 -16.238 -0 -1.2 0
6.829 -3.894 -15.327 -0 -1.2 0
6.891 -4.218 -15.448 -0 -1.2 0
6.712 -4.427 -15.036 -0 -1.2 0
5.799 -4.225 -12.994 -0 -1.2 0
6.377 -4.818 -14.26 -0 -1.2 0
6.786 -5.357 -15.149 -0 -1.2 0
5.327 -4.673 -11.908 -0 -1.2 0
6.799 -6.28 -15.126 -0 -1.2 0
6.775 -6.57 -15.055 -0 -1.2 0
6.694 -6.813 -14.861 -0 -1.2 0
5.429 -5.979 -12.063 -0 -1.2 0
5.499 -6.3 -12.202 -0 -1.2 0
5.611 -6.675 -12.434 -0 -1.2 0
5.371 -6.692 -11.891 -0 -1.2 0
5.213 -6.781 -11.533 -0 -1.2 0
5.729 -7.631 -12.645 -0 -1.2 0
5.631 -7.801 -12.415 -0 -1.2 0
8.373 -11.517 -18.371 -0 -1.2 0
5.557 -8.283 -12.222 -0 -1.2 0
6.751 -10.195 -14.798 -0 -1.2 0
5.591 -8.923 -12.262 -0 -1.2 0
5.061 -8.45 -11.098 -0 -1.2 0
5.26 -9.035 -11.512 -0 -1.2 0
8.376 -14.738 -18.197 -0 -1.2 0
5.8 -10.865 -12.624 -0 -1.2 0
5.826 -11.263 -12.661 -0 -1.2 0
8.093 -15.748 -17.503 -0 -1.2 0
4.664 -9.803 -10.129 -0 -1.2 0
4.772 -10.316 -10.343 -0 -1.2 0
4.861 -10.815 -10.516 -0 -1.2 0
4.85 -11.124 -10.473 -0 -1.2 0
4.852 -11.469 -10.456 -0 -1.2 0
4.957 -12.056 -10.662 -0 -1.2 0
5.963 -14.746 -12.771 -0 -1.2 0
6.149 -15.649 -13.139 -0 -1.2 0
0.447 -0.019 -1.268 -0 -1.2 0
0.464 -0.011 -1.313 -0 -1.2 0
0.475 -0.025 -1.336 -0 -1.2 0
0.491 -0.026 -1.375 -0 -1.2 0
0.506 -0.029 -1.414 -0 -1.2 0
0.525 -0.025 -1.459 -0 -1.2 0
0.541 -0.03 -1.498 -0 -1.2 0
0.56 -0.03 -1.545 -0 -1.2 0
0.579 -0.031 -1.593 -0 -1.2 0
0.599 -0.033 -1.64 -0 -1.2 0
0.621 -0.032 -1.695 -0 -1.2 0
0.641 -0.038 -1.743 -0 -1.2 0
0.664 -0.039 -1.799 -0 -1.2 0
0.688 -0.043 -1.855 -0 -1.2 0
0.717 -0.039 -1.929 -0 -1.2 0
0.744 -0.042 -1.994 -0 -1.2 0
0.771 -0.047 -2.06 -0 -1.2 0
0.798 -0.054 -2.126 -0 -1.2 0
0.832 -0.054 -2.209 -0 -1.2 0
0.866 -0.057 -2.293 -0 -1.2 0
0.907 -0.055 -2.394 -0 -1.2 0
0.949 -0.056 -2.496 -0 -1.2 0
0.991 -0.061 -2.599 -0 -1.2 0
1.033 -0.069 -2.701 -0 -1.2 0
1.083 -0.074 -2.821 -0 -1.2 0
1.136 -0.08 -2.951 -0 -1.2 0
1.193 -0.087 -3.09 -0 -1.2 0
1.254 -0.097 -3.239 -0 -1.2 0
1.329 -0.1 -3.423 -0 -1.2 0
1.42 -0.1 -3.644 -0 -1.2 0
1.504 -0.112 -3.849 -0 -1.2 0
1.623 -0.109 -4.144 -0 -1.2 0
1.734 -0.123 -4.413 -0 -1.2 0
1.885 -0.125 -4.781 -0 -1.2 0
2.052 -0.134 -5.188 -0 -1.2 0
2.251 -0.144 -5.678 -0 -1.2 0
2.493 -0.155 -6.27 -0 -1.2 0
2.826 -0.158 -7.083 -0 -1.2 0
3.29 -0.153 -8.22 -0 -1.2 0
3.922 -0.15 -9.764 -0 -1.2 0
4.731 -0.169 -11.744 -0 -1.2 0
5.678 -0.242 -14.058 -0 -1.2 0
6.08 -0.46 -15.03 -0 -1.2 0
6.093 -0.739 -15.046 -0 -1.2 0
6.109 -1.018 -15.066 -0 -1.2 0
6.117 -1.297 -15.071 -0 -1.2 0
6.128 -1.578 -15.082 -0 -1.2 0
6.146 -1.859 -15.107 -0 -1.2 0
6.161 -2.142 -15.127 -0 -1.2 0
6.171 -2.425 -15.134 -0 -1.2 0
6.193 -2.714 -15.172 -0 -1.2 0
6.293 -3.027 -15.398 -0 -1.2 0
6.293 -3.316 -15.381 -0 -1.2 0
6.381 -3.642 -15.578 -0 -1.2 0
6.212 -3.86 -15.15 -0 -1.2 0
6.168 -4.127 -15.028 -0 -1.2 0
6.18 -4.42 -15.038 -0 -1.2 0
6.454 -4.87 -15.683 -0 -1.2 0
6.49 -5.197 -15.752 -0 -1.2 0
5.151 -4.591 -12.509 -0 -1.2 0
5.069 -4.776 -12.298 -0 -1.2 0
5.114 -5.055 -12.394 -0 -1.2 0
6.607 -6.538 -15.959 -0 -1.2 0
6.635 -6.886 -16.005 -0 -1.2 0
6.652 -7.231 -16.029 -0 -1.2 0
6.672 -7.582 -16.055 -0 -1.2 0
6.699 -7.946 -16.099 -0 -1.2 0
5.046 -6.504 -12.138 -0 -1.2 0
5.213 -6.954 -12.52 -0 -1.2 0
6.788 -9.092 -16.25 -0 -1.2 0
5.005 -7.246 -11.995 -0 -1.2 0
5.913 -8.689 -14.132 -0 -1.2 0
5.237 -8.101 -12.512 -0 -1.2 0
5.308 -8.491 -12.662 -0 -1.2 0
6.927 -11.156 -16.467 -0 -1.2 0
5.845 -9.912 -13.892 -0 -1.2 0
5.611 -9.886 -13.323 -0 -1.2 0
4.81 -8.907 -11.419 -0 -1.2 0
4.468 -8.619 -10.6 -0 -1.2 0
4.487 -8.928 -10.627 -0 -1.2 0
4.928 -10.017 -11.64 -0 -1.2 0
5.236 -10.919 -12.341 -0 -1.2 0
4.441 -9.711 -10.469 -0 -1.2 0
4.301 -9.73 -10.126 -0 -1.2 0
4.269 -9.961 -10.033 -0 -1.2 0
4.775 -11.364 -11.189 -0 -1.2 0
4.462 -11.013 -10.443 -0 -1.2 0
4.596 -11.659 -10.732 -0 -1.2 0
4.708 -12.285 -10.97 -0 -1.2 0
5.863 -15.525 -13.605 -0 -1.2 0
5.019 -13.846 -11.637 -0 -1.2 0
0.412 -0.013 -1.272 -0 -1.2 0
0.424 -0.019 -1.303 -0 -1.2 0
0.436 -0.026 -1.335 -0 -1.2 0
0.449 -0.027 -1.373 -0 -1.2 0
0.464 -0.03 -1.413 -0 -1.2 0
0.479 -0.033 -1.452 -0 -1.2 0
0.496 -0.031 -1.499 -0 -1.2 0
0.517 -0.025 -1.554 -0 -1.2 0
0.534 -0.026 -1.601 -0 -1.2 0
0.546 -0.041 -1.634 -0 -1.2 0
0.565 -0.044 -1.682 -0 -1.2 0
0.588 -0.039 -1.747 -0 -1.2 0
0.609 -0.041 -1.804 -0 -1.2 0
0.633 -0.04 -1.869 -0 -1.2 0
0.652 -0.051 -1.919 -0 -1.2 0
0.679 -0.049 -1.993 -0 -1.2 0
0.704 -0.053 -2.06 -0 -1.2 0
0.732 -0.056 -2.135 -0 -1.2 0
0.763 -0.056 -2.219 -0 -1.2 0
0.791 -0.063 -2.295 -0 -1.2 0
0.829 -0.061 -2.398 -0 -1.2 0
0.867 -0.063 -2.501 -0 -1.2 0
0.902 -0.071 -2.596 -0 -1.2 0
0.944 -0.075 -2.708 -0 -1.2 0
0.993 -0.077 -2.839 -0 -1.2 0
1.038 -0.086 -2.962 -0 -1.2 0
1.091 -0.094 -3.103 -0 -1.2 0
1.149 -0.1 -3.262 -0 -1.2 0
1.219 -0.103 -3.45 -0 -1.2 0
1.292 -0.111 -3.646 -0 -1.2 0
1.379 -0.115 -3.88 -0 -1.2 0
1.475 -0.122 -4.143 -0 -1.2 0
1.589 -0.127 -4.451 -0 -1.2 0
1.714 -0.138 -4.789 -0 -1.2 0
1.87 -0.144 -5.209 -0 -1.2 0
2.051 -0.156 -5.697 -0 -1.2 0
2.269 -0.168 -6.287 -0 -1.2 0
2.557 -0.177 -7.065 -0 -1.2 0
2.989 -0.169 -8.235 -0 -1.2 0
3.499 -0.185 -9.612 -0 -1.2 0
4.182 -0.214 -11.459 -0 -1.2 0
5.044 -0.283 -13.785 -0 -1.2 0
5.586 -0.474 -15.238 -0 -1.2 0
5.66 -0.749 -15.423 -0 -1.2 0
9.858 -0.975 -26.763 -0 -1.2 0
9.882 -1.469 -26.796 -0 -1.2 0
9.913 -1.965 -26.847 -0 -1.2 0
9.927 -2.462 -26.854 -0 -1.2 0
9.962 -2.965 -26.917 -0 -1.2 0
9.987 -3.468 -26.953 -0 -1.2 0
5.751 -2.748 -15.54 -0 -1.2 0
5.736 -3.03 -15.48 -0 -1.2 0
5.715 -3.309 -15.407 -0 -1.2 0
5.732 -3.603 -15.432 -0 -1.2 0
5.715 -3.882 -15.368 -0 -1.2 0
5.703 -4.164 -15.318 -0 -1.2 0
5.696 -4.449 -15.282 -0 -1.2 0
5.688 -4.734 -15.241 -0 -1.2 0
5.681 -5.021 -15.204 -0 -1.2 0
5.686 -5.317 -15.199 -0 -1.2 0
4.722 -4.843 -12.622 -0 -1.2 0
5.66 -5.888 -15.093 -0 -1.2 0
5.65 -6.176 -15.046 -0 -1.2 0
4.75 -5.615 -12.646 -0 -1.2 0
5.634 -6.764 -14.963 -0 -1.2 0
5.631 -7.067 -14.936 -0 -1.2 0
5.629 -7.374 -14.912 -0 -1.2 0
4.861 -6.782 -12.874 -0 -1.2 0
4.877 -7.074 -12.897 -0 -1.2 0
5.631 -8.327 -14.858 -0 -1.2 0
4.507 -7.132 -11.891 -0 -1.2 0
5.604 -8.941 -14.743 -0 -1.2 0
5.529 -9.165 -14.527 -0 -1.2 0
5.479 -9.421 -14.375 -0 -1.2 0
5.403 -9.635 -14.153 -0 -1.2 0
5.355 -9.895 -14.009 -0 -1.2 0
5.27 -10.088 -13.766 -0 -1.2 0
4.762 -9.524 -12.43 -0 -1.2 0
4.068 -8.552 -10.613 -0 -1.2 0
6.549 -13.586 -17.003 -0 -1.2 0
4.156 -9.282 -10.806 -0 -1.2 0
4.006 -9.263 -10.4 -0 -1.2 0
4.224 -10.015 -10.941 -0 -1.2 0
4.069 -9.984 -10.523 -0 -1.2 0
4.159 -10.495 -10.733 -0 -1.2 0
4.174 -10.854 -10.753 -0 -1.2 0
4.089 -10.977 -10.514 -0 -1.2 0
4.799 -13.102 -12.298 -0 -1.2 0
4.309 -12.228 -11.029 -0 -1.2 0
5.085 -14.694 -12.972 -0 -1.2 0
4.651 -13.936 -11.843 -0 -1.2 0
0.377 -0.014 -1.268 -0 -1.2 0
0.388 -0.02 -1.3 -0 -1.2 0
0.401 -0.021 -1.339 -0 -1.2 0
0.414 -0.022 -1.378 -0 -1.2 0
0.425 -0.031 -1.41 -0 -1.2 0
0.441 -0.028 -1.458 -0 -1.2 0
0.452 -0.039 -1.49 -0 -1.2 0
0.47 -0.033 -1.546 -0 -1.2 0
0.484 -0.04 -1.586 -0 -1.2 0
0.502 -0.036 -1.642 -0 -1.2 0
0.517 -0.046 -1.683 -0 -1.2 0
0.539 -0.041 -1.748 -0 -1.2 0
0.558 -0.043 -1.805 -0 -1.2 0
0.58 -0.042 -1.872 -0 -1.2 0
0.596 -0.052 -1.922 -0 -1.2 0
0.622 -0.05 -1.997 -0 -1.2 0
0.644 -0.054 -2.065 -0 -1.2 0
0.67 -0.058 -2.141 -0 -1.2 0
0.696 -0.063 -2.217 -0 -1.2 0
0.721 -0.07 -2.294 -0 -1.2 0
0.759 -0.063 -2.407 -0 -1.2 0
0.792 -0.069 -2.502 -0 -1.2 0
0.826 -0.073 -2.606 -0 -1.2 0
0.862 -0.082 -2.711 -0 -1.2 0
0.903 -0.086 -2.835 -0 -1.2 0
0.951 -0.089 -2.977 -0 -1.2 0
0.996 -0.099 -3.11 -0 -1.2 0
1.049 -0.106 -3.271 -0 -1.2 0
1.113 -0.109 -3.461 -0 -1.2 0
1.179 -0.117 -3.659 -0 -1.2 0
1.261 -0.119 -3.905 -0 -1.2 0
1.344 -0.13 -4.152 -0 -1.2 0
1.449 -0.136 -4.465 -0 -1.2 0
