# .PCD v.7 - Point Cloud Data file format
FIELDS x y z vp_x vp_y vp_z
SIZE 4 4 4 4 4 4
TYPE F F F F F F
COUNT 1 1 1 1 1 1
WIDTH 1626
HEIGHT 1
VIEWPOINT 0 -1.20013 0 1 0 0 0
POINTS 1626
DATA ascii
1.451 0.017 0.111 -0 -1.2 0
1.493 0.012 0.113 -0 -1.2 0
1.544 0.013 0.116 -0 -1.2 0
1.603 0.018 0.118 -0 -1.2 0
1.656 0.014 0.12 -0 -1.2 0
1.7 0.004 0.122 -0 -1.2 0
1.76 0.004 0.124 -0 -1.2 0
1.83 0.008 0.128 -0 -1.2 0
1.9 0.009 0.13 -0 -1.2 0
1.962 0.003 0.133 -0 -1.2 0
2.041 0.007 0.137 -0 -1.2 0
2.122 0.006 0.14 -0 -1.2 0
2.194 0 0.144 -0 -1.2 0
2.284 -0.001 0.147 -0 -1.2 0
2.393 0.004 0.151 -0 -1.2 0
2.493 0.002 0.156 -0 -1.2 0
2.603 0.001 0.161 -0 -1.2 0
2.723 0 0.166 -0 -1.2 0
2.872 0.006 0.172 -0 -1.2 0
3.012 0.004 0.179 -0 -1.2 0
3.172 0.005 0.186 -0 -1.2 0
3.333 0 0.193 -0 -1.2 0
3.608 0.026 0.203 -0 -1.2 0
4.096 0.107 0.224 -0 -1.2 0
4.376 0.112 0.235 -0 -1.2 0
4.676 0.112 0.248 -0 -1.2 0
4.979 0.102 0.261 -0 -1.2 0
5.369 0.101 0.278 -0 -1.2 0
5.78 0.091 0.296 -0 -1.2 0
6.329 0.094 0.32 -0 -1.2 0
6.439 0.001 0.325 -0 -1.2 0
6.111 -0.162 0.316 -0 -1.2 0
6.087 -0.273 0.316 -0 -1.2 0
6.07 -0.381 0.318 -0 -1.2 0
6.042 -0.489 0.319 -0 -1.2 0
6.072 -0.592 0.321 -0 -1.2 0
6.09 -0.695 0.324 -0 -1.2 0
6.106 -0.799 0.327 -0 -1.2 0
6.439 -1.334 0.353 -0 -1.2 0
1.21 0.028 0.06 -0 -1.2 0
1.236 0.016 0.06 -0 -1.2 0
1.277 0.016 0.061 -0 -1.2 0
1.319 0.017 0.061 -0 -1.2 0
1.36 0.016 0.061 -0 -1.2 0
1.402 0.013 0.062 -0 -1.2 0
1.452 0.016 0.062 -0 -1.2 0
1.495 0.011 0.063 -0 -1.2 0
1.546 0.012 0.063 -0 -1.2 0
1.605 0.016 0.064 -0 -1.2 0
1.649 0.007 0.064 -0 -1.2 0
1.701 0.003 0.065 -0 -1.2 0
1.761 0.003 0.065 -0 -1.2 0
1.839 0.012 0.065 -0 -1.2 0
1.901 0.008 0.066 -0 -1.2 0
1.972 0.007 0.068 -0 -1.2 0
2.051 0.009 0.068 -0 -1.2 0
2.123 0.004 0.069 -0 -1.2 0
2.213 0.007 0.069 -0 -1.2 0
2.285 -0.002 0.07 -0 -1.2 0
2.385 -0.001 0.071 -0 -1.2 0
2.487 -0.003 0.073 -0 -1.2 0
2.614 0.003 0.074 -0 -1.2 0
2.736 0.002 0.075 -0 -1.2 0
2.866 0.001 0.076 -0 -1.2 0
3.016 0.002 0.077 -0 -1.2 0
3.175 0.002 0.078 -0 -1.2 0
3.346 0 0.08 -0 -1.2 0
3.63 0.029 0.083 -0 -1.2 0
4.138 0.116 0.086 -0 -1.2 0
4.409 0.116 0.088 -0 -1.2 0
4.68 0.108 0.09 -0 -1.2 0
5.002 0.102 0.093 -0 -1.2 0
5.354 0.093 0.097 -0 -1.2 0
5.805 0.092 0.102 -0 -1.2 0
6.355 0.094 0.107 -0 -1.2 0
6.424 -0.006 0.11 -0 -1.2 0
6.126 -0.165 0.11 -0 -1.2 0
6.082 -0.279 0.112 -0 -1.2 0
6.066 -0.386 0.114 -0 -1.2 0
6.068 -0.491 0.116 -0 -1.2 0
6.057 -0.597 0.119 -0 -1.2 0
6.086 -0.7 0.121 -0 -1.2 0
6.111 -0.804 0.123 -0 -1.2 0
6.318 -1.225 0.134 -0 -1.2 0
1.195 0.013 0.018 -0 -1.2 0
1.236 0.015 0.017 -0 -1.2 0
1.277 0.016 0.017 -0 -1.2 0
1.326 0.022 0.015 -0 -1.2 0
1.368 0.021 0.014 -0 -1.2 0
1.394 0.005 0.013 -0 -1.2 0
1.46 0.021 0.011 -0 -1.2 0
1.495 0.01 0.01 -0 -1.2 0
1.546 0.01 0.009 -0 -1.2 0
1.597 0.009 0.008 -0 -1.2 0
1.657 0.012 0.006 -0 -1.2 0
1.717 0.014 0.005 -0 -1.2 0
1.778 0.013 0.003 -0 -1.2 0
1.831 0.006 0.001 -0 -1.2 0
1.909 0.012 0 -0 -1.2 0
1.963 0 -0.001 -0 -1.2 0
2.051 0.008 -0.004 -0 -1.2 0
2.123 0.003 -0.006 -0 -1.2 0
2.213 0.005 -0.008 -0 -1.2 0
2.285 -0.004 -0.01 -0 -1.2 0
2.394 0.001 -0.013 -0 -1.2 0
2.495 -0.001 -0.016 -0 -1.2 0
2.614 0.001 -0.02 -0 -1.2 0
2.744 0.004 -0.023 -0 -1.2 0
2.865 0 -0.026 -0 -1.2 0
3.014 0 -0.03 -0 -1.2 0
3.174 0 -0.034 -0 -1.2 0
3.325 -0.008 -0.038 -0 -1.2 0
3.667 0.039 -0.048 -0 -1.2 0
4.127 0.11 -0.062 -0 -1.2 0
4.359 0.099 -0.068 -0 -1.2 0
4.669 0.102 -0.076 -0 -1.2 0
4.991 0.096 -0.085 -0 -1.2 0
5.371 0.093 -0.095 -0 -1.2 0
5.832 0.094 -0.107 -0 -1.2 0
6.362 0.091 -0.122 -0 -1.2 0
6.403 -0.014 -0.121 -0 -1.2 0
6.114 -0.171 -0.11 -0 -1.2 0
6.09 -0.282 -0.106 -0 -1.2 0
6.074 -0.39 -0.104 -0 -1.2 0
6.065 -0.496 -0.101 -0 -1.2 0
6.076 -0.601 -0.099 -0 -1.2 0
6.083 -0.705 -0.097 -0 -1.2 0
6.12 -0.807 -0.096 -0 -1.2 0
1.211 0.031 -0.089 -0 -1.2 0
1.245 0.026 -0.089 -0 -1.2 0
1.287 0.026 -0.09 -0 -1.2 0
1.328 0.026 -0.091 -0 -1.2 0
1.378 0.031 -0.094 -0 -1.2 0
1.42 0.028 -0.095 -0 -1.2 0
1.47 0.031 -0.096 -0 -1.2 0
1.513 0.026 -0.097 -0 -1.2 0
1.557 0.019 -0.098 -0 -1.2 0
1.632 0.035 -0.101 -0 -1.2 0
1.668 0.021 -0.101 -0 -1.2 0
1.737 0.027 -0.103 -0 -1.2 0
1.789 0.02 -0.104 -0 -1.2 0
1.851 0.018 -0.107 -0 -1.2 0
1.93 0.024 -0.109 -0 -1.2 0
1.992 0.017 -0.11 -0 -1.2 0
2.064 0.014 -0.112 -0 -1.2 0
2.144 0.013 -0.115 -0 -1.2 0
2.234 0.016 -0.117 -0 -1.2 0
2.334 0.018 -0.12 -0 -1.2 0
2.425 0.014 -0.122 -0 -1.2 0
2.526 0.011 -0.125 -0 -1.2 0
2.646 0.013 -0.129 -0 -1.2 0
2.776 0.015 -0.133 -0 -1.2 0
2.906 0.013 -0.136 -0 -1.2 0
3.047 0.01 -0.14 -0 -1.2 0
3.216 0.012 -0.145 -0 -1.2 0
3.387 0.01 -0.149 -0 -1.2 0
3.89 0.108 -0.167 -0 -1.2 0
4.141 0.111 -0.174 -0 -1.2 0
4.421 0.114 -0.182 -0 -1.2 0
4.722 0.112 -0.19 -0 -1.2 0
5.092 0.117 -0.201 -0 -1.2 0
5.483 0.114 -0.213 -0 -1.2 0
5.944 0.112 -0.226 -0 -1.2 0
6.514 0.114 -0.241 -0 -1.2 0
6.367 -0.026 -0.234 -0 -1.2 0
6.129 -0.175 -0.222 -0 -1.2 0
6.095 -0.287 -0.218 -0 -1.2 0
6.049 -0.398 -0.213 -0 -1.2 0
6.08 -0.501 -0.212 -0 -1.2 0
6.1 -0.605 -0.209 -0 -1.2 0
6.098 -0.71 -0.206 -0 -1.2 0
6.164 -0.812 -0.204 -0 -1.2 0
6.292 -1.129 -0.198 -0 -1.2 0
1.216 0.037 -0.129 -0 -1.2 0
1.244 0.025 -0.13 -0 -1.2 0
1.291 0.032 -0.133 -0 -1.2 0
1.333 0.032 -0.136 -0 -1.2 0
1.368 0.023 -0.138 -0 -1.2 0
1.417 0.027 -0.141 -0 -1.2 0
1.46 0.023 -0.143 -0 -1.2 0
1.51 0.024 -0.146 -0 -1.2 0
1.554 0.018 -0.149 -0 -1.2 0
1.613 0.022 -0.153 -0 -1.2 0
1.681 0.03 -0.157 -0 -1.2 0
1.733 0.025 -0.16 -0 -1.2 0
1.786 0.019 -0.163 -0 -1.2 0
1.848 0.017 -0.167 -0 -1.2 0
1.926 0.023 -0.172 -0 -1.2 0
1.99 0.015 -0.175 -0 -1.2 0
2.061 0.012 -0.179 -0 -1.2 0
2.141 0.011 -0.185 -0 -1.2 0
2.222 0.008 -0.19 -0 -1.2 0
2.313 0.008 -0.195 -0 -1.2 0
2.43 0.016 -0.202 -0 -1.2 0
2.531 0.013 -0.209 -0 -1.2 0
2.641 0.011 -0.215 -0 -1.2 0
2.78 0.017 -0.224 -0 -1.2 0
2.901 0.01 -0.231 -0 -1.2 0
3.051 0.01 -0.241 -0 -1.2 0
3.202 0.006 -0.249 -0 -1.2 0
3.381 0.006 -0.26 -0 -1.2 0
3.885 0.104 -0.294 -0 -1.2 0
4.145 0.109 -0.311 -0 -1.2 0
4.425 0.112 -0.327 -0 -1.2 0
4.706 0.105 -0.344 -0 -1.2 0
5.094 0.115 -0.368 -0 -1.2 0
5.475 0.108 -0.392 -0 -1.2 0
5.955 0.11 -0.421 -0 -1.2 0
6.525 0.112 -0.456 -0 -1.2 0
6.378 -0.028 -0.443 -0 -1.2 0
6.12 -0.181 -0.422 -0 -1.2 0
6.105 -0.29 -0.418 -0 -1.2 0
6.07 -0.401 -0.413 -0 -1.2 0
6.081 -0.506 -0.411 -0 -1.2 0
6.101 -0.609 -0.409 -0 -1.2 0
6.118 -0.713 -0.407 -0 -1.2 0
6.271 -1.027 -0.406 -0 -1.2 0
9.646 -1.149 -0.609 -0 -1.2 0
1.206 0.029 -0.171 -0 -1.2 0
1.239 0.023 -0.174 -0 -1.2 0
1.288 0.031 -0.179 -0 -1.2 0
1.329 0.031 -0.183 -0 -1.2 0
1.364 0.022 -0.187 -0 -1.2 0
1.413 0.026 -0.191 -0 -1.2 0
1.448 0.015 -0.194 -0 -1.2 0
1.499 0.017 -0.199 -0 -1.2 0
1.549 0.016 -0.204 -0 -1.2 0
1.609 0.02 -0.21 -0 -1.2 0
1.669 0.023 -0.216 -0 -1.2 0
1.721 0.018 -0.22 -0 -1.2 0
1.79 0.023 -0.227 -0 -1.2 0
1.843 0.015 -0.232 -0 -1.2 0
1.921 0.021 -0.24 -0 -1.2 0
1.992 0.018 -0.246 -0 -1.2 0
2.054 0.01 -0.252 -0 -1.2 0
2.144 0.014 -0.261 -0 -1.2 0
2.224 0.011 -0.269 -0 -1.2 0
2.306 0.005 -0.276 -0 -1.2 0
2.415 0.009 -0.287 -0 -1.2 0
2.515 0.006 -0.297 -0 -1.2 0
2.625 0.004 -0.308 -0 -1.2 0
2.764 0.01 -0.321 -0 -1.2 0
2.903 0.01 -0.334 -0 -1.2 0
3.043 0.007 -0.348 -0 -1.2 0
3.193 0.003 -0.362 -0 -1.2 0
3.363 0 -0.379 -0 -1.2 0
3.855 0.094 -0.429 -0 -1.2 0
4.133 0.105 -0.457 -0 -1.2 0
4.403 0.105 -0.482 -0 -1.2 0
4.703 0.103 -0.511 -0 -1.2 0
5.071 0.107 -0.547 -0 -1.2 0
5.461 0.103 -0.585 -0 -1.2 0
5.958 0.108 -0.633 -0 -1.2 0
6.526 0.108 -0.688 -0 -1.2 0
6.34 -0.039 -0.665 -0 -1.2 0
6.123 -0.184 -0.639 -0 -1.2 0
6.098 -0.295 -0.634 -0 -1.2 0
6.093 -0.402 -0.63 -0 -1.2 0
6.074 -0.511 -0.625 -0 -1.2 0
6.074 -0.617 -0.622 -0 -1.2 0
6.151 -0.717 -0.626 -0 -1.2 0
6.178 -0.821 -0.625 -0 -1.2 0
9.619 -1.159 -0.948 -0 -1.2 0
1.194 0.021 -0.21 -0 -1.2 0
1.228 0.015 -0.214 -0 -1.2 0
1.276 0.023 -0.22 -0 -1.2 0
1.317 0.022 -0.225 -0 -1.2 0
1.359 0.021 -0.23 -0 -1.2 0
1.401 0.018 -0.237 -0 -1.2 0
1.451 0.02 -0.243 -0 -1.2 0
1.493 0.015 -0.248 -0 -1.2 0
1.544 0.015 -0.254 -0 -1.2 0
1.611 0.024 -0.264 -0 -1.2 0
1.655 0.016 -0.269 -0 -1.2 0
1.723 0.022 -0.278 -0 -1.2 0
1.783 0.021 -0.285 -0 -1.2 0
1.844 0.018 -0.294 -0 -1.2 0
1.906 0.014 -0.302 -0 -1.2 0
1.976 0.011 -0.311 -0 -1.2 0
2.047 0.008 -0.319 -0 -1.2 0
2.127 0.007 -0.33 -0 -1.2 0
2.208 0.004 -0.34 -0 -1.2 0
2.298 0.003 -0.352 -0 -1.2 0
2.406 0.007 -0.366 -0 -1.2 0
2.515 0.008 -0.38 -0 -1.2 0
2.616 0.001 -0.394 -0 -1.2 0
2.745 0.003 -0.41 -0 -1.2 0
2.883 0.004 -0.428 -0 -1.2 0
3.031 0.004 -0.448 -0 -1.2 0
3.19 0.003 -0.467 -0 -1.2 0
3.359 0 -0.49 -0 -1.2 0
3.832 0.087 -0.554 -0 -1.2 0
4.117 0.101 -0.591 -0 -1.2 0
4.367 0.095 -0.623 -0 -1.2 0
4.685 0.098 -0.665 -0 -1.2 0
5.052 0.102 -0.713 -0 -1.2 0
5.44 0.097 -0.762 -0 -1.2 0
5.975 0.11 -0.832 -0 -1.2 0
6.337 0.071 -0.878 -0 -1.2 0
6.112 -0.079 -0.844 -0 -1.2 0
6.11 -0.188 -0.84 -0 -1.2 0
6.105 -0.297 -0.837 -0 -1.2 0
6.375 -0.373 -0.869 -0 -1.2 0
6.081 -0.513 -0.827 -0 -1.2 0
6.101 -0.618 -0.827 -0 -1.2 0
6.129 -0.723 -0.827 -0 -1.2 0
9.479 -0.839 -1.258 -0 -1.2 0
9.543 -1.003 -1.262 -0 -1.2 0
1.195 0.027 -0.254 -0 -1.2 0
1.229 0.021 -0.259 -0 -1.2 0
1.269 0.021 -0.266 -0 -1.2 0
1.31 0.021 -0.272 -0 -1.2 0
1.359 0.025 -0.281 -0 -1.2 0
1.394 0.017 -0.287 -0 -1.2 0
1.443 0.018 -0.295 -0 -1.2 0
1.486 0.014 -0.301 -0 -1.2 0
1.544 0.019 -0.311 -0 -1.2 0
1.603 0.023 -0.321 -0 -1.2 0
1.654 0.019 -0.33 -0 -1.2 0
1.714 0.02 -0.339 -0 -1.2 0
1.766 0.013 -0.348 -0 -1.2 0
1.827 0.011 -0.358 -0 -1.2 0
1.905 0.017 -0.371 -0 -1.2 0
1.974 0.014 -0.382 -0 -1.2 0
2.037 0.006 -0.392 -0 -1.2 0
2.116 0.005 -0.406 -0 -1.2 0
2.196 0.002 -0.419 -0 -1.2 0
2.303 0.009 -0.438 -0 -1.2 0
2.402 0.009 -0.454 -0 -1.2 0
2.51 0.01 -0.471 -0 -1.2 0
2.62 0.007 -0.49 -0 -1.2 0
2.739 0.004 -0.509 -0 -1.2 0
2.877 0.004 -0.532 -0 -1.2 0
3.025 0.005 -0.557 -0 -1.2 0
3.183 0.002 -0.583 -0 -1.2 0
3.352 0 -0.611 -0 -1.2 0
3.774 0.071 -0.683 -0 -1.2 0
4.068 0.088 -0.733 -0 -1.2 0
4.345 0.09 -0.779 -0 -1.2 0
4.67 0.095 -0.833 -0 -1.2 0
5.026 0.097 -0.893 -0 -1.2 0
5.412 0.092 -0.956 -0 -1.2 0
5.924 0.1 -1.042 -0 -1.2 0
6.09 0.024 -1.067 -0 -1.2 0
6.099 -0.082 -1.065 -0 -1.2 0
6.107 -0.19 -1.063 -0 -1.2 0
6.112 -0.298 -1.06 -0 -1.2 0
6.117 -0.406 -1.058 -0 -1.2 0
6.216 -0.504 -1.072 -0 -1.2 0
6.108 -0.621 -1.05 -0 -1.2 0
6.155 -0.726 -1.054 -0 -1.2 0
9.462 -0.683 -1.606 -0 -1.2 0
9.538 -0.846 -1.613 -0 -1.2 0
15.155 -0.957 -2.543 -0 -1.2 0
1.188 0.025 -0.293 -0 -1.2 0
1.221 0.02 -0.3 -0 -1.2 0
1.262 0.02 -0.308 -0 -1.2 0
1.31 0.027 -0.317 -0 -1.2 0
1.351 0.024 -0.326 -0 -1.2 0
1.393 0.021 -0.334 -0 -1.2 0
1.427 0.011 -0.341 -0 -1.2 0
1.485 0.018 -0.352 -0 -1.2 0
1.527 0.011 -0.361 -0 -1.2 0
1.584 0.015 -0.372 -0 -1.2 0
1.643 0.018 -0.385 -0 -1.2 0
1.703 0.018 -0.396 -0 -1.2 0
1.763 0.018 -0.408 -0 -1.2 0
1.815 0.009 -0.418 -0 -1.2 0
1.884 0.01 -0.433 -0 -1.2 0
1.954 0.007 -0.446 -0 -1.2 0
2.032 0.009 -0.462 -0 -1.2 0
2.103 0.003 -0.476 -0 -1.2 0
2.191 0.004 -0.494 -0 -1.2 0
2.298 0.011 -0.516 -0 -1.2 0
2.396 0.01 -0.535 -0 -1.2 0
2.495 0.007 -0.554 -0 -1.2 0
2.595 0 -0.575 -0 -1.2 0
2.732 0.005 -0.602 -0 -1.2 0
2.868 0.006 -0.63 -0 -1.2 0
3.015 0.005 -0.659 -0 -1.2 0
3.173 0.003 -0.69 -0 -1.2 0
3.331 -0.003 -0.722 -0 -1.2 0
3.686 0.046 -0.795 -0 -1.2 0
4.024 0.079 -0.864 -0 -1.2 0
4.318 0.086 -0.923 -0 -1.2 0
4.642 0.091 -0.988 -0 -1.2 0
5.004 0.094 -1.06 -0 -1.2 0
5.417 0.095 -1.143 -0 -1.2 0
5.917 0.1 -1.244 -0 -1.2 0
6.178 0.041 -1.294 -0 -1.2 0
6.111 -0.08 -1.277 -0 -1.2 0
6.099 -0.192 -1.271 -0 -1.2 0
6.124 -0.298 -1.272 -0 -1.2 0
6.215 -0.396 -1.288 -0 -1.2 0
6.139 -0.514 -1.269 -0 -1.2 0
6.14 -0.622 -1.266 -0 -1.2 0
11.506 -8.768 -2.086 -0 -1.2 0
1.173 0.017 -0.331 -0 -1.2 0
1.213 0.019 -0.34 -0 -1.2 0
1.246 0.012 -0.348 -0 -1.2 0
1.292 0.018 -0.359 -0 -1.2 0
1.341 0.023 -0.371 -0 -1.2 0
1.375 0.014 -0.378 -0 -1.2 0
1.424 0.015 -0.39 -0 -1.2 0
1.465 0.011 -0.4 -0 -1.2 0
1.523 0.016 -0.413 -0 -1.2 0
1.573 0.013 -0.425 -0 -1.2 0
1.632 0.016 -0.439 -0 -1.2 0
1.691 0.016 -0.453 -0 -1.2 0
1.742 0.01 -0.465 -0 -1.2 0
1.81 0.012 -0.48 -0 -1.2 0
1.871 0.008 -0.495 -0 -1.2 0
1.94 0.005 -0.511 -0 -1.2 0
2.018 0.007 -0.529 -0 -1.2 0
2.096 0.006 -0.548 -0 -1.2 0
2.176 0.002 -0.567 -0 -1.2 0
2.281 0.009 -0.591 -0 -1.2 0
2.378 0.008 -0.614 -0 -1.2 0
2.477 0.005 -0.637 -0 -1.2 0
2.585 0.002 -0.663 -0 -1.2 0
2.711 0.003 -0.692 -0 -1.2 0
2.857 0.007 -0.727 -0 -1.2 0
3.003 0.006 -0.761 -0 -1.2 0
3.15 0 -0.795 -0 -1.2 0
3.317 -0.004 -0.835 -0 -1.2 0
3.622 0.031 -0.907 -0 -1.2 0
3.986 0.072 -0.994 -0 -1.2 0
4.269 0.076 -1.062 -0 -1.2 0
4.627 0.091 -1.146 -0 -1.2 0
4.988 0.093 -1.23 -0 -1.2 0
5.406 0.096 -1.329 -0 -1.2 0
5.912 0.101 -1.449 -0 -1.2 0
6.459 0.097 -1.577 -0 -1.2 0
7.073 0.085 -1.722 -0 -1.2 0
6.141 -0.185 -1.494 -0 -1.2 0
6.128 -0.298 -1.487 -0 -1.2 0
6.132 -0.407 -1.484 -0 -1.2 0
6.153 -0.514 -1.486 -0 -1.2 0
6.212 -0.619 -1.496 -0 -1.2 0
14.293 -6.845 -3.2 -0 -1.2 0
14.691 -7.309 -3.279 -0 -1.2 0
11.407 -8.769 -2.46 -0 -1.2 0
11.753 -9.303 -2.524 -0 -1.2 0
15.052 -12.02 -3.215 -0 -1.2 0
10.589 -9.047 -2.259 -0 -1.2 0
10.298 -9.111 -2.188 -0 -1.2 0
1.161 0.016 -0.372 -0 -1.2 0
1.201 0.017 -0.384 -0 -1.2 0
1.241 0.017 -0.394 -0 -1.2 0
1.281 0.017 -0.405 -0 -1.2 0
1.329 0.021 -0.418 -0 -1.2 0
1.362 0.012 -0.427 -0 -1.2 0
1.411 0.014 -0.441 -0 -1.2 0
1.452 0.009 -0.452 -0 -1.2 0
1.509 0.014 -0.468 -0 -1.2 0
1.559 0.012 -0.481 -0 -1.2 0
1.617 0.014 -0.497 -0 -1.2 0
1.668 0.009 -0.511 -0 -1.2 0
1.727 0.008 -0.527 -0 -1.2 0
1.794 0.01 -0.545 -0 -1.2 0
1.854 0.006 -0.561 -0 -1.2 0
1.931 0.008 -0.583 -0 -1.2 0
2 0.005 -0.601 -0 -1.2 0
2.069 -0.001 -0.62 -0 -1.2 0
2.164 0.004 -0.646 -0 -1.2 0
2.269 0.011 -0.675 -0 -1.2 0
2.357 0.005 -0.699 -0 -1.2 0
2.464 0.006 -0.728 -0 -1.2 0
2.571 0.003 -0.758 -0 -1.2 0
2.696 0.003 -0.791 -0 -1.2 0
2.831 0.004 -0.829 -0 -1.2 0
2.966 0 -0.865 -0 -1.2 0
3.112 -0.006 -0.905 -0 -1.2 0
3.286 -0.007 -0.953 -0 -1.2 0
3.544 0.012 -1.023 -0 -1.2 0
3.959 0.071 -1.139 -0 -1.2 0
4.239 0.074 -1.215 -0 -1.2 0
4.594 0.089 -1.313 -0 -1.2 0
4.933 0.085 -1.406 -0 -1.2 0
5.357 0.09 -1.522 -0 -1.2 0
5.868 0.097 -1.661 -0 -1.2 0
6.42 0.094 -1.812 -0 -1.2 0
7.067 0.086 -1.989 -0 -1.2 0
6.248 -0.167 -1.757 -0 -1.2 0
6.207 -0.287 -1.741 -0 -1.2 0
6.191 -0.401 -1.734 -0 -1.2 0
6.281 -0.503 -1.754 -0 -1.2 0
14.826 0.063 -4.109 -0 -1.2 0
14.456 -6.39 -3.8 -0 -1.2 0
14.8 -7.74 -3.85 -0 -1.2 0
14.135 -8.05 -3.659 -0 -1.2 0
16.859 -9.77 -4.348 -0 -1.2 0
15.907 -10 -4.08 -0 -1.2 0
11.546 -8.654 -2.932 -0 -1.2 0
13.422 -10.231 -3.394 -0 -1.2 0
13.42 -10.577 -3.382 -0 -1.2 0
11.052 -9.185 -2.779 -0 -1.2 0
11.407 -9.756 -2.858 -0 -1.2 0
10.722 -9.531 -2.678 -0 -1.2 0
10.618 -9.752 -2.642 -0 -1.2 0
9.874 -9.429 -2.45 -0 -1.2 0
1.157 0.022 -0.413 -0 -1.2 0
1.19 0.016 -0.422 -0 -1.2 0
1.229 0.016 -0.435 -0 -1.2 0
1.276 0.023 -0.449 -0 -1.2 0
1.309 0.014 -0.459 -0 -1.2 0
1.357 0.017 -0.473 -0 -1.2 0
1.398 0.012 -0.486 -0 -1.2 0
1.439 0.008 -0.498 -0 -1.2 0
1.487 0.007 -0.514 -0 -1.2 0
1.544 0.01 -0.531 -0 -1.2 0
1.602 0.012 -0.549 -0 -1.2 0
1.66 0.013 -0.568 -0 -1.2 0
1.71 0.006 -0.583 -0 -1.2 0
1.777 0.009 -0.603 -0 -1.2 0
1.845 0.009 -0.624 -0 -1.2 0
1.912 0.006 -0.645 -0 -1.2 0
1.98 0.003 -0.666 -0 -1.2 0
2.057 0.001 -0.69 -0 -1.2 0
2.135 -0.001 -0.713 -0 -1.2 0
2.239 0.004 -0.746 -0 -1.2 0
2.335 0.003 -0.775 -0 -1.2 0
2.432 0 -0.805 -0 -1.2 0
2.546 0 -0.84 -0 -1.2 0
2.67 0 -0.879 -0 -1.2 0
2.804 0.001 -0.921 -0 -1.2 0
2.938 -0.003 -0.962 -0 -1.2 0
3.092 -0.006 -1.01 -0 -1.2 0
3.273 -0.004 -1.066 -0 -1.2 0
3.482 0 -1.131 -0 -1.2 0
3.931 0.069 -1.271 -0 -1.2 0
4.207 0.072 -1.357 -0 -1.2 0
4.542 0.081 -1.46 -0 -1.2 0
4.886 0.08 -1.566 -0 -1.2 0
5.325 0.089 -1.703 -0 -1.2 0
5.813 0.091 -1.853 -0 -1.2 0
6.339 0.083 -2.016 -0 -1.2 0
6.99 0.078 -2.217 -0 -1.2 0
7.84 0.079 -2.48 -0 -1.2 0
8.807 0.065 -2.778 -0 -1.2 0
10.25 0.071 -3.224 -0 -1.2 0
12.427 0.096 -3.898 -0 -1.2 0
14.38 0.024 -4.499 -0 -1.2 0
18.288 0 -5.707 -0 -1.2 0
14.939 -7.252 -4.435 -0 -1.2 0
12.543 -6.789 -3.709 -0 -1.2 0
12.178 -6.885 -3.593 -0 -1.2 0
13.561 -7.844 -3.989 -0 -1.2 0
14.046 -8.719 -4.111 -0 -1.2 0
13.802 -8.904 -4.03 -0 -1.2 0
16.059 -10.567 -4.673 -0 -1.2 0
11.687 -8.254 -3.397 -0 -1.2 0
13.743 -9.86 -3.981 -0 -1.2 0
13.679 -10.16 -3.951 -0 -1.2 0
13.312 -10.256 -3.834 -0 -1.2 0
10.169 -8.344 -2.925 -0 -1.2 0
10.642 -8.969 -3.051 -0 -1.2 0
11.206 -9.697 -3.201 -0 -1.2 0
12.015 -10.659 -3.42 -0 -1.2 0
10.834 -10.025 -3.076 -0 -1.2 0
10.255 -9.848 -2.903 -0 -1.2 0
9.371 -9.666 -2.635 -0 -1.2 0
9.236 -10.148 -2.578 -0 -1.2 0
1.145 0.021 -0.45 -0 -1.2 0
1.184 0.022 -0.464 -0 -1.2 0
1.216 0.015 -0.475 -0 -1.2 0
1.255 0.014 -0.489 -0 -1.2 0
1.295 0.012 -0.502 -0 -1.2 0
1.342 0.016 -0.518 -0 -1.2 0
1.383 0.011 -0.532 -0 -1.2 0
1.431 0.012 -0.549 -0 -1.2 0
1.479 0.011 -0.566 -0 -1.2 0
1.528 0.009 -0.582 -0 -1.2 0
1.577 0.006 -0.599 -0 -1.2 0
1.641 0.011 -0.621 -0 -1.2 0
1.699 0.01 -0.642 -0 -1.2 0
1.757 0.007 -0.662 -0 -1.2 0
1.816 0.002 -0.682 -0 -1.2 0
1.891 0.004 -0.707 -0 -1.2 0
1.959 0.001 -0.731 -0 -1.2 0
2.027 -0.005 -0.755 -0 -1.2 0
2.112 -0.004 -0.784 -0 -1.2 0
2.207 -0.002 -0.817 -0 -1.2 0
2.31 0 -0.852 -0 -1.2 0
2.413 0.001 -0.889 -0 -1.2 0
2.51 -0.005 -0.921 -0 -1.2 0
2.641 -0.002 -0.967 -0 -1.2 0
2.765 -0.005 -1.009 -0 -1.2 0
2.907 -0.007 -1.059 -0 -1.2 0
3.068 -0.006 -1.115 -0 -1.2 0
3.238 -0.008 -1.173 -0 -1.2 0
3.427 -0.01 -1.238 -0 -1.2 0
3.888 0.064 -1.4 -0 -1.2 0
4.172 0.071 -1.498 -0 -1.2 0
4.493 0.076 -1.609 -0 -1.2 0
4.851 0.08 -1.734 -0 -1.2 0
5.268 0.083 -1.877 -0 -1.2 0
5.759 0.087 -2.047 -0 -1.2 0
6.29 0.081 -2.231 -0 -1.2 0
6.905 0.069 -2.443 -0 -1.2 0
7.691 0.061 -2.715 -0 -1.2 0
8.788 0.065 -3.094 -0 -1.2 0
10.065 0.052 -3.534 -0 -1.2 0
11.804 0.035 -4.136 -0 -1.2 0
14.235 0.01 -4.974 -0 -1.2 0
13.12 -4.973 -4.424 -0 -1.2 0
12.675 -5.091 -4.267 -0 -1.2 0
11.743 -5.03 -3.947 -0 -1.2 0
11.93 -5.333 -4.002 -0 -1.2 0
12.951 -6.229 -4.324 -0 -1.2 0
16.174 -7.852 -5.385 -0 -1.2 0
17.236 -8.664 -5.726 -0 -1.2 0
13.06 -7.103 -4.333 -0 -1.2 0
14.127 -7.905 -4.676 -0 -1.2 0
12.055 -7.168 -3.984 -0 -1.2 0
13.356 -8.128 -4.402 -0 -1.2 0
14.04 -8.813 -4.616 -0 -1.2 0
16.248 -10.412 -5.326 -0 -1.2 0
12.99 -8.844 -4.251 -0 -1.2 0
12.339 -8.752 -4.03 -0 -1.2 0
12.035 -8.86 -3.922 -0 -1.2 0
15.374 -11.417 -4.991 -0 -1.2 0
13.178 -10.274 -4.269 -0 -1.2 0
11.321 -9.272 -3.661 -0 -1.2 0
10.63 -9.056 -3.43 -0 -1.2 0
10.988 -9.63 -3.534 -0 -1.2 0
10.071 -9.198 -3.231 -0 -1.2 0
10.689 -10.011 -3.418 -0 -1.2 0
10.557 -10.217 -3.366 -0 -1.2 0
11.773 -11.639 -3.74 -0 -1.2 0
9.293 -9.695 -2.946 -0 -1.2 0
10.127 -10.805 -3.197 -0 -1.2 0
8.807 -9.826 -2.774 -0 -1.2 0
1.131 0.019 -0.487 -0 -1.2 0
1.163 0.014 -0.499 -0 -1.2 0
1.202 0.014 -0.514 -0 -1.2 0
1.24 0.013 -0.529 -0 -1.2 0
1.28 0.011 -0.544 -0 -1.2 0
1.319 0.008 -0.559 -0 -1.2 0
1.366 0.009 -0.577 -0 -1.2 0
1.414 0.011 -0.594 -0 -1.2 0
1.462 0.01 -0.614 -0 -1.2 0
1.51 0.007 -0.632 -0 -1.2 0
1.565 0.009 -0.653 -0 -1.2 0
1.622 0.009 -0.674 -0 -1.2 0
1.671 0.003 -0.693 -0 -1.2 0
1.737 0.005 -0.719 -0 -1.2 0
1.794 0 -0.741 -0 -1.2 0
1.869 0.002 -0.769 -0 -1.2 0
1.936 0 -0.794 -0 -1.2 0
2.003 -0.007 -0.82 -0 -1.2 0
2.087 -0.006 -0.852 -0 -1.2 0
2.18 -0.004 -0.888 -0 -1.2 0
2.282 -0.001 -0.927 -0 -1.2 0
2.376 -0.005 -0.963 -0 -1.2 0
2.489 -0.004 -1.006 -0 -1.2 0
2.601 -0.008 -1.049 -0 -1.2 0
2.724 -0.012 -1.096 -0 -1.2 0
2.881 -0.005 -1.157 -0 -1.2 0
3.031 -0.009 -1.214 -0 -1.2 0
3.199 -0.011 -1.278 -0 -1.2 0
3.378 -0.016 -1.347 -0 -1.2 0
3.842 0.06 -1.527 -0 -1.2 0
4.103 0.061 -1.627 -0 -1.2 0
4.448 0.075 -1.759 -0 -1.2 0
4.758 0.066 -1.877 -0 -1.2 0
5.223 0.082 -2.057 -0 -1.2 0
5.69 0.081 -2.236 -0 -1.2 0
6.214 0.074 -2.436 -0 -1.2 0
6.805 0.058 -2.661 -0 -1.2 0
7.645 0.06 -2.983 -0 -1.2 0
8.655 0.053 -3.37 -0 -1.2 0
9.917 0.037 -3.853 -0 -1.2 0
11.589 0.016 -4.493 -0 -1.2 0
13.971 -0.012 -5.404 -0 -1.2 0
17.848 -0.04 -6.888 -0 -1.2 0
25.094 -0.54 -9.647 -0 -1.2 0
15.758 -4.899 -5.926 -0 -1.2 0
16.235 -5.331 -6.093 -0 -1.2 0
15.351 -5.402 -5.752 -0 -1.2 0
12.606 -5.13 -4.71 -0 -1.2 0
11.684 -5.07 -4.359 -0 -1.2 0
11.629 -5.288 -4.33 -0 -1.2 0
14.007 -6.732 -5.194 -0 -1.2 0
12.07 -6.204 -4.469 -0 -1.2 0
14.911 -7.734 -5.506 -0 -1.2 0
12.528 -6.94 -4.62 -0 -1.2 0
13.124 -7.509 -4.829 -0 -1.2 0
12.294 -7.376 -4.515 -0 -1.2 0
12.066 -7.534 -4.423 -0 -1.2 0
10.814 -7.112 -3.958 -0 -1.2 0
11.072 -7.517 -4.042 -0 -1.2 0
15.643 -10.565 -5.691 -0 -1.2 0
15.344 -10.759 -5.57 -0 -1.2 0
12.765 -9.445 -4.626 -0 -1.2 0
12.527 -9.609 -4.53 -0 -1.2 0
14.399 -11.267 -5.192 -0 -1.2 0
11.69 -9.654 -4.208 -0 -1.2 0
13.347 -11.241 -4.79 -0 -1.2 0
10.406 -9.282 -3.728 -0 -1.2 0
10.415 -9.588 -3.722 -0 -1.2 0
10.173 -9.69 -3.626 -0 -1.2 0
9.839 -9.703 -3.497 -0 -1.2 0
11.186 -11.24 -3.961 -0 -1.2 0
10.478 -10.93 -3.701 -0 -1.2 0
8.961 -9.79 -3.157 -0 -1.2 0
9.065 -10.201 -3.184 -0 -1.2 0
1.115 0.018 -0.526 -0 -1.2 0
1.147 0.012 -0.539 -0 -1.2 0
1.185 0.012 -0.555 -0 -1.2 0
1.223 0.011 -0.572 -0 -1.2 0
1.269 0.016 -0.591 -0 -1.2 0
1.301 0.007 -0.604 -0 -1.2 0
1.347 0.008 -0.624 -0 -1.2 0
1.394 0.009 -0.643 -0 -1.2 0
1.434 0.002 -0.66 -0 -1.2 0
1.488 0.005 -0.684 -0 -1.2 0
1.543 0.007 -0.707 -0 -1.2 0
1.599 0.008 -0.731 -0 -1.2 0
1.655 0.007 -0.754 -0 -1.2 0
1.72 0.008 -0.782 -0 -1.2 0
1.769 -0.001 -0.803 -0 -1.2 0
1.843 0 -0.834 -0 -1.2 0
1.909 -0.002 -0.861 -0 -1.2 0
1.975 -0.009 -0.889 -0 -1.2 0
2.058 -0.008 -0.925 -0 -1.2 0
2.149 -0.007 -0.963 -0 -1.2 0
2.25 -0.003 -1.006 -0 -1.2 0
2.343 -0.007 -1.045 -0 -1.2 0
2.445 -0.011 -1.088 -0 -1.2 0
2.557 -0.015 -1.136 -0 -1.2 0
2.686 -0.015 -1.19 -0 -1.2 0
2.832 -0.013 -1.252 -0 -1.2 0
2.98 -0.015 -1.315 -0 -1.2 0
3.146 -0.018 -1.385 -0 -1.2 0
3.312 -0.025 -1.456 -0 -1.2 0
3.787 0.056 -1.66 -0 -1.2 0
4.055 0.059 -1.774 -0 -1.2 0
4.385 0.07 -1.915 -0 -1.2 0
4.726 0.07 -2.059 -0 -1.2 0
5.132 0.072 -2.231 -0 -1.2 0
5.593 0.07 -2.426 -0 -1.2 0
6.073 0.056 -2.629 -0 -1.2 0
6.764 0.06 -2.922 -0 -1.2 0
7.528 0.05 -3.246 -0 -1.2 0
8.487 0.037 -3.652 -0 -1.2 0
9.695 0.016 -4.163 -0 -1.2 0
11.334 -0.006 -4.858 -0 -1.2 0
13.628 -0.04 -5.83 -0 -1.2 0
18.267 -0.019 -7.797 -0 -1.2 0
19.674 -0.307 -8.384 -0 -1.2 0
19.458 -0.684 -8.28 -0 -1.2 0
16.813 -4.575 -7.026 -0 -1.2 0
16.788 -5.893 -6.97 -0 -1.2 0
24.224 -8.513 -10.035 -0 -1.2 0
24.187 -8.994 -10.003 -0 -1.2 0
12.198 -5.318 -5.044 -0 -1.2 0
13.33 -5.988 -5.502 -0 -1.2 0
13.897 -6.488 -5.725 -0 -1.2 0
11.477 -5.788 -4.722 -0 -1.2 0
13.834 -7.053 -5.679 -0 -1.2 0
13.748 -7.315 -5.633 -0 -1.2 0
11.887 -6.731 -4.864 -0 -1.2 0
11.89 -6.999 -4.856 -0 -1.2 0
12.072 -7.364 -4.921 -0 -1.2 0
12.137 -7.679 -4.938 -0 -1.2 0
13.222 -8.581 -5.367 -0 -1.2 0
13.768 -9.222 -5.577 -0 -1.2 0
10.486 -7.79 -4.234 -0 -1.2 0
12.926 -9.687 -5.204 -0 -1.2 0
13.148 -10.176 -5.282 -0 -1.2 0
15.649 -12.33 -6.269 -0 -1.2 0
11.695 -9.793 -4.679 -0 -1.2 0
10.939 -9.53 -4.367 -0 -1.2 0
12.746 -11.296 -5.074 -0 -1.2 0
10.042 -9.41 -3.991 -0 -1.2 0
9.851 -9.545 -3.905 -0 -1.2 0
11.925 -11.706 -4.712 -0 -1.2 0
10.881 -11.115 -4.289 -0 -1.2 0
8.737 -9.408 -3.438 -0 -1.2 0
9.131 -10.093 -3.581 -0 -1.2 0
9 -10.274 -3.52 -0 -1.2 0
8.913 -10.502 -3.475 -0 -1.2 0
1.093 0.01 -0.559 -0 -1.2 0
1.13 0.011 -0.576 -0 -1.2 0
1.168 0.011 -0.593 -0 -1.2 0
1.199 0.003 -0.607 -0 -1.2 0
1.244 0.008 -0.629 -0 -1.2 0
1.282 0.005 -0.646 -0 -1.2 0
1.328 0.006 -0.667 -0 -1.2 0
1.367 0.002 -0.685 -0 -1.2 0
1.42 0.007 -0.709 -0 -1.2 0
1.467 0.004 -0.731 -0 -1.2 0
1.521 0.006 -0.757 -0 -1.2 0
1.577 0.006 -0.782 -0 -1.2 0
1.625 0 -0.804 -0 -1.2 0
1.68 -0.003 -0.829 -0 -1.2 0
1.744 -0.003 -0.859 -0 -1.2 0
1.809 -0.006 -0.889 -0 -1.2 0
1.882 -0.004 -0.923 -0 -1.2 0
1.947 -0.011 -0.952 -0 -1.2 0
2.028 -0.01 -0.991 -0 -1.2 0
2.127 -0.004 -1.036 -0 -1.2 0
2.202 -0.014 -1.07 -0 -1.2 0
2.302 -0.014 -1.117 -0 -1.2 0
2.402 -0.017 -1.163 -0 -1.2 0
2.52 -0.017 -1.218 -0 -1.2 0
2.647 -0.018 -1.276 -0 -1.2 0
2.783 -0.019 -1.339 -0 -1.2 0
2.929 -0.022 -1.406 -0 -1.2 0
3.092 -0.024 -1.482 -0 -1.2 0
3.265 -0.029 -1.562 -0 -1.2 0
3.708 0.044 -1.77 -0 -1.2 0
3.988 0.053 -1.899 -0 -1.2 0
4.34 0.069 -2.062 -0 -1.2 0
4.668 0.067 -2.214 -0 -1.2 0
5.05 0.065 -2.39 -0 -1.2 0
5.451 0.051 -2.576 -0 -1.2 0
6.04 0.06 -2.849 -0 -1.2 0
6.632 0.047 -3.122 -0 -1.2 0
7.43 0.043 -3.492 -0 -1.2 0
8.349 0.025 -3.915 -0 -1.2 0
9.521 0.002 -4.457 -0 -1.2 0
11.237 -0.011 -5.249 -0 -1.2 0
13.045 -0.085 -6.085 -0 -1.2 0
17.337 -0.079 -8.069 -0 -1.2 0
19.042 -0.342 -8.849 -0 -1.2 0
19.038 -0.707 -8.835 -0 -1.2 0
19.109 -1.071 -8.855 -0 -1.2 0
19.266 -1.438 -8.915 -0 -1.2 0
12.91 -5.11 -5.848 -0 -1.2 0
12.838 -5.352 -5.807 -0 -1.2 0
12.842 -5.62 -5.799 -0 -1.2 0
12.003 -5.574 -5.413 -0 -1.2 0
10.973 -5.42 -4.941 -0 -1.2 0
14.905 -7.3 -6.695 -0 -1.2 0
14.69 -7.53 -6.588 -0 -1.2 0
11.528 -6.393 -5.165 -0 -1.2 0
13.841 -7.772 -6.187 -0 -1.2 0
14.988 -8.669 -6.688 -0 -1.2 0
11.261 -7.036 -5.019 -0 -1.2 0
12.791 -8.148 -5.688 -0 -1.2 0
11.751 -7.851 -5.218 -0 -1.2 0
16.658 -11.096 -7.376 -0 -1.2 0
15.113 -10.539 -6.68 -0 -1.2 0
10.15 -7.677 -4.483 -0 -1.2 0
10.117 -7.915 -4.459 -0 -1.2 0
12.525 -9.88 -5.506 -0 -1.2 0
11.786 -9.675 -5.171 -0 -1.2 0
11.456 -9.748 -5.017 -0 -1.2 0
10.756 -9.517 -4.7 -0 -1.2 0
13.361 -11.957 -5.821 -0 -1.2 0
11.241 -10.557 -4.889 -0 -1.2 0
10.621 -10.352 -4.609 -0 -1.2 0
11.505 -11.487 -4.979 -0 -1.2 0
10.141 -10.906 -4.368 -0 -1.2 0
8.908 -10.006 -3.829 -0 -1.2 0
8.809 -10.213 -3.775 -0 -1.2 0
8.287 -9.969 -3.542 -0 -1.2 0
1.075 0.009 -0.595 -0 -1.2 0
1.118 0.017 -0.617 -0 -1.2 0
1.149 0.01 -0.632 -0 -1.2 0
1.186 0.009 -0.651 -0 -1.2 0
1.223 0.007 -0.67 -0 -1.2 0
1.267 0.01 -0.693 -0 -1.2 0
1.299 0 -0.708 -0 -1.2 0
1.344 0 -0.731 -0 -1.2 0
1.389 0 -0.754 -0 -1.2 0
1.435 -0.002 -0.777 -0 -1.2 0
1.489 0 -0.804 -0 -1.2 0
1.543 0 -0.832 -0 -1.2 0
1.59 -0.007 -0.855 -0 -1.2 0
1.653 -0.005 -0.887 -0 -1.2 0
1.708 -0.009 -0.914 -0 -1.2 0
1.779 -0.007 -0.951 -0 -1.2 0
1.842 -0.011 -0.983 -0 -1.2 0
1.906 -0.017 -1.015 -0 -1.2 0
1.987 -0.017 -1.055 -0 -1.2 0
2.084 -0.011 -1.104 -0 -1.2 0
2.165 -0.016 -1.145 -0 -1.2 0
2.256 -0.021 -1.19 -0 -1.2 0
2.362 -0.02 -1.245 -0 -1.2 0
2.47 -0.024 -1.299 -0 -1.2 0
2.595 -0.024 -1.362 -0 -1.2 0
2.737 -0.022 -1.435 -0 -1.2 0
2.88 -0.025 -1.506 -0 -1.2 0
3.041 -0.027 -1.588 -0 -1.2 0
3.22 -0.03 -1.678 -0 -1.2 0
3.544 0.007 -1.843 -0 -1.2 0
3.94 0.053 -2.044 -0 -1.2 0
4.269 0.065 -2.211 -0 -1.2 0
4.599 0.064 -2.378 -0 -1.2 0
4.948 0.055 -2.555 -0 -1.2 0
5.421 0.059 -2.794 -0 -1.2 0
5.931 0.052 -3.051 -0 -1.2 0
6.53 0.042 -3.354 -0 -1.2 0
7.289 0.032 -3.737 -0 -1.2 0
8.175 0.011 -4.183 -0 -1.2 0
9.362 -0.007 -4.783 -0 -1.2 0
10.997 -0.028 -5.608 -0 -1.2 0
12.553 -0.12 -6.392 -0 -1.2 0
17.485 -0.071 -8.887 -0 -1.2 0
19.055 -0.349 -9.67 -0 -1.2 0
18.917 -0.723 -9.588 -0 -1.2 0
18.97 -1.091 -9.601 -0 -1.2 0
19.16 -1.462 -9.685 -0 -1.2 0
23.057 -8.91 -11.396 -0 -1.2 0
15.045 -6.505 -7.429 -0 -1.2 0
11.661 -5.532 -5.753 -0 -1.2 0
16.166 -7.605 -7.958 -0 -1.2 0
20.318 -9.729 -9.983 -0 -1.2 0
13.755 -7.236 -6.752 -0 -1.2 0
10.931 -6.213 -5.36 -0 -1.2 0
14.023 -7.99 -6.862 -0 -1.2 0
14.17 -8.39 -6.923 -0 -1.2 0
18.554 -11.095 -9.044 -0 -1.2 0
12.892 -8.338 -6.278 -0 -1.2 0
11.65 -8.206 -5.654 -0 -1.2 0
8.677 -6.597 -4.208 -0 -1.2 0
9.666 -7.477 -4.677 -0 -1.2 0
9.515 -7.624 -4.595 -0 -1.2 0
9.974 -8.207 -4.807 -0 -1.2 0
10.463 -8.845 -5.032 -0 -1.2 0
10.433 -9.113 -5.008 -0 -1.2 0
14.013 -12.287 -6.707 -0 -1.2 0
11.091 -10.264 -5.301 -0 -1.2 0
11.021 -10.537 -5.256 -0 -1.2 0
10.18 -10.124 -4.845 -0 -1.2 0
12.834 -12.905 -6.09 -0 -1.2 0
8.976 -9.624 -4.254 -0 -1.2 0
9.188 -10.134 -4.343 -0 -1.2 0
11.075 -12.392 -5.219 -0 -1.2 0
9.707 -11.333 -4.565 -0 -1.2 0
8.324 -10.168 -3.905 -0 -1.2 0
1.057 0.008 -0.629 -0 -1.2 0
1.093 0.009 -0.649 -0 -1.2 0
1.129 0.009 -0.668 -0 -1.2 0
1.159 0.001 -0.684 -0 -1.2 0
1.202 0.006 -0.708 -0 -1.2 0
1.239 0.003 -0.729 -0 -1.2 0
1.276 -0.001 -0.749 -0 -1.2 0
1.321 0 -0.773 -0 -1.2 0
1.373 0.004 -0.801 -0 -1.2 0
1.411 -0.003 -0.822 -0 -1.2 0
1.464 -0.001 -0.851 -0 -1.2 0
1.517 0 -0.88 -0 -1.2 0
1.571 -0.002 -0.909 -0 -1.2 0
1.618 -0.011 -0.935 -0 -1.2 0
1.678 -0.01 -0.968 -0 -1.2 0
1.733 -0.018 -0.998 -0 -1.2 0
1.803 -0.017 -1.037 -0 -1.2 0
1.874 -0.018 -1.075 -0 -1.2 0
1.953 -0.018 -1.118 -0 -1.2 0
2.049 -0.012 -1.17 -0 -1.2 0
2.128 -0.017 -1.214 -0 -1.2 0
2.217 -0.022 -1.262 -0 -1.2 0
2.314 -0.025 -1.315 -0 -1.2 0
2.428 -0.025 -1.377 -0 -1.2 0
2.55 -0.025 -1.445 -0 -1.2 0
2.691 -0.023 -1.521 -0 -1.2 0
2.823 -0.03 -1.593 -0 -1.2 0
2.981 -0.032 -1.68 -0 -1.2 0
3.182 -0.026 -1.79 -0 -1.2 0
3.391 -0.024 -1.904 -0 -1.2 0
3.873 0.051 -2.17 -0 -1.2 0
4.205 0.065 -2.352 -0 -1.2 0
4.538 0.066 -2.535 -0 -1.2 0
4.908 0.062 -2.736 -0 -1.2 0
5.321 0.054 -2.962 -0 -1.2 0
5.892 0.06 -3.274 -0 -1.2 0
6.42 0.037 -3.562 -0 -1.2 0
7.193 0.031 -3.984 -0 -1.2 0
8.019 0.003 -4.435 -0 -1.2 0
9.195 -0.014 -5.077 -0 -1.2 0
10.829 -0.034 -5.969 -0 -1.2 0
12.105 -0.148 -6.663 -0 -1.2 0
13.041 -0.332 -7.169 -0 -1.2 0
16.104 -0.468 -8.84 -0 -1.2 0
16.09 -0.787 -8.82 -0 -1.2 0
12.821 -3.914 -6.926 -0 -1.2 0
13.404 -4.869 -7.211 -0 -1.2 0
13.39 -5.145 -7.194 -0 -1.2 0
13.263 -5.386 -7.116 -0 -1.2 0
13.392 -5.713 -7.176 -0 -1.2 0
13.349 -5.985 -7.142 -0 -1.2 0
11.891 -5.706 -6.355 -0 -1.2 0
11.947 -5.99 -6.376 -0 -1.2 0
11.866 -6.22 -6.323 -0 -1.2 0
13.009 -7.01 -6.921 -0 -1.2 0
11.017 -6.35 -5.855 -0 -1.2 0
11.018 -6.606 -5.847 -0 -1.2 0
11.289 -7.006 -5.981 -0 -1.2 0
12.623 -8.01 -6.676 -0 -1.2 0
12.566 -8.284 -6.636 -0 -1.2 0
11.707 -8.078 -6.173 -0 -1.2 0
8.845 -6.581 -4.659 -0 -1.2 0
8.616 -6.658 -4.532 -0 -1.2 0
8.327 -6.686 -4.373 -0 -1.2 0
8.912 -7.318 -4.671 -0 -1.2 0
8.439 -7.213 -4.416 -0 -1.2 0
8.847 -7.757 -4.62 -0 -1.2 0
10.426 -9.252 -5.432 -0 -1.2 0
13.398 -11.985 -6.963 -0 -1.2 0
11.885 -11.103 -6.166 -0 -1.2 0
10.761 -10.477 -5.573 -0 -1.2 0
8.531 -8.786 -4.412 -0 -1.2 0
9.396 -9.876 -4.848 -0 -1.2 0
9.31 -10.103 -4.792 -0 -1.2 0
10.636 -11.76 -5.46 -0 -1.2 0
8.943 -10.363 -4.582 -0 -1.2 0
8.468 -10.174 -4.33 -0 -1.2 0
9.82 -12.004 -5.005 -0 -1.2 0
1.038 0.008 -0.663 -0 -1.2 0
1.067 0.002 -0.68 -0 -1.2 0
1.108 0.009 -0.704 -0 -1.2 0
1.137 0.001 -0.721 -0 -1.2 0
1.173 0 -0.742 -0 -1.2 0
1.216 0.003 -0.768 -0 -1.2 0
1.253 -0.001 -0.79 -0 -1.2 0
1.297 0 -0.815 -0 -1.2 0
1.341 -0.001 -0.841 -0 -1.2 0
1.392 0.001 -0.871 -0 -1.2 0
1.43 -0.007 -0.893 -0 -1.2 0
1.482 -0.007 -0.925 -0 -1.2 0
1.534 -0.008 -0.955 -0 -1.2 0
1.587 -0.012 -0.986 -0 -1.2 0
1.648 -0.011 -1.022 -0 -1.2 0
1.709 -0.014 -1.058 -0 -1.2 0
1.77 -0.019 -1.094 -0 -1.2 0
1.84 -0.02 -1.135 -0 -1.2 0
1.91 -0.024 -1.176 -0 -1.2 0
1.987 -0.027 -1.222 -0 -1.2 0
2.081 -0.023 -1.278 -0 -1.2 0
2.168 -0.028 -1.328 -0 -1.2 0
2.28 -0.023 -1.394 -0 -1.2 0
2.383 -0.027 -1.455 -0 -1.2 0
2.504 -0.027 -1.527 -0 -1.2 0
2.641 -0.025 -1.608 -0 -1.2 0
2.771 -0.032 -1.684 -0 -1.2 0
2.934 -0.031 -1.781 -0 -1.2 0
3.114 -0.031 -1.887 -0 -1.2 0
3.313 -0.032 -2.004 -0 -1.2 0
3.818 0.053 -2.305 -0 -1.2 0
4.127 0.062 -2.488 -0 -1.2 0
4.471 0.067 -2.691 -0 -1.2 0
4.825 0.061 -2.9 -0 -1.2 0
5.257 0.057 -3.154 -0 -1.2 0
5.766 0.053 -3.455 -0 -1.2 0
6.301 0.033 -3.77 -0 -1.2 0
7.026 0.021 -4.197 -0 -1.2 0
7.905 0.003 -4.716 -0 -1.2 0
9.085 -0.014 -5.412 -0 -1.2 0
10.671 -0.038 -6.347 -0 -1.2 0
11.865 -0.157 -7.046 -0 -1.2 0
12.31 -0.371 -7.302 -0 -1.2 0
12.289 -0.62 -7.281 -0 -1.2 0
12.29 -0.867 -7.273 -0 -1.2 0
12.32 -1.114 -7.283 -0 -1.2 0
12.331 -1.361 -7.281 -0 -1.2 0
12.338 -1.61 -7.276 -0 -1.2 0
12.349 -1.859 -7.274 -0 -1.2 0
12.366 -2.109 -7.276 -0 -1.2 0
12.421 -2.364 -7.299 -0 -1.2 0
12.464 -2.621 -7.316 -0 -1.2 0
12.495 -2.878 -7.325 -0 -1.2 0
12.495 -3.132 -7.317 -0 -1.2 0
12.501 -3.389 -7.311 -0 -1.2 0
12.503 -3.646 -7.304 -0 -1.2 0
12.492 -3.902 -7.288 -0 -1.2 0
12.4 -4.14 -7.226 -0 -1.2 0
12.349 -4.386 -7.188 -0 -1.2 0
20.643 -7.041 -11.991 -0 -1.2 0
20.498 -7.436 -11.892 -0 -1.2 0
20.431 -7.855 -11.838 -0 -1.2 0
20.373 -8.279 -11.79 -0 -1.2 0
14.628 -6.567 -8.457 -0 -1.2 0
13.573 -6.471 -7.838 -0 -1.2 0
11.174 -5.766 -6.447 -0 -1.2 0
11.517 -6.172 -6.636 -0 -1.2 0
11.572 -6.46 -6.658 -0 -1.2 0
11.837 -6.858 -6.801 -0 -1.2 0
11.767 -7.102 -6.751 -0 -1.2 0
11.679 -7.336 -6.692 -0 -1.2 0
11.611 -7.581 -6.642 -0 -1.2 0
11.515 -7.811 -6.578 -0 -1.2 0
15.16 -10.332 -8.643 -0 -1.2 0
8.021 -6.165 -4.572 -0 -1.2 0
12.073 -9.066 -6.865 -0 -1.2 0
8.45 -6.882 -4.802 -0 -1.2 0
8.107 -6.863 -4.599 -0 -1.2 0
8.65 -7.492 -4.898 -0 -1.2 0
8.54 -7.651 -4.827 -0 -1.2 0
12.047 -10.717 -6.792 -0 -1.2 0
10.975 -10.178 -6.178 -0 -1.2 0
8.04 -7.975 -4.521 -0 -1.2 0
11.114 -10.978 -6.232 -0 -1.2 0
8.301 -8.723 -4.65 -0 -1.2 0
8.282 -8.975 -4.629 -0 -1.2 0
8.942 -9.912 -4.987 -0 -1.2 0
9.526 -10.823 -5.3 -0 -1.2 0
8.505 -10.076 -4.724 -0 -1.2 0
8.522 -10.409 -4.722 -0 -1.2 0
8.167 -10.328 -4.516 -0 -1.2 0
1.015 0.007 -0.698 -0 -1.2 0
1.044 0.001 -0.716 -0 -1.2 0
1.084 0.008 -0.742 -0 -1.2 0
1.119 0.007 -0.764 -0 -1.2 0
1.154 0.005 -0.786 -0 -1.2 0
1.184 -0.004 -0.805 -0 -1.2 0
1.226 -0.002 -0.833 -0 -1.2 0
1.269 -0.001 -0.86 -0 -1.2 0
1.312 -0.002 -0.887 -0 -1.2 0
1.349 -0.01 -0.91 -0 -1.2 0
1.399 -0.008 -0.942 -0 -1.2 0
1.449 -0.008 -0.975 -0 -1.2 0
1.494 -0.015 -1.004 -0 -1.2 0
1.553 -0.013 -1.041 -0 -1.2 0
1.605 -0.019 -1.074 -0 -1.2 0
1.672 -0.016 -1.116 -0 -1.2 0
1.725 -0.025 -1.15 -0 -1.2 0
1.793 -0.026 -1.194 -0 -1.2 0
1.868 -0.025 -1.242 -0 -1.2 0
1.944 -0.028 -1.29 -0 -1.2 0
2.029 -0.029 -1.345 -0 -1.2 0
2.129 -0.025 -1.408 -0 -1.2 0
2.23 -0.024 -1.473 -0 -1.2 0
2.324 -0.033 -1.533 -0 -1.2 0
2.45 -0.029 -1.614 -0 -1.2 0
2.575 -0.031 -1.694 -0 -1.2 0
2.719 -0.031 -1.786 -0 -1.2 0
2.87 -0.033 -1.883 -0 -1.2 0
3.055 -0.031 -2.001 -0 -1.2 0
3.24 -0.035 -2.12 -0 -1.2 0
3.726 0.048 -2.433 -0 -1.2 0
4.062 0.066 -2.648 -0 -1.2 0
4.398 0.07 -2.864 -0 -1.2 0
4.77 0.07 -3.101 -0 -1.2 0
5.142 0.053 -3.339 -0 -1.2 0
5.624 0.045 -3.646 -0 -1.2 0
6.18 0.031 -4.002 -0 -1.2 0
6.897 0.02 -4.46 -0 -1.2 0
7.775 0.003 -5.021 -0 -1.2 0
8.863 -0.024 -5.715 -0 -1.2 0
10.422 -0.048 -6.712 -0 -1.2 0
11.69 -0.16 -7.519 -0 -1.2 0
15.8 -0.151 -10.147 -0 -1.2 0
15.563 -0.488 -9.986 -0 -1.2 0
15.441 -0.811 -9.896 -0 -1.2 0
19.348 -1.931 -12.356 -0 -1.2 0
12.215 -1.877 -7.797 -0 -1.2 0
12.265 -2.133 -7.819 -0 -1.2 0
12.268 -2.386 -7.813 -0 -1.2 0
19.437 -3.542 -12.358 -0 -1.2 0
19.103 -3.898 -12.132 -0 -1.2 0
18.856 -4.255 -11.962 -0 -1.2 0
20.757 -5.008 -13.152 -0 -1.2 0
20.878 -5.471 -13.213 -0 -1.2 0
21.041 -5.951 -13.301 -0 -1.2 0
21.197 -6.439 -13.385 -0 -1.2 0
12.6 -4.537 -7.951 -0 -1.2 0
12.577 -4.802 -7.927 -0 -1.2 0
15.091 -5.875 -9.499 -0 -1.2 0
15.072 -6.2 -9.476 -0 -1.2 0
11.865 -5.373 -7.453 -0 -1.2 0
11.765 -5.598 -7.38 -0 -1.2 0
11.506 -6.022 -7.201 -0 -1.2 0
11.507 -6.288 -7.192 -0 -1.2 0
11.668 -6.635 -7.283 -0 -1.2 0
11.51 -6.833 -7.176 -0 -1.2 0
11.289 -6.993 -7.028 -0 -1.2 0
10.965 -7.091 -6.818 -0 -1.2 0
13.758 -8.969 -8.54 -0 -1.2 0
12.97 -8.844 -8.041 -0 -1.2 0
9.901 -7.253 -6.132 -0 -1.2 0
9.589 -7.309 -5.931 -0 -1.2 0
8.101 -6.771 -4.997 -0 -1.2 0
8.206 -7.072 -5.055 -0 -1.2 0
8.384 -7.439 -5.156 -0 -1.2 0
11.33 -10.015 -6.952 -0 -1.2 0
8.072 -7.67 -4.949 -0 -1.2 0
7.819 -7.698 -4.786 -0 -1.2 0
9.734 -9.632 -5.944 -0 -1.2 0
10.459 -10.946 -6.363 -0 -1.2 0
8.843 -9.71 -5.371 -0 -1.2 0
8.647 -9.814 -5.243 -0 -1.2 0
8.05 -9.491 -4.872 -0 -1.2 0
8.942 -10.758 -5.399 -0 -1.2 0
8.376 -10.458 -5.047 -0 -1.2 0
8.507 -10.936 -5.115 -0 -1.2 0
0.998 0.014 -0.734 -0 -1.2 0
1.026 0.008 -0.753 -0 -1.2 0
1.054 0.001 -0.772 -0 -1.2 0
1.082 -0.005 -0.791 -0 -1.2 0
1.123 -0.001 -0.819 -0 -1.2 0
1.164 0.002 -0.848 -0 -1.2 0
1.199 -0.002 -0.872 -0 -1.2 0
1.235 -0.008 -0.896 -0 -1.2 0
1.277 -0.009 -0.925 -0 -1.2 0
1.325 -0.005 -0.958 -0 -1.2 0
1.375 -0.003 -0.992 -0 -1.2 0
1.418 -0.009 -1.022 -0 -1.2 0
1.461 -0.016 -1.052 -0 -1.2 0
1.519 -0.014 -1.091 -0 -1.2 0
1.57 -0.019 -1.126 -0 -1.2 0
1.628 -0.021 -1.166 -0 -1.2 0
1.686 -0.026 -1.206 -0 -1.2 0
1.76 -0.022 -1.257 -0 -1.2 0
1.82 -0.031 -1.297 -0 -1.2 0
1.909 -0.024 -1.359 -0 -1.2 0
1.991 -0.025 -1.416 -0 -1.2 0
2.075 -0.03 -1.472 -0 -1.2 0
2.181 -0.026 -1.546 -0 -1.2 0
2.288 -0.026 -1.619 -0 -1.2 0
2.396 -0.03 -1.693 -0 -1.2 0
2.527 -0.028 -1.784 -0 -1.2 0
2.659 -0.033 -1.874 -0 -1.2 0
2.8 -0.038 -1.971 -0 -1.2 0
2.972 -0.038 -2.09 -0 -1.2 0
3.17 -0.037 -2.226 -0 -1.2 0
3.471 -0.009 -2.433 -0 -1.2 0
3.989 0.069 -2.792 -0 -1.2 0
4.351 0.081 -3.041 -0 -1.2 0
4.666 0.067 -3.257 -0 -1.2 0
5.03 0.05 -3.507 -0 -1.2 0
5.492 0.04 -3.825 -0 -1.2 0
6.038 0.025 -4.2 -0 -1.2 0
6.698 0.008 -4.652 -0 -1.2 0
7.694 0.011 -5.337 -0 -1.2 0
8.718 -0.023 -6.041 -0 -1.2 0
10.178 -0.056 -7.043 -0 -1.2 0
11.615 -0.152 -8.028 -0 -1.2 0
13.498 -0.282 -9.317 -0 -1.2 0
13.38 -0.572 -9.227 -0 -1.2 0
13.572 -0.85 -9.349 -0 -1.2 0
17.981 -4.958 -12.241 -0 -1.2 0
17.872 -5.322 -12.154 -0 -1.2 0
14.914 -5.272 -10.121 -0 -1.2 0
12.436 -5.127 -8.422 -0 -1.2 0
12.452 -5.411 -8.424 -0 -1.2 0
14.603 -6.491 -9.866 -0 -1.2 0
19.825 -8.882 -13.374 -0 -1.2 0
14.175 -6.984 -9.555 -0 -1.2 0
11.419 -6.1 -7.691 -0 -1.2 0
11.38 -6.353 -7.655 -0 -1.2 0
15.38 -8.953 -10.316 -0 -1.2 0
20.345 -12.003 -13.627 -0 -1.2 0
14.042 -9.32 -9.384 -0 -1.2 0
10.392 -7.441 -6.939 -0 -1.2 0
10.252 -7.622 -6.836 -0 -1.2 0
9.185 -7.183 -6.117 -0 -1.2 0
8.825 -7.426 -5.862 -0 -1.2 0
8.298 -7.278 -5.504 -0 -1.2 0
8.183 -7.427 -5.42 -0 -1.2 0
7.07 -6.766 -4.678 -0 -1.2 0
7.912 -7.687 -5.226 -0 -1.2 0
7.387 -7.472 -4.871 -0 -1.2 0
9.51 -9.626 -6.258 -0 -1.2 0
8.507 -8.995 -5.59 -0 -1.2 0
8.596 -9.365 -5.639 -0 -1.2 0
8.704 -9.766 -5.698 -0 -1.2 0
8.618 -9.984 -5.633 -0 -1.2 0
9.325 -11.058 -6.082 -0 -1.2 0
9.006 -11.05 -5.864 -0 -1.2 0
8.467 -10.775 -5.502 -0 -1.2 0
8.597 -11.266 -5.575 -0 -1.2 0
0.969 0.007 -0.762 -0 -1.2 0
1.002 0.007 -0.786 -0 -1.2 0
1.035 0.007 -0.81 -0 -1.2 0
1.069 0.006 -0.835 -0 -1.2 0
1.103 0.004 -0.86 -0 -1.2 0
1.137 0.001 -0.885 -0 -1.2 0
1.171 -0.003 -0.911 -0 -1.2 0
1.211 -0.002 -0.941 -0 -1.2 0
1.246 -0.009 -0.966 -0 -1.2 0
1.288 -0.011 -0.996 -0 -1.2 0
1.336 -0.009 -1.032 -0 -1.2 0
1.378 -0.015 -1.062 -0 -1.2 0
1.427 -0.017 -1.099 -0 -1.2 0
1.484 -0.015 -1.14 -0 -1.2 0
1.532 -0.02 -1.177 -0 -1.2 0
1.597 -0.017 -1.223 -0 -1.2 0
1.654 -0.021 -1.266 -0 -1.2 0
1.719 -0.023 -1.314 -0 -1.2 0
1.785 -0.027 -1.362 -0 -1.2 0
1.864 -0.025 -1.421 -0 -1.2 0
1.945 -0.026 -1.48 -0 -1.2 0
2.034 -0.027 -1.545 -0 -1.2 0
2.13 -0.027 -1.617 -0 -1.2 0
2.227 -0.031 -1.688 -0 -1.2 0
2.354 -0.024 -1.782 -0 -1.2 0
2.475 -0.027 -1.872 -0 -1.2 0
2.597 -0.034 -1.961 -0 -1.2 0
2.734 -0.039 -2.062 -0 -1.2 0
2.896 -0.042 -2.18 -0 -1.2 0
3.096 -0.038 -2.329 -0 -1.2 0
3.304 -0.04 -2.483 -0 -1.2 0
3.895 0.066 -2.922 -0 -1.2 0
4.256 0.081 -3.189 -0 -1.2 0
4.556 0.065 -3.409 -0 -1.2 0
4.912 0.048 -3.672 -0 -1.2 0
5.347 0.033 -3.993 -0 -1.2 0
5.903 0.024 -4.402 -0 -1.2 0
6.573 0.009 -4.895 -0 -1.2 0
7.594 0.019 -5.649 -0 -1.2 0
8.53 -0.026 -6.339 -0 -1.2 0
9.979 -0.057 -7.406 -0 -1.2 0
11.528 -0.144 -8.545 -0 -1.2 0
12.989 -0.302 -9.618 -0 -1.2 0
13.011 -0.582 -9.625 -0 -1.2 0
13.085 -0.861 -9.67 -0 -1.2 0
14.395 -1.146 -10.626 -0 -1.2 0
16.905 -5.955 -12.315 -0 -1.2 0
16.793 -6.303 -12.22 -0 -1.2 0
12.366 -5.778 -8.973 -0 -1.2 0
12.403 -6.083 -8.99 -0 -1.2 0
12.328 -6.343 -8.925 -0 -1.2 0
12.219 -6.589 -8.837 -0 -1.2 0
12.168 -6.861 -8.79 -0 -1.2 0
10.833 -6.49 -7.818 -0 -1.2 0
10.797 -6.74 -7.783 -0 -1.2 0
14.366 -8.98 -10.339 -0 -1.2 0
8.014 -5.682 -5.766 -0 -1.2 0
12.746 -8.743 -9.152 -0 -1.2 0
13.472 -9.9 -9.648 -0 -1.2 0
8.546 -6.897 -6.116 -0 -1.2 0
7.142 -6.134 -5.107 -0 -1.2 0
8.46 -7.312 -6.039 -0 -1.2 0
7.76 -7.017 -5.533 -0 -1.2 0
7.733 -7.224 -5.506 -0 -1.2 0
7.109 -6.939 -5.055 -0 -1.2 0
9.511 -9.227 -6.75 -0 -1.2 0
7.994 -8.173 -5.667 -0 -1.2 0
10.574 -10.821 -7.48 -0 -1.2 0
8.137 -8.834 -5.75 -0 -1.2 0
8.715 -9.685 -6.147 -0 -1.2 0
8.414 -9.681 -5.925 -0 -1.2 0
8.271 -9.831 -5.814 -0 -1.2 0
8.758 -10.675 -6.145 -0 -1.2 0
8.805 -11.063 -6.166 -0 -1.2 0
8.643 -11.219 -6.042 -0 -1.2 0
10.171 -13.439 -7.094 -0 -1.2 0
0.943 0.006 -0.795 -0 -1.2 0
0.97 0 -0.816 -0 -1.2 0
1.002 0 -0.841 -0 -1.2 0
1.035 0 -0.867 -0 -1.2 0
1.074 0.004 -0.897 -0 -1.2 0
1.106 0.001 -0.923 -0 -1.2 0
1.139 -0.004 -0.95 -0 -1.2 0
1.173 -0.009 -0.977 -0 -1.2 0
1.219 -0.004 -1.013 -0 -1.2 0
1.26 -0.006 -1.045 -0 -1.2 0
1.301 -0.01 -1.077 -0 -1.2 0
1.348 -0.01 -1.115 -0 -1.2 0
1.395 -0.011 -1.153 -0 -1.2 0
1.443 -0.016 -1.191 -0 -1.2 0
1.499 -0.015 -1.234 -0 -1.2 0
1.554 -0.018 -1.278 -0 -1.2 0
1.61 -0.022 -1.323 -0 -1.2 0
1.673 -0.023 -1.373 -0 -1.2 0
1.737 -0.028 -1.423 -0 -1.2 0
1.815 -0.026 -1.486 -0 -1.2 0
1.901 -0.023 -1.553 -0 -1.2 0
1.986 -0.023 -1.621 -0 -1.2 0
2.073 -0.028 -1.69 -0 -1.2 0
2.182 -0.024 -1.776 -0 -1.2 0
2.292 -0.026 -1.864 -0 -1.2 0
2.416 -0.024 -1.963 -0 -1.2 0
2.528 -0.035 -2.051 -0 -1.2 0
2.669 -0.038 -2.163 -0 -1.2 0
2.81 -0.046 -2.275 -0 -1.2 0
3.02 -0.037 -2.442 -0 -1.2 0
3.216 -0.042 -2.597 -0 -1.2 0
3.829 0.076 -3.087 -0 -1.2 0
4.143 0.079 -3.336 -0 -1.2 0
4.45 0.066 -3.579 -0 -1.2 0
4.804 0.051 -3.86 -0 -1.2 0
5.197 0.028 -4.171 -0 -1.2 0
5.747 0.02 -4.607 -0 -1.2 0
6.459 0.016 -5.173 -0 -1.2 0
7.384 0.013 -5.906 -0 -1.2 0
8.342 -0.026 -6.666 -0 -1.2 0
9.73 -0.063 -7.765 -0 -1.2 0
11.345 -0.14 -9.046 -0 -1.2 0
13.072 -0.283 -10.411 -0 -1.2 0
12.962 -0.578 -10.313 -0 -1.2 0
12.979 -0.865 -10.318 -0 -1.2 0
13.552 -1.453 -10.752 -0 -1.2 0
16.101 -6.992 -12.588 -0 -1.2 0
18.394 -9.618 -14.318 -0 -1.2 0
11.776 -7.131 -9.15 -0 -1.2 0
11.631 -7.352 -9.027 -0 -1.2 0
10.141 -6.808 -7.864 -0 -1.2 0
7.989 -5.797 -6.189 -0 -1.2 0
8.225 -6.156 -6.364 -0 -1.2 0
8.2 -6.362 -6.338 -0 -1.2 0
8.332 -6.677 -6.432 -0 -1.2 0
7.386 -6.455 -5.688 -0 -1.2 0
7.959 -7.106 -6.122 -0 -1.2 0
7.421 -6.916 -5.701 -0 -1.2 0
7.882 -7.519 -6.046 -0 -1.2 0
7.533 -7.465 -5.771 -0 -1.2 0
9.865 -9.769 -7.544 -0 -1.2 0
7.444 -7.865 -5.687 -0 -1.2 0
11.83 -12.288 -9.018 -0 -1.2 0
7.165 -8.091 -5.458 -0 -1.2 0
7.17 -8.346 -5.454 -0 -1.2 0
10.265 -11.878 -7.79 -0 -1.2 0
7.904 -9.671 -5.99 -0 -1.2 0
8.078 -10.17 -6.112 -0 -1.2 0
7.723 -10.07 -5.833 -0 -1.2 0
9.792 -13.304 -7.365 -0 -1.2 0
0.919 0.006 -0.823 -0 -1.2 0
0.95 0.007 -0.85 -0 -1.2 0
0.976 0 -0.872 -0 -1.2 0
1.012 0.005 -0.903 -0 -1.2 0
1.039 -0.003 -0.925 -0 -1.2 0
1.077 0 -0.957 -0 -1.2 0
1.109 -0.004 -0.985 -0 -1.2 0
1.148 -0.003 -1.018 -0 -1.2 0
1.187 -0.004 -1.051 -0 -1.2 0
1.233 -0.001 -1.089 -0 -1.2 0
1.272 -0.005 -1.123 -0 -1.2 0
1.312 -0.011 -1.156 -0 -1.2 0
1.358 -0.012 -1.196 -0 -1.2 0
1.405 -0.016 -1.236 -0 -1.2 0
1.459 -0.015 -1.281 -0 -1.2 0
1.514 -0.019 -1.326 -0 -1.2 0
1.567 -0.023 -1.373 -0 -1.2 0
1.629 -0.024 -1.425 -0 -1.2 0
1.705 -0.019 -1.489 -0 -1.2 0
1.787 -0.014 -1.56 -0 -1.2 0
1.864 -0.016 -1.624 -0 -1.2 0
1.941 -0.02 -1.69 -0 -1.2 0
2.025 -0.025 -1.761 -0 -1.2 0
2.124 -0.025 -1.845 -0 -1.2 0
2.238 -0.023 -1.942 -0 -1.2 0
2.353 -0.025 -2.039 -0 -1.2 0
2.468 -0.033 -2.136 -0 -1.2 0
2.591 -0.042 -2.241 -0 -1.2 0
2.737 -0.048 -2.363 -0 -1.2 0
2.934 -0.042 -2.53 -0 -1.2 0
3.139 -0.04 -2.706 -0 -1.2 0
3.544 0.015 -3.051 -0 -1.2 0
4.041 0.079 -3.474 -0 -1.2 0
4.34 0.066 -3.727 -0 -1.2 0
4.677 0.048 -4.013 -0 -1.2 0
5.068 0.028 -4.344 -0 -1.2 0
5.603 0.018 -4.797 -0 -1.2 0
6.311 0.016 -5.399 -0 -1.2 0
7.151 0.003 -6.11 -0 -1.2 0
8.144 -0.027 -6.952 -0 -1.2 0
9.654 -0.048 -8.232 -0 -1.2 0
11.251 -0.128 -9.584 -0 -1.2 0
13.237 -0.258 -11.265 -0 -1.2 0
12.947 -0.571 -11.007 -0 -1.2 0
12.941 -0.866 -10.993 -0 -1.2 0
13.156 -1.46 -11.155 -0 -1.2 0
17.276 -7.606 -14.443 -0 -1.2 0
15.661 -7.378 -13.08 -0 -1.2 0
15.487 -7.691 -12.92 -0 -1.2 0
7.813 -5 -6.502 -0 -1.2 0
11.411 -7.406 -9.473 -0 -1.2 0
8.266 -5.877 -6.857 -0 -1.2 0
9.718 -6.984 -8.051 -0 -1.2 0
8.286 -6.337 -6.859 -0 -1.2 0
11.799 -8.906 -9.751 -0 -1.2 0
11.677 -9.155 -9.64 -0 -1.2 0
7.604 -6.545 -6.272 -0 -1.2 0
6.957 -6.489 -5.726 -0 -1.2 0
6.789 -6.563 -5.581 -0 -1.2 0
7.798 -7.628 -6.402 -0 -1.2 0
7.72 -7.806 -6.328 -0 -1.2 0
7.537 -7.891 -6.171 -0 -1.2 0
7.355 -7.969 -6.014 -0 -1.2 0
7.037 -7.909 -5.746 -0 -1.2 0
6.625 -7.737 -5.402 -0 -1.2 0
6.538 -7.882 -5.323 -0 -1.2 0
6.815 -8.682 -5.53 -0 -1.2 0
6.756 -8.879 -5.474 -0 -1.2 0
6.961 -9.397 -5.63 -0 -1.2 0
0.893 0.005 -0.851 -0 -1.2 0
0.918 0 -0.874 -0 -1.2 0
0.949 0 -0.901 -0 -1.2 0
0.984 0.004 -0.934 -0 -1.2 0
1.015 0.002 -0.962 -0 -1.2 0
1.047 0 -0.99 -0 -1.2 0
1.084 0 -1.025 -0 -1.2 0
1.116 -0.004 -1.053 -0 -1.2 0
1.159 0 -1.093 -0 -1.2 0
1.197 -0.003 -1.127 -0 -1.2 0
1.236 -0.006 -1.162 -0 -1.2 0
1.281 -0.006 -1.203 -0 -1.2 0
1.327 -0.008 -1.244 -0 -1.2 0
1.372 -0.012 -1.285 -0 -1.2 0
1.417 -0.017 -1.326 -0 -1.2 0
1.47 -0.02 -1.373 -0 -1.2 0
1.53 -0.02 -1.428 -0 -1.2 0
1.59 -0.022 -1.482 -0 -1.2 0
1.656 -0.021 -1.542 -0 -1.2 0
1.73 -0.021 -1.609 -0 -1.2 0
1.811 -0.018 -1.682 -0 -1.2 0
1.886 -0.023 -1.751 -0 -1.2 0
1.975 -0.023 -1.831 -0 -1.2 0
2.071 -0.025 -1.919 -0 -1.2 0
2.168 -0.029 -2.006 -0 -1.2 0
2.286 -0.028 -2.113 -0 -1.2 0
2.398 -0.035 -2.214 -0 -1.2 0
2.525 -0.042 -2.329 -0 -1.2 0
2.666 -0.048 -2.456 -0 -1.2 0
2.858 -0.042 -2.63 -0 -1.2 0
3.057 -0.042 -2.811 -0 -1.2 0
3.3 -0.036 -3.032 -0 -1.2 0
3.927 0.074 -3.603 -0 -1.2 0
4.231 0.065 -3.879 -0 -1.2 0
4.559 0.047 -4.175 -0 -1.2 0
4.983 0.036 -4.559 -0 -1.2 0
5.466 0.017 -4.995 -0 -1.2 0
6.14 0.011 -5.607 -0 -1.2 0
6.956 -0.003 -6.346 -0 -1.2 0
7.95 -0.032 -7.246 -0 -1.2 0
9.543 -0.039 -8.69 -0 -1.2 0
11.265 -0.112 -10.247 -0 -1.2 0
13.225 -0.248 -12.019 -0 -1.2 0
12.929 -0.572 -11.739 -0 -1.2 0
12.931 -0.874 -11.731 -0 -1.2 0
13.133 -1.484 -11.893 -0 -1.2 0
17.434 -7.876 -15.572 -0 -1.2 0
14.947 -8.047 -13.312 -0 -1.2 0
19.426 -10.644 -17.282 -0 -1.2 0
14.855 -9.178 -13.19 -0 -1.2 0
11.013 -7.375 -9.77 -0 -1.2 0
9.404 -6.97 -8.325 -0 -1.2 0
11.589 -8.67 -10.247 -0 -1.2 0
7.453 -6.165 -6.586 -0 -1.2 0
7.455 -6.602 -6.571 -0 -1.2 0
7.58 -6.925 -6.674 -0 -1.2 0
6.761 -6.496 -5.947 -0 -1.2 0
6.668 -6.629 -5.857 -0 -1.2 0
8.719 -8.627 -7.648 -0 -1.2 0
7.485 -7.798 -6.558 -0 -1.2 0
7.48 -8.044 -6.545 -0 -1.2 0
7.033 -7.865 -6.147 -0 -1.2 0
7.319 -8.4 -6.388 -0 -1.2 0
6.942 -8.27 -6.05 -0 -1.2 0
7.039 -8.629 -6.125 -0 -1.2 0
9.135 -11.242 -7.934 -0 -1.2 0
6.618 -8.683 -5.742 -0 -1.2 0
8.006 -10.614 -6.934 -0 -1.2 0
8.244 -11.593 -7.116 -0 -1.2 0
0.87 0.011 -0.883 -0 -1.2 0
0.889 -0.001 -0.901 -0 -1.2 0
0.919 -0.001 -0.93 -0 -1.2 0
0.954 0.003 -0.964 -0 -1.2 0
0.985 0.001 -0.993 -0 -1.2 0
1.021 0.004 -1.028 -0 -1.2 0
1.046 -0.006 -1.052 -0 -1.2 0
1.087 0 -1.093 -0 -1.2 0
1.124 -0.001 -1.128 -0 -1.2 0
1.167 0.001 -1.169 -0 -1.2 0
1.205 -0.002 -1.206 -0 -1.2 0
1.243 -0.008 -1.243 -0 -1.2 0
1.292 -0.004 -1.29 -0 -1.2 0
1.324 -0.019 -1.321 -0 -1.2 0
1.375 -0.018 -1.37 -0 -1.2 0
1.432 -0.017 -1.426 -0 -1.2 0
1.483 -0.021 -1.475 -0 -1.2 0
1.541 -0.024 -1.531 -0 -1.2 0
1.606 -0.023 -1.593 -0 -1.2 0
1.677 -0.023 -1.663 -0 -1.2 0
1.763 -0.015 -1.746 -0 -1.2 0
1.835 -0.021 -1.816 -0 -1.2 0
1.922 -0.022 -1.899 -0 -1.2 0
2.016 -0.023 -1.99 -0 -1.2 0
2.109 -0.027 -2.08 -0 -1.2 0
2.217 -0.03 -2.185 -0 -1.2 0
2.326 -0.038 -2.289 -0 -1.2 0
2.455 -0.042 -2.415 -0 -1.2 0
2.593 -0.049 -2.548 -0 -1.2 0
2.772 -0.045 -2.721 -0 -1.2 0
2.971 -0.042 -2.915 -0 -1.2 0
3.194 -0.042 -3.129 -0 -1.2 0
3.78 0.061 -3.7 -0 -1.2 0
4.09 0.056 -4 -0 -1.2 0
4.414 0.04 -4.314 -0 -1.2 0
4.825 0.028 -4.71 -0 -1.2 0
5.315 0.014 -5.184 -0 -1.2 0
5.99 0.011 -5.838 -0 -1.2 0
6.76 -0.008 -6.583 -0 -1.2 0
7.753 -0.035 -7.542 -0 -1.2 0
9.334 -0.041 -9.072 -0 -1.2 0
9.485 -0.254 -9.211 -0 -1.2 0
9.313 -0.495 -9.035 -0 -1.2 0
9.488 -0.713 -9.197 -0 -1.2 0
12.936 -0.882 -12.529 -0 -1.2 0
14.462 -8.434 -13.743 -0 -1.2 0
15.461 -9.363 -14.678 -0 -1.2 0
10.689 -7.392 -10.128 -0 -1.2 0
9.216 -6.778 -8.724 -0 -1.2 0
9.088 -6.959 -8.593 -0 -1.2 0
14.096 -10.621 -13.313 -0 -1.2 0
7.262 -6.196 -6.853 -0 -1.2 0
7.405 -6.52 -6.98 -0 -1.2 0
7.104 -6.513 -6.689 -0 -1.2 0
7.133 -6.757 -6.708 -0 -1.2 0
7.78 -7.521 -7.309 -0 -1.2 0
8.164 -8.105 -7.659 -0 -1.2 0
7.481 -7.76 -7.01 -0 -1.2 0
7.405 -7.941 -6.93 -0 -1.2 0
6.951 -7.757 -6.498 -0 -1.2 0
6.681 -7.731 -6.237 -0 -1.2 0
7.083 -8.39 -6.603 -0 -1.2 0
8.741 -10.439 -8.137 -0 -1.2 0
6.675 -8.466 -6.206 -0 -1.2 0
6.652 -8.7 -6.175 -0 -1.2 0
6.739 -9.073 -6.247 -0 -1.2 0
6.609 -9.189 -6.117 -0 -1.2 0
8.029 -11.29 -7.418 -0 -1.2 0
0.834 0.003 -0.907 -0 -1.2 0
0.858 -0.002 -0.931 -0 -1.2 0
0.887 -0.002 -0.961 -0 -1.2 0
0.915 -0.004 -0.99 -0 -1.2 0
0.945 -0.006 -1.02 -0 -1.2 0
0.984 0.003 -1.063 -0 -1.2 0
1.008 -0.007 -1.088 -0 -1.2 0
1.049 -0.001 -1.13 -0 -1.2 0
1.084 -0.002 -1.166 -0 -1.2 0
