# .PCD v.7 - Point Cloud Data file format
FIELDS x y z vp_x vp_y vp_z
SIZE 4 4 4 4 4 4
TYPE F F F F F F
COUNT 1 1 1 1 1 1
WIDTH 1576
HEIGHT 1
VIEWPOINT 0 -1.20011 0 1 0 0 0
POINTS 1576
DATA ascii
2.194 -3.694 -4.936 -0 -1.2 0
2.111 -3.7 -4.749 -0 -1.2 0
2.043 -3.718 -4.595 -0 -1.2 0
2.018 -3.791 -4.535 -0 -1.2 0
1.899 -3.73 -4.272 -0 -1.2 0
1.871 -3.791 -4.206 -0 -1.2 0
0.436 -0.047 -1.259 -0 -1.2 0
0.454 -0.039 -1.303 -0 -1.2 0
0.466 -0.045 -1.334 -0 -1.2 0
0.481 -0.045 -1.372 -0 -1.2 0
0.502 -0.034 -1.424 -0 -1.2 0
0.518 -0.038 -1.463 -0 -1.2 0
0.534 -0.042 -1.502 -0 -1.2 0
0.55 -0.048 -1.541 -0 -1.2 0
0.569 -0.048 -1.588 -0 -1.2 0
0.588 -0.051 -1.636 -0 -1.2 0
0.61 -0.049 -1.691 -0 -1.2 0
0.626 -0.059 -1.73 -0 -1.2 0
0.652 -0.056 -1.795 -0 -1.2 0
0.675 -0.059 -1.851 -0 -1.2 0
0.698 -0.063 -1.907 -0 -1.2 0
0.727 -0.061 -1.981 -0 -1.2 0
0.754 -0.065 -2.046 -0 -1.2 0
0.784 -0.067 -2.12 -0 -1.2 0
0.821 -0.062 -2.213 -0 -1.2 0
0.851 -0.069 -2.287 -0 -1.2 0
0.895 -0.063 -2.397 -0 -1.2 0
0.933 -0.068 -2.491 -0 -1.2 0
0.978 -0.068 -2.601 -0 -1.2 0
1.023 -0.073 -2.713 -0 -1.2 0
1.075 -0.074 -2.842 -0 -1.2 0
1.128 -0.08 -2.973 -0 -1.2 0
1.184 -0.087 -3.111 -0 -1.2 0
1.241 -0.099 -3.251 -0 -1.2 0
1.319 -0.1 -3.445 -0 -1.2 0
1.398 -0.107 -3.64 -0 -1.2 0
1.48 -0.119 -3.844 -0 -1.2 0
1.578 -0.129 -4.085 -0 -1.2 0
1.683 -0.144 -4.345 -0 -1.2 0
1.81 -0.156 -4.661 -0 -1.2 0
1.969 -0.165 -5.059 -0 -1.2 0
2.142 -0.182 -5.485 -0 -1.2 0
2.219 -0.253 -5.672 -0 -1.2 0
2.304 -0.329 -5.878 -0 -1.2 0
2.34 -0.426 -5.963 -0 -1.2 0
2.339 -0.536 -5.954 -0 -1.2 0
2.336 -0.645 -5.943 -0 -1.2 0
2.338 -0.752 -5.939 -0 -1.2 0
2.337 -0.86 -5.934 -0 -1.2 0
2.341 -0.967 -5.937 -0 -1.2 0
2.343 -1.074 -5.937 -0 -1.2 0
2.342 -1.181 -5.927 -0 -1.2 0
2.339 -1.287 -5.915 -0 -1.2 0
2.34 -1.393 -5.911 -0 -1.2 0
2.343 -1.5 -5.914 -0 -1.2 0
2.346 -1.608 -5.915 -0 -1.2 0
2.344 -1.715 -5.905 -0 -1.2 0
2.341 -1.821 -5.894 -0 -1.2 0
2.346 -1.93 -5.899 -0 -1.2 0
2.342 -2.037 -5.884 -0 -1.2 0
2.341 -2.145 -5.876 -0 -1.2 0
2.358 -2.261 -5.913 -0 -1.2 0
2.349 -2.366 -5.883 -0 -1.2 0
2.283 -2.437 -5.716 -0 -1.2 0
2.246 -2.522 -5.622 -0 -1.2 0
2.265 -2.64 -5.66 -0 -1.2 0
2.457 -2.891 -6.123 -0 -1.2 0
2.451 -3.004 -6.101 -0 -1.2 0
2.45 -3.124 -6.096 -0 -1.2 0
2.446 -3.241 -6.079 -0 -1.2 0
2.38 -3.299 -5.912 -0 -1.2 0
2.278 -3.318 -5.658 -0 -1.2 0
2.254 -3.408 -5.596 -0 -1.2 0
2.259 -3.528 -5.599 -0 -1.2 0
2.244 -3.629 -5.558 -0 -1.2 0
2.223 -3.721 -5.499 -0 -1.2 0
2.128 -3.72 -5.264 -0 -1.2 0
2.033 -3.711 -5.03 -0 -1.2 0
2.001 -3.778 -4.946 -0 -1.2 0
1.897 -3.742 -4.69 -0 -1.2 0
1.851 -3.78 -4.574 -0 -1.2 0
0.401 -0.04 -1.262 -0 -1.2 0
0.412 -0.045 -1.293 -0 -1.2 0
0.429 -0.038 -1.338 -0 -1.2 0
0.443 -0.039 -1.377 -0 -1.2 0
0.459 -0.034 -1.422 -0 -1.2 0
0.471 -0.044 -1.455 -0 -1.2 0
0.486 -0.048 -1.494 -0 -1.2 0
0.502 -0.047 -1.541 -0 -1.2 0
0.519 -0.048 -1.588 -0 -1.2 0
0.537 -0.05 -1.636 -0 -1.2 0
0.554 -0.054 -1.685 -0 -1.2 0
0.575 -0.054 -1.741 -0 -1.2 0
0.593 -0.06 -1.79 -0 -1.2 0
0.617 -0.058 -1.855 -0 -1.2 0
0.638 -0.063 -1.912 -0 -1.2 0
0.665 -0.061 -1.986 -0 -1.2 0
0.689 -0.065 -2.053 -0 -1.2 0
0.714 -0.07 -2.12 -0 -1.2 0
0.744 -0.07 -2.204 -0 -1.2 0
0.775 -0.073 -2.289 -0 -1.2 0
0.813 -0.071 -2.391 -0 -1.2 0
0.85 -0.071 -2.494 -0 -1.2 0
0.888 -0.075 -2.597 -0 -1.2 0
0.933 -0.076 -2.719 -0 -1.2 0
0.976 -0.08 -2.841 -0 -1.2 0
1.028 -0.082 -2.982 -0 -1.2 0
1.079 -0.09 -3.123 -0 -1.2 0
1.131 -0.102 -3.265 -0 -1.2 0
1.196 -0.108 -3.443 -0 -1.2 0
1.269 -0.114 -3.64 -0 -1.2 0
1.351 -0.121 -3.866 -0 -1.2 0
1.437 -0.133 -4.1 -0 -1.2 0
1.53 -0.149 -4.354 -0 -1.2 0
1.645 -0.161 -4.673 -0 -1.2 0
1.786 -0.172 -5.057 -0 -1.2 0
1.967 -0.178 -5.554 -0 -1.2 0
2.116 -0.216 -5.959 -0 -1.2 0
2.183 -0.299 -6.14 -0 -1.2 0
2.186 -0.41 -6.143 -0 -1.2 0
2.192 -0.521 -6.152 -0 -1.2 0
2.19 -0.632 -6.142 -0 -1.2 0
2.239 -0.734 -6.27 -0 -1.2 0
2.239 -0.847 -6.265 -0 -1.2 0
2.24 -0.959 -6.258 -0 -1.2 0
2.242 -1.071 -6.259 -0 -1.2 0
2.244 -1.183 -6.258 -0 -1.2 0
2.239 -1.294 -6.236 -0 -1.2 0
2.239 -1.406 -6.231 -0 -1.2 0
2.239 -1.516 -6.224 -0 -1.2 0
2.234 -1.627 -6.207 -0 -1.2 0
2.23 -1.738 -6.187 -0 -1.2 0
2.232 -1.849 -6.184 -0 -1.2 0
2.235 -1.963 -6.189 -0 -1.2 0
2.229 -2.072 -6.164 -0 -1.2 0
2.231 -2.186 -6.165 -0 -1.2 0
2.23 -2.298 -6.155 -0 -1.2 0
2.231 -2.412 -6.152 -0 -1.2 0
2.215 -2.515 -6.102 -0 -1.2 0
2.205 -2.621 -6.069 -0 -1.2 0
2.231 -2.755 -6.132 -0 -1.2 0
2.229 -2.871 -6.122 -0 -1.2 0
2.224 -2.983 -6.1 -0 -1.2 0
2.224 -3.101 -6.095 -0 -1.2 0
2.224 -3.22 -6.087 -0 -1.2 0
2.223 -3.339 -6.077 -0 -1.2 0
2.221 -3.457 -6.066 -0 -1.2 0
2.215 -3.573 -6.043 -0 -1.2 0
2.196 -3.673 -5.983 -0 -1.2 0
2.156 -3.749 -5.872 -0 -1.2 0
2.053 -3.736 -5.588 -0 -1.2 0
1.976 -3.749 -5.374 -0 -1.2 0
1.935 -3.808 -5.263 -0 -1.2 0
1.84 -3.781 -5.002 -0 -1.2 0
1.804 -3.837 -4.899 -0 -1.2 0
0.365 -0.032 -1.264 -0 -1.2 0
0.378 -0.031 -1.303 -0 -1.2 0
0.386 -0.044 -1.328 -0 -1.2 0
0.399 -0.045 -1.367 -0 -1.2 0
0.414 -0.04 -1.413 -0 -1.2 0
0.429 -0.037 -1.46 -0 -1.2 0
0.44 -0.047 -1.492 -0 -1.2 0
0.456 -0.047 -1.54 -0 -1.2 0
0.469 -0.053 -1.581 -0 -1.2 0
0.485 -0.056 -1.629 -0 -1.2 0
0.503 -0.054 -1.685 -0 -1.2 0
0.519 -0.058 -1.734 -0 -1.2 0
0.538 -0.06 -1.792 -0 -1.2 0
0.557 -0.063 -1.849 -0 -1.2 0
0.578 -0.062 -1.916 -0 -1.2 0
0.6 -0.065 -1.982 -0 -1.2 0
0.622 -0.069 -2.05 -0 -1.2 0
0.647 -0.07 -2.126 -0 -1.2 0
0.675 -0.07 -2.211 -0 -1.2 0
0.703 -0.073 -2.296 -0 -1.2 0
0.734 -0.074 -2.391 -0 -1.2 0
0.768 -0.074 -2.495 -0 -1.2 0
0.8 -0.083 -2.591 -0 -1.2 0
0.839 -0.082 -2.714 -0 -1.2 0
0.885 -0.08 -2.855 -0 -1.2 0
0.926 -0.088 -2.98 -0 -1.2 0
0.973 -0.095 -3.123 -0 -1.2 0
1.023 -0.104 -3.275 -0 -1.2 0
1.079 -0.113 -3.446 -0 -1.2 0
1.144 -0.12 -3.646 -0 -1.2 0
1.219 -0.125 -3.873 -0 -1.2 0
1.294 -0.139 -4.102 -0 -1.2 0
1.381 -0.153 -4.368 -0 -1.2 0
1.483 -0.167 -4.681 -0 -1.2 0
1.601 -0.183 -5.042 -0 -1.2 0
1.762 -0.189 -5.535 -0 -1.2 0
1.918 -0.215 -6.011 -0 -1.2 0
2.111 -0.244 -6.599 -0 -1.2 0
2.136 -0.354 -6.669 -0 -1.2 0
2.142 -0.474 -6.68 -0 -1.2 0
2.144 -0.593 -6.679 -0 -1.2 0
2.158 -0.71 -6.714 -0 -1.2 0
2.195 -0.824 -6.824 -0 -1.2 0
2.199 -0.946 -6.827 -0 -1.2 0
2.202 -1.067 -6.828 -0 -1.2 0
2.201 -1.188 -6.817 -0 -1.2 0
2.197 -1.308 -6.794 -0 -1.2 0
2.194 -1.429 -6.78 -0 -1.2 0
2.194 -1.55 -6.773 -0 -1.2 0
2.197 -1.671 -6.773 -0 -1.2 0
2.196 -1.79 -6.762 -0 -1.2 0
2.197 -1.912 -6.759 -0 -1.2 0
2.194 -2.032 -6.744 -0 -1.2 0
2.191 -2.152 -6.726 -0 -1.2 0
2.187 -2.272 -6.707 -0 -1.2 0
2.189 -2.395 -6.705 -0 -1.2 0
2.187 -2.516 -6.691 -0 -1.2 0
2.19 -2.642 -6.694 -0 -1.2 0
2.184 -2.76 -6.667 -0 -1.2 0
2.183 -2.884 -6.657 -0 -1.2 0
2.184 -3.01 -6.652 -0 -1.2 0
2.182 -3.134 -6.637 -0 -1.2 0
2.185 -3.264 -6.638 -0 -1.2 0
2.181 -3.389 -6.619 -0 -1.2 0
2.182 -3.52 -6.615 -0 -1.2 0
2.174 -3.64 -6.582 -0 -1.2 0
2.151 -3.742 -6.503 -0 -1.2 0
2.068 -3.765 -6.247 -0 -1.2 0
1.97 -3.759 -5.95 -0 -1.2 0
1.926 -3.819 -5.81 -0 -1.2 0
1.823 -3.788 -5.499 -0 -1.2 0
1.779 -3.835 -5.36 -0 -1.2 0
0.324 -0.031 -1.261 -0 -1.2 0
0.333 -0.037 -1.293 -0 -1.2 0
0.342 -0.043 -1.325 -0 -1.2 0
0.355 -0.038 -1.371 -0 -1.2 0
0.367 -0.039 -1.411 -0 -1.2 0
0.381 -0.036 -1.459 -0 -1.2 0
0.39 -0.046 -1.492 -0 -1.2 0
0.404 -0.046 -1.54 -0 -1.2 0
0.416 -0.052 -1.581 -0 -1.2 0
0.432 -0.049 -1.637 -0 -1.2 0
0.447 -0.052 -1.686 -0 -1.2 0
0.461 -0.057 -1.736 -0 -1.2 0
0.478 -0.059 -1.794 -0 -1.2 0
0.494 -0.061 -1.852 -0 -1.2 0
0.513 -0.061 -1.919 -0 -1.2 0
0.53 -0.069 -1.979 -0 -1.2 0
0.552 -0.068 -2.055 -0 -1.2 0
0.572 -0.074 -2.123 -0 -1.2 0
0.597 -0.074 -2.209 -0 -1.2 0
0.622 -0.076 -2.296 -0 -1.2 0
0.652 -0.073 -2.4 -0 -1.2 0
0.679 -0.077 -2.497 -0 -1.2 0
0.707 -0.084 -2.594 -0 -1.2 0
0.743 -0.085 -2.718 -0 -1.2 0
0.779 -0.088 -2.843 -0 -1.2 0
0.817 -0.094 -2.977 -0 -1.2 0
0.858 -0.101 -3.122 -0 -1.2 0
0.903 -0.108 -3.276 -0 -1.2 0
0.955 -0.114 -3.458 -0 -1.2 0
1.016 -0.118 -3.669 -0 -1.2 0
1.079 -0.127 -3.89 -0 -1.2 0
1.143 -0.142 -4.111 -0 -1.2 0
1.221 -0.156 -4.38 -0 -1.2 0
1.311 -0.17 -4.697 -0 -1.2 0
1.417 -0.185 -5.062 -0 -1.2 0
1.554 -0.194 -5.541 -0 -1.2 0
1.703 -0.214 -6.06 -0 -1.2 0
1.882 -0.238 -6.684 -0 -1.2 0
2.065 -0.285 -7.319 -0 -1.2 0
2.076 -0.412 -7.35 -0 -1.2 0
2.076 -0.543 -7.341 -0 -1.2 0
2.076 -0.674 -7.328 -0 -1.2 0
2.127 -0.797 -7.497 -0 -1.2 0
2.131 -0.929 -7.501 -0 -1.2 0
2.131 -1.062 -7.492 -0 -1.2 0
2.13 -1.194 -7.482 -0 -1.2 0
2.132 -1.326 -7.479 -0 -1.2 0
2.128 -1.457 -7.454 -0 -1.2 0
2.131 -1.59 -7.455 -0 -1.2 0
2.128 -1.72 -7.436 -0 -1.2 0
2.127 -1.851 -7.424 -0 -1.2 0
2.125 -1.983 -7.41 -0 -1.2 0
2.129 -2.116 -7.413 -0 -1.2 0
2.123 -2.246 -7.385 -0 -1.2 0
2.122 -2.378 -7.373 -0 -1.2 0
2.124 -2.512 -7.368 -0 -1.2 0
2.116 -2.64 -7.334 -0 -1.2 0
2.119 -2.776 -7.334 -0 -1.2 0
2.121 -2.912 -7.333 -0 -1.2 0
2.12 -3.047 -7.32 -0 -1.2 0
2.121 -3.184 -7.312 -0 -1.2 0
2.121 -3.322 -7.303 -0 -1.2 0
2.12 -3.46 -7.292 -0 -1.2 0
2.125 -3.605 -7.296 -0 -1.2 0
2.098 -3.713 -7.199 -0 -1.2 0
2.067 -3.812 -7.081 -0 -1.2 0
1.959 -3.8 -6.704 -0 -1.2 0
1.875 -3.81 -6.409 -0 -1.2 0
1.801 -3.827 -6.152 -0 -1.2 0
1.735 -3.847 -5.922 -0 -1.2 0
4.96 -9.419 -16.789 -0 -1.2 0
0.284 -0.038 -1.246 -0 -1.2 0
0.292 -0.043 -1.279 -0 -1.2 0
0.303 -0.036 -1.325 -0 -1.2 0
0.312 -0.043 -1.358 -0 -1.2 0
0.324 -0.039 -1.405 -0 -1.2 0
0.333 -0.042 -1.445 -0 -1.2 0
0.345 -0.04 -1.494 -0 -1.2 0
0.355 -0.045 -1.535 -0 -1.2 0
0.366 -0.052 -1.576 -0 -1.2 0
0.38 -0.048 -1.633 -0 -1.2 0
0.391 -0.058 -1.675 -0 -1.2 0
0.404 -0.062 -1.725 -0 -1.2 0
0.418 -0.063 -1.783 -0 -1.2 0
0.433 -0.067 -1.842 -0 -1.2 0
0.45 -0.067 -1.91 -0 -1.2 0
0.469 -0.063 -1.986 -0 -1.2 0
0.484 -0.072 -2.046 -0 -1.2 0
0.501 -0.078 -2.115 -0 -1.2 0
0.523 -0.077 -2.202 -0 -1.2 0
0.548 -0.075 -2.298 -0 -1.2 0
0.573 -0.072 -2.403 -0 -1.2 0
0.596 -0.08 -2.491 -0 -1.2 0
0.623 -0.084 -2.598 -0 -1.2 0
0.652 -0.088 -2.714 -0 -1.2 0
0.684 -0.092 -2.84 -0 -1.2 0
0.715 -0.1 -2.967 -0 -1.2 0
0.754 -0.103 -3.122 -0 -1.2 0
0.793 -0.111 -3.277 -0 -1.2 0
0.836 -0.119 -3.452 -0 -1.2 0
0.89 -0.122 -3.664 -0 -1.2 0
0.946 -0.131 -3.887 -0 -1.2 0
1 -0.149 -4.101 -0 -1.2 0
1.073 -0.158 -4.392 -0 -1.2 0
1.151 -0.172 -4.702 -0 -1.2 0
1.248 -0.184 -5.089 -0 -1.2 0
1.364 -0.195 -5.554 -0 -1.2 0
1.491 -0.218 -6.058 -0 -1.2 0
1.649 -0.243 -6.687 -0 -1.2 0
1.833 -0.276 -7.424 -0 -1.2 0
2.008 -0.342 -8.113 -0 -1.2 0
2.013 -0.485 -8.125 -0 -1.2 0
2.013 -0.629 -8.113 -0 -1.2 0
2.024 -0.77 -8.149 -0 -1.2 0
2.065 -0.91 -8.298 -0 -1.2 0
2.044 -1.057 -8.203 -0 -1.2 0
2.027 -1.2 -8.124 -0 -1.2 0
2.063 -1.346 -8.256 -0 -1.2 0
2.066 -1.492 -8.26 -0 -1.2 0
2.068 -1.637 -8.252 -0 -1.2 0
2.068 -1.782 -8.24 -0 -1.2 0
2.067 -1.927 -8.227 -0 -1.2 0
2.063 -2.07 -8.202 -0 -1.2 0
2.064 -2.216 -8.194 -0 -1.2 0
2.062 -2.36 -8.172 -0 -1.2 0
2.066 -2.509 -8.178 -0 -1.2 0
2.019 -2.62 -7.981 -0 -1.2 0
2.286 -2.986 -9.017 -0 -1.2 0
2.248 -3.116 -8.86 -0 -1.2 0
2.279 -3.307 -8.965 -0 -1.2 0
2.224 -3.415 -8.738 -0 -1.2 0
2.133 -3.474 -8.371 -0 -1.2 0
2.059 -3.541 -8.069 -0 -1.2 0
2.058 -3.692 -8.053 -0 -1.2 0
2.028 -3.805 -7.924 -0 -1.2 0
1.944 -3.836 -7.586 -0 -1.2 0
1.839 -3.824 -7.166 -0 -1.2 0
1.785 -3.88 -6.948 -0 -1.2 0
1.699 -3.875 -6.604 -0 -1.2 0
4.622 -9.112 -17.879 -0 -1.2 0
4.623 -9.485 -17.854 -0 -1.2 0
4.609 -9.832 -17.769 -0 -1.2 0
0.244 -0.038 -1.239 -0 -1.2 0
0.251 -0.043 -1.27 -0 -1.2 0
0.26 -0.042 -1.31 -0 -1.2 0
0.269 -0.043 -1.35 -0 -1.2 0
0.277 -0.045 -1.391 -0 -1.2 0
0.288 -0.042 -1.439 -0 -1.2 0
0.297 -0.045 -1.48 -0 -1.2 0
0.307 -0.045 -1.529 -0 -1.2 0
0.317 -0.045 -1.578 -0 -1.2 0
0.328 -0.048 -1.628 -0 -1.2 0
0.339 -0.052 -1.678 -0 -1.2 0
0.35 -0.056 -1.729 -0 -1.2 0
0.365 -0.053 -1.796 -0 -1.2 0
0.378 -0.056 -1.855 -0 -1.2 0
0.391 -0.06 -1.915 -0 -1.2 0
0.404 -0.068 -1.975 -0 -1.2 0
0.418 -0.072 -2.044 -0 -1.2 0
0.435 -0.073 -2.123 -0 -1.2 0
0.454 -0.073 -2.21 -0 -1.2 0
0.471 -0.079 -2.289 -0 -1.2 0
0.493 -0.076 -2.395 -0 -1.2 0
0.514 -0.08 -2.493 -0 -1.2 0
0.536 -0.087 -2.592 -0 -1.2 0
0.561 -0.091 -2.709 -0 -1.2 0
0.59 -0.091 -2.845 -0 -1.2 0
0.62 -0.096 -2.982 -0 -1.2 0
0.65 -0.105 -3.119 -0 -1.2 0
0.683 -0.113 -3.276 -0 -1.2 0
0.721 -0.121 -3.452 -0 -1.2 0
0.769 -0.122 -3.675 -0 -1.2 0
0.817 -0.13 -3.9 -0 -1.2 0
0.863 -0.149 -4.116 -0 -1.2 0
0.926 -0.157 -4.409 -0 -1.2 0
0.992 -0.174 -4.712 -0 -1.2 0
1.076 -0.185 -5.102 -0 -1.2 0
1.177 -0.197 -5.57 -0 -1.2 0
1.29 -0.217 -6.097 -0 -1.2 0
1.418 -0.246 -6.693 -0 -1.2 0
1.593 -0.271 -7.505 -0 -1.2 0
1.813 -0.306 -8.53 -0 -1.2 0
1.926 -0.416 -9.049 -0 -1.2 0
1.94 -0.572 -9.097 -0 -1.2 0
1.938 -0.732 -9.076 -0 -1.2 0
1.992 -0.886 -9.315 -0 -1.2 0
1.992 -1.049 -9.296 -0 -1.2 0
1.99 -1.212 -9.276 -0 -1.2 0
1.988 -1.373 -9.252 -0 -1.2 0
1.988 -1.535 -9.236 -0 -1.2 0
1.987 -1.696 -9.217 -0 -1.2 0
1.988 -1.858 -9.205 -0 -1.2 0
1.988 -2.019 -9.191 -0 -1.2 0
1.989 -2.181 -9.182 -0 -1.2 0
1.99 -2.343 -9.172 -0 -1.2 0
1.988 -2.504 -9.148 -0 -1.2 0
1.948 -2.634 -8.949 -0 -1.2 0
1.987 -2.828 -9.113 -0 -1.2 0
1.992 -2.995 -9.12 -0 -1.2 0
1.989 -3.157 -9.095 -0 -1.2 0
1.989 -3.321 -9.077 -0 -1.2 0
1.994 -3.492 -9.085 -0 -1.2 0
1.989 -3.654 -9.052 -0 -1.2 0
1.971 -3.796 -8.95 -0 -1.2 0
1.912 -3.876 -8.669 -0 -1.2 0
1.794 -3.855 -8.12 -0 -1.2 0
1.731 -3.906 -7.823 -0 -1.2 0
1.64 -3.898 -7.4 -0 -1.2 0
3.917 -8.206 -17.631 -0 -1.2 0
3.92 -8.564 -17.613 -0 -1.2 0
3.953 -8.986 -17.733 -0 -1.2 0
3.976 -9.395 -17.798 -0 -1.2 0
3.969 -9.748 -17.732 -0 -1.2 0
0.203 -0.036 -1.23 -0 -1.2 0
0.209 -0.041 -1.262 -0 -1.2 0
0.216 -0.041 -1.302 -0 -1.2 0
0.223 -0.041 -1.343 -0 -1.2 0
0.229 -0.044 -1.383 -0 -1.2 0
0.238 -0.04 -1.432 -0 -1.2 0
0.246 -0.044 -1.473 -0 -1.2 0
0.253 -0.049 -1.514 -0 -1.2 0
0.262 -0.05 -1.564 -0 -1.2 0
0.271 -0.052 -1.614 -0 -1.2 0
0.281 -0.05 -1.673 -0 -1.2 0
0.29 -0.055 -1.723 -0 -1.2 0
0.3 -0.056 -1.783 -0 -1.2 0
0.31 -0.065 -1.834 -0 -1.2 0
0.322 -0.065 -1.903 -0 -1.2 0
0.336 -0.062 -1.981 -0 -1.2 0
0.347 -0.07 -2.042 -0 -1.2 0
0.358 -0.081 -2.103 -0 -1.2 0
0.374 -0.075 -2.199 -0 -1.2 0
0.389 -0.082 -2.279 -0 -1.2 0
0.406 -0.082 -2.377 -0 -1.2 0
0.426 -0.079 -2.495 -0 -1.2 0
0.444 -0.086 -2.594 -0 -1.2 0
0.467 -0.086 -2.721 -0 -1.2 0
0.488 -0.093 -2.84 -0 -1.2 0
0.514 -0.094 -2.987 -0 -1.2 0
0.539 -0.104 -3.125 -0 -1.2 0
0.566 -0.111 -3.283 -0 -1.2 0
0.6 -0.117 -3.47 -0 -1.2 0
0.636 -0.123 -3.676 -0 -1.2 0
0.674 -0.133 -3.893 -0 -1.2 0
0.718 -0.144 -4.139 -0 -1.2 0
0.767 -0.157 -4.414 -0 -1.2 0
0.823 -0.172 -4.729 -0 -1.2 0
0.891 -0.185 -5.112 -0 -1.2 0
0.98 -0.192 -5.613 -0 -1.2 0
1.068 -0.216 -6.115 -0 -1.2 0
1.177 -0.244 -6.725 -0 -1.2 0
1.323 -0.268 -7.551 -0 -1.2 0
1.496 -0.308 -8.525 -0 -1.2 0
1.721 -0.36 -9.794 -0 -1.2 0
1.786 -0.51 -10.15 -0 -1.2 0
1.783 -0.689 -10.108 -0 -1.2 0
1.787 -0.865 -10.113 -0 -1.2 0
1.758 -1.043 -9.928 -0 -1.2 0
1.781 -1.217 -10.045 -0 -1.2 0
1.771 -1.39 -9.963 -0 -1.2 0
1.776 -1.565 -9.975 -0 -1.2 0
1.777 -1.738 -9.965 -0 -1.2 0
1.773 -1.91 -9.922 -0 -1.2 0
1.77 -2.082 -9.887 -0 -1.2 0
1.768 -2.252 -9.858 -0 -1.2 0
1.763 -2.421 -9.808 -0 -1.2 0
1.765 -2.595 -9.803 -0 -1.2 0
1.765 -2.767 -9.784 -0 -1.2 0
1.77 -2.945 -9.792 -0 -1.2 0
1.771 -3.12 -9.778 -0 -1.2 0
1.773 -3.297 -9.77 -0 -1.2 0
1.776 -3.477 -9.769 -0 -1.2 0
1.858 -3.773 -10.202 -0 -1.2 0
1.839 -3.93 -10.079 -0 -1.2 0
1.717 -3.911 -9.386 -0 -1.2 0
1.646 -3.959 -8.98 -0 -1.2 0
1.546 -3.939 -8.416 -0 -1.2 0
3.284 -7.534 -17.87 -0 -1.2 0
3.267 -7.841 -17.738 -0 -1.2 0
3.243 -8.133 -17.572 -0 -1.2 0
3.249 -8.49 -17.566 -0 -1.2 0
3.258 -8.863 -17.58 -0 -1.2 0
3.298 -9.317 -17.756 -0 -1.2 0
3.298 -9.68 -17.717 -0 -1.2 0
0.166 -0.028 -1.225 -0 -1.2 0
0.17 -0.04 -1.251 -0 -1.2 0
0.176 -0.039 -1.291 -0 -1.2 0
0.183 -0.034 -1.339 -0 -1.2 0
0.187 -0.042 -1.372 -0 -1.2 0
0.195 -0.032 -1.429 -0 -1.2 0
0.2 -0.049 -1.455 -0 -1.2 0
0.207 -0.042 -1.512 -0 -1.2 0
0.214 -0.042 -1.562 -0 -1.2 0
0.22 -0.051 -1.605 -0 -1.2 0
0.229 -0.048 -1.663 -0 -1.2 0
0.236 -0.053 -1.714 -0 -1.2 0
0.245 -0.055 -1.774 -0 -1.2 0
0.255 -0.052 -1.843 -0 -1.2 0
0.263 -0.063 -1.895 -0 -1.2 0
0.272 -0.065 -1.964 -0 -1.2 0
0.282 -0.068 -2.034 -0 -1.2 0
0.292 -0.074 -2.105 -0 -1.2 0
0.305 -0.073 -2.193 -0 -1.2 0
0.318 -0.075 -2.282 -0 -1.2 0
0.332 -0.076 -2.381 -0 -1.2 0
0.347 -0.076 -2.489 -0 -1.2 0
0.362 -0.083 -2.589 -0 -1.2 0
0.38 -0.083 -2.716 -0 -1.2 0
0.398 -0.087 -2.845 -0 -1.2 0
0.42 -0.088 -2.993 -0 -1.2 0
0.441 -0.095 -3.142 -0 -1.2 0
0.464 -0.103 -3.3 -0 -1.2 0
0.49 -0.11 -3.479 -0 -1.2 0
0.523 -0.112 -3.705 -0 -1.2 0
0.552 -0.125 -3.913 -0 -1.2 0
0.588 -0.136 -4.161 -0 -1.2 0
0.626 -0.151 -4.428 -0 -1.2 0
0.674 -0.164 -4.755 -0 -1.2 0
0.73 -0.175 -5.15 -0 -1.2 0
0.802 -0.181 -5.653 -0 -1.2 0
0.876 -0.205 -6.168 -0 -1.2 0
0.966 -0.231 -6.791 -0 -1.2 0
1.08 -0.26 -7.583 -0 -1.2 0
1.216 -0.302 -8.532 -0 -1.2 0
1.409 -0.346 -9.877 -0 -1.2 0
1.637 -0.424 -11.46 -0 -1.2 0
1.943 -0.534 -13.586 -0 -1.2 0
2.294 -0.711 -16.018 -0 -1.2 0
2.587 -0.977 -18.031 -0 -1.2 0
2.591 -1.292 -18.019 -0 -1.2 0
2.596 -1.607 -18.013 -0 -1.2 0
2.6 -1.922 -18.001 -0 -1.2 0
2.605 -2.237 -17.993 -0 -1.2 0
2.611 -2.553 -17.99 -0 -1.2 0
2.615 -2.87 -17.981 -0 -1.2 0
2.619 -3.187 -17.966 -0 -1.2 0
2.621 -3.504 -17.947 -0 -1.2 0
2.626 -3.822 -17.931 -0 -1.2 0
2.63 -4.141 -17.92 -0 -1.2 0
2.636 -4.466 -17.921 -0 -1.2 0
2.64 -4.789 -17.908 -0 -1.2 0
2.644 -5.115 -17.899 -0 -1.2 0
2.647 -5.44 -17.875 -0 -1.2 0
1.598 -3.895 -10.741 -0 -1.2 0
1.524 -3.948 -10.214 -0 -1.2 0
1.446 -3.974 -9.66 -0 -1.2 0
2.665 -6.776 -17.831 -0 -1.2 0
2.67 -7.117 -17.813 -0 -1.2 0
2.676 -7.465 -17.808 -0 -1.2 0
2.666 -7.779 -17.704 -0 -1.2 0
2.647 -8.069 -17.539 -0 -1.2 0
2.651 -8.418 -17.515 -0 -1.2 0
2.653 -8.768 -17.486 -0 -1.2 0
2.696 -9.247 -17.728 -0 -1.2 0
2.7 -9.613 -17.699 -0 -1.2 0
0.127 -0.033 -1.207 -0 -1.2 0
0.13 -0.046 -1.233 -0 -1.2 0
0.135 -0.038 -1.28 -0 -1.2 0
0.141 -0.033 -1.328 -0 -1.2 0
0.145 -0.034 -1.369 -0 -1.2 0
0.15 -0.037 -1.411 -0 -1.2 0
0.154 -0.041 -1.453 -0 -1.2 0
0.159 -0.04 -1.502 -0 -1.2 0
0.166 -0.035 -1.561 -0 -1.2 0
0.171 -0.043 -1.603 -0 -1.2 0
0.176 -0.047 -1.654 -0 -1.2 0
0.183 -0.046 -1.714 -0 -1.2 0
0.189 -0.053 -1.766 -0 -1.2 0
0.195 -0.055 -1.826 -0 -1.2 0
0.203 -0.055 -1.895 -0 -1.2 0
0.211 -0.058 -1.965 -0 -1.2 0
0.219 -0.061 -2.035 -0 -1.2 0
0.227 -0.067 -2.106 -0 -1.2 0
0.236 -0.067 -2.195 -0 -1.2 0
0.245 -0.073 -2.276 -0 -1.2 0
0.257 -0.07 -2.384 -0 -1.2 0
0.269 -0.07 -2.492 -0 -1.2 0
0.28 -0.077 -2.593 -0 -1.2 0
0.294 -0.081 -2.712 -0 -1.2 0
0.309 -0.077 -2.86 -0 -1.2 0
0.326 -0.079 -3.008 -0 -1.2 0
0.342 -0.085 -3.158 -0 -1.2 0
0.359 -0.097 -3.308 -0 -1.2 0
0.382 -0.097 -3.515 -0 -1.2 0
0.404 -0.106 -3.714 -0 -1.2 0
0.429 -0.114 -3.943 -0 -1.2 0
0.455 -0.127 -4.182 -0 -1.2 0
0.486 -0.141 -4.459 -0 -1.2 0
0.524 -0.149 -4.807 -0 -1.2 0
0.569 -0.161 -5.204 -0 -1.2 0
0.623 -0.17 -5.7 -0 -1.2 0
0.678 -0.197 -6.197 -0 -1.2 0
0.752 -0.216 -6.872 -0 -1.2 0
0.845 -0.242 -7.706 -0 -1.2 0
0.954 -0.282 -8.69 -0 -1.2 0
1.092 -0.336 -9.942 -0 -1.2 0
1.279 -0.406 -11.64 -0 -1.2 0
1.497 -0.524 -13.607 -0 -1.2 0
1.782 -0.696 -16.168 -0 -1.2 0
1.987 -0.964 -17.992 -0 -1.2 0
1.992 -1.277 -17.98 -0 -1.2 0
1.996 -1.59 -17.975 -0 -1.2 0
2 -1.904 -17.963 -0 -1.2 0
2.006 -2.217 -17.955 -0 -1.2 0
2.01 -2.53 -17.943 -0 -1.2 0
2.013 -2.844 -17.924 -0 -1.2 0
2.02 -3.161 -17.93 -0 -1.2 0
2.024 -3.476 -17.911 -0 -1.2 0
2.027 -3.793 -17.896 -0 -1.2 0
2.034 -4.113 -17.894 -0 -1.2 0
2.037 -4.432 -17.879 -0 -1.2 0
2.041 -4.753 -17.866 -0 -1.2 0
2.047 -5.077 -17.857 -0 -1.2 0
2.051 -5.402 -17.844 -0 -1.2 0
2.057 -5.733 -17.843 -0 -1.2 0
2.059 -6.06 -17.816 -0 -1.2 0
2.064 -6.393 -17.803 -0 -1.2 0
2.071 -6.733 -17.802 -0 -1.2 0
2.073 -7.068 -17.777 -0 -1.2 0
2.079 -7.414 -17.773 -0 -1.2 0
2.081 -7.751 -17.734 -0 -1.2 0
2.064 -8.027 -17.533 -0 -1.2 0
2.065 -8.366 -17.492 -0 -1.2 0
2.075 -8.738 -17.518 -0 -1.2 0
2.101 -9.179 -17.68 -0 -1.2 0
2.106 -9.547 -17.662 -0 -1.2 0
0.086 -0.039 -1.188 -0 -1.2 0
0.089 -0.037 -1.228 -0 -1.2 0
0.092 -0.037 -1.268 -0 -1.2 0
0.095 -0.031 -1.317 -0 -1.2 0
0.099 -0.033 -1.358 -0 -1.2 0
0.102 -0.036 -1.4 -0 -1.2 0
0.105 -0.039 -1.441 -0 -1.2 0
0.108 -0.039 -1.491 -0 -1.2 0
0.111 -0.039 -1.542 -0 -1.2 0
0.115 -0.048 -1.583 -0 -1.2 0
0.12 -0.039 -1.652 -0 -1.2 0
0.124 -0.045 -1.703 -0 -1.2 0
0.128 -0.046 -1.764 -0 -1.2 0
0.133 -0.049 -1.824 -0 -1.2 0
0.138 -0.053 -1.885 -0 -1.2 0
0.143 -0.051 -1.964 -0 -1.2 0
0.148 -0.06 -2.025 -0 -1.2 0
0.154 -0.06 -2.105 -0 -1.2 0
0.16 -0.065 -2.185 -0 -1.2 0
0.167 -0.067 -2.275 -0 -1.2 0
0.175 -0.068 -2.375 -0 -1.2 0
0.182 -0.068 -2.484 -0 -1.2 0
0.19 -0.072 -2.594 -0 -1.2 0
0.2 -0.071 -2.722 -0 -1.2 0
0.21 -0.075 -2.852 -0 -1.2 0
0.221 -0.076 -3.001 -0 -1.2 0
0.233 -0.08 -3.161 -0 -1.2 0
0.246 -0.085 -3.33 -0 -1.2 0
0.259 -0.091 -3.519 -0 -1.2 0
0.275 -0.097 -3.729 -0 -1.2 0
0.293 -0.106 -3.958 -0 -1.2 0
0.311 -0.12 -4.198 -0 -1.2 0
0.334 -0.127 -4.507 -0 -1.2 0
0.357 -0.142 -4.826 -0 -1.2 0
0.39 -0.148 -5.254 -0 -1.2 0
0.426 -0.158 -5.752 -0 -1.2 0
0.464 -0.184 -6.251 -0 -1.2 0
0.516 -0.202 -6.948 -0 -1.2 0
0.579 -0.228 -7.786 -0 -1.2 0
0.654 -0.268 -8.782 -0 -1.2 0
0.749 -0.321 -10.048 -0 -1.2 0
0.869 -0.398 -11.652 -0 -1.2 0
1.018 -0.514 -13.626 -0 -1.2 0
1.214 -0.683 -16.225 -0 -1.2 0
1.345 -0.951 -17.935 -0 -1.2 0
1.35 -1.263 -17.925 -0 -1.2 0
1.356 -1.573 -17.919 -0 -1.2 0
1.361 -1.886 -17.917 -0 -1.2 0
1.365 -2.197 -17.901 -0 -1.2 0
1.369 -2.509 -17.889 -0 -1.2 0
1.375 -2.823 -17.891 -0 -1.2 0
1.38 -3.137 -17.877 -0 -1.2 0
1.385 -3.453 -17.878 -0 -1.2 0
1.39 -3.768 -17.864 -0 -1.2 0
1.395 -4.085 -17.854 -0 -1.2 0
1.399 -4.405 -17.848 -0 -1.2 0
1.404 -4.722 -17.826 -0 -1.2 0
1.409 -5.044 -17.819 -0 -1.2 0
1.414 -5.368 -17.805 -0 -1.2 0
1.419 -5.697 -17.805 -0 -1.2 0
1.424 -6.025 -17.789 -0 -1.2 0
1.429 -6.36 -17.787 -0 -1.2 0
1.433 -6.689 -17.758 -0 -1.2 0
1.439 -7.026 -17.743 -0 -1.2 0
1.444 -7.374 -17.749 -0 -1.2 0
1.45 -7.72 -17.74 -0 -1.2 0
1.438 -7.988 -17.52 -0 -1.2 0
1.442 -8.33 -17.488 -0 -1.2 0
1.452 -8.709 -17.534 -0 -1.2 0
1.469 -9.133 -17.661 -0 -1.2 0
1.474 -9.5 -17.645 -0 -1.2 0
0.048 -0.045 -1.164 -0 -1.2 0
0.05 -0.036 -1.211 -0 -1.2 0
0.052 -0.028 -1.259 -0 -1.2 0
0.053 -0.03 -1.3 -0 -1.2 0
0.055 -0.031 -1.342 -0 -1.2 0
0.057 -0.034 -1.383 -0 -1.2 0
0.059 -0.038 -1.425 -0 -1.2 0
0.061 -0.031 -1.483 -0 -1.2 0
0.063 -0.037 -1.526 -0 -1.2 0
0.065 -0.04 -1.577 -0 -1.2 0
0.067 -0.037 -1.636 -0 -1.2 0
0.07 -0.043 -1.688 -0 -1.2 0
0.072 -0.044 -1.748 -0 -1.2 0
0.075 -0.047 -1.809 -0 -1.2 0
0.078 -0.046 -1.879 -0 -1.2 0
0.08 -0.054 -1.94 -0 -1.2 0
0.083 -0.057 -2.011 -0 -1.2 0
0.087 -0.054 -2.1 -0 -1.2 0
0.091 -0.058 -2.181 -0 -1.2 0
0.095 -0.056 -2.28 -0 -1.2 0
0.098 -0.065 -2.361 -0 -1.2 0
0.102 -0.061 -2.48 -0 -1.2 0
0.107 -0.069 -2.581 -0 -1.2 0
0.112 -0.068 -2.71 -0 -1.2 0
0.118 -0.065 -2.858 -0 -1.2 0
0.124 -0.073 -2.989 -0 -1.2 0
0.131 -0.074 -3.158 -0 -1.2 0
0.139 -0.073 -3.347 -0 -1.2 0
0.146 -0.082 -3.527 -0 -1.2 0
0.155 -0.091 -3.728 -0 -1.2 0
0.165 -0.097 -3.967 -0 -1.2 0
0.176 -0.108 -4.217 -0 -1.2 0
0.188 -0.117 -4.517 -0 -1.2 0
0.203 -0.129 -4.857 -0 -1.2 0
0.221 -0.136 -5.286 -0 -1.2 0
0.241 -0.144 -5.794 -0 -1.2 0
0.265 -0.162 -6.354 -0 -1.2 0
0.294 -0.184 -7.032 -0 -1.2 0
0.328 -0.212 -7.851 -0 -1.2 0
0.369 -0.258 -8.801 -0 -1.2 0
0.426 -0.304 -10.149 -0 -1.2 0
0.49 -0.387 -11.667 -0 -1.2 0
0.573 -0.502 -13.644 -0 -1.2 0
0.684 -0.669 -16.239 -0 -1.2 0
0.758 -0.935 -17.893 -0 -1.2 0
0.763 -1.246 -17.873 -0 -1.2 0
0.767 -1.556 -17.867 -0 -1.2 0
0.772 -1.867 -17.856 -0 -1.2 0
0.778 -2.178 -17.86 -0 -1.2 0
0.783 -2.488 -17.848 -0 -1.2 0
0.787 -2.799 -17.831 -0 -1.2 0
0.793 -3.112 -17.829 -0 -1.2 0
0.798 -3.425 -17.81 -0 -1.2 0
0.803 -3.741 -17.816 -0 -1.2 0
0.809 -4.059 -17.816 -0 -1.2 0
0.814 -4.377 -17.81 -0 -1.2 0
0.819 -4.696 -17.8 -0 -1.2 0
0.824 -5.016 -17.783 -0 -1.2 0
0.829 -5.338 -17.77 -0 -1.2 0
0.834 -5.663 -17.761 -0 -1.2 0
0.839 -5.99 -17.746 -0 -1.2 0
0.845 -6.323 -17.744 -0 -1.2 0
0.85 -6.655 -17.727 -0 -1.2 0
0.854 -6.988 -17.703 -0 -1.2 0
0.861 -7.335 -17.71 -0 -1.2 0
0.867 -7.687 -17.72 -0 -1.2 0
0.861 -7.936 -17.453 -0 -1.2 0
0.866 -8.288 -17.451 -0 -1.2 0
0.875 -8.658 -17.479 -0 -1.2 0
0.888 -9.088 -17.626 -0 -1.2 0
0.893 -9.454 -17.61 -0 -1.2 0
0.897 -9.803 -17.551 -0 -1.2 0
0.01 -0.022 -1.17 -0 -1.2 0
0.01 -0.028 -1.204 -0 -1.2 0
0.011 -0.02 -1.252 -0 -1.2 0
0.011 -0.028 -1.285 -0 -1.2 0
0.011 -0.03 -1.327 -0 -1.2 0
0.012 -0.026 -1.376 -0 -1.2 0
0.012 -0.036 -1.41 -0 -1.2 0
0.013 -0.03 -1.468 -0 -1.2 0
0.013 -0.036 -1.511 -0 -1.2 0
0.014 -0.038 -1.562 -0 -1.2 0
0.014 -0.042 -1.613 -0 -1.2 0
0.015 -0.041 -1.673 -0 -1.2 0
0.015 -0.042 -1.734 -0 -1.2 0
0.016 -0.04 -1.803 -0 -1.2 0
0.016 -0.044 -1.864 -0 -1.2 0
0.017 -0.047 -1.935 -0 -1.2 0
0.018 -0.05 -2.006 -0 -1.2 0
0.018 -0.052 -2.086 -0 -1.2 0
0.019 -0.052 -2.175 -0 -1.2 0
0.02 -0.053 -2.265 -0 -1.2 0
0.021 -0.055 -2.365 -0 -1.2 0
0.022 -0.059 -2.466 -0 -1.2 0
0.023 -0.059 -2.585 -0 -1.2 0
0.024 -0.061 -2.705 -0 -1.2 0
0.025 -0.063 -2.845 -0 -1.2 0
0.026 -0.07 -2.976 -0 -1.2 0
0.028 -0.064 -3.164 -0 -1.2 0
0.029 -0.07 -3.334 -0 -1.2 0
0.031 -0.078 -3.514 -0 -1.2 0
0.033 -0.085 -3.725 -0 -1.2 0
0.036 -0.091 -3.964 -0 -1.2 0
0.038 -0.098 -4.234 -0 -1.2 0
0.041 -0.11 -4.524 -0 -1.2 0
0.044 -0.119 -4.874 -0 -1.2 0
0.048 -0.122 -5.323 -0 -1.2 0
0.053 -0.127 -5.852 -0 -1.2 0
0.058 -0.144 -6.432 -0 -1.2 0
0.064 -0.165 -7.121 -0 -1.2 0
0.072 -0.198 -7.911 -0 -1.2 0
0.082 -0.234 -8.961 -0 -1.2 0
0.094 -0.288 -10.231 -0 -1.2 0
0.108 -0.374 -11.711 -0 -1.2 0
0.129 -0.485 -13.759 -0 -1.2 0
0.154 -0.654 -16.297 -0 -1.2 0
0.172 -0.921 -17.842 -0 -1.2 0
0.177 -1.231 -17.843 -0 -1.2 0
0.076 -1.257 -6.331 -0 -1.2 0
0.078 -1.367 -6.348 -0 -1.2 0
0.081 -1.478 -6.373 -0 -1.2 0
0.198 -2.471 -17.81 -0 -1.2 0
0.204 -2.782 -17.793 -0 -1.2 0
0.209 -3.094 -17.791 -0 -1.2 0
0.214 -3.405 -17.774 -0 -1.2 0
0.22 -3.719 -17.77 -0 -1.2 0
0.225 -4.036 -17.771 -0 -1.2 0
0.23 -4.353 -17.766 -0 -1.2 0
0.236 -4.674 -17.765 -0 -1.2 0
0.241 -4.993 -17.749 -0 -1.2 0
0.246 -5.315 -17.737 -0 -1.2 0
0.251 -5.64 -17.728 -0 -1.2 0
0.257 -5.966 -17.714 -0 -1.2 0
0.263 -6.296 -17.703 -0 -1.2 0
0.268 -6.633 -17.705 -0 -1.2 0
0.274 -6.964 -17.681 -0 -1.2 0
0.28 -7.3 -17.662 -0 -1.2 0
0.286 -7.652 -17.672 -0 -1.2 0
0.288 -7.899 -17.406 -0 -1.2 0
0.294 -8.25 -17.405 -0 -1.2 0
0.3 -8.6 -17.388 -0 -1.2 0
0.308 -9.049 -17.582 -0 -1.2 0
0.315 -9.418 -17.576 -0 -1.2 0
0.321 -9.758 -17.5 -0 -1.2 0
-0.028 -0.021 -1.154 -0 -1.2 0
-0.029 -0.026 -1.187 -0 -1.2 0
-0.03 -0.026 -1.228 -0 -1.2 0
-0.031 -0.027 -1.269 -0 -1.2 0
-0.032 -0.035 -1.303 -0 -1.2 0
-0.034 -0.024 -1.36 -0 -1.2 0
-0.035 -0.029 -1.402 -0 -1.2 0
-0.036 -0.028 -1.452 -0 -1.2 0
-0.037 -0.04 -1.487 -0 -1.2 0
-0.039 -0.031 -1.554 -0 -1.2 0
-0.041 -0.034 -1.605 -0 -1.2 0
-0.042 -0.039 -1.657 -0 -1.2 0
-0.044 -0.035 -1.725 -0 -1.2 0
-0.045 -0.038 -1.786 -0 -1.2 0
-0.047 -0.038 -1.856 -0 -1.2 0
-0.049 -0.045 -1.918 -0 -1.2 0
-0.051 -0.044 -1.998 -0 -1.2 0
-0.054 -0.04 -2.087 -0 -1.2 0
-0.055 -0.045 -2.167 -0 -1.2 0
-0.057 -0.047 -2.258 -0 -1.2 0
-0.06 -0.048 -2.358 -0 -1.2 0
-0.063 -0.053 -2.458 -0 -1.2 0
-0.066 -0.052 -2.578 -0 -1.2 0
-0.069 -0.056 -2.698 -0 -1.2 0
-0.073 -0.056 -2.837 -0 -1.2 0
-0.077 -0.061 -2.977 -0 -1.2 0
-0.081 -0.061 -3.147 -0 -1.2 0
-0.086 -0.064 -3.326 -0 -1.2 0
-0.09 -0.067 -3.526 -0 -1.2 0
-0.097 -0.068 -3.755 -0 -1.2 0
-0.103 -0.079 -3.976 -0 -1.2 0
-0.109 -0.092 -4.227 -0 -1.2 0
-0.117 -0.099 -4.536 -0 -1.2 0
-0.126 -0.108 -4.886 -0 -1.2 0
-0.139 -0.107 -5.364 -0 -1.2 0
-0.152 -0.116 -5.874 -0 -1.2 0
-0.154 -0.2 -6.008 -0 -1.2 0
-0.154 -0.297 -6.073 -0 -1.2 0
-0.152 -0.402 -6.086 -0 -1.2 0
-0.152 -0.507 -6.098 -0 -1.2 0
-0.15 -0.613 -6.097 -0 -1.2 0
-0.148 -0.719 -6.095 -0 -1.2 0
-0.146 -0.824 -6.121 -0 -1.2 0
-0.145 -0.93 -6.155 -0 -1.2 0
-0.144 -1.036 -6.156 -0 -1.2 0
-0.143 -1.142 -6.177 -0 -1.2 0
-0.142 -1.249 -6.195 -0 -1.2 0
-0.139 -1.355 -6.172 -0 -1.2 0
-0.138 -1.463 -6.197 -0 -1.2 0
-0.137 -1.574 -6.239 -0 -1.2 0
-0.135 -1.684 -6.251 -0 -1.2 0
-0.133 -1.791 -6.229 -0 -1.2 0
-0.13 -1.895 -6.186 -0 -1.2 0
-0.405 -3.704 -17.734 -0 -1.2 0
-0.399 -4.02 -17.735 -0 -1.2 0
-0.395 -4.339 -17.741 -0 -1.2 0
-0.389 -4.654 -17.721 -0 -1.2 0
-0.383 -4.972 -17.705 -0 -1.2 0
-0.378 -5.296 -17.703 -0 -1.2 0
-0.371 -5.618 -17.685 -0 -1.2 0
-0.365 -5.949 -17.691 -0 -1.2 0
-0.36 -6.276 -17.671 -0 -1.2 0
-0.354 -6.61 -17.664 -0 -1.2 0
-0.347 -6.942 -17.641 -0 -1.2 0
-0.342 -7.284 -17.641 -0 -1.2 0
-0.336 -7.635 -17.652 -0 -1.2 0
-0.324 -7.876 -17.367 -0 -1.2 0
-0.318 -8.226 -17.367 -0 -1.2 0
-0.312 -8.587 -17.378 -0 -1.2 0
-0.311 -9.036 -17.573 -0 -1.2 0
-0.303 -9.396 -17.549 -0 -1.2 0
-0.296 -9.735 -17.474 -0 -1.2 0
-0.067 -0.026 -1.127 -0 -1.2 0
-0.07 -0.024 -1.167 -0 -1.2 0
-0.072 -0.03 -1.201 -0 -1.2 0
-0.075 -0.024 -1.249 -0 -1.2 0
-0.077 -0.025 -1.29 -0 -1.2 0
-0.08 -0.022 -1.34 -0 -1.2 0
-0.082 -0.032 -1.374 -0 -1.2 0
-0.085 -0.031 -1.424 -0 -1.2 0
-0.088 -0.031 -1.474 -0 -1.2 0
-0.092 -0.028 -1.533 -0 -1.2 0
-0.094 -0.031 -1.585 -0 -1.2 0
-0.098 -0.03 -1.644 -0 -1.2 0
-0.101 -0.032 -1.705 -0 -1.2 0
-0.105 -0.035 -1.766 -0 -1.2 0
-0.109 -0.039 -1.827 -0 -1.2 0
-0.113 -0.037 -1.906 -0 -1.2 0
-0.118 -0.04 -1.977 -0 -1.2 0
-0.124 -0.033 -2.074 -0 -1.2 0
-0.127 -0.046 -2.137 -0 -1.2 0
-0.132 -0.048 -2.227 -0 -1.2 0
-0.138 -0.044 -2.336 -0 -1.2 0
-0.144 -0.049 -2.436 -0 -1.2 0
-0.152 -0.045 -2.565 -0 -1.2 0
-0.159 -0.048 -2.685 -0 -1.2 0
-0.167 -0.052 -2.815 -0 -1.2 0
-0.175 -0.057 -2.955 -0 -1.2 0
-0.184 -0.06 -3.115 -0 -1.2 0
-0.196 -0.06 -3.304 -0 -1.2 0
-0.208 -0.059 -3.512 -0 -1.2 0
-0.218 -0.074 -3.693 -0 -1.2 0
-0.233 -0.077 -3.943 -0 -1.2 0
-0.249 -0.084 -4.212 -0 -1.2 0
-0.266 -0.096 -4.502 -0 -1.2 0
-0.288 -0.099 -4.88 -0 -1.2 0
-0.316 -0.1 -5.338 -0 -1.2 0
-0.347 -0.104 -5.877 -0 -1.2 0
-0.382 -0.119 -6.465 -0 -1.2 0
-0.403 -0.185 -6.828 -0 -1.2 0
-0.393 -0.318 -6.714 -0 -1.2 0
-0.38 -0.454 -6.539 -0 -1.2 0
-0.367 -0.584 -6.35 -0 -1.2 0
-0.364 -0.696 -6.329 -0 -1.2 0
-0.357 -0.809 -6.254 -0 -1.2 0
-0.355 -0.919 -6.239 -0 -1.2 0
-0.351 -1.028 -6.201 -0 -1.2 0
-0.346 -1.135 -6.152 -0 -1.2 0
-0.333 -1.237 -5.961 -0 -1.2 0
-0.33 -1.338 -5.928 -0 -1.2 0
-0.342 -1.457 -6.182 -0 -1.2 0
-0.341 -1.566 -6.195 -0 -1.2 0
-0.345 -1.685 -6.305 -0 -1.2 0
-0.997 -3.06 -17.706 -0 -1.2 0
-0.992 -3.372 -17.698 -0 -1.2 0
-0.985 -3.684 -17.686 -0 -1.2 0
-0.98 -3.999 -17.678 -0 -1.2 0
-0.975 -4.319 -17.694 -0 -1.2 0
-0.969 -4.635 -17.674 -0 -1.2 0
-0.963 -4.955 -17.669 -0 -1.2 0
-0.957 -5.277 -17.658 -0 -1.2 0
-0.951 -5.601 -17.651 -0 -1.2 0
-0.945 -5.927 -17.637 -0 -1.2 0
-0.939 -6.259 -17.637 -0 -1.2 0
-0.932 -6.59 -17.621 -0 -1.2 0
-0.925 -6.925 -17.608 -0 -1.2 0
-0.92 -7.264 -17.598 -0 -1.2 0
-0.914 -7.607 -17.592 -0 -1.2 0
-0.894 -7.855 -17.327 -0 -1.2 0
-0.888 -8.217 -17.355 -0 -1.2 0
-0.882 -8.57 -17.348 -0 -1.2 0
-0.886 -9.019 -17.543 -0 -1.2 0
-0.878 -9.375 -17.51 -0 -1.2 0
-0.868 -9.71 -17.427 -0 -1.2 0
-0.107 -0.018 -1.115 -0 -1.2 0
-0.11 -0.023 -1.148 -0 -1.2 0
-0.113 -0.029 -1.182 -0 -1.2 0
-0.118 -0.024 -1.23 -0 -1.2 0
-0.122 -0.025 -1.271 -0 -1.2 0
-0.126 -0.021 -1.32 -0 -1.2 0
-0.129 -0.031 -1.354 -0 -1.2 0
-0.135 -0.025 -1.412 -0 -1.2 0
-0.14 -0.025 -1.462 -0 -1.2 0
-0.144 -0.033 -1.505 -0 -1.2 0
-0.148 -0.03 -1.564 -0 -1.2 0
-0.154 -0.03 -1.624 -0 -1.2 0
-0.159 -0.037 -1.676 -0 -1.2 0
-0.165 -0.034 -1.745 -0 -1.2 0
-0.172 -0.034 -1.815 -0 -1.2 0
-0.178 -0.036 -1.885 -0 -1.2 0
-0.185 -0.039 -1.956 -0 -1.2 0
-0.193 -0.036 -2.044 -0 -1.2 0
-0.201 -0.04 -2.125 -0 -1.2 0
-0.208 -0.043 -2.215 -0 -1.2 0
-0.217 -0.048 -2.305 -0 -1.2 0
-0.229 -0.04 -2.432 -0 -1.2 0
-0.238 -0.048 -2.533 -0 -1.2 0
-0.249 -0.051 -2.653 -0 -1.2 0
-0.262 -0.055 -2.782 -0 -1.2 0
-0.275 -0.056 -2.931 -0 -1.2 0
-0.29 -0.059 -3.091 -0 -1.2 0
-0.306 -0.061 -3.269 -0 -1.2 0
-0.325 -0.064 -3.468 -0 -1.2 0
-0.345 -0.068 -3.687 -0 -1.2 0
-0.366 -0.076 -3.916 -0 -1.2 0
-0.39 -0.082 -4.185 -0 -1.2 0
-0.416 -0.099 -4.455 -0 -1.2 0
-0.451 -0.099 -4.842 -0 -1.2 0
-0.495 -0.098 -5.309 -0 -1.2 0
-0.543 -0.104 -5.836 -0 -1.2 0
-0.598 -0.118 -6.424 -0 -1.2 0
-0.666 -0.132 -7.16 -0 -1.2 0
-0.737 -0.168 -7.938 -0 -1.2 0
-0.825 -0.214 -8.883 -0 -1.2 0
-0.932 -0.273 -10.058 -0 -1.2 0
-1.069 -0.353 -11.552 -0 -1.2 0
-0.604 -0.789 -6.611 -0 -1.2 0
-0.599 -0.906 -6.576 -0 -1.2 0
-0.6 -1.02 -6.608 -0 -1.2 0
-0.602 -1.135 -6.649 -0 -1.2 0
-0.6 -1.251 -6.647 -0 -1.2 0
-0.604 -1.37 -6.714 -0 -1.2 0
-0.601 -1.487 -6.698 -0 -1.2 0
-0.6 -1.605 -6.71 -0 -1.2 0
-0.604 -1.728 -6.77 -0 -1.2 0
-1.591 -3.055 -17.657 -0 -1.2 0
-1.585 -3.368 -17.651 -0 -1.2 0
-1.579 -3.682 -17.647 -0 -1.2 0
-1.574 -3.998 -17.65 -0 -1.2 0
-1.57 -4.317 -17.656 -0 -1.2 0
-1.562 -4.634 -17.637 -0 -1.2 0
-1.557 -4.955 -17.632 -0 -1.2 0
-1.55 -5.274 -17.611 -0 -1.2 0
-1.543 -5.596 -17.594 -0 -1.2 0
-1.538 -5.924 -17.591 -0 -1.2 0
-1.531 -6.253 -17.582 -0 -1.2 0
-1.524 -6.587 -17.575 -0 -1.2 0
-1.518 -6.922 -17.562 -0 -1.2 0
-1.511 -7.261 -17.553 -0 -1.2 0
-1.504 -7.602 -17.538 -0 -1.2 0
-1.475 -7.85 -17.274 -0 -1.2 0
-1.47 -8.196 -17.264 -0 -1.2 0
-1.463 -8.548 -17.258 -0 -1.2 0
-1.477 -9.014 -17.49 -0 -1.2 0
-1.468 -9.373 -17.467 -0 -1.2 0
-1.459 -9.727 -17.419 -0 -1.2 0
-0.15 -0.017 -1.094 -0 -1.2 0
-0.154 -0.023 -1.127 -0 -1.2 0
-0.159 -0.022 -1.168 -0 -1.2 0
-0.163 -0.029 -1.201 -0 -1.2 0
-0.17 -0.024 -1.25 -0 -1.2 0
-0.175 -0.027 -1.291 -0 -1.2 0
-0.181 -0.031 -1.332 -0 -1.2 0
-0.188 -0.024 -1.39 -0 -1.2 0
-0.195 -0.024 -1.44 -0 -1.2 0
-0.2 -0.032 -1.483 -0 -1.2 0
-0.208 -0.03 -1.542 -0 -1.2 0
-0.215 -0.029 -1.601 -0 -1.2 0
-0.223 -0.03 -1.661 -0 -1.2 0
-0.229 -0.039 -1.713 -0 -1.2 0
-0.237 -0.043 -1.774 -0 -1.2 0
-0.248 -0.04 -1.852 -0 -1.2 0
-0.258 -0.039 -1.931 -0 -1.2 0
-0.268 -0.04 -2.011 -0 -1.2 0
-0.28 -0.04 -2.1 -0 -1.2 0
-0.289 -0.046 -2.18 -0 -1.2 0
-0.303 -0.042 -2.288 -0 -1.2 0
-0.316 -0.047 -2.388 -0 -1.2 0
-0.332 -0.047 -2.507 -0 -1.2 0
-0.348 -0.05 -2.626 -0 -1.2 0
-0.364 -0.054 -2.755 -0 -1.2 0
-0.38 -0.061 -2.885 -0 -1.2 0
-0.402 -0.061 -3.052 -0 -1.2 0
-0.426 -0.063 -3.231 -0 -1.2 0
-0.45 -0.068 -3.419 -0 -1.2 0
-0.475 -0.077 -3.618 -0 -1.2 0
-0.507 -0.079 -3.865 -0 -1.2 0
-0.54 -0.088 -4.123 -0 -1.2 0
-0.581 -0.092 -4.441 -0 -1.2 0
-0.623 -0.106 -4.768 -0 -1.2 0
-0.683 -0.106 -5.223 -0 -1.2 0
-0.753 -0.107 -5.767 -0 -1.2 0
-0.823 -0.127 -6.313 -0 -1.2 0
-0.919 -0.139 -7.056 -0 -1.2 0
-0.929 -0.253 -7.151 -0 -1.2 0
-0.916 -0.389 -7.066 -0 -1.2 0
-0.886 -0.532 -6.85 -0 -1.2 0
-0.861 -0.665 -6.671 -0 -1.2 0
-0.856 -0.784 -6.648 -0 -1.2 0
-0.844 -0.902 -6.573 -0 -1.2 0
-0.844 -1.018 -6.586 -0 -1.2 0
-0.843 -1.133 -6.597 -0 -1.2 0
-0.841 -1.248 -6.595 -0 -1.2 0
-0.838 -1.364 -6.582 -0 -1.2 0
-0.838 -1.481 -6.597 -0 -1.2 0
-0.84 -1.599 -6.628 -0 -1.2 0
-0.84 -1.718 -6.649 -0 -1.2 0
-0.838 -1.836 -6.647 -0 -1.2 0
-0.828 -1.945 -6.574 -0 -1.2 0
-2.224 -3.68 -17.583 -0 -1.2 0
-2.218 -3.996 -17.585 -0 -1.2 0
-2.214 -4.316 -17.592 -0 -1.2 0
-2.207 -4.633 -17.573 -0 -1.2 0
-2.201 -4.954 -17.568 -0 -1.2 0
-2.194 -5.276 -17.557 -0 -1.2 0
-2.188 -5.601 -17.55 -0 -1.2 0
-2.183 -5.93 -17.546 -0 -1.2 0
-2.176 -6.259 -17.537 -0 -1.2 0
-2.169 -6.591 -17.522 -0 -1.2 0
-2.162 -6.926 -17.51 -0 -1.2 0
-2.155 -7.266 -17.501 -0 -1.2 0
-2.146 -7.604 -17.476 -0 -1.2 0
-2.108 -7.852 -17.213 -0 -1.2 0
-2.101 -8.198 -17.204 -0 -1.2 0
-2.095 -8.551 -17.198 -0 -1.2 0
-2.118 -9.017 -17.428 -0 -1.2 0
-2.108 -9.373 -17.397 -0 -1.2 0
-2.093 -9.717 -17.332 -0 -1.2 0
-0.189 -0.017 -1.071 -0 -1.2 0
-0.193 -0.029 -1.096 -0 -1.2 0
-0.202 -0.014 -1.151 -0 -1.2 0
-0.206 -0.028 -1.177 -0 -1.2 0
-0.213 -0.03 -1.217 -0 -1.2 0
-0.221 -0.027 -1.266 -0 -1.2 0
-0.228 -0.03 -1.307 -0 -1.2 0
-0.236 -0.029 -1.357 -0 -1.2 0
-0.243 -0.029 -1.407 -0 -1.2 0
-0.252 -0.031 -1.457 -0 -1.2 0
-0.26 -0.035 -1.508 -0 -1.2 0
-0.27 -0.034 -1.567 -0 -1.2 0
-0.28 -0.035 -1.626 -0 -1.2 0
-0.29 -0.038 -1.686 -0 -1.2 0
-0.299 -0.042 -1.747 -0 -1.2 0
-0.312 -0.039 -1.825 -0 -1.2 0
-0.322 -0.047 -1.886 -0 -1.2 0
-0.337 -0.044 -1.974 -0 -1.2 0
-0.349 -0.047 -2.053 -0 -1.2 0
-0.365 -0.045 -2.151 -0 -1.2 0
-0.381 -0.046 -2.25 -0 -1.2 0
-0.398 -0.05 -2.349 -0 -1.2 0
-0.417 -0.049 -2.467 -0 -1.2 0
-0.437 -0.052 -2.585 -0 -1.2 0
-0.457 -0.055 -2.714 -0 -1.2 0
-0.48 -0.06 -2.852 -0 -1.2 0
-0.504 -0.066 -3 -0 -1.2 0
-0.534 -0.068 -3.177 -0 -1.2 0
-0.562 -0.075 -3.355 -0 -1.2 0
-0.598 -0.077 -3.573 -0 -1.2 0
-0.637 -0.082 -3.809 -0 -1.2 0
-0.676 -0.094 -4.056 -0 -1.2 0
-0.724 -0.104 -4.343 -0 -1.2 0
-0.781 -0.11 -4.697 -0 -1.2 0
-0.845 -0.121 -5.092 -0 -1.2 0
-0.938 -0.116 -5.652 -0 -1.2 0
-1.029 -0.131 -6.215 -0 -1.2 0
-1.149 -0.143 -6.944 -0 -1.2 0
-1.276 -0.175 -7.724 -0 -1.2 0
-1.419 -0.224 -8.603 -0 -1.2 0
-1.591 -0.289 -9.659 -0 -1.2 0
-1.83 -0.364 -11.13 -0 -1.2 0
-2.139 -0.47 -13.024 -0 -1.2 0
-2.613 -0.612 -15.933 -0 -1.2 0
-1.084 -1.014 -6.634 -0 -1.2 0
-1.086 -1.131 -6.655 -0 -1.2 0
-1.082 -1.248 -6.644 -0 -1.2 0
-1.084 -1.367 -6.671 -0 -1.2 0
-1.081 -1.485 -6.665 -0 -1.2 0
-0.227 -0.023 -1.041 -0 -1.2 0
-0.233 -0.028 -1.073 -0 -1.2 0
-0.243 -0.02 -1.12 -0 -1.2 0
-0.249 -0.027 -1.153 -0 -1.2 0
-0.256 -0.036 -1.186 -0 -1.2 0
-0.265 -0.032 -1.234 -0 -1.2 0
-0.275 -0.029 -1.283 -0 -1.2 0
-0.282 -0.034 -1.324 -0 -1.2 0
-0.291 -0.04 -1.366 -0 -1.2 0
-0.302 -0.037 -1.424 -0 -1.2 0
-0.314 -0.034 -1.482 -0 -1.2 0
-0.322 -0.044 -1.524 -0 -1.2 0
-0.336 -0.039 -1.592 -0 -1.2 0
-0.348 -0.042 -1.651 -0 -1.2 0
-0.361 -0.041 -1.72 -0 -1.2 0
-0.375 -0.043 -1.789 -0 -1.2 0
-0.389 -0.046 -1.858 -0 -1.2 0
-0.402 -0.052 -1.928 -0 -1.2 0
-0.419 -0.051 -2.016 -0 -1.2 0
-0.437 -0.053 -2.104 -0 -1.2 0
-0.458 -0.049 -2.21 -0 -1.2 0
-0.476 -0.056 -2.3 -0 -1.2 0
-0.5 -0.056 -2.417 -0 -1.2 0
-0.525 -0.054 -2.544 -0 -1.2 0
-0.548 -0.061 -2.662 -0 -1.2 0
-0.577 -0.062 -2.809 -0 -1.2 0
-0.604 -0.071 -2.947 -0 -1.2 0
-0.64 -0.072 -3.124 -0 -1.2 0
-0.674 -0.08 -3.3 -0 -1.2 0
-0.717 -0.082 -3.516 -0 -1.2 0
-0.762 -0.089 -3.741 -0 -1.2 0
-0.812 -0.097 -3.996 -0 -1.2 0
-0.867 -0.108 -4.271 -0 -1.2 0
-0.932 -0.117 -4.604 -0 -1.2 0
-1.015 -0.122 -5.025 -0 -1.2 0
-1.123 -0.121 -5.563 -0 -1.2 0
-1.241 -0.128 -6.16 -0 -1.2 0
-1.387 -0.139 -6.895 -0 -1.2 0
-1.526 -0.179 -7.603 -0 -1.2 0
-1.694 -0.229 -8.447 -0 -1.2 0
-1.899 -0.293 -9.487 -0 -1.2 0
-2.17 -0.372 -10.86 -0 -1.2 0
-2.534 -0.476 -12.703 -0 -1.2 0
-3.067 -0.618 -15.398 -0 -1.2 0
-4.668 -10.707 -24.251 -0 -1.2 0
-4.455 -10.762 -23.184 -0 -1.2 0
-4.508 -11.902 -23.54 -0 -1.2 0
-4.461 -12.31 -23.336 -0 -1.2 0
-0.268 -0.022 -1.016 -0 -1.2 0
-0.276 -0.027 -1.048 -0 -1.2 0
-0.287 -0.02 -1.094 -0 -1.2 0
-0.295 -0.027 -1.127 -0 -1.2 0
-0.304 -0.029 -1.167 -0 -1.2 0
-0.315 -0.025 -1.215 -0 -1.2 0
-0.323 -0.035 -1.248 -0 -1.2 0
-0.335 -0.033 -1.297 -0 -1.2 0
-0.344 -0.04 -1.338 -0 -1.2 0
-0.357 -0.036 -1.396 -0 -1.2 0
-0.371 -0.033 -1.453 -0 -1.2 0
-0.381 -0.043 -1.496 -0 -1.2 0
-0.399 -0.033 -1.57 -0 -1.2 0
-0.411 -0.041 -1.621 -0 -1.2 0
-0.427 -0.04 -1.689 -0 -1.2 0
-0.441 -0.047 -1.749 -0 -1.2 0
-0.46 -0.046 -1.827 -0 -1.2 0
-0.478 -0.046 -1.904 -0 -1.2 0
-0.494 -0.054 -1.974 -0 -1.2 0
-0.515 -0.055 -2.062 -0 -1.2 0
-0.542 -0.048 -2.176 -0 -1.2 0
-0.565 -0.051 -2.274 -0 -1.2 0
-0.59 -0.055 -2.381 -0 -1.2 0
-0.618 -0.057 -2.498 -0 -1.2 0
-0.649 -0.057 -2.633 -0 -1.2 0
-0.682 -0.06 -2.771 -0 -1.2 0
-0.714 -0.07 -2.908 -0 -1.2 0
-0.756 -0.071 -3.082 -0 -1.2 0
-0.796 -0.078 -3.258 -0 -1.2 0
-0.847 -0.08 -3.471 -0 -1.2 0
-0.898 -0.09 -3.685 -0 -1.2 0
-0.959 -0.095 -3.948 -0 -1.2 0
-1.029 -0.102 -4.239 -0 -1.2 0
-1.106 -0.112 -4.57 -0 -1.2 0
-1.199 -0.122 -4.959 -0 -1.2 0
-1.333 -0.113 -5.531 -0 -1.2 0
-1.496 -0.106 -6.221 -0 -1.2 0
-1.657 -0.125 -6.902 -0 -1.2 0
-1.816 -0.17 -7.574 -0 -1.2 0
-2.008 -0.223 -8.393 -0 -1.2 0
-2.241 -0.29 -9.386 -0 -1.2 0
-2.568 -0.366 -10.778 -0 -1.2 0
-3 -0.47 -12.606 -0 -1.2 0
-3.624 -0.613 -15.262 -0 -1.2 0
-6.061 -8.396 -26.083 -0 -1.2 0
-5.994 -8.824 -25.826 -0 -1.2 0
-5.553 -10.203 -24.047 -0 -1.2 0
-5.263 -10.206 -22.819 -0 -1.2 0
-4.912 -10.514 -21.351 -0 -1.2 0
-5.146 -13.526 -22.54 -0 -1.2 0
-0.303 -0.028 -0.981 -0 -1.2 0
-0.315 -0.02 -1.027 -0 -1.2 0
-0.326 -0.019 -1.066 -0 -1.2 0
-0.335 -0.026 -1.099 -0 -1.2 0
-0.343 -0.034 -1.131 -0 -1.2 0
-0.356 -0.03 -1.179 -0 -1.2 0
-0.369 -0.027 -1.227 -0 -1.2 0
-0.378 -0.038 -1.26 -0 -1.2 0
-0.391 -0.039 -1.308 -0 -1.2 0
-0.406 -0.035 -1.365 -0 -1.2 0
-0.42 -0.038 -1.414 -0 -1.2 0
-0.433 -0.042 -1.464 -0 -1.2 0
-0.451 -0.037 -1.53 -0 -1.2 0
-0.467 -0.04 -1.589 -0 -1.2 0
-0.483 -0.045 -1.648 -0 -1.2 0
-0.502 -0.046 -1.716 -0 -1.2 0
-0.522 -0.044 -1.792 -0 -1.2 0
-0.54 -0.049 -1.861 -0 -1.2 0
-0.562 -0.053 -1.939 -0 -1.2 0
-0.585 -0.054 -2.026 -0 -1.2 0
-0.614 -0.05 -2.131 -0 -1.2 0
-0.64 -0.054 -2.227 -0 -1.2 0
-0.669 -0.056 -2.334 -0 -1.2 0
-0.699 -0.06 -2.449 -0 -1.2 0
-0.736 -0.058 -2.585 -0 -1.2 0
-0.773 -0.063 -2.72 -0 -1.2 0
-0.812 -0.068 -2.865 -0 -1.2 0
-0.859 -0.069 -3.038 -0 -1.2 0
-0.908 -0.073 -3.221 -0 -1.2 0
-0.961 -0.081 -3.414 -0 -1.2 0
-1.024 -0.085 -3.645 -0 -1.2 0
-1.086 -0.097 -3.878 -0 -1.2 0
-1.159 -0.109 -4.148 -0 -1.2 0
-1.255 -0.111 -4.504 -0 -1.2 0
-1.359 -0.12 -4.89 -0 -1.2 0
-1.516 -0.11 -5.467 -0 -1.2 0
-1.706 -0.1 -6.17 -0 -1.2 0
-1.897 -0.114 -6.874 -0 -1.2 0
-2.071 -0.163 -7.522 -0 -1.2 0
-2.283 -0.219 -8.306 -0 -1.2 0
-2.558 -0.282 -9.329 -0 -1.2 0
-2.907 -0.364 -10.623 -0 -1.2 0
-3.376 -0.469 -12.36 -0 -1.2 0
-4.086 -0.608 -14.993 -0 -1.2 0
-7.017 -1.191 -25.852 -0 -1.2 0
-7.053 -1.663 -26.013 -0 -1.2 0
-7.058 -2.136 -26.059 -0 -1.2 0
-7.057 -2.61 -26.078 -0 -1.2 0
-7.045 -3.083 -26.059 -0 -1.2 0
-7.046 -3.561 -26.092 -0 -1.2 0
-7.12 -4.072 -26.393 -0 -1.2 0
-7.127 -4.563 -26.446 -0 -1.2 0
-7.116 -5.049 -26.433 -0 -1.2 0
-7.141 -5.559 -26.556 -0 -1.2 0
-7.06 -6.5 -26.307 -0 -1.2 0
-7.085 -7.024 -26.431 -0 -1.2 0
-6.968 -7.426 -26.019 -0 -1.2 0
-6.926 -7.891 -25.892 -0 -1.2 0
-6.85 -8.32 -25.635 -0 -1.2 0
-6.318 -8.702 -23.69 -0 -1.2 0
-6.155 -9.449 -23.13 -0 -1.2 0
-6.559 -11.562 -24.741 -0 -1.2 0
-5.763 -11.736 -21.812 -0 -1.2 0
-5.576 -11.873 -21.127 -0 -1.2 0
-0.341 -0.021 -0.962 -0 -1.2 0
-0.351 -0.026 -0.993 -0 -1.2 0
-0.363 -0.025 -1.032 -0 -1.2 0
-0.377 -0.019 -1.078 -0 -1.2 0
-0.387 -0.027 -1.111 -0 -1.2 0
-0.402 -0.023 -1.158 -0 -1.2 0
-0.413 -0.026 -1.198 -0 -1.2 0
-0.425 -0.031 -1.238 -0 -1.2 0
-0.438 -0.038 -1.279 -0 -1.2 0
-0.455 -0.034 -1.335 -0 -1.2 0
-0.47 -0.037 -1.384 -0 -1.2 0
-0.485 -0.041 -1.433 -0 -1.2 0
-0.505 -0.036 -1.499 -0 -1.2 0
-0.521 -0.044 -1.549 -0 -1.2 0
-0.541 -0.044 -1.615 -0 -1.2 0
-0.562 -0.045 -1.682 -0 -1.2 0
-0.585 -0.043 -1.758 -0 -1.2 0
-0.605 -0.048 -1.826 -0 -1.2 0
-0.629 -0.052 -1.903 -0 -1.2 0
-0.655 -0.053 -1.989 -0 -1.2 0
-0.684 -0.053 -2.085 -0 -1.2 0
-0.716 -0.052 -2.189 -0 -1.2 0
-0.749 -0.055 -2.294 -0 -1.2 0
-0.783 -0.058 -2.41 -0 -1.2 0
-0.821 -0.061 -2.534 -0 -1.2 0
-0.862 -0.064 -2.668 -0 -1.2 0
-0.909 -0.066 -2.821 -0 -1.2 0
-0.956 -0.073 -2.974 -0 -1.2 0
-1.011 -0.077 -3.155 -0 -1.2 0
-1.075 -0.079 -3.365 -0 -1.2 0
-1.143 -0.086 -3.585 -0 -1.2 0
-1.21 -0.1 -3.805 -0 -1.2 0
-1.298 -0.107 -4.092 -0 -1.2 0
-1.405 -0.109 -4.445 -0 -1.2 0
-1.522 -0.118 -4.828 -0 -1.2 0
-1.688 -0.113 -5.371 -0 -1.2 0
-1.912 -0.095 -6.104 -0 -1.2 0
-2.117 -0.114 -6.774 -0 -1.2 0
-2.319 -0.159 -7.435 -0 -1.2 0
-2.546 -0.217 -8.182 -0 -1.2 0
-2.838 -0.285 -9.14 -0 -1.2 0
-3.214 -0.368 -10.373 -0 -1.2 0
-3.762 -0.467 -12.171 -0 -1.2 0
-4.56 -0.603 -14.789 -0 -1.2 0
-7.834 -1.179 -25.529 -0 -1.2 0
-7.85 -4.975 -25.767 -0 -1.2 0
-7.821 -5.444 -25.692 -0 -1.2 0
-7.791 -5.914 -25.618 -0 -1.2 0
-7.752 -6.377 -25.516 -0 -1.2 0
-7.716 -6.841 -25.417 -0 -1.2 0
-7.676 -7.303 -25.309 -0 -1.2 0
-7.65 -7.776 -25.251 -0 -1.2 0
-7.622 -8.25 -25.183 -0 -1.2 0
-7.601 -8.732 -25.135 -0 -1.2 0
-7.571 -9.208 -25.061 -0 -1.2 0
-7.519 -9.661 -24.914 -0 -1.2 0
-7.43 -10.069 -24.644 -0 -1.2 0
-7.345 -10.476 -24.384 -0 -1.2 0
-7.257 -10.878 -24.118 -0 -1.2 0
-6.964 -10.981 -23.163 -0 -1.2 0
-7.241 -12.439 -24.143 -0 -1.2 0
-7.14 -12.819 -23.83 -0 -1.2 0
-0.38 -0.021 -0.933 -0 -1.2 0
-0.391 -0.026 -0.964 -0 -1.2 0
-0.407 -0.018 -1.009 -0 -1.2 0
-0.418 -0.025 -1.041 -0 -1.2 0
-0.431 -0.027 -1.08 -0 -1.2 0
-0.445 -0.029 -1.119 -0 -1.2 0
-0.461 -0.027 -1.166 -0 -1.2 0
-0.475 -0.032 -1.206 -0 -1.2 0
-0.491 -0.032 -1.254 -0 -1.2 0
-0.508 -0.034 -1.302 -0 -1.2 0
-0.525 -0.037 -1.35 -0 -1.2 0
-0.544 -0.035 -1.407 -0 -1.2 0
-0.56 -0.042 -1.456 -0 -1.2 0
-0.58 -0.045 -1.513 -0 -1.2 0
-0.603 -0.044 -1.579 -0 -1.2 0
-0.626 -0.045 -1.646 -0 -1.2 0
-0.646 -0.052 -1.704 -0 -1.2 0
-0.678 -0.044 -1.796 -0 -1.2 0
-0.701 -0.052 -1.864 -0 -1.2 0
-0.731 -0.053 -1.949 -0 -1.2 0
-0.766 -0.05 -2.052 -0 -1.2 0
-0.799 -0.053 -2.147 -0 -1.2 0
-0.834 -0.055 -2.251 -0 -1.2 0
-0.873 -0.059 -2.364 -0 -1.2 0
-0.919 -0.057 -2.496 -0 -1.2 0
-0.967 -0.058 -2.637 -0 -1.2 0
-1.017 -0.063 -2.779 -0 -1.2 0
-1.072 -0.068 -2.941 -0 -1.2 0
-1.13 -0.075 -3.111 -0 -1.2 0
-1.202 -0.077 -3.318 -0 -1.2 0
-1.283 -0.079 -3.554 -0 -1.2 0
-1.361 -0.091 -3.781 -0 -1.2 0
-1.456 -0.1 -4.055 -0 -1.2 0
-1.579 -0.102 -4.414 -0 -1.2 0
-1.712 -0.11 -4.801 -0 -1.2 0
-1.908 -0.1 -5.366 -0 -1.2 0
-2.135 -0.095 -6.027 -0 -1.2 0
-2.353 -0.118 -6.66 -0 -1.2 0
-2.578 -0.162 -7.314 -0 -1.2 0
-2.834 -0.22 -8.063 -0 -1.2 0
-3.153 -0.289 -8.99 -0 -1.2 0
-3.579 -0.37 -10.229 -0 -1.2 0
-4.195 -0.468 -12.024 -0 -1.2 0
-5.109 -0.603 -14.68 -0 -1.2 0
-6.789 -0.803 -19.564 -0 -1.2 0
-8.77 -7.456 -25.606 -0 -1.2 0
-7.476 -6.949 -21.827 -0 -1.2 0
-7.698 -7.572 -22.498 -0 -1.2 0
-8.468 -9.228 -24.806 -0 -1.2 0
-8.458 -10.249 -24.823 -0 -1.2 0
-8.396 -11.233 -24.686 -0 -1.2 0
-7.379 -10.476 -21.702 -0 -1.2 0
-8.176 -13.672 -24.15 -0 -1.2 0
-0.42 -0.014 -0.909 -0 -1.2 0
-0.432 -0.019 -0.94 -0 -1.2 0
-0.443 -0.025 -0.972 -0 -1.2 0
-0.458 -0.025 -1.01 -0 -1.2 0
-0.476 -0.021 -1.055 -0 -1.2 0
-0.487 -0.03 -1.087 -0 -1.2 0
-0.502 -0.034 -1.126 -0 -1.2 0
-0.522 -0.026 -1.18 -0 -1.2 0
-0.538 -0.032 -1.22 -0 -1.2 0
-0.559 -0.029 -1.275 -0 -1.2 0
-0.577 -0.032 -1.323 -0 -1.2 0
-0.595 -0.036 -1.371 -0 -1.2 0
-0.617 -0.037 -1.428 -0 -1.2 0
-0.639 -0.039 -1.484 -0 -1.2 0
-0.664 -0.039 -1.55 -0 -1.2 0
-0.689 -0.041 -1.615 -0 -1.2 0
-0.714 -0.044 -1.681 -0 -1.2 0
-0.743 -0.044 -1.756 -0 -1.2 0
-0.768 -0.053 -1.823 -0 -1.2 0
-0.803 -0.05 -1.916 -0 -1.2 0
-0.839 -0.05 -2.009 -0 -1.2 0
-0.877 -0.05 -2.111 -0 -1.2 0
-0.917 -0.053 -2.214 -0 -1.2 0
-0.959 -0.055 -2.326 -0 -1.2 0
-1.016 -0.048 -2.473 -0 -1.2 0
-1.059 -0.058 -2.587 -0 -1.2 0
-1.116 -0.061 -2.736 -0 -1.2 0
-1.18 -0.063 -2.904 -0 -1.2 0
-1.248 -0.067 -3.081 -0 -1.2 0
-1.337 -0.061 -3.313 -0 -1.2 0
-1.415 -0.072 -3.519 -0 -1.2 0
-1.508 -0.08 -3.762 -0 -1.2 0
-1.608 -0.093 -4.024 -0 -1.2 0
-1.742 -0.095 -4.379 -0 -1.2 0
-1.899 -0.099 -4.789 -0 -1.2 0
-2.127 -0.083 -5.385 -0 -1.2 0
-2.351 -0.091 -5.973 -0 -1.2 0
-2.59 -0.115 -6.599 -0 -1.2 0
-2.825 -0.164 -7.217 -0 -1.2 0
-3.113 -0.22 -7.976 -0 -1.2 0
-3.484 -0.284 -8.948 -0 -1.2 0
-3.982 -0.362 -10.256 -0 -1.2 0
-4.661 -0.463 -12.04 -0 -1.2 0
-5.896 -0.581 -15.28 -0 -1.2 0
-7.479 -0.807 -19.435 -0 -1.2 0
-8.132 -6.912 -21.388 -0 -1.2 0
-8.147 -7.357 -21.446 -0 -1.2 0
-8.082 -7.74 -21.288 -0 -1.2 0
-7.994 -8.543 -21.089 -0 -1.2 0
-8.989 -12.057 -23.837 -0 -1.2 0
-8.249 -14.83 -22.005 -0 -1.2 0
-0.455 -0.014 -0.878 -0 -1.2 0
-0.468 -0.02 -0.909 -0 -1.2 0
-0.481 -0.026 -0.94 -0 -1.2 0
-0.497 -0.026 -0.977 -0 -1.2 0
-0.516 -0.021 -1.022 -0 -1.2 0
-0.532 -0.024 -1.061 -0 -1.2 0
-0.548 -0.027 -1.099 -0 -1.2 0
-0.568 -0.027 -1.146 -0 -1.2 0
-0.587 -0.027 -1.192 -0 -1.2 0
-0.61 -0.023 -1.247 -0 -1.2 0
-0.627 -0.032 -1.286 -0 -1.2 0
-0.647 -0.036 -1.334 -0 -1.2 0
-0.674 -0.033 -1.397 -0 -1.2 0
-0.694 -0.04 -1.446 -0 -1.2 0
-0.721 -0.039 -1.51 -0 -1.2 0
-0.748 -0.041 -1.575 -0 -1.2 0
-0.776 -0.045 -1.64 -0 -1.2 0
-0.807 -0.045 -1.714 -0 -1.2 0
-0.838 -0.049 -1.788 -0 -1.2 0
-0.876 -0.047 -1.879 -0 -1.2 0
-0.918 -0.043 -1.98 -0 -1.2 0
-0.961 -0.042 -2.081 -0 -1.2 0
-1.003 -0.046 -2.183 -0 -1.2 0
-1.049 -0.048 -2.294 -0 -1.2 0
-1.103 -0.049 -2.423 -0 -1.2 0
-1.161 -0.049 -2.561 -0 -1.2 0
-1.223 -0.052 -2.708 -0 -1.2 0
-1.289 -0.058 -2.865 -0 -1.2 0
-1.37 -0.057 -3.058 -0 -1.2 0
-1.455 -0.06 -3.26 -0 -1.2 0
-1.548 -0.065 -3.482 -0 -1.2 0
-1.656 -0.069 -3.74 -0 -1.2 0
-1.764 -0.083 -3.998 -0 -1.2 0
-1.907 -0.088 -4.339 -0 -1.2 0
-2.093 -0.085 -4.78 -0 -1.2 0
-2.302 -0.088 -5.277 -0 -1.2 0
-2.548 -0.094 -5.867 -0 -1.2 0
-2.816 -0.116 -6.503 -0 -1.2 0
-3.075 -0.163 -7.122 -0 -1.2 0
-3.4 -0.218 -7.899 -0 -1.2 0
-3.825 -0.279 -8.913 -0 -1.2 0
-4.358 -0.36 -10.186 -0 -1.2 0
-5.158 -0.455 -12.094 -0 -1.2 0
