# .PCD v.7 - Point Cloud Data file format
FIELDS x y z vp_x vp_y vp_z
SIZE 4 4 4 4 4 4
TYPE F F F F F F
COUNT 1 1 1 1 1 1
WIDTH 1619
HEIGHT 1
VIEWPOINT 0 -1.20006 0 1 0 0 0
POINTS 1619
DATA ascii
10.038 -6.159 1.756 -0 -1.2 0
11.267 -7.035 1.885 -0 -1.2 0
4.707 -3.647 1.224 -0 -1.2 0
11.086 -7.442 1.877 -0 -1.2 0
8.977 -6.431 1.666 -0 -1.2 0
9.398 -6.909 1.714 -0 -1.2 0
3.85 -3.528 1.145 -0 -1.2 0
3.874 -3.638 1.15 -0 -1.2 0
3.217 -3.274 1.082 -0 -1.2 0
3.211 -3.351 1.084 -0 -1.2 0
3.187 -3.418 1.083 -0 -1.2 0
2.895 -3.275 1.053 -0 -1.2 0
2.91 -3.367 1.058 -0 -1.2 0
2.809 -3.365 1.048 -0 -1.2 0
2.769 -3.412 1.046 -0 -1.2 0
3.506 -4.16 1.127 -0 -1.2 0
4.209 -4.926 1.207 -0 -1.2 0
7.435 -8.188 1.564 -0 -1.2 0
1.206 0.042 0.811 -0 -1.2 0
1.247 0.044 0.813 -0 -1.2 0
1.295 0.051 0.816 -0 -1.2 0
1.329 0.044 0.818 -0 -1.2 0
1.371 0.043 0.82 -0 -1.2 0
1.413 0.041 0.823 -0 -1.2 0
1.464 0.042 0.826 -0 -1.2 0
1.514 0.044 0.829 -0 -1.2 0
1.565 0.044 0.832 -0 -1.2 0
1.617 0.042 0.835 -0 -1.2 0
1.669 0.04 0.838 -0 -1.2 0
1.737 0.046 0.842 -0 -1.2 0
1.79 0.04 0.845 -0 -1.2 0
1.86 0.043 0.849 -0 -1.2 0
1.939 0.05 0.853 -0 -1.2 0
2.01 0.048 0.857 -0 -1.2 0
2.09 0.051 0.862 -0 -1.2 0
2.179 0.054 0.867 -0 -1.2 0
2.261 0.051 0.872 -0 -1.2 0
2.361 0.054 0.877 -0 -1.2 0
2.488 0.067 0.884 -0 -1.2 0
2.598 0.068 0.89 -0 -1.2 0
2.7 0.06 0.896 -0 -1.2 0
2.803 0.05 0.903 -0 -1.2 0
2.869 0.021 0.906 -0 -1.2 0
2.943 -0.004 0.912 -0 -1.2 0
3.084 -0.009 0.92 -0 -1.2 0
3.207 -0.026 0.927 -0 -1.2 0
3.377 -0.031 0.938 -0 -1.2 0
3.614 -0.02 0.95 -0 -1.2 0
3.795 -0.035 0.962 -0 -1.2 0
4.016 -0.045 0.974 -0 -1.2 0
4.266 -0.055 0.989 -0 -1.2 0
4.537 -0.07 1.005 -0 -1.2 0
4.837 -0.087 1.022 -0 -1.2 0
5.304 -0.081 1.049 -0 -1.2 0
5.743 -0.098 1.075 -0 -1.2 0
6.273 -0.115 1.106 -0 -1.2 0
6.942 -0.13 1.144 -0 -1.2 0
7.978 -0.125 1.204 -0 -1.2 0
8.708 -0.187 1.248 -0 -1.2 0
9.866 -0.236 1.315 -0 -1.2 0
12.071 -0.253 1.442 -0 -1.2 0
14.875 -0.315 1.605 -0 -1.2 0
15.026 -0.569 1.62 -0 -1.2 0
14.893 -0.831 1.618 -0 -1.2 0
14.855 -1.089 1.621 -0 -1.2 0
14.892 -1.347 1.629 -0 -1.2 0
14.886 -1.606 1.634 -0 -1.2 0
14.844 -1.863 1.637 -0 -1.2 0
15.116 -2.14 1.659 -0 -1.2 0
15.076 -2.4 1.663 -0 -1.2 0
15.08 -2.664 1.669 -0 -1.2 0
15.08 -2.929 1.674 -0 -1.2 0
8.383 -2.255 1.274 -0 -1.2 0
8.272 -2.385 1.271 -0 -1.2 0
8.337 -2.544 1.278 -0 -1.2 0
8.898 -2.801 1.316 -0 -1.2 0
10.234 -3.245 1.403 -0 -1.2 0
10.292 -3.444 1.411 -0 -1.2 0
6.772 -2.755 1.192 -0 -1.2 0
7.889 -3.179 1.266 -0 -1.2 0
8.255 -3.431 1.293 -0 -1.2 0
8.279 -3.593 1.298 -0 -1.2 0
10.104 -4.344 1.419 -0 -1.2 0
8.62 -4.027 1.327 -0 -1.2 0
8.194 -4.039 1.303 -0 -1.2 0
3.127 -2.253 0.972 -0 -1.2 0
5.55 -3.294 1.134 -0 -1.2 0
3.673 -2.608 1.011 -0 -1.2 0
5.415 -3.458 1.131 -0 -1.2 0
7.11 -4.361 1.247 -0 -1.2 0
3.903 -2.946 1.032 -0 -1.2 0
9.223 -5.743 1.399 -0 -1.2 0
9.034 -5.845 1.391 -0 -1.2 0
4.673 -3.627 1.091 -0 -1.2 0
9.027 -6.25 1.399 -0 -1.2 0
8.602 -6.204 1.374 -0 -1.2 0
5.465 -4.445 1.154 -0 -1.2 0
3.883 -3.547 1.043 -0 -1.2 0
8.289 -6.62 1.365 -0 -1.2 0
6.86 -5.828 1.265 -0 -1.2 0
3.184 -3.331 0.998 -0 -1.2 0
7.256 -6.488 1.302 -0 -1.2 0
2.947 -3.314 0.985 -0 -1.2 0
2.884 -3.345 0.982 -0 -1.2 0
7.796 -7.555 1.357 -0 -1.2 0
3.504 -4.05 1.033 -0 -1.2 0
4.275 -4.851 1.095 -0 -1.2 0
8.06 -8.522 1.394 -0 -1.2 0
5.045 -5.869 1.162 -0 -1.2 0
1.207 0.04 0.788 -0 -1.2 0
1.255 0.049 0.789 -0 -1.2 0
1.282 0.036 0.79 -0 -1.2 0
1.331 0.042 0.791 -0 -1.2 0
1.373 0.041 0.792 -0 -1.2 0
1.415 0.039 0.793 -0 -1.2 0
1.466 0.041 0.795 -0 -1.2 0
1.508 0.036 0.796 -0 -1.2 0
1.567 0.042 0.797 -0 -1.2 0
1.619 0.04 0.799 -0 -1.2 0
1.671 0.038 0.8 -0 -1.2 0
1.74 0.044 0.802 -0 -1.2 0
1.801 0.044 0.803 -0 -1.2 0
1.862 0.041 0.805 -0 -1.2 0
1.941 0.047 0.807 -0 -1.2 0
2.021 0.051 0.809 -0 -1.2 0
2.101 0.053 0.811 -0 -1.2 0
2.191 0.057 0.812 -0 -1.2 0
2.273 0.053 0.815 -0 -1.2 0
2.373 0.056 0.817 -0 -1.2 0
2.5 0.069 0.82 -0 -1.2 0
2.602 0.064 0.823 -0 -1.2 0
2.722 0.065 0.826 -0 -1.2 0
2.798 0.043 0.828 -0 -1.2 0
2.854 0.011 0.831 -0 -1.2 0
2.966 -0.001 0.834 -0 -1.2 0
3.088 -0.013 0.837 -0 -1.2 0
3.249 -0.017 0.841 -0 -1.2 0
3.362 -0.041 0.845 -0 -1.2 0
3.542 -0.048 0.849 -0 -1.2 0
3.839 -0.028 0.857 -0 -1.2 0
3.992 -0.057 0.861 -0 -1.2 0
4.233 -0.07 0.868 -0 -1.2 0
4.562 -0.07 0.876 -0 -1.2 0
4.872 -0.086 0.884 -0 -1.2 0
5.321 -0.085 0.895 -0 -1.2 0
5.781 -0.099 0.907 -0 -1.2 0
6.301 -0.119 0.921 -0 -1.2 0
6.941 -0.141 0.937 -0 -1.2 0
7.76 -0.162 0.959 -0 -1.2 0
8.68 -0.201 0.984 -0 -1.2 0
9.879 -0.248 1.015 -0 -1.2 0
12.087 -0.267 1.072 -0 -1.2 0
14.835 -0.335 1.142 -0 -1.2 0
14.965 -0.588 1.152 -0 -1.2 0
14.852 -0.849 1.155 -0 -1.2 0
14.805 -1.106 1.159 -0 -1.2 0
14.842 -1.363 1.166 -0 -1.2 0
14.845 -1.62 1.172 -0 -1.2 0
14.803 -1.876 1.177 -0 -1.2 0
15.036 -2.15 1.19 -0 -1.2 0
13.283 -2.257 1.147 -0 -1.2 0
15.05 -2.677 1.202 -0 -1.2 0
13.016 -2.689 1.151 -0 -1.2 0
9.413 -2.409 1.053 -0 -1.2 0
15.044 -3.473 1.221 -0 -1.2 0
8.416 -2.566 1.031 -0 -1.2 0
10.39 -3.101 1.094 -0 -1.2 0
15.055 -4.284 1.239 -0 -1.2 0
8.795 -3.106 1.053 -0 -1.2 0
8.138 -3.103 1.037 -0 -1.2 0
8.883 -3.453 1.063 -0 -1.2 0
10.233 -4.006 1.11 -0 -1.2 0
7.696 -3.421 1.032 -0 -1.2 0
9.83 -4.262 1.106 -0 -1.2 0
6.637 -3.348 1.004 -0 -1.2 0
9.779 -4.624 1.114 -0 -1.2 0
3.149 -2.264 0.89 -0 -1.2 0
5.454 -3.259 0.972 -0 -1.2 0
7.18 -4.103 1.036 -0 -1.2 0
3.659 -2.678 0.913 -0 -1.2 0
9.434 -5.453 1.124 -0 -1.2 0
8.396 -5.146 1.09 -0 -1.2 0
8.858 -5.562 1.112 -0 -1.2 0
9.211 -5.945 1.13 -0 -1.2 0
4.582 -3.579 0.957 -0 -1.2 0
8.855 -6.155 1.126 -0 -1.2 0
7.831 -5.744 1.09 -0 -1.2 0
3.98 -3.518 0.941 -0 -1.2 0
3.937 -3.585 0.941 -0 -1.2 0
5.822 -4.955 1.021 -0 -1.2 0
3.218 -3.275 0.916 -0 -1.2 0
3.785 -3.77 0.942 -0 -1.2 0
7.956 -7.021 1.122 -0 -1.2 0
2.941 -3.311 0.91 -0 -1.2 0
4.283 -4.482 0.97 -0 -1.2 0
7.237 -7.089 1.106 -0 -1.2 0
3.62 -4.153 0.947 -0 -1.2 0
7.551 -7.809 1.131 -0 -1.2 0
8.454 -8.893 1.178 -0 -1.2 0
4.977 -5.806 1.018 -0 -1.2 0
1.183 -0.007 -0.808 -0 -1.2 0
1.209 -0.018 -0.809 -0 -1.2 0
1.257 -0.01 -0.812 -0 -1.2 0
1.29 -0.016 -0.813 -0 -1.2 0
1.331 -0.018 -0.815 -0 -1.2 0
1.38 -0.013 -0.817 -0 -1.2 0
1.43 -0.009 -0.82 -0 -1.2 0
1.472 -0.014 -0.821 -0 -1.2 0
1.515 -0.019 -0.823 -0 -1.2 0
1.574 -0.014 -0.827 -0 -1.2 0
1.625 -0.017 -0.828 -0 -1.2 0
1.693 -0.009 -0.832 -0 -1.2 0
1.745 -0.015 -0.835 -0 -1.2 0
1.814 -0.011 -0.837 -0 -1.2 0
1.867 -0.019 -0.84 -0 -1.2 0
1.937 -0.02 -0.843 -0 -1.2 0
2.026 -0.012 -0.848 -0 -1.2 0
2.088 -0.021 -0.851 -0 -1.2 0
2.177 -0.019 -0.855 -0 -1.2 0
2.285 -0.01 -0.861 -0 -1.2 0
2.394 -0.005 -0.865 -0 -1.2 0
2.504 -0.003 -0.87 -0 -1.2 0
2.614 -0.005 -0.876 -0 -1.2 0
2.725 -0.01 -0.881 -0 -1.2 0
2.791 -0.037 -0.884 -0 -1.2 0
2.874 -0.059 -0.887 -0 -1.2 0
2.948 -0.087 -0.89 -0 -1.2 0
3.117 -0.086 -0.898 -0 -1.2 0
3.23 -0.108 -0.903 -0 -1.2 0
3.399 -0.116 -0.911 -0 -1.2 0
3.589 -0.125 -0.92 -0 -1.2 0
3.79 -0.137 -0.929 -0 -1.2 0
3.99 -0.157 -0.939 -0 -1.2 0
4.191 -0.182 -0.947 -0 -1.2 0
4.393 -0.215 -0.957 -0 -1.2 0
4.741 -0.226 -0.973 -0 -1.2 0
5.14 -0.241 -0.992 -0 -1.2 0
5.678 -0.248 -1.017 -0 -1.2 0
6.227 -0.271 -1.042 -0 -1.2 0
6.974 -0.291 -1.078 -0 -1.2 0
7.852 -0.324 -1.119 -0 -1.2 0
8.879 -0.373 -1.167 -0 -1.2 0
10.167 -0.441 -1.227 -0 -1.2 0
12.671 -0.496 -1.345 -0 -1.2 0
14.737 -0.651 -1.44 -0 -1.2 0
14.732 -0.906 -1.436 -0 -1.2 0
14.724 -1.161 -1.431 -0 -1.2 0
14.742 -1.417 -1.428 -0 -1.2 0
14.753 -1.673 -1.424 -0 -1.2 0
14.752 -1.93 -1.421 -0 -1.2 0
14.736 -2.185 -1.416 -0 -1.2 0
14.745 -2.443 -1.412 -0 -1.2 0
14.75 -2.702 -1.408 -0 -1.2 0
14.739 -2.96 -1.403 -0 -1.2 0
14.744 -3.221 -1.4 -0 -1.2 0
14.745 -3.482 -1.395 -0 -1.2 0
14.741 -3.745 -1.391 -0 -1.2 0
14.742 -4.01 -1.387 -0 -1.2 0
10.403 -3.336 -1.192 -0 -1.2 0
6.443 -2.595 -1.016 -0 -1.2 0
4.779 -2.292 -0.942 -0 -1.2 0
4.796 -2.383 -0.942 -0 -1.2 0
4.812 -2.476 -0.941 -0 -1.2 0
4.921 -2.6 -0.945 -0 -1.2 0
12.279 -5.113 -1.253 -0 -1.2 0
5.564 -3.01 -0.969 -0 -1.2 0
12.891 -5.815 -1.271 -0 -1.2 0
9.491 -4.751 -1.127 -0 -1.2 0
11.665 -5.829 -1.213 -0 -1.2 0
4.409 -2.953 -0.914 -0 -1.2 0
3.237 -2.515 -0.866 -0 -1.2 0
14.694 -7.976 -1.322 -0 -1.2 0
5.481 -3.754 -0.953 -0 -1.2 0
9.54 -5.959 -1.11 -0 -1.2 0
10.749 -6.817 -1.154 -0 -1.2 0
4.839 -3.754 -0.922 -0 -1.2 0
6.295 -4.71 -0.976 -0 -1.2 0
6.042 -4.704 -0.964 -0 -1.2 0
4.55 -3.907 -0.906 -0 -1.2 0
3.932 -3.611 -0.882 -0 -1.2 0
8.674 -6.932 -1.054 -0 -1.2 0
6.325 -5.496 -0.965 -0 -1.2 0
5.168 -4.812 -0.921 -0 -1.2 0
5.524 -5.22 -0.932 -0 -1.2 0
4.494 -4.559 -0.893 -0 -1.2 0
3.356 -3.757 -0.852 -0 -1.2 0
3.271 -3.782 -0.847 -0 -1.2 0
5.111 -5.489 -0.908 -0 -1.2 0
7.982 -8.249 -1 -0 -1.2 0
3.564 -4.353 -0.853 -0 -1.2 0
6.259 -7.09 -0.937 -0 -1.2 0
1.179 -0.006 -0.831 -0 -1.2 0
1.206 -0.017 -0.834 -0 -1.2 0
1.253 -0.009 -0.838 -0 -1.2 0
1.287 -0.015 -0.841 -0 -1.2 0
1.336 -0.009 -0.844 -0 -1.2 0
1.377 -0.012 -0.848 -0 -1.2 0
1.419 -0.014 -0.852 -0 -1.2 0
1.461 -0.019 -0.855 -0 -1.2 0
1.519 -0.012 -0.859 -0 -1.2 0
1.562 -0.019 -0.863 -0 -1.2 0
1.621 -0.015 -0.868 -0 -1.2 0
1.681 -0.014 -0.874 -0 -1.2 0
1.741 -0.014 -0.878 -0 -1.2 0
1.802 -0.015 -0.883 -0 -1.2 0
1.871 -0.013 -0.89 -0 -1.2 0
1.941 -0.014 -0.895 -0 -1.2 0
2.012 -0.016 -0.901 -0 -1.2 0
2.092 -0.016 -0.907 -0 -1.2 0
2.181 -0.014 -0.915 -0 -1.2 0
2.28 -0.009 -0.923 -0 -1.2 0
2.388 -0.004 -0.932 -0 -1.2 0
2.498 -0.002 -0.941 -0 -1.2 0
2.617 0 -0.951 -0 -1.2 0
2.718 -0.009 -0.959 -0 -1.2 0
2.784 -0.036 -0.964 -0 -1.2 0
2.876 -0.055 -0.972 -0 -1.2 0
2.951 -0.083 -0.978 -0 -1.2 0
3.081 -0.094 -0.988 -0 -1.2 0
3.25 -0.098 -1.002 -0 -1.2 0
3.41 -0.11 -1.015 -0 -1.2 0
3.591 -0.121 -1.03 -0 -1.2 0
3.81 -0.129 -1.048 -0 -1.2 0
4 -0.15 -1.063 -0 -1.2 0
4.143 -0.19 -1.075 -0 -1.2 0
4.392 -0.212 -1.095 -0 -1.2 0
4.652 -0.24 -1.117 -0 -1.2 0
4.99 -0.264 -1.144 -0 -1.2 0
5.665 -0.247 -1.2 -0 -1.2 0
6.211 -0.271 -1.245 -0 -1.2 0
6.908 -0.296 -1.303 -0 -1.2 0
7.823 -0.323 -1.378 -0 -1.2 0
8.809 -0.376 -1.459 -0 -1.2 0
10.183 -0.438 -1.573 -0 -1.2 0
12.572 -0.499 -1.769 -0 -1.2 0
14.693 -0.651 -1.943 -0 -1.2 0
14.698 -0.905 -1.939 -0 -1.2 0
14.69 -1.161 -1.935 -0 -1.2 0
14.707 -1.416 -1.933 -0 -1.2 0
14.73 -1.673 -1.93 -0 -1.2 0
14.719 -1.929 -1.925 -0 -1.2 0
14.713 -2.185 -1.921 -0 -1.2 0
14.712 -2.442 -1.917 -0 -1.2 0
14.717 -2.701 -1.913 -0 -1.2 0
14.707 -2.959 -1.907 -0 -1.2 0
14.711 -3.22 -1.904 -0 -1.2 0
14.712 -3.481 -1.9 -0 -1.2 0
14.698 -3.742 -1.895 -0 -1.2 0
4.863 -2.052 -1.105 -0 -1.2 0
4.827 -2.131 -1.101 -0 -1.2 0
4.799 -2.211 -1.097 -0 -1.2 0
4.721 -2.278 -1.09 -0 -1.2 0
6.422 -2.829 -1.222 -0 -1.2 0
6.917 -3.092 -1.26 -0 -1.2 0
5.786 -2.87 -1.169 -0 -1.2 0
4.288 -2.485 -1.05 -0 -1.2 0
4.094 -2.499 -1.034 -0 -1.2 0
14.67 -6.482 -1.849 -0 -1.2 0
8.03 -4.189 -1.335 -0 -1.2 0
3.36 -2.438 -0.975 -0 -1.2 0
3.264 -2.464 -0.966 -0 -1.2 0
9.542 -5.359 -1.441 -0 -1.2 0
6.625 -4.183 -1.217 -0 -1.2 0
5.148 -3.593 -1.105 -0 -1.2 0
7.259 -4.792 -1.261 -0 -1.2 0
5.911 -4.227 -1.157 -0 -1.2 0
4.733 -3.699 -1.068 -0 -1.2 0
9.618 -6.656 -1.427 -0 -1.2 0
4.606 -3.838 -1.056 -0 -1.2 0
3.976 -3.549 -1.008 -0 -1.2 0
18.788 -13.362 -2.083 -0 -1.2 0
5.058 -4.607 -1.081 -0 -1.2 0
8.305 -7.12 -1.311 -0 -1.2 0
3.679 -3.823 -0.979 -0 -1.2 0
3.693 -3.934 -0.978 -0 -1.2 0
3.543 -3.914 -0.966 -0 -1.2 0
4.751 -5.039 -1.049 -0 -1.2 0
4.952 -5.356 -1.06 -0 -1.2 0
3.71 -4.379 -0.973 -0 -1.2 0
4.61 -5.493 -1.03 -0 -1.2 0
1.174 -0.005 -0.861 -0 -1.2 0
1.207 -0.009 -0.865 -0 -1.2 0
1.247 -0.008 -0.871 -0 -1.2 0
1.303 0.005 -0.878 -0 -1.2 0
1.337 -0.002 -0.882 -0 -1.2 0
1.378 -0.004 -0.886 -0 -1.2 0
1.42 -0.007 -0.891 -0 -1.2 0
1.47 -0.006 -0.898 -0 -1.2 0
1.512 -0.011 -0.903 -0 -1.2 0
1.563 -0.012 -0.909 -0 -1.2 0
1.614 -0.015 -0.915 -0 -1.2 0
1.673 -0.013 -0.922 -0 -1.2 0
1.741 -0.007 -0.931 -0 -1.2 0
1.802 -0.009 -0.938 -0 -1.2 0
1.863 -0.012 -0.946 -0 -1.2 0
1.941 -0.008 -0.955 -0 -1.2 0
2.013 -0.01 -0.964 -0 -1.2 0
2.092 -0.01 -0.974 -0 -1.2 0
2.181 -0.008 -0.984 -0 -1.2 0
2.288 0 -0.998 -0 -1.2 0
2.388 0 -1.01 -0 -1.2 0
2.497 0.002 -1.023 -0 -1.2 0
2.606 0 -1.037 -0 -1.2 0
2.707 -0.008 -1.048 -0 -1.2 0
2.79 -0.028 -1.059 -0 -1.2 0
2.865 -0.054 -1.067 -0 -1.2 0
2.966 -0.072 -1.08 -0 -1.2 0
3.059 -0.096 -1.091 -0 -1.2 0
3.255 -0.09 -1.114 -0 -1.2 0
3.416 -0.102 -1.134 -0 -1.2 0
3.595 -0.115 -1.156 -0 -1.2 0
3.784 -0.13 -1.179 -0 -1.2 0
3.965 -0.154 -1.2 -0 -1.2 0
4.183 -0.175 -1.227 -0 -1.2 0
4.413 -0.202 -1.255 -0 -1.2 0
4.643 -0.237 -1.282 -0 -1.2 0
4.843 -0.284 -1.306 -0 -1.2 0
4.985 -0.348 -1.322 -0 -1.2 0
6.256 -0.26 -1.479 -0 -1.2 0
6.841 -0.3 -1.549 -0 -1.2 0
7.773 -0.323 -1.664 -0 -1.2 0
8.833 -0.369 -1.792 -0 -1.2 0
10.222 -0.431 -1.961 -0 -1.2 0
12.7 -0.487 -2.263 -0 -1.2 0
14.664 -0.646 -2.501 -0 -1.2 0
14.661 -0.902 -2.496 -0 -1.2 0
14.663 -1.157 -2.493 -0 -1.2 0
14.68 -1.414 -2.491 -0 -1.2 0
14.692 -1.671 -2.489 -0 -1.2 0
14.691 -1.928 -2.485 -0 -1.2 0
14.685 -2.184 -2.481 -0 -1.2 0
14.694 -2.442 -2.477 -0 -1.2 0
14.679 -2.7 -2.472 -0 -1.2 0
14.689 -2.961 -2.469 -0 -1.2 0
14.674 -3.22 -2.463 -0 -1.2 0
14.685 -3.484 -2.461 -0 -1.2 0
4.821 -1.96 -1.278 -0 -1.2 0
4.805 -2.044 -1.275 -0 -1.2 0
4.857 -2.141 -1.28 -0 -1.2 0
10.118 -3.469 -1.903 -0 -1.2 0
6.407 -2.711 -1.46 -0 -1.2 0
6.043 -2.73 -1.415 -0 -1.2 0
6.682 -3.029 -1.489 -0 -1.2 0
6.979 -3.248 -1.522 -0 -1.2 0
5.215 -2.797 -1.314 -0 -1.2 0
4.52 -2.653 -1.23 -0 -1.2 0
14.635 -6.485 -2.41 -0 -1.2 0
3.426 -2.402 -1.1 -0 -1.2 0
4.553 -2.932 -1.23 -0 -1.2 0
9.963 -5.357 -1.856 -0 -1.2 0
9.661 -5.427 -1.817 -0 -1.2 0
6.215 -3.998 -1.417 -0 -1.2 0
5.985 -4.016 -1.389 -0 -1.2 0
4.91 -3.589 -1.264 -0 -1.2 0
15.382 -9.347 -2.457 -0 -1.2 0
7.475 -5.249 -1.552 -0 -1.2 0
4.62 -3.747 -1.226 -0 -1.2 0
4.199 -3.598 -1.177 -0 -1.2 0
5.257 -4.368 -1.295 -0 -1.2 0
4.834 -4.217 -1.246 -0 -1.2 0
4.87 -4.362 -1.247 -0 -1.2 0
3.889 -3.889 -1.134 -0 -1.2 0
4.545 -4.492 -1.206 -0 -1.2 0
5.478 -5.355 -1.307 -0 -1.2 0
4.742 -5.043 -1.222 -0 -1.2 0
5.871 -6.179 -1.343 -0 -1.2 0
3.794 -4.465 -1.114 -0 -1.2 0
4.547 -5.296 -1.194 -0 -1.2 0
1.167 -0.004 -0.887 -0 -1.2 0
1.207 -0.002 -0.894 -0 -1.2 0
1.255 0.006 -0.901 -0 -1.2 0
1.288 0 -0.907 -0 -1.2 0
1.337 0.004 -0.914 -0 -1.2 0
1.378 0.002 -0.921 -0 -1.2 0
1.42 0 -0.928 -0 -1.2 0
1.462 -0.005 -0.933 -0 -1.2 0
1.497 -0.016 -0.939 -0 -1.2 0
1.555 -0.012 -0.948 -0 -1.2 0
1.614 -0.008 -0.958 -0 -1.2 0
1.673 -0.006 -0.967 -0 -1.2 0
1.733 -0.006 -0.977 -0 -1.2 0
1.793 -0.008 -0.987 -0 -1.2 0
1.871 -0.001 -0.999 -0 -1.2 0
1.949 0.002 -1.011 -0 -1.2 0
2.019 0 -1.022 -0 -1.2 0
2.09 -0.004 -1.033 -0 -1.2 0
2.187 0.002 -1.049 -0 -1.2 0
2.276 0.001 -1.063 -0 -1.2 0
2.384 0.006 -1.081 -0 -1.2 0
2.502 0.011 -1.099 -0 -1.2 0
2.593 0.002 -1.113 -0 -1.2 0
2.711 0 -1.132 -0 -1.2 0
2.776 -0.027 -1.142 -0 -1.2 0
2.868 -0.045 -1.156 -0 -1.2 0
2.979 -0.06 -1.173 -0 -1.2 0
3.118 -0.069 -1.196 -0 -1.2 0
3.239 -0.089 -1.215 -0 -1.2 0
3.398 -0.101 -1.239 -0 -1.2 0
3.586 -0.11 -1.27 -0 -1.2 0
3.793 -0.121 -1.302 -0 -1.2 0
4.002 -0.138 -1.334 -0 -1.2 0
4.22 -0.161 -1.369 -0 -1.2 0
4.352 -0.209 -1.39 -0 -1.2 0
4.629 -0.233 -1.433 -0 -1.2 0
4.722 -0.299 -1.447 -0 -1.2 0
4.784 -0.374 -1.455 -0 -1.2 0
4.766 -0.46 -1.451 -0 -1.2 0
4.797 -0.54 -1.455 -0 -1.2 0
7.861 -0.308 -1.944 -0 -1.2 0
8.858 -0.36 -2.101 -0 -1.2 0
10.308 -0.418 -2.331 -0 -1.2 0
12.913 -0.469 -2.743 -0 -1.2 0
14.749 -0.637 -3.032 -0 -1.2 0
14.775 -0.894 -3.032 -0 -1.2 0
14.629 -1.152 -3.006 -0 -1.2 0
14.656 -1.41 -3.007 -0 -1.2 0
14.659 -1.667 -3.004 -0 -1.2 0
14.658 -1.924 -3 -0 -1.2 0
14.72 -2.187 -3.005 -0 -1.2 0
14.838 -2.457 -3.02 -0 -1.2 0
14.852 -2.722 -3.019 -0 -1.2 0
14.832 -2.983 -3.012 -0 -1.2 0
4.794 -1.788 -1.436 -0 -1.2 0
4.763 -1.868 -1.43 -0 -1.2 0
4.778 -1.955 -1.431 -0 -1.2 0
6.663 -2.417 -1.724 -0 -1.2 0
14.821 -4.32 -2.991 -0 -1.2 0
14.822 -4.592 -2.987 -0 -1.2 0
5.974 -2.605 -1.612 -0 -1.2 0
14.78 -5.133 -2.973 -0 -1.2 0
6.138 -2.876 -1.635 -0 -1.2 0
5.011 -2.639 -1.459 -0 -1.2 0
5.05 -2.748 -1.463 -0 -1.2 0
4.629 -2.697 -1.397 -0 -1.2 0
4.629 -2.787 -1.396 -0 -1.2 0
4.59 -2.862 -1.389 -0 -1.2 0
14.611 -7.086 -2.918 -0 -1.2 0
9.59 -5.212 -2.148 -0 -1.2 0
14.614 -7.692 -2.909 -0 -1.2 0
5.505 -3.672 -1.523 -0 -1.2 0
5.585 -3.829 -1.533 -0 -1.2 0
14.439 -8.546 -2.869 -0 -1.2 0
4.651 -3.567 -1.389 -0 -1.2 0
4.609 -3.647 -1.381 -0 -1.2 0
16.662 -10.838 -3.189 -0 -1.2 0
4.359 -3.706 -1.34 -0 -1.2 0
4.706 -4.031 -1.39 -0 -1.2 0
4.705 -4.144 -1.389 -0 -1.2 0
4.527 -4.371 -1.358 -0 -1.2 0
5.874 -5.687 -1.552 -0 -1.2 0
4.621 -4.821 -1.365 -0 -1.2 0
4.609 -4.945 -1.362 -0 -1.2 0
3.835 -4.399 -1.247 -0 -1.2 0
3.961 -4.632 -1.264 -0 -1.2 0
6.57 -7.231 -1.641 -0 -1.2 0
1.166 0.004 -0.913 -0 -1.2 0
1.206 0.006 -0.921 -0 -1.2 0
1.254 0.013 -0.93 -0 -1.2 0
1.287 0.007 -0.936 -0 -1.2 0
1.328 0.005 -0.944 -0 -1.2 0
1.369 0.003 -0.952 -0 -1.2 0
1.418 0.007 -0.962 -0 -1.2 0
1.453 -0.004 -0.969 -0 -1.2 0
1.509 0.002 -0.98 -0 -1.2 0
1.56 0.001 -0.99 -0 -1.2 0
1.618 0.004 -1.001 -0 -1.2 0
1.67 0 -1.011 -0 -1.2 0
1.73 0 -1.023 -0 -1.2 0
1.798 0.003 -1.036 -0 -1.2 0
1.866 0.004 -1.05 -0 -1.2 0
1.936 0.004 -1.063 -0 -1.2 0
2.006 0.002 -1.077 -0 -1.2 0
2.093 0.006 -1.094 -0 -1.2 0
2.173 0.003 -1.11 -0 -1.2 0
2.278 0.012 -1.13 -0 -1.2 0
2.386 0.016 -1.151 -0 -1.2 0
2.485 0.013 -1.171 -0 -1.2 0
2.602 0.016 -1.194 -0 -1.2 0
2.712 0.009 -1.214 -0 -1.2 0
2.776 -0.017 -1.227 -0 -1.2 0
2.85 -0.044 -1.241 -0 -1.2 0
2.951 -0.062 -1.261 -0 -1.2 0
3.098 -0.067 -1.288 -0 -1.2 0
3.246 -0.078 -1.317 -0 -1.2 0
3.404 -0.09 -1.348 -0 -1.2 0
3.592 -0.099 -1.385 -0 -1.2 0
3.807 -0.108 -1.427 -0 -1.2 0
3.986 -0.134 -1.461 -0 -1.2 0
4.232 -0.149 -1.509 -0 -1.2 0
4.43 -0.184 -1.548 -0 -1.2 0
4.648 -0.222 -1.589 -0 -1.2 0
4.652 -0.303 -1.589 -0 -1.2 0
4.666 -0.384 -1.59 -0 -1.2 0
4.678 -0.466 -1.592 -0 -1.2 0
4.66 -0.55 -1.587 -0 -1.2 0
4.678 -0.631 -1.59 -0 -1.2 0
4.676 -0.713 -1.588 -0 -1.2 0
4.683 -0.794 -1.588 -0 -1.2 0
4.677 -0.876 -1.586 -0 -1.2 0
4.681 -0.957 -1.586 -0 -1.2 0
4.683 -1.038 -1.585 -0 -1.2 0
4.683 -1.119 -1.584 -0 -1.2 0
4.683 -1.2 -1.583 -0 -1.2 0
4.681 -1.281 -1.581 -0 -1.2 0
4.677 -1.363 -1.579 -0 -1.2 0
4.673 -1.444 -1.578 -0 -1.2 0
4.676 -1.526 -1.577 -0 -1.2 0
4.678 -1.608 -1.576 -0 -1.2 0
4.679 -1.69 -1.575 -0 -1.2 0
4.658 -1.77 -1.57 -0 -1.2 0
4.666 -1.854 -1.57 -0 -1.2 0
4.681 -1.94 -1.572 -0 -1.2 0
4.667 -2.021 -1.569 -0 -1.2 0
4.67 -2.106 -1.568 -0 -1.2 0
4.672 -2.191 -1.567 -0 -1.2 0
4.662 -2.275 -1.564 -0 -1.2 0
4.652 -2.359 -1.561 -0 -1.2 0
4.648 -2.445 -1.559 -0 -1.2 0
4.643 -2.531 -1.557 -0 -1.2 0
4.628 -2.614 -1.553 -0 -1.2 0
4.658 -2.714 -1.557 -0 -1.2 0
4.611 -2.787 -1.547 -0 -1.2 0
3.913 -2.604 -1.413 -0 -1.2 0
4.642 -2.984 -1.551 -0 -1.2 0
2.423 -2.113 -1.129 -0 -1.2 0
4.62 -3.164 -1.544 -0 -1.2 0
4.602 -3.252 -1.539 -0 -1.2 0
4.618 -3.358 -1.541 -0 -1.2 0
4.587 -3.443 -1.534 -0 -1.2 0
4.582 -3.541 -1.531 -0 -1.2 0
4.573 -3.64 -1.528 -0 -1.2 0
4.555 -3.733 -1.523 -0 -1.2 0
4.527 -3.823 -1.516 -0 -1.2 0
4.521 -3.927 -1.514 -0 -1.2 0
4.522 -4.038 -1.513 -0 -1.2 0
4.496 -4.132 -1.506 -0 -1.2 0
4.467 -4.226 -1.499 -0 -1.2 0
4.478 -4.35 -1.5 -0 -1.2 0
4.343 -4.367 -1.474 -0 -1.2 0
4.256 -4.418 -1.455 -0 -1.2 0
4.137 -4.439 -1.432 -0 -1.2 0
4.042 -4.479 -1.413 -0 -1.2 0
4.087 -4.64 -1.42 -0 -1.2 0
3.859 -4.556 -1.376 -0 -1.2 0
3.699 -4.526 -1.345 -0 -1.2 0
3.555 -4.505 -1.318 -0 -1.2 0
1.156 0.005 -0.941 -0 -1.2 0
1.203 0.014 -0.952 -0 -1.2 0
1.236 0.008 -0.96 -0 -1.2 0
1.283 0.015 -0.971 -0 -1.2 0
1.324 0.013 -0.98 -0 -1.2 0
1.357 0.004 -0.988 -0 -1.2 0
1.398 0.001 -0.998 -0 -1.2 0
1.455 0.009 -1.011 -0 -1.2 0
1.497 0.003 -1.021 -0 -1.2 0
1.554 0.008 -1.034 -0 -1.2 0
1.613 0.011 -1.048 -0 -1.2 0
1.663 0.007 -1.06 -0 -1.2 0
1.731 0.012 -1.076 -0 -1.2 0
1.79 0.01 -1.09 -0 -1.2 0
1.859 0.011 -1.106 -0 -1.2 0
1.927 0.01 -1.122 -0 -1.2 0
1.988 0.003 -1.137 -0 -1.2 0
2.084 0.012 -1.159 -0 -1.2 0
2.171 0.014 -1.179 -0 -1.2 0
2.268 0.017 -1.202 -0 -1.2 0
2.392 0.031 -1.231 -0 -1.2 0
2.491 0.028 -1.255 -0 -1.2 0
2.59 0.021 -1.278 -0 -1.2 0
2.698 0.015 -1.304 -0 -1.2 0
2.771 -0.008 -1.321 -0 -1.2 0
2.835 -0.038 -1.334 -0 -1.2 0
2.944 -0.053 -1.36 -0 -1.2 0
3.109 -0.053 -1.398 -0 -1.2 0
3.247 -0.066 -1.431 -0 -1.2 0
3.45 -0.065 -1.479 -0 -1.2 0
3.609 -0.085 -1.516 -0 -1.2 0
3.785 -0.104 -1.557 -0 -1.2 0
3.954 -0.131 -1.596 -0 -1.2 0
4.282 -0.127 -1.673 -0 -1.2 0
4.479 -0.163 -1.719 -0 -1.2 0
4.61 -0.219 -1.749 -0 -1.2 0
4.682 -0.289 -1.765 -0 -1.2 0
4.715 -0.368 -1.771 -0 -1.2 0
4.707 -0.454 -1.769 -0 -1.2 0
4.728 -0.535 -1.773 -0 -1.2 0
4.727 -0.619 -1.771 -0 -1.2 0
4.726 -0.702 -1.769 -0 -1.2 0
4.722 -0.786 -1.768 -0 -1.2 0
4.718 -0.869 -1.766 -0 -1.2 0
4.711 -0.953 -1.763 -0 -1.2 0
4.703 -1.035 -1.76 -0 -1.2 0
4.704 -1.117 -1.76 -0 -1.2 0
4.694 -1.199 -1.756 -0 -1.2 0
4.702 -1.282 -1.757 -0 -1.2 0
4.698 -1.364 -1.754 -0 -1.2 0
4.694 -1.446 -1.753 -0 -1.2 0
4.697 -1.529 -1.752 -0 -1.2 0
4.699 -1.612 -1.752 -0 -1.2 0
4.699 -1.696 -1.751 -0 -1.2 0
4.67 -1.774 -1.743 -0 -1.2 0
4.658 -1.857 -1.739 -0 -1.2 0
4.664 -1.941 -1.739 -0 -1.2 0
4.659 -2.024 -1.737 -0 -1.2 0
4.642 -2.106 -1.732 -0 -1.2 0
4.569 -2.174 -1.714 -0 -1.2 0
4.634 -2.275 -1.728 -0 -1.2 0
4.643 -2.364 -1.728 -0 -1.2 0
4.602 -2.439 -1.718 -0 -1.2 0
4.561 -2.514 -1.707 -0 -1.2 0
4.545 -2.596 -1.703 -0 -1.2 0
4.639 -2.718 -1.723 -0 -1.2 0
4.648 -2.813 -1.724 -0 -1.2 0
4.637 -2.901 -1.721 -0 -1.2 0
2.484 -2.097 -1.226 -0 -1.2 0
4.627 -3.085 -1.716 -0 -1.2 0
4.638 -3.187 -1.717 -0 -1.2 0
4.628 -3.28 -1.713 -0 -1.2 0
4.617 -3.374 -1.709 -0 -1.2 0
4.543 -3.435 -1.692 -0 -1.2 0
4.53 -3.529 -1.687 -0 -1.2 0
4.504 -3.618 -1.68 -0 -1.2 0
4.546 -3.746 -1.688 -0 -1.2 0
3.515 -3.215 -1.453 -0 -1.2 0
4.479 -3.919 -1.669 -0 -1.2 0
4.496 -4.04 -1.672 -0 -1.2 0
4.494 -4.152 -1.67 -0 -1.2 0
4.474 -4.254 -1.664 -0 -1.2 0
4.451 -4.355 -1.657 -0 -1.2 0
4.442 -4.468 -1.654 -0 -1.2 0
4.423 -4.575 -1.648 -0 -1.2 0
4.333 -4.627 -1.627 -0 -1.2 0
4.423 -4.831 -1.645 -0 -1.2 0
4.389 -4.934 -1.635 -0 -1.2 0
4.388 -5.07 -1.633 -0 -1.2 0
4.377 -5.201 -1.629 -0 -1.2 0
4.364 -5.332 -1.625 -0 -1.2 0
1.152 0.013 -0.968 -0 -1.2 0
1.199 0.022 -0.98 -0 -1.2 0
1.231 0.015 -0.989 -0 -1.2 0
1.264 0.009 -0.998 -0 -1.2 0
1.311 0.015 -1.011 -0 -1.2 0
1.345 0.005 -1.02 -0 -1.2 0
1.4 0.015 -1.035 -0 -1.2 0
1.449 0.017 -1.049 -0 -1.2 0
1.491 0.011 -1.06 -0 -1.2 0
1.548 0.015 -1.076 -0 -1.2 0
1.606 0.018 -1.091 -0 -1.2 0
1.656 0.014 -1.105 -0 -1.2 0
1.715 0.013 -1.121 -0 -1.2 0
1.782 0.016 -1.139 -0 -1.2 0
1.85 0.018 -1.158 -0 -1.2 0
1.918 0.016 -1.177 -0 -1.2 0
1.996 0.019 -1.197 -0 -1.2 0
2.074 0.018 -1.218 -0 -1.2 0
2.161 0.02 -1.242 -0 -1.2 0
2.256 0.023 -1.269 -0 -1.2 0
2.361 0.028 -1.297 -0 -1.2 0
2.477 0.034 -1.328 -0 -1.2 0
2.584 0.03 -1.358 -0 -1.2 0
2.691 0.025 -1.387 -0 -1.2 0
2.773 0.003 -1.409 -0 -1.2 0
2.827 -0.03 -1.424 -0 -1.2 0
2.945 -0.041 -1.455 -0 -1.2 0
3.099 -0.044 -1.497 -0 -1.2 0
3.264 -0.05 -1.542 -0 -1.2 0
3.447 -0.055 -1.592 -0 -1.2 0
3.65 -0.06 -1.647 -0 -1.2 0
3.779 -0.093 -1.682 -0 -1.2 0
3.983 -0.112 -1.737 -0 -1.2 0
4.281 -0.115 -1.819 -0 -1.2 0
4.467 -0.154 -1.869 -0 -1.2 0
4.701 -0.189 -1.932 -0 -1.2 0
5.295 -0.167 -2.094 -0 -1.2 0
5.94 -0.16 -2.27 -0 -1.2 0
6.538 -0.181 -2.432 -0 -1.2 0
7.107 -0.228 -2.588 -0 -1.2 0
8.023 -0.258 -2.837 -0 -1.2 0
9.123 -0.305 -3.135 -0 -1.2 0
11.099 -0.33 -3.673 -0 -1.2 0
14.098 -0.372 -4.49 -0 -1.2 0
14.514 -0.611 -4.6 -0 -1.2 0
14.521 -0.871 -4.599 -0 -1.2 0
14.514 -1.131 -4.594 -0 -1.2 0
14.54 -1.393 -4.598 -0 -1.2 0
14.534 -1.653 -4.593 -0 -1.2 0
14.534 -1.915 -4.589 -0 -1.2 0
14.538 -2.177 -4.587 -0 -1.2 0
14.538 -2.439 -4.584 -0 -1.2 0
14.533 -2.702 -4.579 -0 -1.2 0
7.542 -2.064 -2.683 -0 -1.2 0
7.132 -2.141 -2.57 -0 -1.2 0
14.54 -3.5 -4.571 -0 -1.2 0
6.724 -2.326 -2.457 -0 -1.2 0
14.538 -4.037 -4.564 -0 -1.2 0
14.534 -4.308 -4.559 -0 -1.2 0
4.858 -2.25 -1.949 -0 -1.2 0
4.895 -2.35 -1.958 -0 -1.2 0
4.267 -2.267 -1.788 -0 -1.2 0
4.172 -2.32 -1.761 -0 -1.2 0
3.986 -2.34 -1.71 -0 -1.2 0
4.708 -2.662 -1.903 -0 -1.2 0
4.527 -2.689 -1.853 -0 -1.2 0
4.463 -2.755 -1.835 -0 -1.2 0
2.533 -2.074 -1.318 -0 -1.2 0
4.844 -3.095 -1.935 -0 -1.2 0
4.063 -2.851 -1.725 -0 -1.2 0
4.863 -3.306 -1.937 -0 -1.2 0
4.869 -3.413 -1.938 -0 -1.2 0
4.873 -3.521 -1.937 -0 -1.2 0
4.892 -3.638 -1.941 -0 -1.2 0
5.429 -4.045 -2.082 -0 -1.2 0
5.227 -4.053 -2.027 -0 -1.2 0
3.756 -3.292 -1.636 -0 -1.2 0
6.69 -5.211 -2.411 -0 -1.2 0
5.391 -4.532 -2.065 -0 -1.2 0
3.551 -3.426 -1.578 -0 -1.2 0
4.232 -3.992 -1.756 -0 -1.2 0
5.205 -4.808 -2.011 -0 -1.2 0
5.377 -5.375 -2.051 -0 -1.2 0
4.373 -4.688 -1.787 -0 -1.2 0
4.319 -4.77 -1.771 -0 -1.2 0
5.482 -5.95 -2.073 -0 -1.2 0
4.281 -5 -1.757 -0 -1.2 0
4.221 -5.081 -1.74 -0 -1.2 0
4.064 -5.065 -1.697 -0 -1.2 0
1.147 0.021 -0.995 -0 -1.2 0
1.186 0.023 -1.007 -0 -1.2 0
1.211 0.01 -1.015 -0 -1.2 0
1.265 0.023 -1.031 -0 -1.2 0
1.305 0.022 -1.043 -0 -1.2 0
1.338 0.014 -1.054 -0 -1.2 0
1.393 0.023 -1.072 -0 -1.2 0
1.434 0.018 -1.084 -0 -1.2 0
1.482 0.018 -1.099 -0 -1.2 0
1.532 0.017 -1.114 -0 -1.2 0
1.581 0.014 -1.129 -0 -1.2 0
1.646 0.021 -1.15 -0 -1.2 0
1.704 0.021 -1.168 -0 -1.2 0
1.762 0.018 -1.186 -0 -1.2 0
1.83 0.02 -1.208 -0 -1.2 0
1.897 0.018 -1.229 -0 -1.2 0
1.974 0.021 -1.252 -0 -1.2 0
2.059 0.025 -1.28 -0 -1.2 0
2.146 0.026 -1.306 -0 -1.2 0
2.24 0.03 -1.335 -0 -1.2 0
2.353 0.039 -1.371 -0 -1.2 0
2.459 0.04 -1.404 -0 -1.2 0
2.565 0.037 -1.437 -0 -1.2 0
2.68 0.035 -1.473 -0 -1.2 0
2.752 0.01 -1.496 -0 -1.2 0
2.833 -0.013 -1.52 -0 -1.2 0
2.904 -0.043 -1.542 -0 -1.2 0
3.066 -0.042 -1.593 -0 -1.2 0
3.247 -0.041 -1.649 -0 -1.2 0
3.411 -0.052 -1.7 -0 -1.2 0
3.584 -0.066 -1.754 -0 -1.2 0
3.785 -0.077 -1.816 -0 -1.2 0
3.968 -0.101 -1.873 -0 -1.2 0
4.217 -0.117 -1.951 -0 -1.2 0
4.485 -0.136 -2.034 -0 -1.2 0
4.772 -0.161 -2.123 -0 -1.2 0
5.418 -0.131 -2.325 -0 -1.2 0
5.942 -0.144 -2.488 -0 -1.2 0
6.515 -0.17 -2.667 -0 -1.2 0
7.165 -0.206 -2.869 -0 -1.2 0
7.948 -0.252 -3.112 -0 -1.2 0
9.178 -0.285 -3.496 -0 -1.2 0
11.077 -0.315 -4.087 -0 -1.2 0
14.454 -0.334 -5.141 -0 -1.2 0
14.456 -0.597 -5.138 -0 -1.2 0
14.463 -0.859 -5.138 -0 -1.2 0
14.466 -1.121 -5.135 -0 -1.2 0
14.503 -1.385 -5.144 -0 -1.2 0
14.497 -1.648 -5.139 -0 -1.2 0
14.477 -1.91 -5.129 -0 -1.2 0
14.491 -2.175 -5.131 -0 -1.2 0
14.5 -2.44 -5.13 -0 -1.2 0
14.495 -2.705 -5.126 -0 -1.2 0
14.496 -2.971 -5.123 -0 -1.2 0
14.492 -3.238 -5.118 -0 -1.2 0
6.852 -2.231 -2.747 -0 -1.2 0
6.757 -2.341 -2.716 -0 -1.2 0
6.362 -2.384 -2.592 -0 -1.2 0
14.487 -4.32 -5.104 -0 -1.2 0
5.85 -2.499 -2.432 -0 -1.2 0
5.169 -2.432 -2.22 -0 -1.2 0
4.233 -2.267 -1.93 -0 -1.2 0
4.01 -2.281 -1.86 -0 -1.2 0
5.306 -2.775 -2.258 -0 -1.2 0
5.642 -2.993 -2.361 -0 -1.2 0
5.682 -3.12 -2.372 -0 -1.2 0
6.86 -3.684 -2.733 -0 -1.2 0
2.588 -2.104 -1.419 -0 -1.2 0
4.06 -2.78 -1.87 -0 -1.2 0
3.864 -2.777 -1.808 -0 -1.2 0
4.997 -3.388 -2.154 -0 -1.2 0
14.124 -7.958 -4.947 -0 -1.2 0
14.283 -8.353 -4.992 -0 -1.2 0
4.945 -3.689 -2.135 -0 -1.2 0
2.219 -2.282 -1.301 -0 -1.2 0
4.899 -3.889 -2.118 -0 -1.2 0
2.103 -2.313 -1.265 -0 -1.2 0
2.059 -2.333 -1.251 -0 -1.2 0
2.013 -2.352 -1.237 -0 -1.2 0
4.719 -4.242 -2.058 -0 -1.2 0
2.479 -2.779 -1.376 -0 -1.2 0
2.434 -2.811 -1.362 -0 -1.2 0
4.302 -4.295 -1.927 -0 -1.2 0
5.074 -5.314 -2.156 -0 -1.2 0
4.238 -4.862 -1.9 -0 -1.2 0
5.107 -5.814 -2.16 -0 -1.2 0
4.859 -5.741 -2.083 -0 -1.2 0
4.101 -5.139 -1.854 -0 -1.2 0
1.125 0.016 -1.021 -0 -1.2 0
1.163 0.017 -1.034 -0 -1.2 0
1.202 0.018 -1.047 -0 -1.2 0
1.248 0.025 -1.064 -0 -1.2 0
1.28 0.017 -1.076 -0 -1.2 0
1.327 0.021 -1.092 -0 -1.2 0
1.374 0.024 -1.109 -0 -1.2 0
1.414 0.02 -1.123 -0 -1.2 0
1.462 0.02 -1.141 -0 -1.2 0
1.518 0.025 -1.16 -0 -1.2 0
1.567 0.021 -1.177 -0 -1.2 0
1.624 0.022 -1.197 -0 -1.2 0
1.682 0.022 -1.218 -0 -1.2 0
1.748 0.026 -1.241 -0 -1.2 0
1.806 0.022 -1.262 -0 -1.2 0
1.881 0.025 -1.289 -0 -1.2 0
1.948 0.022 -1.312 -0 -1.2 0
2.032 0.027 -1.343 -0 -1.2 0
2.117 0.028 -1.372 -0 -1.2 0
2.22 0.036 -1.409 -0 -1.2 0
2.322 0.041 -1.445 -0 -1.2 0
2.435 0.046 -1.486 -0 -1.2 0
2.54 0.042 -1.523 -0 -1.2 0
2.663 0.045 -1.566 -0 -1.2 0
2.742 0.023 -1.595 -0 -1.2 0
2.805 -0.007 -1.617 -0 -1.2 0
2.902 -0.027 -1.65 -0 -1.2 0
3.063 -0.027 -1.707 -0 -1.2 0
3.151 -0.057 -1.738 -0 -1.2 0
3.384 -0.044 -1.822 -0 -1.2 0
3.592 -0.047 -1.895 -0 -1.2 0
3.745 -0.073 -1.949 -0 -1.2 0
3.926 -0.097 -2.013 -0 -1.2 0
4.227 -0.099 -2.12 -0 -1.2 0
4.511 -0.115 -2.22 -0 -1.2 0
4.831 -0.134 -2.334 -0 -1.2 0
5.385 -0.122 -2.531 -0 -1.2 0
5.986 -0.122 -2.744 -0 -1.2 0
6.515 -0.155 -2.932 -0 -1.2 0
7.139 -0.195 -3.152 -0 -1.2 0
7.996 -0.233 -3.456 -0 -1.2 0
9.286 -0.261 -3.913 -0 -1.2 0
11.076 -0.302 -4.548 -0 -1.2 0
14.494 -0.319 -5.761 -0 -1.2 0
14.468 -0.586 -5.749 -0 -1.2 0
14.448 -0.853 -5.738 -0 -1.2 0
14.394 -1.118 -5.717 -0 -1.2 0
14.43 -1.383 -5.726 -0 -1.2 0
14.434 -1.649 -5.724 -0 -1.2 0
14.395 -1.912 -5.707 -0 -1.2 0
14.606 -2.193 -5.779 -0 -1.2 0
14.616 -2.464 -5.779 -0 -1.2 0
14.611 -2.735 -5.774 -0 -1.2 0
14.611 -3.007 -5.771 -0 -1.2 0
14.598 -3.277 -5.762 -0 -1.2 0
14.616 -3.555 -5.766 -0 -1.2 0
14.611 -3.83 -5.76 -0 -1.2 0
14.621 -4.11 -5.761 -0 -1.2 0
6.379 -2.523 -2.855 -0 -1.2 0
5.988 -2.549 -2.715 -0 -1.2 0
4.16 -2.179 -2.071 -0 -1.2 0
4.863 -2.459 -2.317 -0 -1.2 0
3.869 -2.251 -1.967 -0 -1.2 0
3.589 -2.235 -1.868 -0 -1.2 0
5.705 -3.037 -2.609 -0 -1.2 0
6.244 -3.35 -2.796 -0 -1.2 0
2.607 -2.071 -1.521 -0 -1.2 0
2.521 -2.088 -1.49 -0 -1.2 0
2.469 -2.117 -1.472 -0 -1.2 0
2.444 -2.158 -1.462 -0 -1.2 0
2.357 -2.168 -1.431 -0 -1.2 0
2.297 -2.188 -1.409 -0 -1.2 0
2.262 -2.22 -1.397 -0 -1.2 0
2.193 -2.232 -1.372 -0 -1.2 0
16.027 -10.085 -6.186 -0 -1.2 0
5.738 -4.416 -2.604 -0 -1.2 0
4.996 -4.098 -2.345 -0 -1.2 0
4.057 -3.621 -2.017 -0 -1.2 0
3.615 -3.428 -1.862 -0 -1.2 0
2.554 -2.789 -1.493 -0 -1.2 0
4.727 -4.408 -2.245 -0 -1.2 0
4.958 -4.705 -2.323 -0 -1.2 0
3.73 -3.893 -1.897 -0 -1.2 0
3.238 -3.604 -1.726 -0 -1.2 0
4.976 -5.134 -2.325 -0 -1.2 0
4.821 -5.148 -2.269 -0 -1.2 0
4.949 -5.409 -2.311 -0 -1.2 0
4.728 -5.359 -2.234 -0 -1.2 0
4.187 -4.995 -2.046 -0 -1.2 0
4.172 -5.118 -2.04 -0 -1.2 0
1.111 0.012 -1.041 -0 -1.2 0
1.149 0.014 -1.055 -0 -1.2 0
1.188 0.014 -1.07 -0 -1.2 0
1.226 0.015 -1.086 -0 -1.2 0
1.272 0.02 -1.104 -0 -1.2 0
1.311 0.017 -1.119 -0 -1.2 0
1.364 0.026 -1.14 -0 -1.2 0
1.404 0.022 -1.156 -0 -1.2 0
1.452 0.021 -1.175 -0 -1.2 0
1.5 0.02 -1.194 -0 -1.2 0
1.556 0.023 -1.216 -0 -1.2 0
1.604 0.018 -1.235 -0 -1.2 0
1.661 0.018 -1.257 -0 -1.2 0
1.726 0.021 -1.283 -0 -1.2 0
1.776 0.01 -1.302 -0 -1.2 0
1.85 0.015 -1.331 -0 -1.2 0
1.925 0.017 -1.36 -0 -1.2 0
2.007 0.021 -1.394 -0 -1.2 0
2.091 0.022 -1.426 -0 -1.2 0
2.192 0.03 -1.467 -0 -1.2 0
2.294 0.034 -1.506 -0 -1.2 0
2.406 0.039 -1.551 -0 -1.2 0
2.508 0.036 -1.591 -0 -1.2 0
2.621 0.033 -1.635 -0 -1.2 0
2.709 0.016 -1.669 -0 -1.2 0
2.796 -0.004 -1.703 -0 -1.2 0
2.875 -0.031 -1.734 -0 -1.2 0
3.024 -0.035 -1.792 -0 -1.2 0
3.192 -0.038 -1.858 -0 -1.2 0
3.343 -0.053 -1.918 -0 -1.2 0
3.538 -0.06 -1.994 -0 -1.2 0
3.708 -0.08 -2.061 -0 -1.2 0
3.923 -0.096 -2.145 -0 -1.2 0
4.193 -0.106 -2.251 -0 -1.2 0
4.49 -0.119 -2.368 -0 -1.2 0
4.945 -0.111 -2.547 -0 -1.2 0
5.41 -0.119 -2.729 -0 -1.2 0
5.931 -0.134 -2.933 -0 -1.2 0
6.426 -0.172 -3.127 -0 -1.2 0
7.105 -0.206 -3.394 -0 -1.2 0
7.999 -0.241 -3.745 -0 -1.2 0
9.263 -0.276 -4.242 -0 -1.2 0
11.132 -0.315 -4.976 -0 -1.2 0
14.527 -0.343 -6.31 -0 -1.2 0
14.511 -0.614 -6.3 -0 -1.2 0
14.406 -0.886 -6.254 -0 -1.2 0
14.363 -1.153 -6.234 -0 -1.2 0
14.389 -1.421 -6.24 -0 -1.2 0
14.383 -1.689 -6.234 -0 -1.2 0
14.392 -1.958 -6.233 -0 -1.2 0
14.581 -2.241 -6.304 -0 -1.2 0
14.571 -2.513 -6.295 -0 -1.2 0
14.566 -2.787 -6.289 -0 -1.2 0
14.575 -3.062 -6.288 -0 -1.2 0
14.57 -3.337 -6.282 -0 -1.2 0
14.588 -3.617 -6.285 -0 -1.2 0
14.583 -3.895 -6.28 -0 -1.2 0
6.211 -2.4 -3.01 -0 -1.2 0
6.353 -2.553 -3.063 -0 -1.2 0
4.143 -2.119 -2.201 -0 -1.2 0
14.562 -5.025 -6.254 -0 -1.2 0
4.864 -2.49 -2.479 -0 -1.2 0
5.029 -2.638 -2.541 -0 -1.2 0
3.49 -2.228 -1.942 -0 -1.2 0
3.02 -2.132 -1.759 -0 -1.2 0
2.87 -2.136 -1.7 -0 -1.2 0
6.547 -3.644 -3.123 -0 -1.2 0
2.575 -2.131 -1.584 -0 -1.2 0
2.42 -2.117 -1.524 -0 -1.2 0
2.378 -2.148 -1.506 -0 -1.2 0
3.756 -2.862 -2.038 -0 -1.2 0
3.592 -2.862 -1.974 -0 -1.2 0
3.455 -2.869 -1.919 -0 -1.2 0
3.102 -2.754 -1.783 -0 -1.2 0
2.096 -2.248 -1.394 -0 -1.2 0
16.813 -11.1 -7.049 -0 -1.2 0
17.626 -12.018 -7.355 -0 -1.2 0
18.47 -13.006 -7.672 -0 -1.2 0
2.658 -2.825 -1.606 -0 -1.2 0
3.623 -3.568 -1.975 -0 -1.2 0
4.688 -4.436 -2.381 -0 -1.2 0
3.442 -3.622 -1.903 -0 -1.2 0
6.07 -5.774 -2.904 -0 -1.2 0
3.828 -4.126 -2.047 -0 -1.2 0
3.749 -4.171 -2.015 -0 -1.2 0
3.504 -4.067 -1.921 -0 -1.2 0
3.513 -4.182 -1.922 -0 -1.2 0
4.567 -5.279 -2.321 -0 -1.2 0
4.88 -5.73 -2.437 -0 -1.2 0
2.916 -3.923 -1.692 -0 -1.2 0
3.823 -4.966 -2.032 -0 -1.2 0
1.103 0.015 -1.062 -0 -1.2 0
1.147 0.024 -1.082 -0 -1.2 0
1.178 0.017 -1.096 -0 -1.2 0
1.216 0.017 -1.112 -0 -1.2 0
1.255 0.015 -1.128 -0 -1.2 0
1.294 0.013 -1.145 -0 -1.2 0
1.333 0.009 -1.162 -0 -1.2 0
1.386 0.017 -1.185 -0 -1.2 0
1.432 0.017 -1.205 -0 -1.2 0
1.48 0.015 -1.225 -0 -1.2 0
1.535 0.018 -1.25 -0 -1.2 0
1.59 0.019 -1.274 -0 -1.2 0
1.646 0.017 -1.298 -0 -1.2 0
1.703 0.015 -1.322 -0 -1.2 0
1.76 0.011 -1.347 -0 -1.2 0
1.833 0.014 -1.378 -0 -1.2 0
1.906 0.016 -1.41 -0 -1.2 0
1.989 0.02 -1.446 -0 -1.2 0
2.055 0.012 -1.474 -0 -1.2 0
2.171 0.028 -1.524 -0 -1.2 0
2.263 0.027 -1.565 -0 -1.2 0
2.373 0.032 -1.612 -0 -1.2 0
2.483 0.032 -1.66 -0 -1.2 0
2.594 0.029 -1.707 -0 -1.2 0
2.68 0.011 -1.744 -0 -1.2 0
2.776 -0.005 -1.785 -0 -1.2 0
2.862 -0.03 -1.822 -0 -1.2 0
2.992 -0.04 -1.879 -0 -1.2 0
3.157 -0.044 -1.95 -0 -1.2 0
3.306 -0.059 -2.014 -0 -1.2 0
3.49 -0.07 -2.094 -0 -1.2 0
3.666 -0.089 -2.169 -0 -1.2 0
3.878 -0.105 -2.26 -0 -1.2 0
4.18 -0.106 -2.391 -0 -1.2 0
4.457 -0.126 -2.51 -0 -1.2 0
4.842 -0.133 -2.676 -0 -1.2 0
5.363 -0.129 -2.902 -0 -1.2 0
5.841 -0.153 -3.108 -0 -1.2 0
6.401 -0.182 -3.35 -0 -1.2 0
6.99 -0.228 -3.604 -0 -1.2 0
8.436 -0.205 -4.229 -0 -1.2 0
9.338 -0.284 -4.618 -0 -1.2 0
11.072 -0.34 -5.366 -0 -1.2 0
14.302 -0.385 -6.761 -0 -1.2 0
13.973 -0.666 -6.615 -0 -1.2 0
13.878 -0.93 -6.569 -0 -1.2 0
13.909 -1.192 -6.577 -0 -1.2 0
14.338 -1.466 -6.758 -0 -1.2 0
14.341 -1.736 -6.754 -0 -1.2 0
14.34 -2.008 -6.75 -0 -1.2 0
14.343 -2.279 -6.746 -0 -1.2 0
14.352 -2.552 -6.745 -0 -1.2 0
14.347 -2.825 -6.737 -0 -1.2 0
14.354 -3.1 -6.736 -0 -1.2 0
14.349 -3.375 -6.729 -0 -1.2 0
14.349 -3.652 -6.724 -0 -1.2 0
6.324 -2.339 -3.278 -0 -1.2 0
14.344 -4.21 -6.712 -0 -1.2 0
6.902 -2.722 -3.521 -0 -1.2 0
14.346 -4.775 -6.703 -0 -1.2 0
4.727 -2.39 -2.587 -0 -1.2 0
3.287 -2.055 -1.97 -0 -1.2 0
4.905 -2.635 -2.659 -0 -1.2 0
8.068 -3.807 -4.006 -0 -1.2 0
14.348 -6.234 -6.678 -0 -1.2 0
3.637 -2.453 -2.114 -0 -1.2 0
3.641 -2.53 -2.114 -0 -1.2 0
14.344 -7.147 -6.66 -0 -1.2 0
14.333 -7.454 -6.649 -0 -1.2 0
2.876 -2.405 -1.786 -0 -1.2 0
2.839 -2.448 -1.769 -0 -1.2 0
3.549 -2.876 -2.069 -0 -1.2 0
3.439 -2.898 -2.02 -0 -1.2 0
3.066 -2.768 -1.862 -0 -1.2 0
2.868 -2.724 -1.777 -0 -1.2 0
2.787 -2.742 -1.741 -0 -1.2 0
2.872 -2.863 -1.776 -0 -1.2 0
2.812 -2.894 -1.75 -0 -1.2 0
2.651 -2.854 -1.681 -0 -1.2 0
4.356 -4.138 -2.396 -0 -1.2 0
3.455 -3.587 -2.015 -0 -1.2 0
3.393 -3.632 -1.987 -0 -1.2 0
6.458 -6.17 -3.268 -0 -1.2 0
3.156 -3.628 -1.886 -0 -1.2 0
3.941 -4.392 -2.211 -0 -1.2 0
4.937 -5.396 -2.624 -0 -1.2 0
2.884 -3.662 -1.767 -0 -1.2 0
3.266 -4.117 -1.924 -0 -1.2 0
3.169 -4.129 -1.883 -0 -1.2 0
3.114 -4.18 -1.858 -0 -1.2 0
3.012 -4.18 -1.814 -0 -1.2 0
1.092 0.019 -1.088 -0 -1.2 0
1.122 0.013 -1.103 -0 -1.2 0
1.16 0.013 -1.12 -0 -1.2 0
1.197 0.013 -1.138 -0 -1.2 0
1.242 0.018 -1.159 -0 -1.2 0
1.28 0.015 -1.177 -0 -1.2 0
1.311 0.005 -1.192 -0 -1.2 0
1.371 0.018 -1.221 -0 -1.2 0
1.41 0.012 -1.239 -0 -1.2 0
1.457 0.01 -1.261 -0 -1.2 0
1.511 0.013 -1.287 -0 -1.2 0
1.566 0.013 -1.313 -0 -1.2 0
1.613 0.007 -1.335 -0 -1.2 0
1.684 0.015 -1.37 -0 -1.2 0
1.732 0.005 -1.393 -0 -1.2 0
1.812 0.013 -1.431 -0 -1.2 0
1.868 0.004 -1.457 -0 -1.2 0
1.949 0.008 -1.496 -0 -1.2 0
2.023 0.005 -1.531 -0 -1.2 0
2.128 0.016 -1.581 -0 -1.2 0
2.227 0.02 -1.628 -0 -1.2 0
2.335 0.024 -1.679 -0 -1.2 0
2.444 0.024 -1.732 -0 -1.2 0
2.561 0.024 -1.787 -0 -1.2 0
2.654 0.01 -1.832 -0 -1.2 0
2.732 -0.014 -1.867 -0 -1.2 0
2.833 -0.032 -1.915 -0 -1.2 0
2.944 -0.05 -1.968 -0 -1.2 0
3.098 -0.057 -2.041 -0 -1.2 0
3.261 -0.067 -2.118 -0 -1.2 0
3.425 -0.083 -2.196 -0 -1.2 0
3.651 -0.088 -2.303 -0 -1.2 0
3.825 -0.114 -2.385 -0 -1.2 0
4.087 -0.126 -2.509 -0 -1.2 0
4.438 -0.128 -2.677 -0 -1.2 0
4.817 -0.137 -2.857 -0 -1.2 0
5.312 -0.139 -3.093 -0 -1.2 0
5.801 -0.161 -3.324 -0 -1.2 0
6.271 -0.205 -3.547 -0 -1.2 0
6.833 -0.254 -3.813 -0 -1.2 0
8.381 -0.221 -4.55 -0 -1.2 0
9.232 -0.307 -4.953 -0 -1.2 0
11.055 -0.361 -5.819 -0 -1.2 0
14.251 -0.417 -7.338 -0 -1.2 0
13.909 -0.701 -7.17 -0 -1.2 0
13.754 -0.969 -7.09 -0 -1.2 0
13.819 -1.234 -7.116 -0 -1.2 0
14.295 -1.512 -7.337 -0 -1.2 0
14.29 -1.786 -7.328 -0 -1.2 0
14.287 -2.061 -7.322 -0 -1.2 0
14.3 -2.337 -7.321 -0 -1.2 0
14.289 -2.612 -7.311 -0 -1.2 0
14.293 -2.889 -7.307 -0 -1.2 0
14.3 -3.168 -7.305 -0 -1.2 0
6.352 -2.137 -3.546 -0 -1.2 0
6.185 -2.23 -3.465 -0 -1.2 0
14.288 -4.007 -7.282 -0 -1.2 0
6.981 -2.651 -3.834 -0 -1.2 0
14.289 -4.576 -7.271 -0 -1.2 0
4.739 -2.334 -2.775 -0 -1.2 0
4.597 -2.389 -2.706 -0 -1.2 0
4.733 -2.523 -2.768 -0 -1.2 0
7.681 -3.583 -4.148 -0 -1.2 0
7.78 -3.777 -4.192 -0 -1.2 0
3.572 -2.387 -2.218 -0 -1.2 0
6.319 -3.533 -3.501 -0 -1.2 0
6.594 -3.783 -3.627 -0 -1.2 0
14.285 -7.264 -7.213 -0 -1.2 0
14.289 -7.582 -7.209 -0 -1.2 0
4.383 -3.158 -2.588 -0 -1.2 0
5.391 -3.762 -3.055 -0 -1.2 0
4.391 -3.361 -2.588 -0 -1.2 0
4.177 -3.345 -2.486 -0 -1.2 0
3.36 -2.975 -2.106 -0 -1.2 0
4.95 -4.005 -2.841 -0 -1.2 0
5.157 -4.256 -2.935 -0 -1.2 0
18.008 -12.715 -8.873 -0 -1.2 0
2.61 -2.798 -1.753 -0 -1.2 0
2.522 -2.804 -1.71 -0 -1.2 0
4.578 -4.618 -2.652 -0 -1.2 0
3.214 -3.639 -2.023 -0 -1.2 0
3.832 -4.367 -2.301 -0 -1.2 0
2.916 -3.656 -1.881 -0 -1.2 0
4.828 -5.539 -2.751 -0 -1.2 0
3.156 -4.179 -1.984 -0 -1.2 0
5.665 -6.9 -3.122 -0 -1.2 0
4.371 -5.709 -2.53 -0 -1.2 0
1.068 0.008 -1.103 -0 -1.2 0
1.104 0.009 -1.122 -0 -1.2 0
1.141 0.009 -1.141 -0 -1.2 0
1.178 0.008 -1.16 -0 -1.2 0
1.222 0.014 -1.183 -0 -1.2 0
1.252 0.004 -1.199 -0 -1.2 0
1.297 0.006 -1.222 -0 -1.2 0
1.342 0.008 -1.245 -0 -1.2 0
1.38 0.001 -1.265 -0 -1.2 0
1.426 0 -1.288 -0 -1.2 0
1.486 0.008 -1.32 -0 -1.2 0
1.533 0.002 -1.344 -0 -1.2 0
1.587 0.001 -1.372 -0 -1.2 0
1.649 0.004 -1.404 -0 -1.2 0
1.704 0 -1.432 -0 -1.2 0
1.774 0.002 -1.469 -0 -1.2 0
1.845 0.003 -1.506 -0 -1.2 0
1.917 0.002 -1.543 -0 -1.2 0
1.989 -0.001 -1.58 -0 -1.2 0
2.078 0 -1.626 -0 -1.2 0
2.183 0.009 -1.68 -0 -1.2 0
2.289 0.012 -1.735 -0 -1.2 0
2.396 0.012 -1.79 -0 -1.2 0
2.511 0.013 -1.85 -0 -1.2 0
2.628 0.009 -1.91 -0 -1.2 0
2.704 -0.017 -1.949 -0 -1.2 0
2.779 -0.044 -1.987 -0 -1.2 0
2.888 -0.063 -2.043 -0 -1.2 0
3.04 -0.07 -2.122 -0 -1.2 0
3.217 -0.075 -2.212 -0 -1.2 0
3.387 -0.089 -2.3 -0 -1.2 0
3.583 -0.101 -2.402 -0 -1.2 0
3.798 -0.117 -2.512 -0 -1.2 0
4.038 -0.135 -2.635 -0 -1.2 0
4.392 -0.135 -2.819 -0 -1.2 0
4.791 -0.14 -3.025 -0 -1.2 0
5.217 -0.156 -3.245 -0 -1.2 0
5.715 -0.178 -3.502 -0 -1.2 0
6.17 -0.224 -3.735 -0 -1.2 0
6.66 -0.284 -3.988 -0 -1.2 0
7.6 -0.315 -4.474 -0 -1.2 0
9.055 -0.339 -5.226 -0 -1.2 0
10.982 -0.388 -6.22 -0 -1.2 0
14.266 -0.449 -7.917 -0 -1.2 0
14.331 -0.726 -7.944 -0 -1.2 0
14.293 -1.005 -7.918 -0 -1.2 0
14.241 -1.283 -7.885 -0 -1.2 0
14.257 -1.562 -7.887 -0 -1.2 0
14.259 -1.84 -7.881 -0 -1.2 0
14.293 -2.121 -7.892 -0 -1.2 0
14.437 -2.414 -7.96 -0 -1.2 0
14.434 -2.697 -7.952 -0 -1.2 0
14.437 -2.981 -7.947 -0 -1.2 0
14.426 -3.265 -7.935 -0 -1.2 0
6.054 -2.124 -3.632 -0 -1.2 0
14.435 -3.841 -7.926 -0 -1.2 0
14.419 -4.127 -7.911 -0 -1.2 0
5.4 -2.334 -3.289 -0 -1.2 0
5.338 -2.426 -3.255 -0 -1.2 0
4.453 -2.293 -2.8 -0 -1.2 0
4.486 -2.393 -2.816 -0 -1.2 0
5.083 -2.673 -3.118 -0 -1.2 0
4.88 -2.71 -3.012 -0 -1.2 0
3.488 -2.316 -2.301 -0 -1.2 0
5.1 -2.999 -3.119 -0 -1.2 0
14.233 -6.761 -7.755 -0 -1.2 0
6.567 -3.838 -3.858 -0 -1.2 0
4.411 -3.024 -2.762 -0 -1.2 0
4.48 -3.154 -2.795 -0 -1.2 0
14.186 -8.013 -7.701 -0 -1.2 0
13.77 -8.129 -7.484 -0 -1.2 0
3.214 -2.782 -2.149 -0 -1.2 0
4.146 -3.38 -2.617 -0 -1.2 0
3.367 -3.022 -2.223 -0 -1.2 0
16.582 -11.178 -8.868 -0 -1.2 0
5.218 -4.366 -3.149 -0 -1.2 0
18.181 -13.084 -9.65 -0 -1.2 0
19.1 -14.195 -10.1 -0 -1.2 0
2.43 -2.841 -1.743 -0 -1.2 0
2.396 -2.88 -1.724 -0 -1.2 0
3.13 -3.625 -2.087 -0 -1.2 0
6.127 -6.297 -3.574 -0 -1.2 0
2.975 -3.673 -2.005 -0 -1.2 0
3.729 -4.463 -2.377 -0 -1.2 0
3.677 -4.532 -2.349 -0 -1.2 0
4.723 -5.691 -2.863 -0 -1.2 0
3.027 -4.219 -2.02 -0 -1.2 0
2.513 -3.763 -1.765 -0 -1.2 0
1.044 -0.003 -1.117 -0 -1.2 0
1.08 -0.002 -1.137 -0 -1.2 0
1.115 -0.002 -1.157 -0 -1.2 0
1.145 -0.008 -1.172 -0 -1.2 0
1.188 -0.003 -1.196 -0 -1.2 0
1.224 -0.006 -1.217 -0 -1.2 0
1.268 -0.004 -1.241 -0 -1.2 0
1.305 -0.01 -1.262 -0 -1.2 0
1.35 -0.01 -1.287 -0 -1.2 0
1.401 -0.005 -1.316 -0 -1.2 0
1.446 -0.009 -1.342 -0 -1.2 0
1.506 -0.003 -1.375 -0 -1.2 0
1.552 -0.01 -1.401 -0 -1.2 0
1.613 -0.008 -1.435 -0 -1.2 0
1.667 -0.012 -1.465 -0 -1.2 0
1.736 -0.009 -1.503 -0 -1.2 0
1.806 -0.008 -1.543 -0 -1.2 0
1.877 -0.01 -1.582 -0 -1.2 0
1.948 -0.013 -1.622 -0 -1.2 0
2.034 -0.011 -1.671 -0 -1.2 0
2.13 -0.008 -1.724 -0 -1.2 0
2.234 -0.003 -1.783 -0 -1.2 0
2.346 0 -1.845 -0 -1.2 0
2.452 -0.003 -1.904 -0 -1.2 0
2.574 -0.004 -1.973 -0 -1.2 0
2.657 -0.026 -2.018 -0 -1.2 0
2.722 -0.058 -2.055 -0 -1.2 0
2.82 -0.08 -2.109 -0 -1.2 0
2.987 -0.081 -2.202 -0 -1.2 0
3.161 -0.086 -2.299 -0 -1.2 0
3.336 -0.098 -2.397 -0 -1.2 0
3.521 -0.114 -2.499 -0 -1.2 0
3.722 -0.133 -2.613 -0 -1.2 0
3.925 -0.159 -2.725 -0 -1.2 0
4.315 -0.151 -2.943 -0 -1.2 0
4.723 -0.154 -3.172 -0 -1.2 0
5.108 -0.178 -3.387 -0 -1.2 0
5.545 -0.209 -3.631 -0 -1.2 0
6.052 -0.247 -3.913 -0 -1.2 0
6.55 -0.306 -4.191 -0 -1.2 0
7.371 -0.351 -4.649 -0 -1.2 0
8.818 -0.376 -5.458 -0 -1.2 0
10.674 -0.432 -6.497 -0 -1.2 0
13.274 -0.53 -7.949 -0 -1.2 0
14.383 -0.768 -8.563 -0 -1.2 0
14.293 -1.053 -8.506 -0 -1.2 0
14.208 -1.335 -8.45 -0 -1.2 0
14.214 -1.617 -8.447 -0 -1.2 0
13.745 -1.874 -8.178 -0 -1.2 0
14.222 -2.183 -8.437 -0 -1.2 0
14.468 -2.49 -8.566 -0 -1.2 0
14.491 -2.782 -8.572 -0 -1.2 0
14.467 -3.07 -8.551 -0 -1.2 0
5.968 -2.029 -3.821 -0 -1.2 0
14.534 -3.665 -8.573 -0 -1.2 0
14.504 -3.955 -8.55 -0 -1.2 0
5.544 -2.297 -3.577 -0 -1.2 0
14.493 -4.545 -8.528 -0 -1.2 0
14.484 -4.843 -8.515 -0 -1.2 0
4.364 -2.306 -2.916 -0 -1.2 0
4.515 -2.443 -2.997 -0 -1.2 0
5.127 -2.734 -3.332 -0 -1.2 0
5.011 -2.803 -3.265 -0 -1.2 0
3.408 -2.322 -2.38 -0 -1.2 0
14.191 -6.583 -8.307 -0 -1.2 0
6.323 -3.666 -3.978 -0 -1.2 0
4.391 -2.969 -2.914 -0 -1.2 0
14.199 -7.54 -8.287 -0 -1.2 0
14.2 -7.866 -8.279 -0 -1.2 0
14.073 -8.133 -8.202 -0 -1.2 0
13.689 -8.263 -7.982 -0 -1.2 0
4.23 -3.385 -2.813 -0 -1.2 0
3.2 -2.894 -2.249 -0 -1.2 0
4.175 -3.557 -2.779 -0 -1.2 0
3.923 -3.503 -2.638 -0 -1.2 0
4.032 -3.673 -2.695 -0 -1.2 0
4.045 -3.786 -2.7 -0 -1.2 0
5.365 -4.823 -3.412 -0 -1.2 0
2.356 -2.827 -1.778 -0 -1.2 0
3.125 -3.5 -2.192 -0 -1.2 0
2.289 -2.904 -1.739 -0 -1.2 0
2.184 -2.882 -1.68 -0 -1.2 0
3.007 -3.67 -2.121 -0 -1.2 0
3.612 -4.431 -2.44 -0 -1.2 0
2.728 -3.682 -1.964 -0 -1.2 0
2.708 -3.755 -1.952 -0 -1.2 0
2.461 -3.589 -1.817 -0 -1.2 0
2.563 -3.787 -1.87 -0 -1.2 0
2.648 -3.976 -1.912 -0 -1.2 0
1.023 -0.007 -1.135 -0 -1.2 0
1.058 -0.006 -1.157 -0 -1.2 0
1.093 -0.006 -1.178 -0 -1.2 0
1.128 -0.006 -1.2 -0 -1.2 0
1.164 -0.008 -1.221 -0 -1.2 0
1.193 -0.018 -1.238 -0 -1.2 0
1.237 -0.015 -1.264 -0 -1.2 0
1.28 -0.015 -1.291 -0 -1.2 0
1.323 -0.015 -1.317 -0 -1.2 0
1.374 -0.011 -1.348 -0 -1.2 0
1.432 -0.003 -1.384 -0 -1.2 0
1.462 -0.02 -1.402 -0 -1.2 0
1.521 -0.016 -1.438 -0 -1.2 0
1.573 -0.019 -1.469 -0 -1.2 0
1.633 -0.019 -1.506 -0 -1.2 0
1.694 -0.021 -1.543 -0 -1.2 0
1.755 -0.025 -1.58 -0 -1.2 0
1.832 -0.021 -1.625 -0 -1.2 0
1.901 -0.025 -1.668 -0 -1.2 0
1.986 -0.023 -1.72 -0 -1.2 0
2.079 -0.02 -1.776 -0 -1.2 0
2.173 -0.019 -1.833 -0 -1.2 0
2.284 -0.015 -1.9 -0 -1.2 0
2.403 -0.012 -1.973 -0 -1.2 0
2.514 -0.016 -2.04 -0 -1.2 0
2.618 -0.029 -2.104 -0 -1.2 0
2.692 -0.058 -2.147 -0 -1.2 0
2.764 -0.09 -2.19 -0 -1.2 0
2.918 -0.095 -2.283 -0 -1.2 0
3.023 -0.123 -2.347 -0 -1.2 0
3.253 -0.116 -2.485 -0 -1.2 0
3.433 -0.132 -2.594 -0 -1.2 0
3.63 -0.151 -2.714 -0 -1.2 0
3.887 -0.163 -2.869 -0 -1.2 0
4.244 -0.162 -3.086 -0 -1.2 0
4.603 -0.176 -3.303 -0 -1.2 0
5.03 -0.192 -3.563 -0 -1.2 0
5.467 -0.223 -3.827 -0 -1.2 0
5.896 -0.273 -4.085 -0 -1.2 0
6.436 -0.327 -4.412 -0 -1.2 0
7.137 -0.386 -4.835 -0 -1.2 0
8.503 -0.418 -5.663 -0 -1.2 0
10.331 -0.477 -6.771 -0 -1.2 0
12.877 -0.581 -8.314 -0 -1.2 0
14.16 -0.815 -9.085 -0 -1.2 0
14.156 -1.102 -9.075 -0 -1.2 0
12.594 -1.358 -8.12 -0 -1.2 0
12.968 -1.628 -8.34 -0 -1.2 0
12.645 -1.871 -8.137 -0 -1.2 0
12.891 -2.148 -8.278 -0 -1.2 0
13.099 -2.431 -8.396 -0 -1.2 0
14.17 -2.829 -9.035 -0 -1.2 0
14.171 -3.12 -9.028 -0 -1.2 0
14.16 -3.409 -9.013 -0 -1.2 0
14.161 -3.701 -9.005 -0 -1.2 0
14.158 -3.993 -8.995 -0 -1.2 0
14.166 -4.291 -8.992 -0 -1.2 0
14.153 -4.585 -8.976 -0 -1.2 0
14.153 -4.884 -8.967 -0 -1.2 0
4.257 -2.317 -3.033 -0 -1.2 0
14.156 -5.49 -8.952 -0 -1.2 0
5.178 -2.804 -3.579 -0 -1.2 0
4.907 -2.82 -3.414 -0 -1.2 0
3.272 -2.31 -2.436 -0 -1.2 0
14.151 -6.733 -8.914 -0 -1.2 0
4.327 -2.899 -3.059 -0 -1.2 0
14.142 -7.371 -8.891 -0 -1.2 0
14.137 -7.696 -8.878 -0 -1.2 0
14.143 -8.031 -8.873 -0 -1.2 0
13.86 -8.221 -8.696 -0 -1.2 0
5.533 -4.051 -3.759 -0 -1.2 0
3.051 -2.782 -2.289 -0 -1.2 0
4.331 -3.613 -3.042 -0 -1.2 0
16.186 -11.027 -10.028 -0 -1.2 0
3.622 -3.376 -2.619 -0 -1.2 0
3.902 -3.657 -2.78 -0 -1.2 0
5.41 -4.809 -3.663 -0 -1.2 0
2.235 -2.78 -1.793 -0 -1.2 0
4.835 -5.092 -3.306 -0 -1.2 0
2.241 -3.048 -1.79 -0 -1.2 0
2.031 -2.921 -1.665 -0 -1.2 0
1.991 -2.947 -1.641 -0 -1.2 0
1.951 -2.972 -1.615 -0 -1.2 0
1.916 -3.002 -1.594 -0 -1.2 0
2.599 -3.801 -1.986 -0 -1.2 0
2.652 -3.956 -2.013 -0 -1.2 0
3.782 -5.356 -2.659 -0 -1.2 0
0.999 -0.018 -1.146 -0 -1.2 0
1.032 -0.018 -1.168 -0 -1.2 0
1.06 -0.024 -1.186 -0 -1.2 0
1.101 -0.018 -1.212 -0 -1.2 0
1.136 -0.02 -1.235 -0 -1.2 0
1.177 -0.016 -1.262 -0 -1.2 0
1.206 -0.027 -1.281 -0 -1.2 0
1.248 -0.026 -1.308 -0 -1.2 0
1.297 -0.02 -1.34 -0 -1.2 0
1.348 -0.016 -1.373 -0 -1.2 0
1.384 -0.027 -1.397 -0 -1.2 0
1.435 -0.026 -1.43 -0 -1.2 0
1.485 -0.027 -1.462 -0 -1.2 0
1.544 -0.025 -1.5 -0 -1.2 0
1.602 -0.025 -1.539 -0 -1.2 0
1.655 -0.032 -1.572 -0 -1.2 0
1.722 -0.032 -1.616 -0 -1.2 0
1.804 -0.024 -1.669 -0 -1.2 0
1.864 -0.032 -1.708 -0 -1.2 0
1.948 -0.03 -1.763 -0 -1.2 0
2.032 -0.032 -1.818 -0 -1.2 0
2.124 -0.033 -1.877 -0 -1.2 0
2.217 -0.036 -1.938 -0 -1.2 0
2.342 -0.028 -2.018 -0 -1.2 0
2.459 -0.03 -2.095 -0 -1.2 0
2.577 -0.035 -2.171 -0 -1.2 0
2.672 -0.055 -2.232 -0 -1.2 0
2.752 -0.085 -2.283 -0 -1.2 0
2.83 -0.118 -2.333 -0 -1.2 0
2.974 -0.131 -2.426 -0 -1.2 0
3.19 -0.128 -2.567 -0 -1.2 0
3.375 -0.142 -2.687 -0 -1.2 0
3.578 -0.16 -2.818 -0 -1.2 0
3.846 -0.169 -2.991 -0 -1.2 0
4.09 -0.195 -3.15 -0 -1.2 0
4.474 -0.202 -3.4 -0 -1.2 0
4.901 -0.216 -3.677 -0 -1.2 0
5.346 -0.245 -3.965 -0 -1.2 0
5.758 -0.297 -4.231 -0 -1.2 0
6.245 -0.358 -4.546 -0 -1.2 0
6.867 -0.425 -4.947 -0 -1.2 0
8.189 -0.461 -5.806 -0 -1.2 0
9.672 -0.541 -6.767 -0 -1.2 0
11.441 -0.673 -7.913 -0 -1.2 0
13.545 -0.871 -9.274 -0 -1.2 0
11.906 -1.146 -8.201 -0 -1.2 0
12.168 -1.398 -8.363 -0 -1.2 0
12.249 -1.653 -8.409 -0 -1.2 0
12.192 -1.902 -8.364 -0 -1.2 0
12.249 -2.159 -8.393 -0 -1.2 0
12.662 -2.457 -8.652 -0 -1.2 0
14.148 -2.911 -9.603 -0 -1.2 0
14.156 -3.207 -9.601 -0 -1.2 0
14.153 -3.504 -9.589 -0 -1.2 0
14.153 -3.802 -9.58 -0 -1.2 0
14.157 -4.102 -9.573 -0 -1.2 0
14.148 -4.401 -9.559 -0 -1.2 0
14.135 -4.701 -9.541 -0 -1.2 0
14.141 -5.007 -9.536 -0 -1.2 0
4.142 -2.322 -3.118 -0 -1.2 0
5.141 -2.733 -3.755 -0 -1.2 0
5.231 -2.876 -3.81 -0 -1.2 0
4.875 -2.861 -3.58 -0 -1.2 0
2.976 -2.231 -2.364 -0 -1.2 0
14.121 -6.884 -9.467 -0 -1.2 0
14.126 -7.211 -9.459 -0 -1.2 0
14.117 -7.537 -9.444 -0 -1.2 0
6.034 -3.975 -4.298 -0 -1.2 0
14.115 -8.206 -9.422 -0 -1.2 0
2.897 -2.599 -2.302 -0 -1.2 0
5.761 -4.258 -4.112 -0 -1.2 0
4.523 -3.684 -3.326 -0 -1.2 0
5.57 -4.431 -3.983 -0 -1.2 0
4.418 -3.845 -3.253 -0 -1.2 0
3.359 -3.262 -2.582 -0 -1.2 0
17.969 -13.37 -11.77 -0 -1.2 0
3.789 -3.747 -2.846 -0 -1.2 0
2.125 -2.797 -1.794 -0 -1.2 0
4.917 -5.262 -3.533 -0 -1.2 0
4.511 -5.052 -3.276 -0 -1.2 0
4.287 -4.988 -3.132 -0 -1.2 0
2.755 -3.66 -2.176 -0 -1.2 0
