# .PCD v.7 - Point Cloud Data file format
FIELDS x y z vp_x vp_y vp_z
SIZE 4 4 4 4 4 4
TYPE F F F F F F
COUNT 1 1 1 1 1 1
WIDTH 1516
HEIGHT 1
VIEWPOINT 0 -1.20012 0 1 0 0 0
POINTS 1516
DATA ascii
13.929 -12.224 24.523 -0 -1.2 0
13.836 -12.709 24.347 -0 -1.2 0
13.738 -13.19 24.166 -0 -1.2 0
13.635 -13.668 23.976 -0 -1.2 0
13.528 -14.141 23.779 -0 -1.2 0
13.418 -14.611 23.576 -0 -1.2 0
13.303 -15.076 23.365 -0 -1.2 0
13.184 -15.537 23.147 -0 -1.2 0
13.062 -15.994 22.923 -0 -1.2 0
12.935 -16.446 22.691 -0 -1.2 0
12.805 -16.893 22.452 -0 -1.2 0
12.67 -17.336 22.208 -0 -1.2 0
12.532 -17.774 21.956 -0 -1.2 0
12.39 -18.206 21.697 -0 -1.2 0
12.244 -18.634 21.433 -0 -1.2 0
12.094 -19.055 21.161 -0 -1.2 0
11.941 -19.472 20.884 -0 -1.2 0
11.784 -19.883 20.599 -0 -1.2 0
11.624 -20.289 20.31 -0 -1.2 0
11.459 -20.688 20.014 -0 -1.2 0
11.292 -21.081 19.712 -0 -1.2 0
11.121 -21.469 19.403 -0 -1.2 0
10.947 -21.851 19.09 -0 -1.2 0
15.758 0.064 25.914 -0 -1.2 0
15.77 -0.458 25.925 -0 -1.2 0
15.778 -0.981 25.929 -0 -1.2 0
15.78 -1.504 25.924 -0 -1.2 0
15.778 -2.029 25.911 -0 -1.2 0
15.771 -2.551 25.891 -0 -1.2 0
15.759 -3.074 25.863 -0 -1.2 0
15.744 -3.596 25.827 -0 -1.2 0
15.722 -4.118 25.784 -0 -1.2 0
15.431 -4.578 25.301 -0 -1.2 0
15.665 -5.158 25.674 -0 -1.2 0
15.545 -6.707 25.45 -0 -1.2 0
15.495 -7.221 25.361 -0 -1.2 0
15.441 -7.732 25.263 -0 -1.2 0
15.381 -8.242 25.158 -0 -1.2 0
15.318 -8.75 25.046 -0 -1.2 0
15.249 -9.255 24.926 -0 -1.2 0
15.176 -9.757 24.798 -0 -1.2 0
15.099 -10.257 24.664 -0 -1.2 0
15.017 -10.754 24.522 -0 -1.2 0
14.929 -11.249 24.372 -0 -1.2 0
14.839 -11.74 24.215 -0 -1.2 0
14.743 -12.227 24.051 -0 -1.2 0
14.643 -12.712 23.88 -0 -1.2 0
14.538 -13.193 23.701 -0 -1.2 0
14.428 -13.67 23.516 -0 -1.2 0
14.316 -14.143 23.323 -0 -1.2 0
14.198 -14.613 23.123 -0 -1.2 0
14.075 -15.078 22.916 -0 -1.2 0
13.949 -15.54 22.703 -0 -1.2 0
13.818 -15.996 22.483 -0 -1.2 0
13.684 -16.448 22.256 -0 -1.2 0
13.545 -16.896 22.022 -0 -1.2 0
13.402 -17.338 21.782 -0 -1.2 0
13.255 -17.776 21.535 -0 -1.2 0
13.103 -18.208 21.282 -0 -1.2 0
12.948 -18.636 21.022 -0 -1.2 0
12.789 -19.058 20.756 -0 -1.2 0
12.627 -19.475 20.484 -0 -1.2 0
12.459 -19.886 20.205 -0 -1.2 0
12.289 -20.291 19.921 -0 -1.2 0
12.115 -20.69 19.631 -0 -1.2 0
11.937 -21.083 19.335 -0 -1.2 0
11.755 -21.471 19.033 -0 -1.2 0
11.571 -21.853 18.725 -0 -1.2 0
16.696 0.046 25.33 -0 -1.2 0
16.708 -0.476 25.34 -0 -1.2 0
16.715 -0.999 25.343 -0 -1.2 0
16.718 -1.522 25.339 -0 -1.2 0
16.715 -2.047 25.326 -0 -1.2 0
16.707 -2.569 25.305 -0 -1.2 0
16.693 -3.092 25.278 -0 -1.2 0
16.675 -3.614 25.242 -0 -1.2 0
16.652 -4.136 25.201 -0 -1.2 0
16.624 -4.656 25.15 -0 -1.2 0
16.591 -5.176 25.092 -0 -1.2 0
16.552 -5.693 25.027 -0 -1.2 0
16.509 -6.21 24.954 -0 -1.2 0
16.407 -7.238 24.785 -0 -1.2 0
16.349 -7.75 24.69 -0 -1.2 0
16.285 -8.259 24.588 -0 -1.2 0
16.217 -8.767 24.477 -0 -1.2 0
15.608 -8.999 23.561 -0 -1.2 0
16.066 -9.774 24.235 -0 -1.2 0
15.983 -10.275 24.103 -0 -1.2 0
15.679 -10.639 23.642 -0 -1.2 0
15.802 -11.266 23.817 -0 -1.2 0
15.705 -11.757 23.664 -0 -1.2 0
15.603 -12.244 23.504 -0 -1.2 0
15.496 -12.729 23.336 -0 -1.2 0
15.385 -13.209 23.161 -0 -1.2 0
15.268 -13.687 22.98 -0 -1.2 0
15.147 -14.16 22.791 -0 -1.2 0
15.022 -14.629 22.596 -0 -1.2 0
14.891 -15.094 22.394 -0 -1.2 0
14.758 -15.556 22.185 -0 -1.2 0
14.618 -16.012 21.97 -0 -1.2 0
14.475 -16.464 21.748 -0 -1.2 0
14.326 -16.911 21.519 -0 -1.2 0
14.175 -17.353 21.284 -0 -1.2 0
14.018 -17.791 21.043 -0 -1.2 0
13.857 -18.223 20.795 -0 -1.2 0
13.692 -18.651 20.542 -0 -1.2 0
13.524 -19.072 20.282 -0 -1.2 0
13.35 -19.489 20.016 -0 -1.2 0
13.173 -19.9 19.744 -0 -1.2 0
12.991 -20.305 19.465 -0 -1.2 0
12.807 -20.704 19.182 -0 -1.2 0
12.617 -21.097 18.893 -0 -1.2 0
12.425 -21.484 18.598 -0 -1.2 0
12.228 -21.866 18.297 -0 -1.2 0
17.556 -0.493 24.769 -0 -1.2 0
17.562 -1.016 24.771 -0 -1.2 0
17.565 -1.54 24.767 -0 -1.2 0
17.561 -2.064 24.754 -0 -1.2 0
17.552 -2.586 24.735 -0 -1.2 0
17.537 -3.109 24.707 -0 -1.2 0
17.517 -3.631 24.673 -0 -1.2 0
17.492 -4.153 24.631 -0 -1.2 0
17.426 -5.193 24.525 -0 -1.2 0
17.385 -5.71 24.46 -0 -1.2 0
17.339 -6.227 24.389 -0 -1.2 0
17.288 -6.742 24.31 -0 -1.2 0
17.231 -7.255 24.223 -0 -1.2 0
16.872 -7.651 23.719 -0 -1.2 0
17.102 -8.276 24.029 -0 -1.2 0
17.029 -8.784 23.922 -0 -1.2 0
16.952 -9.289 23.807 -0 -1.2 0
16.869 -9.791 23.685 -0 -1.2 0
16.781 -10.291 23.556 -0 -1.2 0
16.688 -10.787 23.419 -0 -1.2 0
16.59 -11.282 23.276 -0 -1.2 0
16.488 -11.773 23.126 -0 -1.2 0
16.379 -12.26 22.969 -0 -1.2 0
16.266 -12.745 22.805 -0 -1.2 0
16.148 -13.225 22.635 -0 -1.2 0
16.026 -13.702 22.457 -0 -1.2 0
15.899 -14.175 22.272 -0 -1.2 0
15.766 -14.645 22.082 -0 -1.2 0
15.629 -15.11 21.884 -0 -1.2 0
15.487 -15.571 21.679 -0 -1.2 0
15.34 -16.027 21.469 -0 -1.2 0
15.188 -16.478 21.252 -0 -1.2 0
15.033 -16.926 21.029 -0 -1.2 0
14.873 -17.368 20.799 -0 -1.2 0
14.708 -17.806 20.563 -0 -1.2 0
14.538 -18.238 20.321 -0 -1.2 0
14.365 -18.665 20.073 -0 -1.2 0
14.186 -19.086 19.819 -0 -1.2 0
14.004 -19.503 19.559 -0 -1.2 0
13.816 -19.913 19.293 -0 -1.2 0
13.626 -20.318 19.022 -0 -1.2 0
13.431 -20.717 18.745 -0 -1.2 0
13.231 -21.11 18.461 -0 -1.2 0
13.029 -21.497 18.173 -0 -1.2 0
12.821 -21.878 17.879 -0 -1.2 0
18.382 -0.511 24.171 -0 -1.2 0
18.388 -1.034 24.174 -0 -1.2 0
18.389 -1.557 24.167 -0 -1.2 0
18.385 -2.081 24.155 -0 -1.2 0
18.375 -2.604 24.135 -0 -1.2 0
18.359 -3.126 24.109 -0 -1.2 0
18.338 -3.648 24.075 -0 -1.2 0
18.312 -4.17 24.033 -0 -1.2 0
18.279 -4.691 23.985 -0 -1.2 0
18.24 -5.21 23.93 -0 -1.2 0
18.197 -5.728 23.867 -0 -1.2 0
18.148 -6.244 23.796 -0 -1.2 0
18.094 -6.759 23.719 -0 -1.2 0
18.033 -7.272 23.636 -0 -1.2 0
17.968 -7.784 23.544 -0 -1.2 0
17.897 -8.293 23.446 -0 -1.2 0
17.821 -8.801 23.34 -0 -1.2 0
17.739 -9.306 23.228 -0 -1.2 0
17.652 -9.807 23.108 -0 -1.2 0
17.56 -10.308 22.982 -0 -1.2 0
17.461 -10.804 22.85 -0 -1.2 0
17.359 -11.298 22.71 -0 -1.2 0
17.25 -11.789 22.563 -0 -1.2 0
17.018 -12.761 22.25 -0 -1.2 0
16.894 -13.241 22.083 -0 -1.2 0
16.764 -13.718 21.909 -0 -1.2 0
16.63 -14.191 21.729 -0 -1.2 0
16.491 -14.66 21.543 -0 -1.2 0
16.347 -15.125 21.35 -0 -1.2 0
16.198 -15.586 21.151 -0 -1.2 0
16.044 -16.042 20.945 -0 -1.2 0
15.885 -16.493 20.734 -0 -1.2 0
15.721 -16.941 20.516 -0 -1.2 0
15.553 -17.382 20.291 -0 -1.2 0
15.379 -17.82 20.061 -0 -1.2 0
15.201 -18.252 19.825 -0 -1.2 0
15.018 -18.679 19.583 -0 -1.2 0
14.832 -19.1 19.335 -0 -1.2 0
14.64 -19.516 19.081 -0 -1.2 0
14.444 -19.927 18.822 -0 -1.2 0
14.244 -20.331 18.557 -0 -1.2 0
14.039 -20.73 18.286 -0 -1.2 0
13.83 -21.123 18.011 -0 -1.2 0
13.616 -21.51 17.73 -0 -1.2 0
13.4 -21.891 17.443 -0 -1.2 0
19.248 -0.53 23.494 -0 -1.2 0
19.254 -1.053 23.495 -0 -1.2 0
19.255 -1.576 23.49 -0 -1.2 0
19.25 -2.1 23.478 -0 -1.2 0
19.239 -2.623 23.459 -0 -1.2 0
19.221 -3.145 23.432 -0 -1.2 0
19.198 -3.667 23.398 -0 -1.2 0
19.17 -4.189 23.358 -0 -1.2 0
19.135 -4.709 23.311 -0 -1.2 0
19.095 -5.229 23.256 -0 -1.2 0
19.049 -5.746 23.195 -0 -1.2 0
18.997 -6.263 23.127 -0 -1.2 0
18.94 -6.778 23.052 -0 -1.2 0
18.875 -7.291 22.97 -0 -1.2 0
18.807 -7.802 22.881 -0 -1.2 0
18.732 -8.311 22.785 -0 -1.2 0
18.651 -8.819 22.682 -0 -1.2 0
18.565 -9.324 22.573 -0 -1.2 0
17.93 -12.293 21.776 -0 -1.2 0
16.782 -16.059 20.353 -0 -1.2 0
16.615 -16.51 20.147 -0 -1.2 0
16.442 -16.957 19.935 -0 -1.2 0
16.266 -17.398 19.717 -0 -1.2 0
16.083 -17.836 19.493 -0 -1.2 0
15.897 -18.267 19.264 -0 -1.2 0
15.705 -18.694 19.028 -0 -1.2 0
15.509 -19.115 18.787 -0 -1.2 0
15.308 -19.531 18.541 -0 -1.2 0
15.102 -19.941 18.289 -0 -1.2 0
14.892 -20.346 18.032 -0 -1.2 0
14.677 -20.744 17.768 -0 -1.2 0
14.458 -21.137 17.501 -0 -1.2 0
14.234 -21.524 17.227 -0 -1.2 0
14.005 -21.904 16.948 -0 -1.2 0
20.034 -0.024 22.813 -0 -1.2 0
20.046 -0.547 22.822 -0 -1.2 0
20.052 -1.593 22.818 -0 -1.2 0
20.046 -2.118 22.806 -0 -1.2 0
20.034 -2.64 22.786 -0 -1.2 0
20.015 -3.163 22.761 -0 -1.2 0
19.991 -3.685 22.727 -0 -1.2 0
19.961 -4.207 22.688 -0 -1.2 0
19.924 -4.727 22.642 -0 -1.2 0
19.882 -5.246 22.589 -0 -1.2 0
19.833 -5.764 22.529 -0 -1.2 0
19.778 -6.28 22.463 -0 -1.2 0
19.718 -6.795 22.389 -0 -1.2 0
19.652 -7.308 22.31 -0 -1.2 0
19.579 -7.819 22.223 -0 -1.2 0
19.5 -8.328 22.13 -0 -1.2 0
17.286 -16.525 19.566 -0 -1.2 0
16.922 -17.413 19.149 -0 -1.2 0
16.732 -17.85 18.931 -0 -1.2 0
16.537 -18.282 18.708 -0 -1.2 0
16.337 -18.708 18.48 -0 -1.2 0
16.132 -19.129 18.245 -0 -1.2 0
15.922 -19.545 18.006 -0 -1.2 0
15.707 -19.955 17.761 -0 -1.2 0
15.489 -20.359 17.512 -0 -1.2 0
15.263 -20.758 17.256 -0 -1.2 0
15.035 -21.15 16.996 -0 -1.2 0
14.802 -21.536 16.731 -0 -1.2 0
14.564 -21.917 16.46 -0 -1.2 0
20.832 -0.042 22.09 -0 -1.2 0
20.849 -1.611 22.094 -0 -1.2 0
20.842 -2.135 22.081 -0 -1.2 0
20.829 -2.657 22.062 -0 -1.2 0
20.809 -3.18 22.037 -0 -1.2 0
20.784 -3.702 22.006 -0 -1.2 0
20.752 -4.224 21.967 -0 -1.2 0
20.713 -4.744 21.922 -0 -1.2 0
20.668 -5.263 21.87 -0 -1.2 0
20.268 -8.345 21.424 -0 -1.2 0
20.18 -8.853 21.328 -0 -1.2 0
19.765 -10.855 20.878 -0 -1.2 0
17.177 -18.296 18.11 -0 -1.2 0
16.969 -18.722 17.889 -0 -1.2 0
16.755 -19.143 17.662 -0 -1.2 0
16.537 -19.559 17.431 -0 -1.2 0
16.313 -19.969 17.194 -0 -1.2 0
16.085 -20.372 16.951 -0 -1.2 0
15.851 -20.771 16.704 -0 -1.2 0
15.613 -21.163 16.452 -0 -1.2 0
15.37 -21.549 16.195 -0 -1.2 0
15.122 -21.93 15.935 -0 -1.2 0
21.668 -0.057 21.274 -0 -1.2 0
21.68 -0.58 21.281 -0 -1.2 0
21.684 -1.626 21.276 -0 -1.2 0
21.676 -2.15 21.264 -0 -1.2 0
21.662 -2.672 21.246 -0 -1.2 0
21.641 -3.195 21.221 -0 -1.2 0
21.613 -3.717 21.19 -0 -1.2 0
21.58 -4.239 21.153 -0 -1.2 0
21.159 -7.851 20.717 -0 -1.2 0
21.073 -8.36 20.63 -0 -1.2 0
20.981 -8.867 20.536 -0 -1.2 0
20.882 -9.372 20.436 -0 -1.2 0
18.06 -17.877 17.645 -0 -1.2 0
17.849 -18.308 17.437 -0 -1.2 0
17.631 -18.734 17.225 -0 -1.2 0
17.408 -19.155 17.007 -0 -1.2 0
17.18 -19.57 16.783 -0 -1.2 0
16.948 -19.98 16.555 -0 -1.2 0
16.709 -20.384 16.322 -0 -1.2 0
16.466 -20.782 16.085 -0 -1.2 0
16.218 -21.174 15.842 -0 -1.2 0
15.964 -21.56 15.595 -0 -1.2 0
15.707 -21.94 15.343 -0 -1.2 0
21.81 -8.366 19.847 -0 -1.2 0
19.504 -16.107 17.726 -0 -1.2 0
18.238 -18.739 16.574 -0 -1.2 0
18.007 -19.16 16.365 -0 -1.2 0
17.771 -19.575 16.151 -0 -1.2 0
17.53 -19.985 15.932 -0 -1.2 0
17.283 -20.389 15.708 -0 -1.2 0
17.031 -20.786 15.479 -0 -1.2 0
16.773 -21.178 15.246 -0 -1.2 0
16.51 -21.564 15.009 -0 -1.2 0
16.243 -21.945 14.767 -0 -1.2 0
22.309 -9.384 18.859 -0 -1.2 0
19.501 -17.451 16.475 -0 -1.2 0
19.28 -17.888 16.289 -0 -1.2 0
18.819 -18.745 15.903 -0 -1.2 0
18.58 -19.165 15.702 -0 -1.2 0
18.337 -19.581 15.497 -0 -1.2 0
18.086 -19.99 15.287 -0 -1.2 0
17.831 -20.394 15.073 -0 -1.2 0
17.57 -20.791 14.854 -0 -1.2 0
17.304 -21.183 14.631 -0 -1.2 0
17.033 -21.569 14.403 -0 -1.2 0
16.757 -21.949 14.172 -0 -1.2 0
19.17 -19.171 14.965 -0 -1.2 0
18.659 -19.996 14.57 -0 -1.2 0
18.395 -20.399 14.367 -0 -1.2 0
18.126 -20.797 14.159 -0 -1.2 0
17.85 -21.189 13.946 -0 -1.2 0
17.571 -21.575 13.73 -0 -1.2 0
17.285 -21.955 13.51 -0 -1.2 0
19.164 -20.001 13.885 -0 -1.2 0
18.892 -20.405 13.691 -0 -1.2 0
18.615 -20.803 13.494 -0 -1.2 0
18.332 -21.194 13.292 -0 -1.2 0
18.044 -21.58 13.086 -0 -1.2 0
17.75 -21.96 12.877 -0 -1.2 0
21.873 -16.132 14.652 -0 -1.2 0
21.651 -16.582 14.504 -0 -1.2 0
19.915 -19.598 13.36 -0 -1.2 0
19.364 -20.411 12.997 -0 -1.2 0
19.079 -20.808 12.809 -0 -1.2 0
18.789 -21.2 12.618 -0 -1.2 0
18.493 -21.585 12.424 -0 -1.2 0
18.191 -21.965 12.225 -0 -1.2 0
20.145 -20.014 12.371 -0 -1.2 0
19.859 -20.417 12.2 -0 -1.2 0
19.567 -20.814 12.025 -0 -1.2 0
19.269 -21.206 11.846 -0 -1.2 0
18.965 -21.591 11.664 -0 -1.2 0
18.655 -21.971 11.479 -0 -1.2 0
23.589 -14.765 13.247 -0 -1.2 0
22.696 -16.594 12.757 -0 -1.2 0
20.584 -20.018 11.602 -0 -1.2 0
20.29 -20.421 11.442 -0 -1.2 0
19.991 -20.819 11.278 -0 -1.2 0
19.686 -21.21 11.111 -0 -1.2 0
19.375 -21.596 10.942 -0 -1.2 0
19.058 -21.975 10.769 -0 -1.2 0
21.276 -19.61 10.983 -0 -1.2 0
20.984 -20.019 10.838 -0 -1.2 0
20.684 -20.423 10.689 -0 -1.2 0
20.38 -20.82 10.539 -0 -1.2 0
20.068 -21.211 10.385 -0 -1.2 0
19.75 -21.597 10.227 -0 -1.2 0
19.427 -21.977 10.067 -0 -1.2 0
24.73 -14.302 11.479 -0 -1.2 0
21.381 -20.023 9.999 -0 -1.2 0
21.075 -20.426 9.864 -0 -1.2 0
20.763 -20.824 9.726 -0 -1.2 0
19.791 -21.98 9.297 -0 -1.2 0
23.954 -16.606 10.095 -0 -1.2 0
21.402 -20.432 9.09 -0 -1.2 0
21.085 -20.829 8.964 -0 -1.2 0
20.096 -21.985 8.574 -0 -1.2 0
24.542 -16.164 9.292 -0 -1.2 0
24.29 -16.614 9.205 -0 -1.2 0
22.919 -18.793 8.728 -0 -1.2 0
22.625 -19.212 8.626 -0 -1.2 0
22.323 -19.627 8.52 -0 -1.2 0
22.014 -20.036 8.413 -0 -1.2 0
25.816 -14.329 8.59 -0 -1.2 0
25.591 -14.797 8.523 -0 -1.2 0
25.357 -15.261 8.454 -0 -1.2 0
25.117 -15.72 8.381 -0 -1.2 0
24.869 -16.175 8.307 -0 -1.2 0
24.613 -16.625 8.232 -0 -1.2 0
24.349 -17.071 8.152 -0 -1.2 0
24.078 -17.511 8.072 -0 -1.2 0
23.8 -17.947 7.988 -0 -1.2 0
23.222 -18.803 7.815 -0 -1.2 0
22.923 -19.222 7.725 -0 -1.2 0
22.616 -19.637 7.633 -0 -1.2 0
20.637 -22.001 7.036 -0 -1.2 0
26.523 -13.394 7.742 -0 -1.2 0
26.09 -14.342 7.633 -0 -1.2 0
25.862 -14.81 7.574 -0 -1.2 0
25.627 -15.273 7.514 -0 -1.2 0
25.382 -15.733 7.453 -0 -1.2 0
24.872 -16.637 7.323 -0 -1.2 0
24.606 -17.083 7.255 -0 -1.2 0
23.162 -19.234 6.884 -0 -1.2 0
20.85 -22.012 6.287 -0 -1.2 0
26.966 -12.931 6.817 -0 -1.2 0
26.76 -13.41 6.773 -0 -1.2 0
26.093 -14.825 6.633 -0 -1.2 0
25.093 -16.652 6.421 -0 -1.2 0
24.824 -17.097 6.363 -0 -1.2 0
24.262 -17.973 6.243 -0 -1.2 0
22.405 -20.473 5.841 -0 -1.2 0
26.539 -14.361 5.668 -0 -1.2 0
26.306 -14.829 5.629 -0 -1.2 0
25.561 -16.206 5.502 -0 -1.2 0
23.865 -18.832 5.21 -0 -1.2 0
23.556 -19.251 5.156 -0 -1.2 0
21.201 -22.027 4.743 -0 -1.2 0
26.701 -14.366 4.722 -0 -1.2 0
26.467 -14.834 4.692 -0 -1.2 0
24.611 -17.981 4.445 -0 -1.2 0
24.315 -18.411 4.406 -0 -1.2 0
23.058 -20.078 4.235 -0 -1.2 0
21.69 -21.652 4.048 -0 -1.2 0
27.282 -13.425 3.729 -0 -1.2 0
26.837 -14.372 3.69 -0 -1.2 0
26.602 -14.84 3.669 -0 -1.2 0
27.154 -13.908 2.735 -0 -1.2 0
26.69 -14.847 2.712 -0 -1.2 0
26.195 -15.769 2.687 -0 -1.2 0
26.499 -15.317 1.748 -0 -1.2 0
26.247 -15.776 1.745 -0 -1.2 0
23.949 -19.274 1.707 -0 -1.2 0
22.637 -20.902 0.815 -0 -1.2 0
25.154 -17.582 -0.123 -0 -1.2 0
21.915 -21.684 0.067 -0 -1.2 0
25.098 -17.597 -0.983 -0 -1.2 0
24.204 -18.886 -0.895 -0 -1.2 0
22.569 -20.923 -0.737 -0 -1.2 0
30.127 -2.211 -0.155 -0 -1.2 0
30.104 -2.734 -0.146 -0 -1.2 0
30.07 -3.256 -0.137 -0 -1.2 0
30.028 -3.778 -0.128 -0 -1.2 0
29.977 -4.3 -0.119 -0 -1.2 0
29.917 -4.82 -0.111 -0 -1.2 0
29.847 -5.339 -0.102 -0 -1.2 0
29.769 -5.856 -0.094 -0 -1.2 0
29.682 -6.372 -0.086 -0 -1.2 0
29.585 -6.887 -0.078 -0 -1.2 0
29.479 -7.399 -0.07 -0 -1.2 0
29.365 -7.91 -0.063 -0 -1.2 0
29.242 -8.419 -0.055 -0 -1.2 0
29.11 -8.926 -0.049 -0 -1.2 0
28.969 -9.43 -0.041 -0 -1.2 0
28.819 -9.932 -0.035 -0 -1.2 0
28.661 -10.431 -0.029 -0 -1.2 0
27.94 -12.396 -0.005 -0 -1.2 0
30.143 -1.706 -1.205 -0 -1.2 0
30.128 -2.23 -1.195 -0 -1.2 0
30.105 -2.752 -1.184 -0 -1.2 0
30.072 -3.275 -1.174 -0 -1.2 0
30.029 -3.797 -1.163 -0 -1.2 0
29.978 -4.318 -1.152 -0 -1.2 0
29.917 -4.838 -1.141 -0 -1.2 0
29.848 -5.357 -1.13 -0 -1.2 0
29.77 -5.874 -1.119 -0 -1.2 0
29.683 -6.391 -1.107 -0 -1.2 0
29.585 -6.905 -1.095 -0 -1.2 0
29.48 -7.418 -1.084 -0 -1.2 0
29.243 -8.437 -1.06 -0 -1.2 0
28.97 -9.448 -1.036 -0 -1.2 0
28.82 -9.949 -1.023 -0 -1.2 0
27.941 -12.413 -0.961 -0 -1.2 0
26.099 -16.171 -0.858 -0 -1.2 0
24.986 -17.944 -0.806 -0 -1.2 0
22.403 -21.234 -0.698 -0 -1.2 0
22.048 -21.62 -0.685 -0 -1.2 0
21.687 -21.999 -0.672 -0 -1.2 0
30.076 0.366 -2.225 -0 -1.2 0
30.098 -0.156 -2.216 -0 -1.2 0
30.11 -0.678 -2.205 -0 -1.2 0
30.115 -1.201 -2.196 -0 -1.2 0
30.109 -1.724 -2.185 -0 -1.2 0
30.094 -2.248 -2.173 -0 -1.2 0
30.07 -2.771 -2.162 -0 -1.2 0
30.037 -3.293 -2.15 -0 -1.2 0
29.995 -3.815 -2.138 -0 -1.2 0
29.944 -4.336 -2.124 -0 -1.2 0
29.884 -4.856 -2.111 -0 -1.2 0
29.815 -5.375 -2.097 -0 -1.2 0
29.736 -5.892 -2.084 -0 -1.2 0
29.649 -6.409 -2.069 -0 -1.2 0
29.552 -6.923 -2.053 -0 -1.2 0
29.447 -7.435 -2.038 -0 -1.2 0
29.333 -7.946 -2.022 -0 -1.2 0
29.209 -8.455 -2.005 -0 -1.2 0
27.282 -13.869 -1.801 -0 -1.2 0
23.066 -20.46 -1.459 -0 -1.2 0
22.725 -20.857 -1.434 -0 -1.2 0
21.664 -22.012 -1.358 -0 -1.2 0
30.009 0.348 -3.214 -0 -1.2 0
30.03 -0.174 -3.205 -0 -1.2 0
30.043 -0.696 -3.195 -0 -1.2 0
30.046 -1.219 -3.185 -0 -1.2 0
30.041 -1.742 -3.174 -0 -1.2 0
30.026 -2.267 -3.162 -0 -1.2 0
30.002 -2.789 -3.148 -0 -1.2 0
29.97 -3.311 -3.135 -0 -1.2 0
29.928 -3.833 -3.121 -0 -1.2 0
29.877 -4.354 -3.106 -0 -1.2 0
29.816 -4.874 -3.091 -0 -1.2 0
29.748 -5.393 -3.074 -0 -1.2 0
29.669 -5.91 -3.056 -0 -1.2 0
29.583 -6.426 -3.038 -0 -1.2 0
29.486 -6.941 -3.02 -0 -1.2 0
29.382 -7.453 -3.001 -0 -1.2 0
29.268 -7.964 -2.981 -0 -1.2 0
29.145 -8.472 -2.96 -0 -1.2 0
29.013 -8.979 -2.939 -0 -1.2 0
28.724 -9.984 -2.894 -0 -1.2 0
28.565 -10.483 -2.87 -0 -1.2 0
27.439 -13.409 -2.716 -0 -1.2 0
27.222 -13.885 -2.688 -0 -1.2 0
26.013 -16.202 -2.539 -0 -1.2 0
25.748 -16.652 -2.508 -0 -1.2 0
25.474 -17.097 -2.476 -0 -1.2 0
25.193 -17.537 -2.444 -0 -1.2 0
24.608 -18.403 -2.377 -0 -1.2 0
23.992 -19.248 -2.308 -0 -1.2 0
23.674 -19.662 -2.273 -0 -1.2 0
23.015 -20.473 -2.201 -0 -1.2 0
22.676 -20.87 -2.164 -0 -1.2 0
22.329 -21.261 -2.127 -0 -1.2 0
21.976 -21.646 -2.09 -0 -1.2 0
21.617 -22.025 -2.052 -0 -1.2 0
29.897 0.327 -4.286 -0 -1.2 0
29.919 -0.195 -4.277 -0 -1.2 0
29.932 -0.717 -4.268 -0 -1.2 0
29.935 -1.24 -4.257 -0 -1.2 0
29.93 -1.763 -4.246 -0 -1.2 0
29.915 -2.287 -4.233 -0 -1.2 0
29.892 -2.81 -4.219 -0 -1.2 0
29.859 -3.332 -4.204 -0 -1.2 0
29.817 -3.854 -4.188 -0 -1.2 0
29.766 -4.375 -4.171 -0 -1.2 0
29.707 -4.895 -4.153 -0 -1.2 0
29.638 -5.414 -4.134 -0 -1.2 0
29.56 -5.931 -4.113 -0 -1.2 0
29.474 -6.447 -4.091 -0 -1.2 0
29.378 -6.961 -4.07 -0 -1.2 0
29.273 -7.473 -4.046 -0 -1.2 0
29.16 -7.984 -4.021 -0 -1.2 0
29.038 -8.492 -3.997 -0 -1.2 0
28.907 -8.999 -3.97 -0 -1.2 0
28.766 -9.503 -3.942 -0 -1.2 0
28.618 -10.004 -3.914 -0 -1.2 0
28.46 -10.503 -3.884 -0 -1.2 0
28.295 -10.998 -3.853 -0 -1.2 0
28.121 -11.491 -3.822 -0 -1.2 0
26.664 -14.843 -3.576 -0 -1.2 0
26.175 -15.766 -3.498 -0 -1.2 0
25.918 -16.22 -3.457 -0 -1.2 0
25.654 -16.669 -3.415 -0 -1.2 0
25.381 -17.115 -3.374 -0 -1.2 0
25.101 -17.555 -3.331 -0 -1.2 0
24.813 -17.99 -3.287 -0 -1.2 0
24.518 -18.42 -3.242 -0 -1.2 0
24.215 -18.845 -3.197 -0 -1.2 0
23.905 -19.264 -3.15 -0 -1.2 0
23.588 -19.678 -3.103 -0 -1.2 0
23.264 -20.087 -3.056 -0 -1.2 0
22.932 -20.489 -3.008 -0 -1.2 0
22.594 -20.886 -2.958 -0 -1.2 0
22.249 -21.276 -2.908 -0 -1.2 0
21.897 -21.661 -2.859 -0 -1.2 0
21.538 -22.039 -2.808 -0 -1.2 0
29.751 -2.829 -5.207 -0 -1.2 0
29.719 -3.352 -5.191 -0 -1.2 0
29.678 -3.873 -5.174 -0 -1.2 0
29.627 -4.395 -5.154 -0 -1.2 0
29.568 -4.914 -5.134 -0 -1.2 0
29.499 -5.433 -5.113 -0 -1.2 0
29.422 -5.95 -5.089 -0 -1.2 0
29.336 -6.466 -5.064 -0 -1.2 0
29.241 -6.98 -5.039 -0 -1.2 0
29.137 -7.493 -5.012 -0 -1.2 0
29.024 -8.003 -4.983 -0 -1.2 0
28.902 -8.512 -4.953 -0 -1.2 0
28.772 -9.018 -4.921 -0 -1.2 0
28.633 -9.522 -4.889 -0 -1.2 0
28.486 -10.023 -4.856 -0 -1.2 0
28.329 -10.522 -4.821 -0 -1.2 0
27.991 -11.51 -4.747 -0 -1.2 0
27.809 -11.999 -4.708 -0 -1.2 0
27.618 -12.484 -4.668 -0 -1.2 0
27.212 -13.446 -4.584 -0 -1.2 0
26.997 -13.922 -4.54 -0 -1.2 0
26.542 -14.861 -4.45 -0 -1.2 0
26.302 -15.324 -4.403 -0 -1.2 0
26.054 -15.783 -4.354 -0 -1.2 0
25.799 -16.237 -4.305 -0 -1.2 0
25.535 -16.686 -4.255 -0 -1.2 0
25.264 -17.132 -4.203 -0 -1.2 0
24.986 -17.571 -4.15 -0 -1.2 0
24.699 -18.007 -4.096 -0 -1.2 0
24.406 -18.436 -4.041 -0 -1.2 0
24.104 -18.861 -3.985 -0 -1.2 0
23.796 -19.28 -3.929 -0 -1.2 0
23.48 -19.694 -3.87 -0 -1.2 0
23.158 -20.102 -3.812 -0 -1.2 0
22.828 -20.504 -3.752 -0 -1.2 0
22.491 -20.9 -3.692 -0 -1.2 0
22.147 -21.29 -3.629 -0 -1.2 0
21.797 -21.675 -3.568 -0 -1.2 0
21.44 -22.053 -3.504 -0 -1.2 0
29.586 0.287 -6.252 -0 -1.2 0
29.607 -0.234 -6.245 -0 -1.2 0
29.62 -0.757 -6.236 -0 -1.2 0
29.624 -1.28 -6.225 -0 -1.2 0
29.619 -1.803 -6.212 -0 -1.2 0
29.604 -2.327 -6.198 -0 -1.2 0
29.581 -2.849 -6.181 -0 -1.2 0
29.548 -3.372 -6.164 -0 -1.2 0
29.508 -3.893 -6.145 -0 -1.2 0
29.458 -4.415 -6.124 -0 -1.2 0
29.399 -4.934 -6.101 -0 -1.2 0
29.33 -5.453 -6.076 -0 -1.2 0
29.254 -5.97 -6.051 -0 -1.2 0
29.168 -6.486 -6.023 -0 -1.2 0
29.073 -7 -5.993 -0 -1.2 0
28.97 -7.512 -5.963 -0 -1.2 0
28.859 -8.023 -5.93 -0 -1.2 0
28.737 -8.531 -5.896 -0 -1.2 0
28.608 -9.037 -5.86 -0 -1.2 0
28.47 -9.541 -5.822 -0 -1.2 0
28.323 -10.042 -5.784 -0 -1.2 0
28.167 -10.541 -5.743 -0 -1.2 0
28.004 -11.035 -5.701 -0 -1.2 0
27.83 -11.528 -5.658 -0 -1.2 0
27.65 -12.018 -5.612 -0 -1.2 0
27.46 -12.503 -5.566 -0 -1.2 0
27.264 -12.986 -5.517 -0 -1.2 0
26.844 -13.94 -5.417 -0 -1.2 0
26.621 -14.411 -5.364 -0 -1.2 0
26.391 -14.878 -5.311 -0 -1.2 0
26.153 -15.341 -5.254 -0 -1.2 0
25.907 -15.8 -5.198 -0 -1.2 0
25.652 -16.254 -5.14 -0 -1.2 0
25.391 -16.703 -5.081 -0 -1.2 0
25.121 -17.148 -5.02 -0 -1.2 0
24.845 -17.588 -4.957 -0 -1.2 0
24.559 -18.023 -4.894 -0 -1.2 0
24.268 -18.452 -4.829 -0 -1.2 0
23.968 -18.877 -4.762 -0 -1.2 0
23.662 -19.296 -4.695 -0 -1.2 0
23.348 -19.709 -4.626 -0 -1.2 0
23.027 -20.117 -4.557 -0 -1.2 0
22.699 -20.519 -4.486 -0 -1.2 0
22.364 -20.915 -4.414 -0 -1.2 0
22.023 -21.305 -4.34 -0 -1.2 0
21.675 -21.689 -4.266 -0 -1.2 0
21.32 -22.068 -4.191 -0 -1.2 0
29.363 0.266 -7.297 -0 -1.2 0
29.384 -0.256 -7.291 -0 -1.2 0
29.398 -0.778 -7.281 -0 -1.2 0
29.401 -1.301 -7.27 -0 -1.2 0
29.396 -1.824 -7.257 -0 -1.2 0
29.382 -2.348 -7.242 -0 -1.2 0
29.36 -2.871 -7.225 -0 -1.2 0
29.327 -3.393 -7.206 -0 -1.2 0
29.287 -3.914 -7.184 -0 -1.2 0
29.237 -4.436 -7.161 -0 -1.2 0
29.179 -4.955 -7.136 -0 -1.2 0
29.111 -5.474 -7.109 -0 -1.2 0
29.035 -5.991 -7.08 -0 -1.2 0
28.95 -6.507 -7.049 -0 -1.2 0
28.856 -7.021 -7.016 -0 -1.2 0
28.754 -7.533 -6.981 -0 -1.2 0
28.643 -8.043 -6.944 -0 -1.2 0
28.523 -8.551 -6.905 -0 -1.2 0
28.394 -9.058 -6.864 -0 -1.2 0
28.257 -9.561 -6.822 -0 -1.2 0
28.112 -10.062 -6.777 -0 -1.2 0
27.958 -10.561 -6.731 -0 -1.2 0
27.795 -11.055 -6.683 -0 -1.2 0
27.624 -11.548 -6.633 -0 -1.2 0
27.444 -12.037 -6.581 -0 -1.2 0
27.257 -12.522 -6.527 -0 -1.2 0
27.061 -13.005 -6.472 -0 -1.2 0
26.857 -13.484 -6.415 -0 -1.2 0
26.644 -13.959 -6.355 -0 -1.2 0
26.424 -14.429 -6.294 -0 -1.2 0
26.195 -14.897 -6.231 -0 -1.2 0
25.959 -15.36 -6.167 -0 -1.2 0
25.715 -15.818 -6.101 -0 -1.2 0
25.463 -16.272 -6.034 -0 -1.2 0
25.203 -16.721 -5.965 -0 -1.2 0
24.935 -17.166 -5.894 -0 -1.2 0
24.661 -17.605 -5.821 -0 -1.2 0
24.378 -18.04 -5.748 -0 -1.2 0
24.089 -18.469 -5.672 -0 -1.2 0
23.791 -18.894 -5.594 -0 -1.2 0
23.487 -19.312 -5.516 -0 -1.2 0
23.175 -19.726 -5.436 -0 -1.2 0
22.857 -20.133 -5.354 -0 -1.2 0
22.532 -20.535 -5.272 -0 -1.2 0
22.2 -20.931 -5.187 -0 -1.2 0
21.861 -21.32 -5.101 -0 -1.2 0
21.515 -21.704 -5.015 -0 -1.2 0
21.163 -22.082 -4.926 -0 -1.2 0
29.123 0.245 -8.259 -0 -1.2 0
29.144 -0.276 -8.252 -0 -1.2 0
29.158 -0.799 -8.243 -0 -1.2 0
29.161 -1.322 -8.232 -0 -1.2 0
29.156 -1.845 -8.219 -0 -1.2 0
29.143 -2.369 -8.203 -0 -1.2 0
29.12 -2.891 -8.184 -0 -1.2 0
29.088 -3.414 -8.164 -0 -1.2 0
29.048 -3.935 -8.141 -0 -1.2 0
28.999 -4.456 -8.116 -0 -1.2 0
28.941 -4.976 -8.089 -0 -1.2 0
28.874 -5.495 -8.059 -0 -1.2 0
28.799 -6.011 -8.027 -0 -1.2 0
28.715 -6.527 -7.993 -0 -1.2 0
28.622 -7.041 -7.956 -0 -1.2 0
28.52 -7.553 -7.918 -0 -1.2 0
28.411 -8.063 -7.877 -0 -1.2 0
28.292 -8.571 -7.834 -0 -1.2 0
28.164 -9.078 -7.789 -0 -1.2 0
28.029 -9.581 -7.742 -0 -1.2 0
27.884 -10.082 -7.692 -0 -1.2 0
27.731 -10.58 -7.64 -0 -1.2 0
27.57 -11.075 -7.586 -0 -1.2 0
27.4 -11.568 -7.53 -0 -1.2 0
27.222 -12.056 -7.472 -0 -1.2 0
27.036 -12.541 -7.412 -0 -1.2 0
26.841 -13.024 -7.349 -0 -1.2 0
26.639 -13.502 -7.285 -0 -1.2 0
26.429 -13.978 -7.218 -0 -1.2 0
26.21 -14.448 -7.15 -0 -1.2 0
25.984 -14.915 -7.08 -0 -1.2 0
25.75 -15.378 -7.007 -0 -1.2 0
25.507 -15.836 -6.933 -0 -1.2 0
25.258 -16.29 -6.856 -0 -1.2 0
25 -16.739 -6.779 -0 -1.2 0
24.735 -17.183 -6.699 -0 -1.2 0
24.463 -17.622 -6.617 -0 -1.2 0
24.182 -18.057 -6.534 -0 -1.2 0
23.895 -18.486 -6.447 -0 -1.2 0
23.6 -18.91 -6.361 -0 -1.2 0
23.299 -19.329 -6.271 -0 -1.2 0
22.99 -19.742 -6.18 -0 -1.2 0
22.674 -20.149 -6.088 -0 -1.2 0
22.352 -20.551 -5.994 -0 -1.2 0
22.022 -20.946 -5.899 -0 -1.2 0
21.686 -21.336 -5.802 -0 -1.2 0
21.344 -21.719 -5.702 -0 -1.2 0
20.995 -22.097 -5.602 -0 -1.2 0
28.85 0.224 -9.21 -0 -1.2 0
28.872 -0.298 -9.204 -0 -1.2 0
28.884 -0.82 -9.195 -0 -1.2 0
28.889 -1.343 -9.184 -0 -1.2 0
28.884 -1.866 -9.169 -0 -1.2 0
28.87 -2.39 -9.153 -0 -1.2 0
28.847 -2.913 -9.134 -0 -1.2 0
28.816 -3.435 -9.112 -0 -1.2 0
28.776 -3.956 -9.087 -0 -1.2 0
28.728 -4.477 -9.061 -0 -1.2 0
28.671 -4.997 -9.031 -0 -1.2 0
28.605 -5.516 -8.999 -0 -1.2 0
28.53 -6.032 -8.964 -0 -1.2 0
28.447 -6.548 -8.927 -0 -1.2 0
28.355 -7.062 -8.887 -0 -1.2 0
28.254 -7.574 -8.845 -0 -1.2 0
28.145 -8.084 -8.8 -0 -1.2 0
28.028 -8.592 -8.753 -0 -1.2 0
27.902 -9.098 -8.703 -0 -1.2 0
27.768 -9.601 -8.651 -0 -1.2 0
27.624 -10.102 -8.596 -0 -1.2 0
27.473 -10.6 -8.539 -0 -1.2 0
27.314 -11.095 -8.48 -0 -1.2 0
27.145 -11.587 -8.417 -0 -1.2 0
26.969 -12.076 -8.353 -0 -1.2 0
26.786 -12.561 -8.286 -0 -1.2 0
26.593 -13.044 -8.217 -0 -1.2 0
26.392 -13.522 -8.147 -0 -1.2 0
26.184 -13.997 -8.072 -0 -1.2 0
25.968 -14.467 -7.997 -0 -1.2 0
25.743 -14.934 -7.918 -0 -1.2 0
25.511 -15.396 -7.838 -0 -1.2 0
25.272 -15.855 -7.755 -0 -1.2 0
25.024 -16.308 -7.67 -0 -1.2 0
24.769 -16.757 -7.584 -0 -1.2 0
24.506 -17.201 -7.494 -0 -1.2 0
24.237 -17.64 -7.404 -0 -1.2 0
23.959 -18.075 -7.311 -0 -1.2 0
23.675 -18.503 -7.215 -0 -1.2 0
23.382 -18.927 -7.118 -0 -1.2 0
23.084 -19.345 -7.019 -0 -1.2 0
22.778 -19.758 -6.918 -0 -1.2 0
22.466 -20.165 -6.814 -0 -1.2 0
22.146 -20.567 -6.709 -0 -1.2 0
21.82 -20.962 -6.602 -0 -1.2 0
21.487 -21.351 -6.494 -0 -1.2 0
21.148 -21.734 -6.383 -0 -1.2 0
20.802 -22.112 -6.271 -0 -1.2 0
28.526 0.201 -10.211 -0 -1.2 0
28.56 -0.843 -10.197 -0 -1.2 0
28.559 -1.889 -10.17 -0 -1.2 0
28.546 -2.413 -10.153 -0 -1.2 0
28.524 -2.935 -10.133 -0 -1.2 0
28.494 -3.458 -10.11 -0 -1.2 0
28.454 -3.979 -10.084 -0 -1.2 0
28.406 -4.5 -10.055 -0 -1.2 0
28.349 -5.02 -10.023 -0 -1.2 0
28.284 -5.538 -9.988 -0 -1.2 0
28.211 -6.055 -9.951 -0 -1.2 0
28.129 -6.571 -9.911 -0 -1.2 0
28.038 -7.084 -9.867 -0 -1.2 0
27.939 -7.596 -9.821 -0 -1.2 0
27.831 -8.106 -9.772 -0 -1.2 0
27.715 -8.614 -9.72 -0 -1.2 0
27.59 -9.12 -9.666 -0 -1.2 0
27.458 -9.623 -9.608 -0 -1.2 0
27.316 -10.124 -9.548 -0 -1.2 0
27.167 -10.622 -9.485 -0 -1.2 0
27.009 -11.116 -9.42 -0 -1.2 0
26.844 -11.609 -9.352 -0 -1.2 0
26.669 -12.097 -9.281 -0 -1.2 0
26.487 -12.582 -9.207 -0 -1.2 0
26.297 -13.065 -9.132 -0 -1.2 0
26.099 -13.543 -9.053 -0 -1.2 0
25.893 -14.017 -8.972 -0 -1.2 0
25.679 -14.487 -8.888 -0 -1.2 0
25.457 -14.954 -8.801 -0 -1.2 0
25.228 -15.417 -8.712 -0 -1.2 0
24.991 -15.875 -8.622 -0 -1.2 0
24.747 -16.328 -8.528 -0 -1.2 0
24.495 -16.776 -8.431 -0 -1.2 0
24.235 -17.221 -8.333 -0 -1.2 0
23.968 -17.659 -8.232 -0 -1.2 0
23.694 -18.094 -8.129 -0 -1.2 0
23.413 -18.522 -8.023 -0 -1.2 0
23.125 -18.946 -7.915 -0 -1.2 0
22.83 -19.363 -7.805 -0 -1.2 0
22.527 -19.776 -7.693 -0 -1.2 0
22.218 -20.183 -7.579 -0 -1.2 0
21.903 -20.584 -7.462 -0 -1.2 0
21.58 -20.979 -7.343 -0 -1.2 0
21.251 -21.368 -7.223 -0 -1.2 0
20.916 -21.751 -7.1 -0 -1.2 0
20.574 -22.128 -6.976 -0 -1.2 0
28.222 -1.379 -11.123 -0 -1.2 0
28.218 -1.902 -11.109 -0 -1.2 0
28.205 -2.426 -11.091 -0 -1.2 0
28.183 -2.948 -11.07 -0 -1.2 0
28.153 -3.47 -11.046 -0 -1.2 0
28.115 -3.992 -11.019 -0 -1.2 0
28.067 -4.513 -10.988 -0 -1.2 0
28.012 -5.032 -10.954 -0 -1.2 0
27.948 -5.551 -10.917 -0 -1.2 0
27.875 -6.068 -10.877 -0 -1.2 0
27.794 -6.583 -10.834 -0 -1.2 0
27.705 -7.097 -10.787 -0 -1.2 0
27.607 -7.609 -10.738 -0 -1.2 0
27.501 -8.119 -10.685 -0 -1.2 0
27.386 -8.627 -10.63 -0 -1.2 0
27.263 -9.133 -10.572 -0 -1.2 0
27.132 -9.636 -10.509 -0 -1.2 0
26.992 -10.136 -10.445 -0 -1.2 0
26.845 -10.634 -10.377 -0 -1.2 0
26.689 -11.128 -10.306 -0 -1.2 0
26.525 -11.621 -10.232 -0 -1.2 0
26.354 -12.109 -10.156 -0 -1.2 0
26.174 -12.594 -10.076 -0 -1.2 0
25.987 -13.076 -9.994 -0 -1.2 0
25.791 -13.554 -9.909 -0 -1.2 0
25.588 -14.029 -9.82 -0 -1.2 0
25.376 -14.499 -9.729 -0 -1.2 0
25.158 -14.966 -9.636 -0 -1.2 0
24.93 -15.428 -9.539 -0 -1.2 0
24.697 -15.886 -9.44 -0 -1.2 0
24.455 -16.339 -9.338 -0 -1.2 0
24.206 -16.787 -9.233 -0 -1.2 0
23.95 -17.231 -9.126 -0 -1.2 0
23.687 -17.669 -9.016 -0 -1.2 0
23.416 -18.104 -8.903 -0 -1.2 0
23.139 -18.532 -8.788 -0 -1.2 0
22.854 -18.956 -8.672 -0 -1.2 0
22.562 -19.373 -8.552 -0 -1.2 0
22.264 -19.786 -8.429 -0 -1.2 0
21.958 -20.193 -8.305 -0 -1.2 0
21.646 -20.593 -8.177 -0 -1.2 0
21.328 -20.988 -8.047 -0 -1.2 0
21.003 -21.377 -7.916 -0 -1.2 0
20.672 -21.76 -7.782 -0 -1.2 0
20.334 -22.137 -7.646 -0 -1.2 0
27.849 -1.392 -12.05 -0 -1.2 0
27.845 -1.915 -12.035 -0 -1.2 0
27.832 -2.439 -12.017 -0 -1.2 0
27.811 -2.961 -11.996 -0 -1.2 0
27.782 -3.484 -11.97 -0 -1.2 0
27.744 -4.005 -11.942 -0 -1.2 0
27.698 -4.526 -11.909 -0 -1.2 0
27.643 -5.046 -11.873 -0 -1.2 0
27.58 -5.564 -11.835 -0 -1.2 0
27.508 -6.081 -11.792 -0 -1.2 0
27.429 -6.596 -11.746 -0 -1.2 0
27.341 -7.11 -11.697 -0 -1.2 0
27.244 -7.622 -11.644 -0 -1.2 0
27.14 -8.131 -11.588 -0 -1.2 0
27.027 -8.639 -11.529 -0 -1.2 0
26.906 -9.145 -11.466 -0 -1.2 0
26.776 -9.648 -11.399 -0 -1.2 0
26.639 -10.148 -11.33 -0 -1.2 0
26.494 -10.647 -11.257 -0 -1.2 0
26.34 -11.141 -11.181 -0 -1.2 0
26.179 -11.633 -11.102 -0 -1.2 0
26.01 -12.122 -11.02 -0 -1.2 0
25.833 -12.606 -10.934 -0 -1.2 0
25.648 -13.089 -10.846 -0 -1.2 0
25.455 -13.566 -10.754 -0 -1.2 0
25.254 -14.041 -10.659 -0 -1.2 0
25.046 -14.511 -10.561 -0 -1.2 0
24.83 -14.977 -10.459 -0 -1.2 0
24.607 -15.439 -10.355 -0 -1.2 0
24.376 -15.897 -10.248 -0 -1.2 0
24.138 -16.35 -10.139 -0 -1.2 0
23.893 -16.798 -10.026 -0 -1.2 0
23.639 -17.242 -9.909 -0 -1.2 0
23.38 -17.681 -9.791 -0 -1.2 0
23.113 -18.115 -9.67 -0 -1.2 0
22.839 -18.543 -9.545 -0 -1.2 0
22.559 -18.967 -9.418 -0 -1.2 0
22.27 -19.384 -9.288 -0 -1.2 0
21.976 -19.796 -9.156 -0 -1.2 0
21.675 -20.203 -9.022 -0 -1.2 0
21.367 -20.604 -8.883 -0 -1.2 0
21.054 -20.998 -8.744 -0 -1.2 0
20.733 -21.387 -8.601 -0 -1.2 0
20.406 -21.77 -8.456 -0 -1.2 0
20.073 -22.147 -8.308 -0 -1.2 0
27.41 -1.407 -13.041 -0 -1.2 0
27.406 -1.93 -13.026 -0 -1.2 0
27.394 -2.454 -13.007 -0 -1.2 0
27.373 -2.976 -12.985 -0 -1.2 0
27.344 -3.498 -12.958 -0 -1.2 0
27.307 -4.019 -12.928 -0 -1.2 0
27.262 -4.541 -12.894 -0 -1.2 0
27.208 -5.06 -12.857 -0 -1.2 0
27.146 -5.579 -12.815 -0 -1.2 0
27.076 -6.095 -12.77 -0 -1.2 0
26.998 -6.611 -12.721 -0 -1.2 0
26.911 -7.124 -12.668 -0 -1.2 0
26.816 -7.636 -12.612 -0 -1.2 0
26.714 -8.146 -12.552 -0 -1.2 0
26.603 -8.654 -12.489 -0 -1.2 0
26.484 -9.159 -12.422 -0 -1.2 0
26.357 -9.662 -12.351 -0 -1.2 0
26.222 -10.162 -12.277 -0 -1.2 0
26.08 -10.661 -12.199 -0 -1.2 0
25.928 -11.155 -12.117 -0 -1.2 0
25.769 -11.647 -12.032 -0 -1.2 0
25.603 -12.135 -11.944 -0 -1.2 0
25.429 -12.62 -11.852 -0 -1.2 0
25.248 -13.102 -11.756 -0 -1.2 0
25.058 -13.58 -11.657 -0 -1.2 0
24.86 -14.054 -11.555 -0 -1.2 0
24.656 -14.524 -11.449 -0 -1.2 0
24.443 -14.99 -11.34 -0 -1.2 0
24.224 -15.452 -11.229 -0 -1.2 0
23.997 -15.91 -11.113 -0 -1.2 0
23.763 -16.363 -10.994 -0 -1.2 0
23.521 -16.811 -10.872 -0 -1.2 0
23.273 -17.255 -10.747 -0 -1.2 0
23.018 -17.693 -10.619 -0 -1.2 0
22.755 -18.127 -10.488 -0 -1.2 0
22.485 -18.555 -10.353 -0 -1.2 0
22.21 -18.978 -10.216 -0 -1.2 0
21.927 -19.396 -10.077 -0 -1.2 0
21.637 -19.808 -9.933 -0 -1.2 0
21.34 -20.214 -9.787 -0 -1.2 0
21.038 -20.615 -9.639 -0 -1.2 0
20.729 -21.009 -9.487 -0 -1.2 0
20.414 -21.398 -9.333 -0 -1.2 0
20.093 -21.78 -9.176 -0 -1.2 0
19.765 -22.157 -9.017 -0 -1.2 0
26.955 -1.941 -13.946 -0 -1.2 0
26.944 -2.465 -13.927 -0 -1.2 0
26.923 -2.987 -13.904 -0 -1.2 0
26.896 -3.509 -13.876 -0 -1.2 0
26.86 -4.03 -13.845 -0 -1.2 0
26.815 -4.552 -13.809 -0 -1.2 0
26.762 -5.071 -13.769 -0 -1.2 0
26.702 -5.589 -13.727 -0 -1.2 0
26.634 -6.106 -13.678 -0 -1.2 0
26.556 -6.621 -13.628 -0 -1.2 0
26.471 -7.135 -13.572 -0 -1.2 0
26.378 -7.647 -13.512 -0 -1.2 0
26.278 -8.156 -13.449 -0 -1.2 0
26.168 -8.664 -13.381 -0 -1.2 0
26.052 -9.17 -13.31 -0 -1.2 0
25.928 -9.673 -13.235 -0 -1.2 0
25.795 -10.173 -13.156 -0 -1.2 0
25.654 -10.671 -13.073 -0 -1.2 0
25.507 -11.165 -12.987 -0 -1.2 0
25.351 -11.657 -12.896 -0 -1.2 0
25.187 -12.145 -12.802 -0 -1.2 0
25.016 -12.63 -12.704 -0 -1.2 0
24.837 -13.112 -12.602 -0 -1.2 0
24.651 -13.589 -12.497 -0 -1.2 0
24.458 -14.064 -12.388 -0 -1.2 0
24.256 -14.533 -12.275 -0 -1.2 0
24.048 -15 -12.159 -0 -1.2 0
23.832 -15.462 -12.039 -0 -1.2 0
23.609 -15.919 -11.916 -0 -1.2 0
23.378 -16.372 -11.789 -0 -1.2 0
23.142 -16.82 -11.659 -0 -1.2 0
22.897 -17.264 -11.526 -0 -1.2 0
22.646 -17.702 -11.389 -0 -1.2 0
22.387 -18.136 -11.249 -0 -1.2 0
22.123 -18.564 -11.105 -0 -1.2 0
21.852 -18.987 -10.959 -0 -1.2 0
21.573 -19.404 -10.809 -0 -1.2 0
21.289 -19.816 -10.655 -0 -1.2 0
20.998 -20.222 -10.5 -0 -1.2 0
20.7 -20.623 -10.34 -0 -1.2 0
20.396 -21.017 -10.179 -0 -1.2 0
20.087 -21.406 -10.014 -0 -1.2 0
19.77 -21.788 -9.845 -0 -1.2 0
19.448 -22.165 -9.675 -0 -1.2 0
26.461 -0.384 -14.882 -0 -1.2 0
26.475 -1.953 -14.85 -0 -1.2 0
26.463 -2.477 -14.83 -0 -1.2 0
26.444 -2.999 -14.806 -0 -1.2 0
26.417 -3.521 -14.778 -0 -1.2 0
26.338 -4.563 -14.708 -0 -1.2 0
26.287 -5.083 -14.667 -0 -1.2 0
26.228 -5.601 -14.621 -0 -1.2 0
26.16 -6.118 -14.571 -0 -1.2 0
26.085 -6.633 -14.518 -0 -1.2 0
26.002 -7.147 -14.459 -0 -1.2 0
25.911 -7.658 -14.396 -0 -1.2 0
25.812 -8.168 -14.33 -0 -1.2 0
25.59 -9.182 -14.183 -0 -1.2 0
25.338 -10.184 -14.02 -0 -1.2 0
25.056 -11.176 -13.84 -0 -1.2 0
24.903 -11.668 -13.744 -0 -1.2 0
24.743 -12.157 -13.645 -0 -1.2 0
24.574 -12.641 -13.541 -0 -1.2 0
24.399 -13.123 -13.433 -0 -1.2 0
24.216 -13.6 -13.322 -0 -1.2 0
24.026 -14.075 -13.206 -0 -1.2 0
23.829 -14.544 -13.086 -0 -1.2 0
23.625 -15.011 -12.963 -0 -1.2 0
23.413 -15.472 -12.836 -0 -1.2 0
23.194 -15.93 -12.705 -0 -1.2 0
22.968 -16.383 -12.57 -0 -1.2 0
22.735 -16.83 -12.432 -0 -1.2 0
22.495 -17.274 -12.29 -0 -1.2 0
22.249 -17.712 -12.145 -0 -1.2 0
21.996 -18.146 -11.996 -0 -1.2 0
21.736 -18.574 -11.843 -0 -1.2 0
21.47 -18.997 -11.688 -0 -1.2 0
21.196 -19.414 -11.528 -0 -1.2 0
20.917 -19.826 -11.365 -0 -1.2 0
20.631 -20.232 -11.199 -0 -1.2 0
20.34 -20.632 -11.03 -0 -1.2 0
20.042 -21.026 -10.858 -0 -1.2 0
19.737 -21.414 -10.682 -0 -1.2 0
19.427 -21.797 -10.503 -0 -1.2 0
19.111 -22.173 -10.322 -0 -1.2 0
25.923 -1.966 -15.804 -0 -1.2 0
25.912 -2.49 -15.783 -0 -1.2 0
25.894 -3.012 -15.759 -0 -1.2 0
25.867 -3.534 -15.729 -0 -1.2 0
25.833 -4.055 -15.696 -0 -1.2 0
25.791 -4.577 -15.657 -0 -1.2 0
25.74 -5.096 -15.614 -0 -1.2 0
25.617 -6.131 -15.513 -0 -1.2 0
25.544 -6.646 -15.456 -0 -1.2 0
25.374 -7.671 -15.329 -0 -1.2 0
25.277 -8.181 -15.258 -0 -1.2 0
25.173 -8.689 -15.183 -0 -1.2 0
24.941 -9.697 -15.02 -0 -1.2 0
24.815 -10.197 -14.931 -0 -1.2 0
24.232 -12.169 -14.534 -0 -1.2 0
24.068 -12.653 -14.424 -0 -1.2 0
23.897 -13.135 -14.309 -0 -1.2 0
23.718 -13.612 -14.191 -0 -1.2 0
23.532 -14.087 -14.069 -0 -1.2 0
23.339 -14.556 -13.942 -0 -1.2 0
23.139 -15.022 -13.811 -0 -1.2 0
22.932 -15.484 -13.676 -0 -1.2 0
22.718 -15.941 -13.537 -0 -1.2 0
22.496 -16.394 -13.394 -0 -1.2 0
22.269 -16.842 -13.247 -0 -1.2 0
22.034 -17.285 -13.096 -0 -1.2 0
21.794 -17.723 -12.942 -0 -1.2 0
21.546 -18.157 -12.783 -0 -1.2 0
21.292 -18.584 -12.622 -0 -1.2 0
21.031 -19.007 -12.456 -0 -1.2 0
20.764 -19.424 -12.286 -0 -1.2 0
20.49 -19.836 -12.113 -0 -1.2 0
20.211 -20.242 -11.937 -0 -1.2 0
19.925 -20.642 -11.757 -0 -1.2 0
19.633 -21.036 -11.574 -0 -1.2 0
19.335 -21.424 -11.387 -0 -1.2 0
19.032 -21.806 -11.196 -0 -1.2 0
18.723 -22.183 -11.003 -0 -1.2 0
25.374 -0.93 -16.697 -0 -1.2 0
25.379 -1.453 -16.687 -0 -1.2 0
25.376 -1.976 -16.672 -0 -1.2 0
25.366 -2.5 -16.651 -0 -1.2 0
25.348 -3.022 -16.625 -0 -1.2 0
25.288 -4.065 -16.561 -0 -1.2 0
25.248 -4.587 -16.521 -0 -1.2 0
25.199 -5.106 -16.475 -0 -1.2 0
25.078 -6.141 -16.371 -0 -1.2 0
25.007 -6.656 -16.312 -0 -1.2 0
24.841 -7.681 -16.178 -0 -1.2 0
24.747 -8.191 -16.104 -0 -1.2 0
24.645 -8.698 -16.025 -0 -1.2 0
24.296 -10.206 -15.761 -0 -1.2 0
23.565 -12.662 -15.228 -0 -1.2 0
23.223 -13.622 -14.984 -0 -1.2 0
23.041 -14.096 -14.855 -0 -1.2 0
22.853 -14.565 -14.722 -0 -1.2 0
22.657 -15.031 -14.583 -0 -1.2 0
22.454 -15.493 -14.441 -0 -1.2 0
22.245 -15.95 -14.296 -0 -1.2 0
22.029 -16.403 -14.145 -0 -1.2 0
21.807 -16.85 -13.99 -0 -1.2 0
21.578 -17.294 -13.832 -0 -1.2 0
21.341 -17.731 -13.669 -0 -1.2 0
21.099 -18.165 -13.502 -0 -1.2 0
20.851 -18.593 -13.332 -0 -1.2 0
20.596 -19.015 -13.156 -0 -1.2 0
20.334 -19.432 -12.978 -0 -1.2 0
20.067 -19.844 -12.796 -0 -1.2 0
19.794 -20.25 -12.61 -0 -1.2 0
19.514 -20.65 -12.42 -0 -1.2 0
19.228 -21.044 -12.226 -0 -1.2 0
18.937 -21.432 -12.029 -0 -1.2 0
18.641 -21.814 -11.829 -0 -1.2 0
18.338 -22.19 -11.625 -0 -1.2 0
24.795 -0.952 -17.549 -0 -1.2 0
24.77 -3.043 -17.475 -0 -1.2 0
24.745 -3.565 -17.444 -0 -1.2 0
24.713 -4.087 -17.407 -0 -1.2 0
23.617 -10.724 -16.469 -0 -1.2 0
23.189 -12.198 -16.134 -0 -1.2 0
23.032 -12.682 -16.012 -0 -1.2 0
22.336 -14.584 -15.48 -0 -1.2 0
21.948 -15.511 -15.186 -0 -1.2 0
21.743 -15.968 -15.032 -0 -1.2 0
21.532 -16.421 -14.874 -0 -1.2 0
21.315 -16.868 -14.712 -0 -1.2 0
21.091 -17.311 -14.545 -0 -1.2 0
20.86 -17.749 -14.374 -0 -1.2 0
20.624 -18.182 -14.199 -0 -1.2 0
20.381 -18.61 -14.02 -0 -1.2 0
20.132 -19.032 -13.836 -0 -1.2 0
19.878 -19.449 -13.648 -0 -1.2 0
18.797 -21.059 -12.858 -0 -1.2 0
18.513 -21.447 -12.65 -0 -1.2 0
18.222 -21.829 -12.44 -0 -1.2 0
17.928 -22.205 -12.226 -0 -1.2 0
24.14 -0.979 -18.443 -0 -1.2 0
23.494 -2 -17.931 -0 -1.2 0
23.436 -2.507 -17.874 -0 -1.2 0
23.381 -3.011 -17.818 -0 -1.2 0
23.396 -3.521 -17.816 -0 -1.2 0
23.862 -6.189 -18.09 -0 -1.2 0
23.72 -7.217 -17.955 -0 -1.2 0
23.451 -8.746 -17.711 -0 -1.2 0
23.348 -9.251 -17.62 -0 -1.2 0
22.996 -10.751 -17.313 -0 -1.2 0
21.174 -15.992 -15.804 -0 -1.2 0
20.969 -16.444 -15.638 -0 -1.2 0
20.757 -16.892 -15.468 -0 -1.2 0
20.539 -17.335 -15.292 -0 -1.2 0
20.315 -17.772 -15.112 -0 -1.2 0
20.085 -18.205 -14.928 -0 -1.2 0
19.849 -18.632 -14.739 -0 -1.2 0
19.606 -19.054 -14.546 -0 -1.2 0
19.358 -19.471 -14.349 -0 -1.2 0
19.104 -19.882 -14.147 -0 -1.2 0
18.307 -21.08 -13.518 -0 -1.2 0
17.461 -22.224 -12.853 -0 -1.2 0
23.496 -1.006 -19.252 -0 -1.2 0
23.502 -1.528 -19.241 -0 -1.2 0
23.163 -6.73 -18.819 -0 -1.2 0
23.09 -7.243 -18.746 -0 -1.2 0
21.982 -12.248 -17.711 -0 -1.2 0
20.808 -15.559 -16.672 -0 -1.2 0
20.615 -16.015 -16.503 -0 -1.2 0
20.415 -16.467 -16.329 -0 -1.2 0
20.209 -16.914 -16.152 -0 -1.2 0
19.998 -17.357 -15.968 -0 -1.2 0
19.779 -17.794 -15.781 -0 -1.2 0
19.556 -18.226 -15.588 -0 -1.2 0
19.326 -18.653 -15.391 -0 -1.2 0
19.091 -19.075 -15.19 -0 -1.2 0
18.849 -19.491 -14.983 -0 -1.2 0
18.602 -19.902 -14.773 -0 -1.2 0
17.003 -22.243 -13.42 -0 -1.2 0
22.838 -1.031 -20.026 -0 -1.2 0
22.844 -1.554 -20.015 -0 -1.2 0
22.687 -5.206 -19.771 -0 -1.2 0
22.096 -9.301 -19.14 -0 -1.2 0
21.88 -10.303 -18.924 -0 -1.2 0
21.762 -10.8 -18.808 -0 -1.2 0
20.413 -15.121 -17.516 -0 -1.2 0
20.044 -16.038 -17.17 -0 -1.2 0
19.65 -16.936 -16.805 -0 -1.2 0
19.444 -17.378 -16.614 -0 -1.2 0
19.233 -17.815 -16.419 -0 -1.2 0
19.015 -18.248 -16.219 -0 -1.2 0
18.791 -18.674 -16.013 -0 -1.2 0
18.562 -19.096 -15.803 -0 -1.2 0
18.328 -19.512 -15.589 -0 -1.2 0
18.088 -19.922 -15.37 -0 -1.2 0
16.535 -22.261 -13.962 -0 -1.2 0
22.104 -1.059 -20.829 -0 -1.2 0
21.182 -10.329 -19.686 -0 -1.2 0
20.69 -12.297 -19.169 -0 -1.2 0
19.219 -16.513 -17.676 -0 -1.2 0
19.026 -16.959 -17.482 -0 -1.2 0
18.827 -17.401 -17.285 -0 -1.2 0
18.621 -17.838 -17.081 -0 -1.2 0
21.392 -1.085 -21.552 -0 -1.2 0
21.095 -6.807 -21.075 -0 -1.2 0
21.029 -7.32 -20.994 -0 -1.2 0
20.027 -12.321 -19.839 -0 -1.2 0
18.419 -16.981 -18.094 -0 -1.2 0
18.227 -17.423 -17.888 -0 -1.2 0
18.029 -17.859 -17.677 -0 -1.2 0
17.403 -19.139 -17.016 -0 -1.2 0
20.657 -1.11 -22.25 -0 -1.2 0
20.481 -5.802 -21.908 -0 -1.2 0
20.084 -8.872 -21.385 -0 -1.2 0
19.902 -9.879 -21.159 -0 -1.2 0
19.803 -10.378 -21.037 -0 -1.2 0
19.697 -10.875 -20.908 -0 -1.2 0
19.586 -11.367 -20.772 -0 -1.2 0
18.792 -14.258 -19.834 -0 -1.2 0
18.318 -15.65 -19.284 -0 -1.2 0
18.149 -16.106 -19.089 -0 -1.2 0
17.794 -17.003 -18.683 -0 -1.2 0
17.608 -17.445 -18.471 -0 -1.2 0
17.02 -18.738 -17.803 -0 -1.2 0
15.47 -21.563 -16.062 -0 -1.2 0
19.648 -6.344 -22.529 -0 -1.2 0
19.594 -6.859 -22.449 -0 -1.2 0
19.395 -8.391 -22.169 -0 -1.2 0
19.317 -8.898 -22.063 -0 -1.2 0
18.946 -10.9 -21.571 -0 -1.2 0
18.839 -11.392 -21.431 -0 -1.2 0
17.78 -15.214 -20.091 -0 -1.2 0
16.376 -18.76 -18.367 -0 -1.2 0
15.554 -20.408 -17.372 -0 -1.2 0
14.656 -21.962 -16.293 -0 -1.2 0
18.954 -5.855 -23.211 -0 -1.2 0
18.855 -6.885 -23.054 -0 -1.2 0
18.797 -7.398 -22.965 -0 -1.2 0
18.664 -8.417 -22.767 -0 -1.2 0
18.589 -8.924 -22.658 -0 -1.2 0
18.509 -9.429 -22.541 -0 -1.2 0
18.233 -10.925 -22.152 -0 -1.2 0
16.646 -16.603 -20.013 -0 -1.2 0
16.133 -17.925 -19.339 -0 -1.2 0
15.766 -18.781 -18.861 -0 -1.2 0
14.975 -20.429 -17.838 -0 -1.2 0
14.113 -21.982 -16.73 -0 -1.2 0
13.886 -22.355 -16.44 -0 -1.2 0
18.191 -5.881 -23.797 -0 -1.2 0
18.147 -6.397 -23.72 -0 -1.2 0
17.684 -9.956 -22.985 -0 -1.2 0
17.504 -10.951 -22.713 -0 -1.2 0
15.318 -18.378 -19.585 -0 -1.2 0
15.14 -18.803 -19.337 -0 -1.2 0
14.183 -20.846 -18.011 -0 -1.2 0
17.355 -5.909 -24.397 -0 -1.2 0
17.214 -7.452 -24.139 -0 -1.2 0
17.157 -7.962 -24.039 -0 -1.2 0
17.094 -8.471 -23.931 -0 -1.2 0
16.511 -11.96 -22.978 -0 -1.2 0
15.257 -16.65 -21.035 -0 -1.2 0
13.733 -20.471 -18.747 -0 -1.2 0
13.542 -20.867 -18.464 -0 -1.2 0
16.573 -5.935 -24.917 -0 -1.2 0
16.533 -6.451 -24.837 -0 -1.2 0
16.384 -7.988 -24.551 -0 -1.2 0
16.192 -9.507 -24.199 -0 -1.2 0
16.038 -10.506 -23.928 -0 -1.2 0
15.569 -12.952 -23.125 -0 -1.2 0
15.648 -7.503 -25.144 -0 -1.2 0
15.54 -8.522 -24.926 -0 -1.2 0
15.414 -9.532 -24.679 -0 -1.2 0
15.344 -10.033 -24.546 -0 -1.2 0
14.96 0.27 -26.306 -0 -1.2 0
14.679 -8.548 -25.422 -0 -1.2 0
14.494 -10.059 -25.034 -0 -1.2 0
12.859 -17.603 -21.847 -0 -1.2 0
14.051 -5.499 -26.456 -0 -1.2 0
14.023 -6.016 -26.379 -0 -1.2 0
13.991 -6.531 -26.293 -0 -1.2 0
13.955 -7.046 -26.201 -0 -1.2 0
11.99 -18.06 -21.969 -0 -1.2 0
13.12 -5.014 -26.99 -0 -1.2 0
13.099 -5.532 -26.92 -0 -1.2 0
13.012 -7.079 -26.659 -0 -1.2 0
12.975 -7.591 -26.556 -0 -1.2 0
12.935 -8.101 -26.445 -0 -1.2 0
10.28 -20.974 -20.288 -0 -1.2 0
10.944 -15.444 -24.248 -0 -1.2 0
11.115 -2.482 -28.084 -0 -1.2 0
10.814 -2.954 -27.292 -0 -1.2 0
11.099 -4.569 -27.908 -0 -1.2 0
11.087 -5.089 -27.843 -0 -1.2 0
11.071 -5.607 -27.77 -0 -1.2 0
10.943 -8.174 -27.278 -0 -1.2 0
9.318 -19.001 -22.458 -0 -1.2 0
10.092 -2.521 -28.449 -0 -1.2 0
10.095 -3.045 -28.418 -0 -1.2 0
10.094 -3.566 -28.376 -0 -1.2 0
10.09 -4.087 -28.327 -0 -1.2 0
10.083 -4.607 -28.271 -0 -1.2 0
10.073 -5.128 -28.205 -0 -1.2 0
9.765 -10.724 -26.92 -0 -1.2 0
9.618 -12.198 -26.397 -0 -1.2 0
8.916 0.051 -28.834 -0 -1.2 0
8.933 -0.472 -28.845 -0 -1.2 0
8.948 -0.995 -28.847 -0 -1.2 0
8.968 -2.041 -28.826 -0 -1.2 0
8.974 -2.563 -28.802 -0 -1.2 0
8.978 -3.087 -28.769 -0 -1.2 0
8.979 -3.608 -28.728 -0 -1.2 0
8.977 -4.129 -28.679 -0 -1.2 0
8.972 -4.649 -28.62 -0 -1.2 0
8.966 -5.169 -28.553 -0 -1.2 0
8.909 -7.232 -28.197 -0 -1.2 0
8.838 -8.76 -27.842 -0 -1.2 0
8.81 -9.265 -27.706 -0 -1.2 0
8.707 -10.764 -27.25 -0 -1.2 0
8.625 -11.749 -26.903 -0 -1.2 0
8.581 -12.237 -26.718 -0 -1.2 0
7.835 0.53 -29.103 -0 -1.2 0
7.855 0.008 -29.123 -0 -1.2 0
7.872 -0.515 -29.134 -0 -1.2 0
7.886 -1.038 -29.137 -0 -1.2 0
7.898 -1.561 -29.129 -0 -1.2 0
7.907 -2.084 -29.114 -0 -1.2 0
7.915 -2.606 -29.089 -0 -1.2 0
7.919 -3.13 -29.056 -0 -1.2 0
7.922 -3.651 -29.014 -0 -1.2 0
7.922 -4.172 -28.965 -0 -1.2 0
7.92 -4.692 -28.905 -0 -1.2 0
7.914 -5.212 -28.836 -0 -1.2 0
7.908 -5.73 -28.759 -0 -1.2 0
7.886 -6.761 -28.579 -0 -1.2 0
7.872 -7.274 -28.476 -0 -1.2 0
7.855 -7.785 -28.365 -0 -1.2 0
7.836 -8.294 -28.245 -0 -1.2 0
7.814 -8.801 -28.116 -0 -1.2 0
7.791 -9.306 -27.978 -0 -1.2 0
7.764 -9.809 -27.833 -0 -1.2 0
7.736 -10.308 -27.679 -0 -1.2 0
7.705 -10.805 -27.516 -0 -1.2 0
6.807 -0.552 -29.384 -0 -1.2 0
6.821 -1.075 -29.387 -0 -1.2 0
6.833 -1.597 -29.38 -0 -1.2 0
6.843 -2.12 -29.364 -0 -1.2 0
6.851 -2.643 -29.339 -0 -1.2 0
6.858 -3.166 -29.306 -0 -1.2 0
6.862 -3.687 -29.264 -0 -1.2 0
6.863 -4.208 -29.212 -0 -1.2 0
6.863 -4.728 -29.152 -0 -1.2 0
6.861 -5.248 -29.083 -0 -1.2 0
6.856 -5.766 -29.005 -0 -1.2 0
6.85 -6.282 -28.918 -0 -1.2 0
6.841 -6.797 -28.823 -0 -1.2 0
6.831 -7.31 -28.719 -0 -1.2 0
6.818 -7.821 -28.607 -0 -1.2 0
6.803 -8.33 -28.485 -0 -1.2 0
6.786 -8.836 -28.355 -0 -1.2 0
6.767 -9.341 -28.216 -0 -1.2 0
6.746 -9.844 -28.069 -0 -1.2 0
6.724 -10.343 -27.913 -0 -1.2 0
6.698 -10.839 -27.749 -0 -1.2 0
6.672 -11.333 -27.576 -0 -1.2 0
6.642 -11.823 -27.396 -0 -1.2 0
5.691 -0.56 -29.604 -0 -1.2 0
5.706 -1.083 -29.606 -0 -1.2 0
5.718 -1.606 -29.6 -0 -1.2 0
5.728 -2.129 -29.584 -0 -1.2 0
5.736 -2.651 -29.56 -0 -1.2 0
5.743 -3.175 -29.526 -0 -1.2 0
5.749 -3.696 -29.484 -0 -1.2 0
5.752 -4.217 -29.433 -0 -1.2 0
5.754 -4.737 -29.372 -0 -1.2 0
5.754 -5.257 -29.304 -0 -1.2 0
5.753 -5.774 -29.226 -0 -1.2 0
5.749 -6.291 -29.138 -0 -1.2 0
5.744 -6.805 -29.042 -0 -1.2 0
5.736 -7.318 -28.939 -0 -1.2 0
5.728 -7.829 -28.825 -0 -1.2 0
5.718 -8.338 -28.703 -0 -1.2 0
5.706 -8.845 -28.572 -0 -1.2 0
5.692 -9.35 -28.433 -0 -1.2 0
5.676 -9.852 -28.284 -0 -1.2 0
5.64 -10.848 -27.963 -0 -1.2 0
5.619 -11.342 -27.79 -0 -1.2 0
5.319 -16.081 -25.601 -0 -1.2 0
5.281 -16.533 -25.338 -0 -1.2 0
5.24 -16.979 -25.067 -0 -1.2 0
4.609 0.48 -29.736 -0 -1.2 0
4.626 -0.041 -29.757 -0 -1.2 0
4.64 -0.565 -29.768 -0 -1.2 0
4.654 -1.088 -29.772 -0 -1.2 0
4.666 -1.611 -29.765 -0 -1.2 0
4.677 -2.134 -29.75 -0 -1.2 0
4.686 -2.656 -29.726 -0 -1.2 0
4.694 -3.18 -29.693 -0 -1.2 0
4.701 -3.701 -29.65 -0 -1.2 0
4.706 -4.222 -29.599 -0 -1.2 0
4.71 -4.742 -29.539 -0 -1.2 0
4.712 -5.262 -29.47 -0 -1.2 0
4.713 -5.779 -29.392 -0 -1.2 0
4.712 -6.296 -29.305 -0 -1.2 0
4.71 -6.81 -29.208 -0 -1.2 0
4.707 -7.323 -29.104 -0 -1.2 0
4.702 -7.834 -28.991 -0 -1.2 0
4.695 -8.343 -28.869 -0 -1.2 0
4.687 -8.85 -28.737 -0 -1.2 0
4.678 -9.355 -28.597 -0 -1.2 0
4.668 -9.857 -28.449 -0 -1.2 0
4.656 -10.356 -28.291 -0 -1.2 0
4.405 -16.086 -25.753 -0 -1.2 0
4.374 -16.537 -25.489 -0 -1.2 0
3.917 -21.546 -21.744 -0 -1.2 0
3.602 -1.095 -29.901 -0 -1.2 0
3.614 -1.617 -29.895 -0 -1.2 0
3.635 -2.663 -29.856 -0 -1.2 0
3.644 -3.186 -29.823 -0 -1.2 0
3.651 -3.707 -29.781 -0 -1.2 0
3.659 -4.228 -29.73 -0 -1.2 0
3.664 -4.748 -29.67 -0 -1.2 0
3.668 -5.268 -29.601 -0 -1.2 0
3.672 -5.786 -29.522 -0 -1.2 0
3.676 -7.33 -29.234 -0 -1.2 0
3.674 -7.841 -29.121 -0 -1.2 0
3.672 -8.349 -28.998 -0 -1.2 0
3.668 -8.856 -28.867 -0 -1.2 0
3.665 -9.361 -28.726 -0 -1.2 0
3.659 -9.863 -28.577 -0 -1.2 0
3.636 -11.352 -28.079 -0 -1.2 0
3.488 -16.091 -25.874 -0 -1.2 0
3.423 -17.43 -25.056 -0 -1.2 0
2.529 -4.235 -29.828 -0 -1.2 0
2.537 -4.755 -29.769 -0 -1.2 0
2.555 -6.309 -29.535 -0 -1.2 0
2.559 -6.823 -29.439 -0 -1.2 0
2.563 -7.336 -29.334 -0 -1.2 0
2.568 -8.356 -29.098 -0 -1.2 0
2.57 -8.863 -28.966 -0 -1.2 0
2.571 -9.367 -28.825 -0 -1.2 0
2.569 -10.369 -28.518 -0 -1.2 0
2.542 -13.776 -27.174 -0 -1.2 0
2.51 -15.642 -26.223 -0 -1.2 0
2.489 -16.549 -25.7 -0 -1.2 0
2.477 -16.995 -25.427 -0 -1.2 0
2.465 -17.436 -25.145 -0 -1.2 0
2.302 -21.556 -21.929 -0 -1.2 0
1.486 -5.797 -29.675 -0 -1.2 0
1.509 -7.341 -29.387 -0 -1.2 0
1.529 -8.868 -29.02 -0 -1.2 0
1.535 -9.372 -28.879 -0 -1.2 0
1.539 -9.874 -28.73 -0 -1.2 0
1.562 -16.553 -25.752 -0 -1.2 0
1.56 -16.999 -25.478 -0 -1.2 0
1.558 -17.44 -25.197 -0 -1.2 0
1.508 -21.559 -21.977 -0 -1.2 0
0.404 -4.766 -29.837 -0 -1.2 0
0.513 -9.88 -28.748 -0 -1.2 0
0.639 -16.558 -25.771 -0 -1.2 0
0.646 -17.004 -25.497 -0 -1.2 0
0.653 -17.445 -25.216 -0 -1.2 0
0.661 -17.882 -24.926 -0 -1.2 0
0.675 -18.739 -24.326 -0 -1.2 0
0.694 -19.984 -23.369 -0 -1.2 0
0.718 -21.564 -21.995 -0 -1.2 0
0.723 -21.943 -21.634 -0 -1.2 0
0.729 -22.317 -21.267 -0 -1.2 0
-0.605 -9.386 -28.875 -0 -1.2 0
-0.422 -14.734 -26.77 -0 -1.2 0
-0.405 -15.198 -26.529 -0 -1.2 0
-0.387 -15.658 -26.279 -0 -1.2 0
-0.369 -16.114 -26.021 -0 -1.2 0
-0.352 -16.565 -25.755 -0 -1.2 0
-0.334 -17.011 -25.482 -0 -1.2 0
-0.316 -17.452 -25.201 -0 -1.2 0
-0.297 -17.889 -24.912 -0 -1.2 0
-0.242 -19.166 -24.001 -0 -1.2 0
-0.224 -19.581 -23.682 -0 -1.2 0
-0.205 -19.99 -23.357 -0 -1.2 0
