# .PCD v.7 - Point Cloud Data file format
FIELDS x y z vp_x vp_y vp_z
SIZE 4 4 4 4 4 4
TYPE F F F F F F
COUNT 1 1 1 1 1 1
WIDTH 1490
HEIGHT 1
VIEWPOINT 0 -1.20013 0 1 0 0 0
POINTS 1490
DATA ascii
22.377 -7.262 19.194 -0 -1.2 0
22.29 -7.773 19.122 -0 -1.2 0
22.197 -8.283 19.045 -0 -1.2 0
22.097 -8.79 18.963 -0 -1.2 0
21.757 -10.298 18.68 -0 -1.2 0
21.498 -11.289 18.463 -0 -1.2 0
21.212 -12.266 18.223 -0 -1.2 0
17.787 -19.92 15.333 -0 -1.2 0
17.534 -20.325 15.119 -0 -1.2 0
17.275 -20.723 14.9 -0 -1.2 0
17.012 -21.116 14.676 -0 -1.2 0
16.743 -21.504 14.448 -0 -1.2 0
16.469 -21.885 14.216 -0 -1.2 0
23.523 1.063 18.686 -0 -1.2 0
23.547 0.54 18.709 -0 -1.2 0
23.564 0.017 18.726 -0 -1.2 0
23.575 -0.505 18.737 -0 -1.2 0
23.577 -1.028 18.742 -0 -1.2 0
23.574 -1.551 18.743 -0 -1.2 0
23.562 -2.075 18.736 -0 -1.2 0
23.544 -2.598 18.726 -0 -1.2 0
23.519 -3.12 18.708 -0 -1.2 0
23.485 -3.642 18.686 -0 -1.2 0
23.446 -4.164 18.657 -0 -1.2 0
23.398 -4.685 18.622 -0 -1.2 0
23.345 -5.204 18.583 -0 -1.2 0
23.283 -5.722 18.538 -0 -1.2 0
23.058 -7.267 18.368 -0 -1.2 0
22.968 -7.778 18.3 -0 -1.2 0
22.873 -8.287 18.226 -0 -1.2 0
22.769 -8.795 18.147 -0 -1.2 0
18.323 -19.923 14.684 -0 -1.2 0
17.795 -20.727 14.269 -0 -1.2 0
17.523 -21.12 14.055 -0 -1.2 0
17.246 -21.507 13.838 -0 -1.2 0
16.964 -21.888 13.616 -0 -1.2 0
24.178 0.012 17.927 -0 -1.2 0
24.187 -0.51 17.938 -0 -1.2 0
24.191 -1.033 17.943 -0 -1.2 0
24.187 -1.556 17.944 -0 -1.2 0
24.174 -2.08 17.939 -0 -1.2 0
24.156 -2.603 17.929 -0 -1.2 0
24.13 -3.125 17.912 -0 -1.2 0
24.095 -3.647 17.891 -0 -1.2 0
24.055 -4.169 17.864 -0 -1.2 0
24.006 -4.69 17.831 -0 -1.2 0
23.951 -5.209 17.794 -0 -1.2 0
23.887 -5.727 17.751 -0 -1.2 0
23.656 -7.272 17.589 -0 -1.2 0
23.563 -7.783 17.524 -0 -1.2 0
23.126 -9.807 17.214 -0 -1.2 0
22.864 -10.803 17.027 -0 -1.2 0
17.972 -21.124 13.47 -0 -1.2 0
17.688 -21.511 13.263 -0 -1.2 0
17.398 -21.892 13.05 -0 -1.2 0
24.721 1.052 17.071 -0 -1.2 0
24.745 0.529 17.092 -0 -1.2 0
24.772 -1.562 17.126 -0 -1.2 0
24.76 -2.086 17.121 -0 -1.2 0
24.74 -2.609 17.111 -0 -1.2 0
24.713 -3.131 17.096 -0 -1.2 0
24.678 -3.653 17.077 -0 -1.2 0
24.636 -4.175 17.051 -0 -1.2 0
24.586 -4.695 17.02 -0 -1.2 0
24.529 -5.215 16.985 -0 -1.2 0
24.313 -6.764 16.847 -0 -1.2 0
24.227 -7.277 16.791 -0 -1.2 0
24.132 -7.788 16.73 -0 -1.2 0
24.031 -8.298 16.663 -0 -1.2 0
23.922 -8.806 16.592 -0 -1.2 0
23.807 -9.31 16.516 -0 -1.2 0
17.812 -21.896 12.47 -0 -1.2 0
25.32 1.045 16.168 -0 -1.2 0
25.364 0 16.205 -0 -1.2 0
25.373 -0.523 16.215 -0 -1.2 0
25.377 -1.045 16.221 -0 -1.2 0
25.372 -1.569 16.223 -0 -1.2 0
25.275 -3.66 16.178 -0 -1.2 0
25.232 -4.182 16.154 -0 -1.2 0
25.18 -4.702 16.125 -0 -1.2 0
25.122 -5.222 16.093 -0 -1.2 0
24.982 -6.256 16.011 -0 -1.2 0
24.9 -6.771 15.964 -0 -1.2 0
24.811 -7.284 15.911 -0 -1.2 0
24.714 -7.795 15.853 -0 -1.2 0
24.611 -8.305 15.79 -0 -1.2 0
24.499 -8.812 15.723 -0 -1.2 0
24.38 -9.317 15.652 -0 -1.2 0
25.851 1.038 15.302 -0 -1.2 0
25.897 -0.007 15.338 -0 -1.2 0
25.907 -0.53 15.348 -0 -1.2 0
25.91 -1.053 15.354 -0 -1.2 0
25.905 -1.576 15.356 -0 -1.2 0
25.891 -2.1 15.352 -0 -1.2 0
25.871 -2.623 15.345 -0 -1.2 0
25.842 -3.145 15.332 -0 -1.2 0
25.805 -3.667 15.316 -0 -1.2 0
25.505 -6.263 15.16 -0 -1.2 0
25.422 -6.778 15.115 -0 -1.2 0
25.331 -7.291 15.066 -0 -1.2 0
25.232 -7.802 15.011 -0 -1.2 0
25.126 -8.312 14.953 -0 -1.2 0
25.012 -8.819 14.889 -0 -1.2 0
24.89 -9.324 14.823 -0 -1.2 0
26.359 1.03 14.411 -0 -1.2 0
26.399 -2.108 14.461 -0 -1.2 0
26.378 -2.631 14.454 -0 -1.2 0
26.348 -3.153 14.443 -0 -1.2 0
26.004 -6.271 14.283 -0 -1.2 0
25.919 -6.786 14.242 -0 -1.2 0
25.826 -7.299 14.196 -0 -1.2 0
25.617 -8.319 14.09 -0 -1.2 0
25.5 -8.827 14.031 -0 -1.2 0
25.376 -9.331 13.969 -0 -1.2 0
24.641 -11.814 13.589 -0 -1.2 0
26.925 -1.593 13.484 -0 -1.2 0
26.821 -3.684 13.453 -0 -1.2 0
26.775 -4.206 13.434 -0 -1.2 0
26.72 -4.726 13.412 -0 -1.2 0
26.657 -5.246 13.386 -0 -1.2 0
26.586 -5.763 13.355 -0 -1.2 0
26.508 -6.28 13.321 -0 -1.2 0
26.42 -6.795 13.283 -0 -1.2 0
26.326 -7.308 13.24 -0 -1.2 0
26.223 -7.819 13.194 -0 -1.2 0
26.112 -8.328 13.143 -0 -1.2 0
25.993 -8.836 13.088 -0 -1.2 0
25.281 -11.333 12.758 -0 -1.2 0
25.117 -11.823 12.68 -0 -1.2 0
24.944 -12.31 12.598 -0 -1.2 0
24.575 -13.274 12.423 -0 -1.2 0
24.379 -13.751 12.33 -0 -1.2 0
23.966 -14.693 12.133 -0 -1.2 0
23.748 -15.158 12.028 -0 -1.2 0
27.314 1.012 12.506 -0 -1.2 0
27.342 0.488 12.524 -0 -1.2 0
27.368 -1.602 12.558 -0 -1.2 0
27.354 -2.126 12.556 -0 -1.2 0
27.332 -2.649 12.552 -0 -1.2 0
27.301 -3.172 12.543 -0 -1.2 0
27.262 -3.693 12.531 -0 -1.2 0
27.215 -4.215 12.514 -0 -1.2 0
27.159 -4.735 12.494 -0 -1.2 0
27.096 -5.255 12.471 -0 -1.2 0
27.023 -5.772 12.443 -0 -1.2 0
26.943 -6.289 12.412 -0 -1.2 0
26.854 -6.804 12.376 -0 -1.2 0
26.758 -7.317 12.337 -0 -1.2 0
26.653 -7.828 12.294 -0 -1.2 0
26.541 -8.337 12.249 -0 -1.2 0
26.42 -8.844 12.199 -0 -1.2 0
26.154 -9.851 12.087 -0 -1.2 0
27.803 -0.043 11.524 -0 -1.2 0
27.813 -0.566 11.534 -0 -1.2 0
27.816 -1.089 11.541 -0 -1.2 0
27.809 -1.612 11.544 -0 -1.2 0
27.795 -2.137 11.545 -0 -1.2 0
27.773 -2.659 11.54 -0 -1.2 0
27.702 -3.703 11.522 -0 -1.2 0
27.653 -4.225 11.508 -0 -1.2 0
27.597 -4.745 11.491 -0 -1.2 0
27.458 -5.782 11.445 -0 -1.2 0
27.377 -6.299 11.416 -0 -1.2 0
27.287 -6.814 11.384 -0 -1.2 0
27.189 -7.326 11.35 -0 -1.2 0
27.082 -7.838 11.311 -0 -1.2 0
26.968 -8.347 11.269 -0 -1.2 0
26.713 -9.359 11.175 -0 -1.2 0
24.965 -14.241 10.504 -0 -1.2 0
24.523 -15.174 10.331 -0 -1.2 0
24.29 -15.635 10.24 -0 -1.2 0
28.18 -0.053 10.569 -0 -1.2 0
28.19 -0.576 10.579 -0 -1.2 0
28.193 -1.099 10.586 -0 -1.2 0
28.186 -1.622 10.589 -0 -1.2 0
28.172 -2.147 10.59 -0 -1.2 0
28.149 -2.669 10.587 -0 -1.2 0
28.116 -3.192 10.581 -0 -1.2 0
28.076 -3.714 10.572 -0 -1.2 0
28.027 -4.235 10.56 -0 -1.2 0
27.97 -4.756 10.544 -0 -1.2 0
27.904 -5.275 10.526 -0 -1.2 0
27.829 -5.792 10.504 -0 -1.2 0
27.747 -6.309 10.478 -0 -1.2 0
27.655 -6.823 10.45 -0 -1.2 0
27.556 -7.336 10.419 -0 -1.2 0
27.331 -8.357 10.347 -0 -1.2 0
25.301 -14.25 9.653 -0 -1.2 0
24.853 -15.183 9.496 -0 -1.2 0
28.524 -0.064 9.601 -0 -1.2 0
28.534 -0.587 9.61 -0 -1.2 0
28.537 -1.11 9.618 -0 -1.2 0
28.53 -1.633 9.622 -0 -1.2 0
28.515 -2.158 9.623 -0 -1.2 0
28.492 -2.68 9.621 -0 -1.2 0
28.459 -3.203 9.617 -0 -1.2 0
28.418 -3.724 9.609 -0 -1.2 0
28.368 -4.246 9.599 -0 -1.2 0
28.31 -4.766 9.585 -0 -1.2 0
28.244 -5.286 9.57 -0 -1.2 0
28.168 -5.803 9.55 -0 -1.2 0
28.085 -6.319 9.529 -0 -1.2 0
27.992 -6.834 9.504 -0 -1.2 0
27.891 -7.347 9.475 -0 -1.2 0
27.782 -7.858 9.445 -0 -1.2 0
27.663 -8.367 9.412 -0 -1.2 0
27.403 -9.379 9.336 -0 -1.2 0
26.782 -11.37 9.151 -0 -1.2 0
24.669 -16.109 8.498 -0 -1.2 0
24.415 -16.559 8.418 -0 -1.2 0
29.076 0.956 7.556 -0 -1.2 0
29.311 0.944 6.583 -0 -1.2 0
29.529 0.929 5.527 -0 -1.2 0
22.837 -20.452 3.019 -0 -1.2 0
29.861 -4.9 -0.505 -0 -1.2 0
30.049 -0.216 -1.585 -0 -1.2 0
29.868 -0.252 -3.649 -0 -1.2 0
29.116 -5.007 -6.556 -0 -1.2 0
21.917 -20.983 -5.372 -0 -1.2 0
22.719 -19.401 -7.323 -0 -1.2 0
21.789 -20.62 -6.981 -0 -1.2 0
20.553 -21.801 -7.302 -0 -1.2 0
20.284 -21.817 -7.976 -0 -1.2 0
19.976 -21.834 -8.674 -0 -1.2 0
21.196 -19.883 -10.119 -0 -1.2 0
20.903 -20.288 -9.964 -0 -1.2 0
20.603 -20.688 -9.805 -0 -1.2 0
21.123 -19.489 -10.959 -0 -1.2 0
20.554 -20.305 -10.631 -0 -1.2 0
25.894 -3.641 -15.113 -0 -1.2 0
20.711 -19.508 -11.688 -0 -1.2 0
20.435 -19.919 -11.516 -0 -1.2 0
18.964 -21.883 -10.605 -0 -1.2 0
25.406 -0.002 -16.081 -0 -1.2 0
21.07 -18.262 -12.887 -0 -1.2 0
20.818 -18.688 -12.717 -0 -1.2 0
20.56 -19.11 -12.543 -0 -1.2 0
20.297 -19.525 -12.366 -0 -1.2 0
20.026 -19.936 -12.184 -0 -1.2 0
19.75 -20.34 -12 -0 -1.2 0
20.371 -18.704 -13.399 -0 -1.2 0
20.119 -19.126 -13.217 -0 -1.2 0
19.86 -19.541 -13.03 -0 -1.2 0
19.596 -19.951 -12.84 -0 -1.2 0
19.326 -20.355 -12.646 -0 -1.2 0
18.188 -21.913 -11.831 -0 -1.2 0
17.889 -22.287 -11.619 -0 -1.2 0
19.618 -19.143 -13.925 -0 -1.2 0
19.366 -19.558 -13.729 -0 -1.2 0
19.11 -19.968 -13.529 -0 -1.2 0
18.578 -20.77 -13.117 -0 -1.2 0
18.303 -21.162 -12.905 -0 -1.2 0
18.023 -21.548 -12.689 -0 -1.2 0
17.738 -21.928 -12.47 -0 -1.2 0
17.446 -22.302 -12.245 -0 -1.2 0
18.637 -19.983 -14.152 -0 -1.2 0
17.851 -21.177 -13.5 -0 -1.2 0
17.578 -21.562 -13.275 -0 -1.2 0
17.3 -21.942 -13.045 -0 -1.2 0
22.983 -0.083 -19.385 -0 -1.2 0
17.38 -21.191 -14.079 -0 -1.2 0
17.114 -21.577 -13.845 -0 -1.2 0
16.844 -21.956 -13.605 -0 -1.2 0
16.568 -22.33 -13.363 -0 -1.2 0
16.851 -21.207 -14.684 -0 -1.2 0
16.332 -21.972 -14.191 -0 -1.2 0
16.066 -22.345 -13.938 -0 -1.2 0
21.613 -1.17 -20.924 -0 -1.2 0
21.617 -1.693 -20.912 -0 -1.2 0
21.613 -2.216 -20.894 -0 -1.2 0
21.604 -2.74 -20.869 -0 -1.2 0
21.588 -3.261 -20.839 -0 -1.2 0
21.565 -3.783 -20.801 -0 -1.2 0
21.536 -4.304 -20.757 -0 -1.2 0
21.5 -4.825 -20.708 -0 -1.2 0
21.457 -5.344 -20.652 -0 -1.2 0
21.409 -5.861 -20.59 -0 -1.2 0
21.353 -6.377 -20.521 -0 -1.2 0
20.886 -9.435 -19.979 -0 -1.2 0
20.786 -9.936 -19.866 -0 -1.2 0
17.942 -18.361 -16.863 -0 -1.2 0
16.093 -21.607 -14.975 -0 -1.2 0
15.839 -21.986 -14.718 -0 -1.2 0
15.581 -22.359 -14.456 -0 -1.2 0
20.899 -0.667 -21.631 -0 -1.2 0
20.909 -1.19 -21.626 -0 -1.2 0
20.913 -1.712 -21.614 -0 -1.2 0
20.911 -2.235 -21.596 -0 -1.2 0
20.901 -2.759 -21.57 -0 -1.2 0
20.886 -3.281 -21.538 -0 -1.2 0
20.864 -3.803 -21.501 -0 -1.2 0
20.836 -4.323 -21.456 -0 -1.2 0
20.802 -4.844 -21.405 -0 -1.2 0
20.761 -5.363 -21.347 -0 -1.2 0
20.714 -5.88 -21.282 -0 -1.2 0
20.601 -6.911 -21.134 -0 -1.2 0
20.535 -7.423 -21.051 -0 -1.2 0
20.463 -7.934 -20.962 -0 -1.2 0
20.385 -8.442 -20.865 -0 -1.2 0
15.084 -22.373 -14.953 -0 -1.2 0
20.13 -1.211 -22.351 -0 -1.2 0
20.134 -1.734 -22.339 -0 -1.2 0
20.132 -2.257 -22.32 -0 -1.2 0
20.124 -2.781 -22.295 -0 -1.2 0
20.109 -3.302 -22.262 -0 -1.2 0
20.088 -3.824 -22.223 -0 -1.2 0
20.062 -4.345 -22.177 -0 -1.2 0
20.029 -4.865 -22.124 -0 -1.2 0
19.99 -5.384 -22.065 -0 -1.2 0
19.944 -5.902 -21.999 -0 -1.2 0
19.894 -6.417 -21.927 -0 -1.2 0
19.704 -7.955 -21.668 -0 -1.2 0
15.241 -21.252 -16.289 -0 -1.2 0
15.009 -21.637 -16.02 -0 -1.2 0
14.773 -22.016 -15.746 -0 -1.2 0
14.533 -22.388 -15.466 -0 -1.2 0
19.385 -1.232 -22.999 -0 -1.2 0
19.389 -1.754 -22.988 -0 -1.2 0
19.387 -2.277 -22.968 -0 -1.2 0
19.379 -2.801 -22.942 -0 -1.2 0
19.365 -3.323 -22.909 -0 -1.2 0
19.345 -3.844 -22.869 -0 -1.2 0
19.32 -4.365 -22.822 -0 -1.2 0
19.289 -4.886 -22.768 -0 -1.2 0
19.252 -5.404 -22.708 -0 -1.2 0
19.208 -5.922 -22.639 -0 -1.2 0
19.159 -6.437 -22.564 -0 -1.2 0
19.105 -6.952 -22.483 -0 -1.2 0
19.045 -7.464 -22.394 -0 -1.2 0
18.978 -7.975 -22.3 -0 -1.2 0
18.46 -10.989 -21.587 -0 -1.2 0
18.242 -11.972 -21.297 -0 -1.2 0
14.236 -22.03 -16.212 -0 -1.2 0
14.005 -22.403 -15.925 -0 -1.2 0
18.618 -1.252 -23.623 -0 -1.2 0
18.622 -1.775 -23.61 -0 -1.2 0
18.621 -2.297 -23.591 -0 -1.2 0
18.614 -2.821 -23.565 -0 -1.2 0
18.601 -3.343 -23.531 -0 -1.2 0
18.581 -3.865 -23.49 -0 -1.2 0
18.557 -4.385 -23.442 -0 -1.2 0
18.528 -4.906 -23.387 -0 -1.2 0
18.492 -5.424 -23.324 -0 -1.2 0
18.451 -5.942 -23.256 -0 -1.2 0
18.404 -6.457 -23.179 -0 -1.2 0
18.352 -6.972 -23.096 -0 -1.2 0
18.295 -7.484 -23.005 -0 -1.2 0
17.735 -11.009 -22.177 -0 -1.2 0
13.684 -22.045 -16.661 -0 -1.2 0
13.462 -22.417 -16.367 -0 -1.2 0
17.756 -1.274 -24.276 -0 -1.2 0
17.761 -1.797 -24.263 -0 -1.2 0
17.76 -2.319 -24.244 -0 -1.2 0
17.753 -2.843 -24.217 -0 -1.2 0
17.741 -3.365 -24.182 -0 -1.2 0
17.723 -3.887 -24.141 -0 -1.2 0
17.701 -4.407 -24.091 -0 -1.2 0
17.673 -4.928 -24.035 -0 -1.2 0
17.639 -5.446 -23.971 -0 -1.2 0
17.601 -5.964 -23.9 -0 -1.2 0
17.556 -6.479 -23.822 -0 -1.2 0
12.852 -22.433 -16.829 -0 -1.2 0
12.269 -22.447 -17.241 -0 -1.2 0
16.067 -0.268 -25.411 -0 -1.2 0
16.081 -0.791 -25.414 -0 -1.2 0
16.089 -1.314 -25.409 -0 -1.2 0
16.094 -1.837 -25.397 -0 -1.2 0
16.094 -2.36 -25.376 -0 -1.2 0
16.088 -2.884 -25.348 -0 -1.2 0
16.078 -3.405 -25.313 -0 -1.2 0
16.063 -3.927 -25.269 -0 -1.2 0
16.043 -4.447 -25.219 -0 -1.2 0
16.018 -4.968 -25.159 -0 -1.2 0
15.914 -6.519 -24.937 -0 -1.2 0
15.821 -7.545 -24.751 -0 -1.2 0
11.864 -22.09 -17.948 -0 -1.2 0
15.122 0.233 -25.962 -0 -1.2 0
15.163 -1.336 -25.971 -0 -1.2 0
15.167 -1.858 -25.958 -0 -1.2 0
15.167 -2.381 -25.939 -0 -1.2 0
15.163 -2.905 -25.91 -0 -1.2 0
15.153 -3.427 -25.874 -0 -1.2 0
15.14 -3.948 -25.83 -0 -1.2 0
15.121 -4.469 -25.777 -0 -1.2 0
14.883 -4.933 -25.35 -0 -1.2 0
15.07 -5.507 -25.65 -0 -1.2 0
15.001 -6.54 -25.492 -0 -1.2 0
14.385 -11.579 -24.239 -0 -1.2 0
12.357 -19.339 -20.454 -0 -1.2 0
14.257 0.214 -26.447 -0 -1.2 0
14.301 -2.401 -26.424 -0 -1.2 0
14.298 -2.924 -26.395 -0 -1.2 0
14.289 -3.446 -26.358 -0 -1.2 0
14.277 -3.967 -26.314 -0 -1.2 0
14.033 -4.434 -25.841 -0 -1.2 0
14.041 -5.994 -25.794 -0 -1.2 0
14.109 -7.073 -25.877 -0 -1.2 0
14.02 -8.095 -25.669 -0 -1.2 0
13.732 -8.476 -25.119 -0 -1.2 0
13.406 -12.572 -24.349 -0 -1.2 0
13.318 -13.053 -24.165 -0 -1.2 0
10.403 -22.49 -18.373 -0 -1.2 0
13.376 0.195 -26.902 -0 -1.2 0
13.393 -0.328 -26.915 -0 -1.2 0
13.399 -3.986 -26.768 -0 -1.2 0
13.095 -6.501 -26.051 -0 -1.2 0
12.953 -9.06 -25.656 -0 -1.2 0
12.966 -9.605 -25.66 -0 -1.2 0
9.779 -22.504 -18.697 -0 -1.2 0
12.412 0.175 -27.361 -0 -1.2 0
12.213 -0.361 -26.899 -0 -1.2 0
12.441 -0.871 -27.377 -0 -1.2 0
12.45 -1.394 -27.372 -0 -1.2 0
12.455 -1.917 -27.36 -0 -1.2 0
12.455 -2.44 -27.339 -0 -1.2 0
12.436 -4.006 -27.225 -0 -1.2 0
11.987 -7.478 -26.078 -0 -1.2 0
11.617 -13.09 -25.008 -0 -1.2 0
9.386 -21.771 -19.696 -0 -1.2 0
9.242 -22.147 -19.362 -0 -1.2 0
9.095 -22.518 -19.022 -0 -1.2 0
11.5 0.157 -27.757 -0 -1.2 0
11.527 -4.025 -27.62 -0 -1.2 0
11.4 -7.13 -27.165 -0 -1.2 0
11.366 -7.641 -27.06 -0 -1.2 0
8.848 -21.402 -20.319 -0 -1.2 0
8.717 -21.784 -19.987 -0 -1.2 0
8.584 -22.161 -19.648 -0 -1.2 0
8.449 -22.531 -19.303 -0 -1.2 0
10.568 0.138 -28.125 -0 -1.2 0
10.597 -4.043 -27.987 -0 -1.2 0
8.385 -20.633 -21.25 -0 -1.2 0
8.153 -21.416 -20.594 -0 -1.2 0
8.034 -21.798 -20.256 -0 -1.2 0
7.912 -22.174 -19.913 -0 -1.2 0
7.788 -22.544 -19.563 -0 -1.2 0
9.552 0.119 -28.485 -0 -1.2 0
7.396 -21.43 -20.863 -0 -1.2 0
7.289 -21.812 -20.522 -0 -1.2 0
7.179 -22.188 -20.173 -0 -1.2 0
7.067 -22.557 -19.819 -0 -1.2 0
8.597 0.102 -28.788 -0 -1.2 0
8.63 -4.08 -28.649 -0 -1.2 0
6.961 -20.262 -22.085 -0 -1.2 0
6.871 -20.662 -21.76 -0 -1.2 0
6.779 -21.055 -21.427 -0 -1.2 0
6.685 -21.443 -21.089 -0 -1.2 0
6.588 -21.825 -20.743 -0 -1.2 0
6.49 -22.2 -20.391 -0 -1.2 0
6.39 -22.57 -20.034 -0 -1.2 0
7.668 -4.097 -28.919 -0 -1.2 0
7.337 -11.719 -27.154 -0 -1.2 0
7.114 -14.124 -26.145 -0 -1.2 0
6.819 -14.678 -24.986 -0 -1.2 0
6.828 -15.256 -24.979 -0 -1.2 0
6.712 -17.32 -24.402 -0 -1.2 0
6.645 -17.759 -24.123 -0 -1.2 0
6.578 -18.191 -23.836 -0 -1.2 0
6.436 -19.041 -23.242 -0 -1.2 0
6.363 -19.458 -22.933 -0 -1.2 0
6.287 -19.869 -22.618 -0 -1.2 0
6.209 -20.275 -22.296 -0 -1.2 0
6.131 -20.675 -21.968 -0 -1.2 0
6.049 -21.068 -21.632 -0 -1.2 0
5.966 -21.456 -21.29 -0 -1.2 0
5.881 -21.837 -20.941 -0 -1.2 0
5.794 -22.213 -20.587 -0 -1.2 0
5.706 -22.582 -20.226 -0 -1.2 0
6.622 -4.114 -29.174 -0 -1.2 0
6.551 -7.729 -28.586 -0 -1.2 0
6.163 -14.14 -26.377 -0 -1.2 0
5.845 -15.098 -24.894 -0 -1.2 0
5.765 -17.774 -24.338 -0 -1.2 0
5.707 -18.206 -24.049 -0 -1.2 0
5.648 -18.634 -23.752 -0 -1.2 0
5.586 -19.056 -23.449 -0 -1.2 0
5.524 -19.473 -23.138 -0 -1.2 0
5.459 -19.883 -22.82 -0 -1.2 0
5.394 -20.289 -22.495 -0 -1.2 0
5.326 -20.688 -22.163 -0 -1.2 0
5.256 -21.082 -21.825 -0 -1.2 0
5.185 -21.469 -21.48 -0 -1.2 0
5.112 -21.85 -21.129 -0 -1.2 0
5.038 -22.225 -20.771 -0 -1.2 0
4.963 -22.595 -20.407 -0 -1.2 0
5.624 -0.996 -29.536 -0 -1.2 0
5.631 -1.519 -29.532 -0 -1.2 0
5.637 -2.041 -29.519 -0 -1.2 0
5.643 -4.13 -29.376 -0 -1.2 0
5.454 -11.261 -27.766 -0 -1.2 0
4.887 -15.882 -24.384 -0 -1.2 0
5.033 -16.907 -25.068 -0 -1.2 0
4.988 -17.349 -24.792 -0 -1.2 0
4.94 -17.787 -24.509 -0 -1.2 0
4.892 -18.219 -24.217 -0 -1.2 0
4.843 -18.647 -23.918 -0 -1.2 0
4.791 -19.069 -23.613 -0 -1.2 0
4.739 -19.485 -23.3 -0 -1.2 0
4.684 -19.896 -22.981 -0 -1.2 0
4.63 -20.301 -22.653 -0 -1.2 0
4.572 -20.701 -22.319 -0 -1.2 0
4.514 -21.094 -21.979 -0 -1.2 0
4.454 -21.481 -21.631 -0 -1.2 0
4.393 -21.862 -21.278 -0 -1.2 0
4.331 -22.237 -20.918 -0 -1.2 0
4.267 -22.606 -20.551 -0 -1.2 0
4.635 -1.011 -29.707 -0 -1.2 0
4.642 -1.534 -29.702 -0 -1.2 0
4.648 -2.057 -29.69 -0 -1.2 0
4.347 -14.639 -26.486 -0 -1.2 0
4.317 -15.104 -26.247 -0 -1.2 0
4.086 -16.546 -24.619 -0 -1.2 0
4.149 -17.363 -24.937 -0 -1.2 0
4.111 -17.801 -24.651 -0 -1.2 0
4.072 -18.232 -24.358 -0 -1.2 0
4.032 -18.66 -24.058 -0 -1.2 0
3.991 -19.082 -23.751 -0 -1.2 0
3.949 -19.498 -23.436 -0 -1.2 0
3.905 -19.908 -23.114 -0 -1.2 0
3.86 -20.314 -22.786 -0 -1.2 0
3.814 -20.713 -22.45 -0 -1.2 0
3.767 -21.106 -22.108 -0 -1.2 0
3.719 -21.493 -21.758 -0 -1.2 0
3.669 -21.874 -21.403 -0 -1.2 0
3.619 -22.248 -21.041 -0 -1.2 0
3.567 -22.617 -20.671 -0 -1.2 0
3.584 -1.027 -29.852 -0 -1.2 0
3.591 -1.55 -29.847 -0 -1.2 0
3.597 -2.073 -29.834 -0 -1.2 0
3.606 -3.119 -29.78 -0 -1.2 0
3.609 -3.641 -29.741 -0 -1.2 0
3.612 -4.162 -29.691 -0 -1.2 0
3.6 -7.265 -29.206 -0 -1.2 0
3.594 -7.776 -29.093 -0 -1.2 0
3.588 -8.286 -28.973 -0 -1.2 0
3.537 -10.797 -28.236 -0 -1.2 0
3.524 -11.291 -28.063 -0 -1.2 0
3.509 -11.781 -27.882 -0 -1.2 0
3.422 -14.184 -26.847 -0 -1.2 0
3.401 -14.654 -26.616 -0 -1.2 0
3.272 -14.669 -25.534 -0 -1.2 0
3.251 -15.121 -25.304 -0 -1.2 0
3.283 -16.934 -25.338 -0 -1.2 0
3.256 -17.376 -25.059 -0 -1.2 0
3.229 -17.814 -24.773 -0 -1.2 0
3.199 -18.246 -24.479 -0 -1.2 0
3.161 -18.626 -24.113 -0 -1.2 0
3.132 -19.053 -23.813 -0 -1.2 0
3.108 -19.511 -23.552 -0 -1.2 0
3.075 -19.921 -23.228 -0 -1.2 0
3.042 -20.326 -22.898 -0 -1.2 0
3.008 -20.725 -22.561 -0 -1.2 0
2.972 -21.118 -22.217 -0 -1.2 0
2.936 -21.505 -21.866 -0 -1.2 0
2.899 -21.885 -21.509 -0 -1.2 0
2.861 -22.26 -21.144 -0 -1.2 0
2.823 -22.628 -20.774 -0 -1.2 0
2.602 -0.519 -29.946 -0 -1.2 0
2.61 -1.042 -29.951 -0 -1.2 0
2.617 -1.565 -29.948 -0 -1.2 0
2.623 -2.088 -29.934 -0 -1.2 0
2.634 -3.134 -29.881 -0 -1.2 0
2.638 -3.655 -29.84 -0 -1.2 0
2.642 -4.176 -29.791 -0 -1.2 0
2.643 -4.697 -29.732 -0 -1.2 0
2.645 -5.217 -29.665 -0 -1.2 0
2.646 -6.251 -29.502 -0 -1.2 0
2.646 -6.766 -29.408 -0 -1.2 0
2.644 -7.279 -29.304 -0 -1.2 0
2.642 -7.79 -29.192 -0 -1.2 0
2.639 -8.3 -29.071 -0 -1.2 0
2.564 -8.599 -28.161 -0 -1.2 0
2.624 -9.814 -28.654 -0 -1.2 0
2.618 -10.314 -28.497 -0 -1.2 0
2.61 -10.81 -28.332 -0 -1.2 0
2.603 -11.305 -28.158 -0 -1.2 0
2.594 -11.795 -27.976 -0 -1.2 0
2.574 -12.767 -27.586 -0 -1.2 0
2.563 -13.247 -27.379 -0 -1.2 0
2.552 -13.724 -27.163 -0 -1.2 0
2.539 -14.197 -26.938 -0 -1.2 0
2.526 -14.666 -26.706 -0 -1.2 0
2.511 -15.131 -26.466 -0 -1.2 0
2.497 -15.592 -26.217 -0 -1.2 0
2.481 -16.048 -25.96 -0 -1.2 0
2.465 -16.5 -25.696 -0 -1.2 0
2.448 -16.947 -25.425 -0 -1.2 0
2.43 -17.389 -25.144 -0 -1.2 0
2.412 -17.826 -24.857 -0 -1.2 0
2.392 -18.258 -24.562 -0 -1.2 0
2.372 -18.685 -24.26 -0 -1.2 0
2.352 -19.106 -23.95 -0 -1.2 0
2.33 -19.522 -23.632 -0 -1.2 0
2.307 -19.932 -23.308 -0 -1.2 0
2.285 -20.337 -22.976 -0 -1.2 0
2.261 -20.736 -22.638 -0 -1.2 0
2.237 -21.129 -22.293 -0 -1.2 0
2.212 -21.515 -21.941 -0 -1.2 0
2.186 -21.896 -21.581 -0 -1.2 0
2.16 -22.27 -21.216 -0 -1.2 0
2.133 -22.639 -20.845 -0 -1.2 0
1.626 -0.533 -30.015 -0 -1.2 0
1.634 -1.056 -30.02 -0 -1.2 0
1.641 -1.579 -30.016 -0 -1.2 0
1.648 -2.101 -30.003 -0 -1.2 0
1.659 -3.148 -29.949 -0 -1.2 0
1.664 -3.669 -29.908 -0 -1.2 0
1.669 -4.19 -29.858 -0 -1.2 0
1.673 -4.71 -29.8 -0 -1.2 0
1.676 -5.23 -29.732 -0 -1.2 0
1.679 -5.748 -29.656 -0 -1.2 0
1.682 -6.265 -29.57 -0 -1.2 0
1.684 -6.779 -29.475 -0 -1.2 0
1.685 -7.293 -29.371 -0 -1.2 0
1.686 -7.804 -29.259 -0 -1.2 0
1.687 -8.313 -29.137 -0 -1.2 0
1.687 -8.82 -29.007 -0 -1.2 0
1.687 -9.325 -28.868 -0 -1.2 0
1.686 -9.828 -28.719 -0 -1.2 0
1.684 -10.327 -28.563 -0 -1.2 0
1.682 -10.823 -28.397 -0 -1.2 0
1.679 -11.318 -28.223 -0 -1.2 0
1.676 -11.808 -28.041 -0 -1.2 0
1.673 -12.296 -27.85 -0 -1.2 0
1.669 -12.78 -27.65 -0 -1.2 0
1.665 -13.259 -27.442 -0 -1.2 0
1.66 -13.737 -27.226 -0 -1.2 0
1.654 -14.21 -27.001 -0 -1.2 0
1.648 -14.679 -26.768 -0 -1.2 0
1.641 -15.143 -26.526 -0 -1.2 0
1.634 -15.604 -26.278 -0 -1.2 0
1.626 -16.06 -26.021 -0 -1.2 0
1.619 -16.512 -25.756 -0 -1.2 0
1.61 -16.959 -25.483 -0 -1.2 0
1.601 -17.4 -25.203 -0 -1.2 0
1.592 -17.838 -24.915 -0 -1.2 0
1.582 -18.269 -24.619 -0 -1.2 0
1.571 -18.696 -24.316 -0 -1.2 0
1.561 -19.117 -24.005 -0 -1.2 0
1.549 -19.533 -23.687 -0 -1.2 0
1.538 -19.943 -23.362 -0 -1.2 0
1.525 -20.348 -23.03 -0 -1.2 0
1.512 -20.747 -22.691 -0 -1.2 0
1.499 -21.139 -22.345 -0 -1.2 0
1.485 -21.526 -21.992 -0 -1.2 0
1.471 -21.906 -21.632 -0 -1.2 0
1.457 -22.28 -21.266 -0 -1.2 0
1.442 -22.648 -20.894 -0 -1.2 0
0.573 -0.547 -30.054 -0 -1.2 0
0.58 -1.07 -30.058 -0 -1.2 0
0.587 -1.593 -30.054 -0 -1.2 0
0.594 -2.116 -30.041 -0 -1.2 0
0.63 -5.245 -29.77 -0 -1.2 0
0.636 -5.762 -29.694 -0 -1.2 0
0.641 -6.279 -29.608 -0 -1.2 0
0.647 -6.793 -29.513 -0 -1.2 0
0.651 -7.307 -29.409 -0 -1.2 0
0.656 -7.818 -29.297 -0 -1.2 0
0.661 -8.327 -29.174 -0 -1.2 0
0.664 -8.834 -29.044 -0 -1.2 0
0.669 -9.339 -28.904 -0 -1.2 0
0.673 -9.841 -28.756 -0 -1.2 0
0.676 -10.341 -28.599 -0 -1.2 0
0.68 -10.837 -28.434 -0 -1.2 0
0.683 -11.331 -28.26 -0 -1.2 0
0.687 -11.821 -28.076 -0 -1.2 0
0.689 -12.309 -27.885 -0 -1.2 0
0.692 -12.793 -27.685 -0 -1.2 0
0.695 -13.273 -27.477 -0 -1.2 0
0.697 -13.75 -27.261 -0 -1.2 0
0.699 -14.223 -27.036 -0 -1.2 0
0.7 -14.692 -26.802 -0 -1.2 0
0.702 -15.156 -26.561 -0 -1.2 0
0.703 -15.617 -26.312 -0 -1.2 0
0.705 -16.073 -26.054 -0 -1.2 0
0.706 -16.524 -25.79 -0 -1.2 0
0.707 -16.971 -25.516 -0 -1.2 0
0.707 -17.412 -25.235 -0 -1.2 0
0.708 -17.85 -24.947 -0 -1.2 0
0.709 -18.281 -24.65 -0 -1.2 0
0.708 -18.708 -24.347 -0 -1.2 0
0.708 -19.129 -24.036 -0 -1.2 0
0.707 -19.545 -23.717 -0 -1.2 0
0.707 -19.955 -23.393 -0 -1.2 0
0.706 -20.359 -23.06 -0 -1.2 0
0.704 -20.758 -22.72 -0 -1.2 0
0.703 -21.15 -22.374 -0 -1.2 0
0.702 -21.536 -22.02 -0 -1.2 0
0.701 -21.917 -21.66 -0 -1.2 0
0.699 -22.291 -21.294 -0 -1.2 0
0.696 -22.659 -20.921 -0 -1.2 0
-0.333 -6.806 -29.515 -0 -1.2 0
-0.325 -7.32 -29.411 -0 -1.2 0
-0.317 -7.831 -29.298 -0 -1.2 0
-0.309 -8.34 -29.177 -0 -1.2 0
-0.301 -8.847 -29.046 -0 -1.2 0
-0.292 -9.351 -28.906 -0 -1.2 0
-0.283 -9.854 -28.758 -0 -1.2 0
-0.275 -10.353 -28.602 -0 -1.2 0
-0.266 -10.85 -28.435 -0 -1.2 0
-0.258 -11.344 -28.261 -0 -1.2 0
-0.248 -11.834 -28.078 -0 -1.2 0
-0.24 -12.321 -27.887 -0 -1.2 0
-0.231 -12.805 -27.687 -0 -1.2 0
-0.221 -13.285 -27.479 -0 -1.2 0
-0.212 -13.762 -27.262 -0 -1.2 0
-0.203 -14.234 -27.037 -0 -1.2 0
-0.194 -14.704 -26.805 -0 -1.2 0
-0.185 -15.168 -26.563 -0 -1.2 0
-0.174 -15.628 -26.313 -0 -1.2 0
-0.165 -16.084 -26.056 -0 -1.2 0
-0.156 -16.536 -25.791 -0 -1.2 0
-0.146 -16.982 -25.518 -0 -1.2 0
-0.137 -17.424 -25.237 -0 -1.2 0
-0.127 -17.861 -24.948 -0 -1.2 0
-0.117 -18.292 -24.652 -0 -1.2 0
-0.107 -18.719 -24.349 -0 -1.2 0
-0.097 -19.14 -24.038 -0 -1.2 0
-0.088 -19.555 -23.719 -0 -1.2 0
-0.077 -19.965 -23.394 -0 -1.2 0
-0.068 -20.369 -23.062 -0 -1.2 0
-0.058 -20.768 -22.722 -0 -1.2 0
-0.048 -21.16 -22.376 -0 -1.2 0
-0.037 -21.546 -22.022 -0 -1.2 0
-0.027 -21.926 -21.662 -0 -1.2 0
-0.017 -22.3 -21.296 -0 -1.2 0
-0.008 -22.668 -20.923 -0 -1.2 0
-1.256 -9.363 -28.877 -0 -1.2 0
-1.243 -9.866 -28.729 -0 -1.2 0
-1.23 -10.365 -28.573 -0 -1.2 0
-1.215 -10.861 -28.406 -0 -1.2 0
-1.202 -11.355 -28.232 -0 -1.2 0
-1.186 -11.845 -28.05 -0 -1.2 0
-1.172 -12.333 -27.859 -0 -1.2 0
-1.157 -12.817 -27.659 -0 -1.2 0
-1.14 -13.296 -27.451 -0 -1.2 0
-1.124 -13.774 -27.234 -0 -1.2 0
-1.108 -14.246 -27.009 -0 -1.2 0
-1.091 -14.715 -26.777 -0 -1.2 0
-1.073 -15.179 -26.536 -0 -1.2 0
-1.056 -15.639 -26.286 -0 -1.2 0
-1.038 -16.095 -26.03 -0 -1.2 0
-1.02 -16.547 -25.764 -0 -1.2 0
-1.002 -16.993 -25.492 -0 -1.2 0
-0.983 -17.434 -25.21 -0 -1.2 0
-0.964 -17.871 -24.922 -0 -1.2 0
-0.945 -18.302 -24.627 -0 -1.2 0
-0.926 -18.729 -24.324 -0 -1.2 0
-0.905 -19.15 -24.013 -0 -1.2 0
-0.885 -19.565 -23.695 -0 -1.2 0
-0.864 -19.975 -23.369 -0 -1.2 0
-0.844 -20.379 -23.038 -0 -1.2 0
-0.823 -20.777 -22.698 -0 -1.2 0
-0.801 -21.169 -22.351 -0 -1.2 0
-0.78 -21.555 -21.999 -0 -1.2 0
-0.758 -21.935 -21.64 -0 -1.2 0
-0.736 -22.309 -21.274 -0 -1.2 0
-0.714 -22.677 -20.9 -0 -1.2 0
-2.293 -9.376 -28.809 -0 -1.2 0
-2.274 -9.878 -28.662 -0 -1.2 0
-2.256 -10.377 -28.505 -0 -1.2 0
-2.236 -10.874 -28.34 -0 -1.2 0
-2.216 -11.368 -28.166 -0 -1.2 0
-2.195 -11.857 -27.984 -0 -1.2 0
-2.174 -12.345 -27.793 -0 -1.2 0
-2.151 -12.829 -27.594 -0 -1.2 0
-2.128 -13.308 -27.386 -0 -1.2 0
-2.105 -13.785 -27.17 -0 -1.2 0
-2.081 -14.257 -26.946 -0 -1.2 0
-2.055 -14.726 -26.713 -0 -1.2 0
-2.03 -15.19 -26.473 -0 -1.2 0
-2.004 -15.651 -26.224 -0 -1.2 0
-1.977 -16.106 -25.967 -0 -1.2 0
-1.95 -16.558 -25.704 -0 -1.2 0
-1.923 -17.004 -25.432 -0 -1.2 0
-1.894 -17.445 -25.151 -0 -1.2 0
-1.865 -17.882 -24.864 -0 -1.2 0
-1.835 -18.313 -24.569 -0 -1.2 0
-1.805 -18.74 -24.266 -0 -1.2 0
-1.774 -19.16 -23.956 -0 -1.2 0
-1.743 -19.576 -23.639 -0 -1.2 0
-1.711 -19.985 -23.314 -0 -1.2 0
-1.679 -20.389 -22.982 -0 -1.2 0
-1.646 -20.787 -22.644 -0 -1.2 0
-1.612 -21.179 -22.299 -0 -1.2 0
-1.578 -21.565 -21.947 -0 -1.2 0
-1.544 -21.945 -21.588 -0 -1.2 0
-1.509 -22.318 -21.222 -0 -1.2 0
-1.474 -22.686 -20.85 -0 -1.2 0
-3.333 -7.356 -29.214 -0 -1.2 0
-3.315 -7.867 -29.103 -0 -1.2 0
-3.295 -8.375 -28.981 -0 -1.2 0
-3.273 -8.882 -28.852 -0 -1.2 0
-3.252 -9.387 -28.713 -0 -1.2 0
-3.229 -9.889 -28.565 -0 -1.2 0
-3.206 -10.388 -28.41 -0 -1.2 0
-3.181 -10.884 -28.245 -0 -1.2 0
-3.155 -11.378 -28.072 -0 -1.2 0
-3.128 -11.868 -27.891 -0 -1.2 0
-3.101 -12.356 -27.701 -0 -1.2 0
-3.072 -12.839 -27.502 -0 -1.2 0
-3.042 -13.318 -27.295 -0 -1.2 0
-3.012 -13.796 -27.08 -0 -1.2 0
-2.981 -14.268 -26.856 -0 -1.2 0
-2.948 -14.736 -26.624 -0 -1.2 0
-2.915 -15.2 -26.384 -0 -1.2 0
-2.881 -15.661 -26.137 -0 -1.2 0
-2.846 -16.116 -25.881 -0 -1.2 0
-2.81 -16.567 -25.618 -0 -1.2 0
-2.773 -17.014 -25.346 -0 -1.2 0
-2.736 -17.455 -25.067 -0 -1.2 0
-2.698 -17.891 -24.78 -0 -1.2 0
-2.658 -18.322 -24.486 -0 -1.2 0
-2.619 -18.749 -24.185 -0 -1.2 0
-2.578 -19.169 -23.876 -0 -1.2 0
-2.537 -19.585 -23.56 -0 -1.2 0
-2.494 -19.994 -23.236 -0 -1.2 0
-2.451 -20.398 -22.905 -0 -1.2 0
-2.407 -20.796 -22.568 -0 -1.2 0
-2.362 -21.188 -22.224 -0 -1.2 0
-2.317 -21.573 -21.873 -0 -1.2 0
-2.271 -21.953 -21.515 -0 -1.2 0
-2.224 -22.326 -21.151 -0 -1.2 0
-2.176 -22.694 -20.78 -0 -1.2 0
-4.449 -2.176 -29.712 -0 -1.2 0
-4.341 -6.339 -29.282 -0 -1.2 0
-4.321 -6.853 -29.189 -0 -1.2 0
-4.3 -7.366 -29.085 -0 -1.2 0
-4.277 -7.877 -28.974 -0 -1.2 0
-4.254 -8.386 -28.853 -0 -1.2 0
-4.229 -8.892 -28.724 -0 -1.2 0
-4.204 -9.397 -28.585 -0 -1.2 0
-4.176 -9.899 -28.439 -0 -1.2 0
-4.147 -10.399 -28.284 -0 -1.2 0
-4.117 -10.895 -28.12 -0 -1.2 0
-4.086 -11.388 -27.948 -0 -1.2 0
-4.054 -11.878 -27.766 -0 -1.2 0
-4.021 -12.366 -27.577 -0 -1.2 0
-3.985 -12.849 -27.379 -0 -1.2 0
-3.949 -13.328 -27.173 -0 -1.2 0
-3.912 -13.805 -26.959 -0 -1.2 0
-3.874 -14.277 -26.737 -0 -1.2 0
-3.833 -14.746 -26.506 -0 -1.2 0
-3.793 -15.21 -26.267 -0 -1.2 0
-3.751 -15.67 -26.021 -0 -1.2 0
-3.708 -16.126 -25.766 -0 -1.2 0
-3.663 -16.577 -25.504 -0 -1.2 0
-3.618 -17.023 -25.233 -0 -1.2 0
-3.572 -17.464 -24.955 -0 -1.2 0
-3.524 -17.9 -24.67 -0 -1.2 0
-3.475 -18.331 -24.377 -0 -1.2 0
-3.425 -18.758 -24.077 -0 -1.2 0
-3.375 -19.178 -23.769 -0 -1.2 0
-3.323 -19.593 -23.454 -0 -1.2 0
-3.271 -20.002 -23.132 -0 -1.2 0
-3.217 -20.406 -22.803 -0 -1.2 0
-3.162 -20.804 -22.468 -0 -1.2 0
-3.106 -21.196 -22.124 -0 -1.2 0
-3.05 -21.581 -21.775 -0 -1.2 0
-2.992 -21.961 -21.418 -0 -1.2 0
-2.933 -22.334 -21.056 -0 -1.2 0
-2.874 -22.701 -20.687 -0 -1.2 0
-5.495 -2.71 -29.512 -0 -1.2 0
-5.441 -4.795 -29.333 -0 -1.2 0
-5.423 -5.315 -29.267 -0 -1.2 0
-5.403 -5.833 -29.191 -0 -1.2 0
-5.383 -6.349 -29.106 -0 -1.2 0
-5.36 -6.864 -29.012 -0 -1.2 0
-5.336 -7.377 -28.911 -0 -1.2 0
-5.31 -7.888 -28.799 -0 -1.2 0
-5.283 -8.396 -28.68 -0 -1.2 0
-5.253 -8.903 -28.552 -0 -1.2 0
-5.222 -9.407 -28.414 -0 -1.2 0
-5.191 -9.91 -28.268 -0 -1.2 0
-5.156 -10.409 -28.114 -0 -1.2 0
-5.121 -10.905 -27.951 -0 -1.2 0
-5.084 -11.399 -27.779 -0 -1.2 0
-5.046 -11.888 -27.599 -0 -1.2 0
-5.006 -12.376 -27.411 -0 -1.2 0
-4.964 -12.859 -27.214 -0 -1.2 0
-4.921 -13.338 -27.009 -0 -1.2 0
-4.877 -13.815 -26.796 -0 -1.2 0
-4.83 -14.287 -26.576 -0 -1.2 0
-4.782 -14.756 -26.346 -0 -1.2 0
-4.733 -15.219 -26.108 -0 -1.2 0
-4.683 -15.68 -25.863 -0 -1.2 0
-4.631 -16.135 -25.61 -0 -1.2 0
-4.578 -16.586 -25.349 -0 -1.2 0
-4.523 -17.032 -25.08 -0 -1.2 0
-4.467 -17.473 -24.805 -0 -1.2 0
-4.41 -17.91 -24.521 -0 -1.2 0
-4.351 -18.34 -24.229 -0 -1.2 0
-4.29 -18.766 -23.93 -0 -1.2 0
-4.23 -19.187 -23.624 -0 -1.2 0
-4.166 -19.602 -23.311 -0 -1.2 0
-4.103 -20.011 -22.992 -0 -1.2 0
-4.038 -20.415 -22.665 -0 -1.2 0
-3.971 -20.812 -22.33 -0 -1.2 0
-3.903 -21.204 -21.99 -0 -1.2 0
-3.835 -21.589 -21.642 -0 -1.2 0
-3.765 -21.969 -21.288 -0 -1.2 0
-3.693 -22.342 -20.928 -0 -1.2 0
-3.621 -22.709 -20.561 -0 -1.2 0
-6.344 -6.359 -28.91 -0 -1.2 0
-6.319 -6.873 -28.817 -0 -1.2 0
-6.292 -7.386 -28.716 -0 -1.2 0
-6.262 -7.897 -28.605 -0 -1.2 0
-6.232 -8.406 -28.486 -0 -1.2 0
-6.198 -8.912 -28.358 -0 -1.2 0
-6.163 -9.417 -28.222 -0 -1.2 0
-6.127 -9.919 -28.077 -0 -1.2 0
-6.087 -10.418 -27.924 -0 -1.2 0
-6.047 -10.914 -27.761 -0 -1.2 0
-6.005 -11.408 -27.591 -0 -1.2 0
-5.961 -11.897 -27.412 -0 -1.2 0
-5.914 -12.385 -27.225 -0 -1.2 0
-5.867 -12.868 -27.03 -0 -1.2 0
-5.817 -13.347 -26.826 -0 -1.2 0
-5.766 -13.824 -26.614 -0 -1.2 0
-5.712 -14.296 -26.394 -0 -1.2 0
-5.658 -14.764 -26.167 -0 -1.2 0
-5.601 -15.228 -25.931 -0 -1.2 0
-5.543 -15.688 -25.687 -0 -1.2 0
-5.483 -16.143 -25.436 -0 -1.2 0
-5.421 -16.594 -25.177 -0 -1.2 0
-5.358 -17.04 -24.91 -0 -1.2 0
-5.293 -17.481 -24.636 -0 -1.2 0
-5.227 -17.917 -24.353 -0 -1.2 0
-5.159 -18.348 -24.064 -0 -1.2 0
-5.089 -18.774 -23.768 -0 -1.2 0
-5.018 -19.194 -23.464 -0 -1.2 0
-4.945 -19.609 -23.153 -0 -1.2 0
-4.871 -20.018 -22.835 -0 -1.2 0
-4.795 -20.422 -22.51 -0 -1.2 0
-4.717 -20.82 -22.178 -0 -1.2 0
-4.639 -21.211 -21.84 -0 -1.2 0
-4.559 -21.596 -21.494 -0 -1.2 0
-4.478 -21.976 -21.143 -0 -1.2 0
-4.395 -22.349 -20.785 -0 -1.2 0
-4.31 -22.716 -20.421 -0 -1.2 0
-7.052 -9.927 -27.856 -0 -1.2 0
-7.008 -10.426 -27.703 -0 -1.2 0
-6.963 -10.922 -27.543 -0 -1.2 0
-6.915 -11.416 -27.374 -0 -1.2 0
-6.866 -11.905 -27.196 -0 -1.2 0
-6.813 -12.393 -27.011 -0 -1.2 0
-6.76 -12.876 -26.817 -0 -1.2 0
-6.704 -13.355 -26.615 -0 -1.2 0
-6.645 -13.832 -26.405 -0 -1.2 0
-6.585 -14.304 -26.186 -0 -1.2 0
-6.523 -14.772 -25.96 -0 -1.2 0
-6.459 -15.236 -25.727 -0 -1.2 0
-6.393 -15.696 -25.484 -0 -1.2 0
-6.326 -16.151 -25.235 -0 -1.2 0
-6.256 -16.602 -24.978 -0 -1.2 0
-6.184 -17.048 -24.713 -0 -1.2 0
-6.11 -17.488 -24.44 -0 -1.2 0
-6.035 -17.925 -24.161 -0 -1.2 0
-5.957 -18.355 -23.874 -0 -1.2 0
-5.878 -18.781 -23.579 -0 -1.2 0
-5.797 -19.201 -23.278 -0 -1.2 0
-5.714 -19.616 -22.969 -0 -1.2 0
-5.63 -20.025 -22.653 -0 -1.2 0
-5.544 -20.429 -22.331 -0 -1.2 0
-5.456 -20.826 -22.002 -0 -1.2 0
-5.366 -21.218 -21.666 -0 -1.2 0
-5.275 -21.603 -21.323 -0 -1.2 0
-5.183 -21.982 -20.975 -0 -1.2 0
-5.088 -22.355 -20.619 -0 -1.2 0
-4.992 -22.722 -20.258 -0 -1.2 0
-8.034 -9.936 -27.585 -0 -1.2 0
-7.985 -10.435 -27.435 -0 -1.2 0
-7.935 -10.93 -27.276 -0 -1.2 0
-7.881 -11.424 -27.108 -0 -1.2 0
-7.826 -11.914 -26.933 -0 -1.2 0
-7.767 -12.401 -26.749 -0 -1.2 0
-7.707 -12.884 -26.557 -0 -1.2 0
-7.644 -13.363 -26.356 -0 -1.2 0
-7.579 -13.84 -26.148 -0 -1.2 0
-7.511 -14.311 -25.932 -0 -1.2 0
-7.442 -14.78 -25.707 -0 -1.2 0
-7.37 -15.243 -25.476 -0 -1.2 0
-7.296 -15.703 -25.236 -0 -1.2 0
-7.219 -16.159 -24.989 -0 -1.2 0
-7.141 -16.609 -24.734 -0 -1.2 0
-7.06 -17.055 -24.472 -0 -1.2 0
-6.977 -17.496 -24.202 -0 -1.2 0
-6.892 -17.932 -23.925 -0 -1.2 0
-6.715 -18.788 -23.349 -0 -1.2 0
-6.624 -19.208 -23.05 -0 -1.2 0
-6.531 -19.623 -22.745 -0 -1.2 0
-6.436 -20.032 -22.432 -0 -1.2 0
-6.338 -20.436 -22.113 -0 -1.2 0
-6.239 -20.833 -21.787 -0 -1.2 0
-6.138 -21.224 -21.453 -0 -1.2 0
-6.035 -21.609 -21.114 -0 -1.2 0
-5.93 -21.988 -20.769 -0 -1.2 0
-5.824 -22.361 -20.417 -0 -1.2 0
-5.715 -22.728 -20.058 -0 -1.2 0
-9.197 -6.897 -28.026 -0 -1.2 0
-9.161 -7.41 -27.926 -0 -1.2 0
-9.122 -7.921 -27.819 -0 -1.2 0
-9.079 -8.429 -27.702 -0 -1.2 0
-9.035 -8.936 -27.578 -0 -1.2 0
-8.987 -9.44 -27.446 -0 -1.2 0
-8.937 -9.942 -27.304 -0 -1.2 0
-8.883 -10.441 -27.155 -0 -1.2 0
-8.828 -10.937 -26.997 -0 -1.2 0
-8.769 -11.431 -26.831 -0 -1.2 0
-8.708 -11.92 -26.657 -0 -1.2 0
-8.578 -12.891 -26.285 -0 -1.2 0
-8.437 -13.846 -25.88 -0 -1.2 0
-8.363 -14.318 -25.666 -0 -1.2 0
-8.286 -14.786 -25.444 -0 -1.2 0
-8.207 -15.25 -25.215 -0 -1.2 0
-8.125 -15.71 -24.978 -0 -1.2 0
-8.041 -16.165 -24.733 -0 -1.2 0
-7.954 -16.616 -24.481 -0 -1.2 0
-7.281 -19.629 -22.511 -0 -1.2 0
-7.176 -20.038 -22.201 -0 -1.2 0
-7.068 -20.441 -21.885 -0 -1.2 0
-6.959 -20.838 -21.562 -0 -1.2 0
-6.847 -21.23 -21.233 -0 -1.2 0
-6.734 -21.615 -20.897 -0 -1.2 0
-6.618 -21.994 -20.555 -0 -1.2 0
-6.5 -22.366 -20.206 -0 -1.2 0
-6.38 -22.733 -19.852 -0 -1.2 0
-10.34 0.389 -28.187 -0 -1.2 0
-10.344 -0.133 -28.208 -0 -1.2 0
-10.345 -0.657 -28.221 -0 -1.2 0
-10.342 -1.18 -28.225 -0 -1.2 0
-10.337 -1.703 -28.22 -0 -1.2 0
-10.328 -2.226 -28.208 -0 -1.2 0
-10.318 -2.749 -28.186 -0 -1.2 0
-10.303 -3.272 -28.157 -0 -1.2 0
-10.183 -5.872 -27.878 -0 -1.2 0
-10.149 -6.388 -27.797 -0 -1.2 0
-10.112 -6.902 -27.707 -0 -1.2 0
-10.073 -7.415 -27.609 -0 -1.2 0
-10.03 -7.926 -27.503 -0 -1.2 0
-9.984 -8.435 -27.388 -0 -1.2 0
-9.936 -8.941 -27.265 -0 -1.2 0
-9.884 -9.445 -27.134 -0 -1.2 0
-9.829 -9.947 -26.994 -0 -1.2 0
-9.772 -10.446 -26.847 -0 -1.2 0
-9.711 -10.942 -26.69 -0 -1.2 0
-9.648 -11.436 -26.526 -0 -1.2 0
-9.582 -11.925 -26.354 -0 -1.2 0
-9.205 -14.323 -25.374 -0 -1.2 0
-9.121 -14.791 -25.155 -0 -1.2 0
-8.946 -15.714 -24.693 -0 -1.2 0
-8.562 -17.506 -23.68 -0 -1.2 0
-8.354 -18.373 -23.131 -0 -1.2 0
-7.791 -20.445 -21.635 -0 -1.2 0
-7.671 -20.842 -21.315 -0 -1.2 0
-7.549 -21.234 -20.99 -0 -1.2 0
-7.425 -21.619 -20.657 -0 -1.2 0
-7.298 -21.997 -20.319 -0 -1.2 0
-7.169 -22.37 -19.975 -0 -1.2 0
-7.038 -22.737 -19.624 -0 -1.2 0
-11.33 0.906 -27.77 -0 -1.2 0
-11.345 -0.138 -27.821 -0 -1.2 0
-11.344 -1.186 -27.838 -0 -1.2 0
-11.339 -1.709 -27.833 -0 -1.2 0
-11.33 -2.231 -27.821 -0 -1.2 0
-11.319 -2.754 -27.799 -0 -1.2 0
-11.304 -3.277 -27.77 -0 -1.2 0
-11.284 -3.799 -27.731 -0 -1.2 0
-11.262 -4.32 -27.685 -0 -1.2 0
-11.236 -4.84 -27.63 -0 -1.2 0
-11.208 -5.359 -27.566 -0 -1.2 0
-11.175 -5.877 -27.494 -0 -1.2 0
-11.139 -6.393 -27.415 -0 -1.2 0
-11.099 -6.907 -27.326 -0 -1.2 0
-11.057 -7.42 -27.229 -0 -1.2 0
-11.011 -7.931 -27.124 -0 -1.2 0
-10.909 -8.946 -26.89 -0 -1.2 0
-10.852 -9.45 -26.759 -0 -1.2 0
-10.73 -10.451 -26.476 -0 -1.2 0
-10.664 -10.947 -26.322 -0 -1.2 0
-10.595 -11.441 -26.16 -0 -1.2 0
-10.522 -11.93 -25.99 -0 -1.2 0
-10.447 -12.417 -25.812 -0 -1.2 0
-10.369 -12.9 -25.627 -0 -1.2 0
-8.57 -20.449 -21.334 -0 -1.2 0
-8.306 -21.237 -20.698 -0 -1.2 0
-8.17 -21.622 -20.37 -0 -1.2 0
-8.032 -22.001 -20.036 -0 -1.2 0
-7.747 -22.74 -19.351 -0 -1.2 0
-12.27 -0.142 -27.425 -0 -1.2 0
-12.266 -1.713 -27.437 -0 -1.2 0
-12.257 -2.236 -27.425 -0 -1.2 0
-12.245 -2.758 -27.403 -0 -1.2 0
-12.229 -3.282 -27.374 -0 -1.2 0
-12.209 -3.803 -27.336 -0 -1.2 0
-12.186 -4.324 -27.291 -0 -1.2 0
-12.158 -4.844 -27.236 -0 -1.2 0
-12.127 -5.363 -27.174 -0 -1.2 0
-12.093 -5.881 -27.102 -0 -1.2 0
-12.054 -6.397 -27.024 -0 -1.2 0
-12.012 -6.911 -26.936 -0 -1.2 0
-11.967 -7.424 -26.841 -0 -1.2 0
-11.918 -7.935 -26.737 -0 -1.2 0
-11.472 -11.445 -25.786 -0 -1.2 0
-11.394 -11.934 -25.618 -0 -1.2 0
-8.86 -21.626 -20.076 -0 -1.2 0
-8.404 -22.743 -19.071 -0 -1.2 0
-13.184 -1.193 -27.015 -0 -1.2 0
-13.179 -1.716 -27.01 -0 -1.2 0
-13.17 -2.239 -26.998 -0 -1.2 0
-13.157 -2.762 -26.977 -0 -1.2 0
-13.141 -3.285 -26.948 -0 -1.2 0
-13.12 -3.806 -26.91 -0 -1.2 0
-13.095 -4.327 -26.865 -0 -1.2 0
-13.066 -4.847 -26.811 -0 -1.2 0
-13.033 -5.367 -26.75 -0 -1.2 0
-12.997 -5.884 -26.68 -0 -1.2 0
-12.956 -6.401 -26.602 -0 -1.2 0
-12.912 -6.915 -26.516 -0 -1.2 0
-12.863 -7.428 -26.422 -0 -1.2 0
-12.252 -11.937 -25.218 -0 -1.2 0
-11.341 -16.18 -23.393 -0 -1.2 0
-9.851 -20.852 -20.39 -0 -1.2 0
-14.137 -2.242 -26.504 -0 -1.2 0
-14.124 -2.765 -26.483 -0 -1.2 0
-14.106 -3.288 -26.455 -0 -1.2 0
-14.085 -3.809 -26.418 -0 -1.2 0
-14.059 -4.33 -26.374 -0 -1.2 0
-14.028 -4.85 -26.32 -0 -1.2 0
-13.993 -5.37 -26.26 -0 -1.2 0
-13.955 -5.887 -26.192 -0 -1.2 0
-13.912 -6.404 -26.114 -0 -1.2 0
-13.864 -6.918 -26.03 -0 -1.2 0
-13.812 -7.431 -25.937 -0 -1.2 0
-13.757 -7.942 -25.837 -0 -1.2 0
-13.697 -8.45 -25.729 -0 -1.2 0
-13.632 -8.957 -25.613 -0 -1.2 0
-12.431 -15.269 -23.411 -0 -1.2 0
-11.929 -17.079 -22.487 -0 -1.2 0
-10.754 -20.458 -20.313 -0 -1.2 0
-10.592 -20.855 -20.013 -0 -1.2 0
-15.035 -1.722 -26.023 -0 -1.2 0
-15.026 -2.244 -26.011 -0 -1.2 0
-15.012 -2.767 -25.99 -0 -1.2 0
-14.993 -3.29 -25.962 -0 -1.2 0
-14.971 -3.812 -25.926 -0 -1.2 0
-14.944 -4.333 -25.882 -0 -1.2 0
-14.912 -4.852 -25.83 -0 -1.2 0
-14.875 -5.372 -25.77 -0 -1.2 0
-14.834 -5.89 -25.703 -0 -1.2 0
-14.789 -6.406 -25.627 -0 -1.2 0
-14.739 -6.92 -25.544 -0 -1.2 0
-14.684 -7.433 -25.454 -0 -1.2 0
-14.626 -7.944 -25.354 -0 -1.2 0
-14.01 -9.223 -24.297 -0 -1.2 0
-14.346 -9.965 -24.884 -0 -1.2 0
-13.689 -13.391 -23.769 -0 -1.2 0
-13.464 -14.339 -23.385 -0 -1.2 0
-15.912 -1.2 -25.504 -0 -1.2 0
-15.898 -2.246 -25.487 -0 -1.2 0
-15.884 -2.768 -25.467 -0 -1.2 0
-15.865 -3.292 -25.439 -0 -1.2 0
-15.842 -3.813 -25.403 -0 -1.2 0
-15.813 -4.334 -25.36 -0 -1.2 0
-15.779 -4.854 -25.31 -0 -1.2 0
-15.741 -5.374 -25.25 -0 -1.2 0
-15.698 -5.891 -25.184 -0 -1.2 0
-15.651 -6.407 -25.111 -0 -1.2 0
-15.598 -6.922 -25.028 -0 -1.2 0
-15.541 -7.434 -24.939 -0 -1.2 0
-15.48 -7.945 -24.843 -0 -1.2 0
-15.413 -8.454 -24.739 -0 -1.2 0
-14.605 -12.914 -23.466 -0 -1.2 0
-14.376 -13.869 -23.102 -0 -1.2 0
-14.13 -14.809 -22.712 -0 -1.2 0
-16.817 -2.247 -24.891 -0 -1.2 0
-16.803 -2.77 -24.87 -0 -1.2 0
-16.783 -3.293 -24.843 -0 -1.2 0
-16.759 -3.815 -24.808 -0 -1.2 0
-16.729 -4.336 -24.766 -0 -1.2 0
-16.694 -4.855 -24.716 -0 -1.2 0
-16.654 -5.375 -24.658 -0 -1.2 0
-16.609 -5.893 -24.593 -0 -1.2 0
-16.559 -6.409 -24.52 -0 -1.2 0
-18.457 -1.725 -23.72 -0 -1.2 0
-18.152 -2.23 -23.33 -0 -1.2 0
-18.432 -2.77 -23.689 -0 -1.2 0
-18.412 -3.293 -23.663 -0 -1.2 0
-18.385 -3.815 -23.628 -0 -1.2 0
-18.353 -4.336 -23.588 -0 -1.2 0
-18.315 -4.856 -23.539 -0 -1.2 0
-18.273 -5.375 -23.485 -0 -1.2 0
-18.224 -5.893 -23.423 -0 -1.2 0
-18.044 -7.436 -23.193 -0 -1.2 0
-17.974 -7.947 -23.103 -0 -1.2 0
-17.095 -12.432 -21.974 -0 -1.2 0
-15.797 -16.639 -20.306 -0 -1.2 0
-19.297 -1.201 -23.05 -0 -1.2 0
-19.293 -1.724 -23.045 -0 -1.2 0
-19.283 -2.246 -23.033 -0 -1.2 0
-19.267 -2.769 -23.014 -0 -1.2 0
-19.247 -3.292 -22.988 -0 -1.2 0
-19.219 -3.814 -22.955 -0 -1.2 0
-19.186 -4.335 -22.916 -0 -1.2 0
-19.148 -4.855 -22.868 -0 -1.2 0
-19.103 -5.374 -22.815 -0 -1.2 0
-19.052 -5.892 -22.754 -0 -1.2 0
-18.996 -6.408 -22.686 -0 -1.2 0
-18.934 -6.922 -22.612 -0 -1.2 0
-18.865 -7.435 -22.531 -0 -1.2 0
-16.694 -16.187 -19.926 -0 -1.2 0
-13.383 -22.751 -15.966 -0 -1.2 0
-20.048 -1.722 -22.393 -0 -1.2 0
-20.038 -2.244 -22.38 -0 -1.2 0
-20.022 -2.767 -22.362 -0 -1.2 0
-20 -3.291 -22.336 -0 -1.2 0
-19.972 -3.812 -22.304 -0 -1.2 0
-19.938 -4.333 -22.265 -0 -1.2 0
-19.898 -4.853 -22.219 -0 -1.2 0
-19.852 -5.372 -22.167 -0 -1.2 0
-19.8 -5.89 -22.108 -0 -1.2 0
-19.741 -6.406 -22.041 -0 -1.2 0
-19.677 -6.92 -21.969 -0 -1.2 0
-19.607 -7.433 -21.89 -0 -1.2 0
-19.531 -7.944 -21.803 -0 -1.2 0
-19.449 -8.452 -21.71 -0 -1.2 0
-19.361 -8.959 -21.611 -0 -1.2 0
-19.062 -10.464 -21.275 -0 -1.2 0
-18.71 -11.942 -20.879 -0 -1.2 0
-18.308 -13.391 -20.427 -0 -1.2 0
-18.012 -14.339 -20.094 -0 -1.2 0
-17.855 -14.808 -19.919 -0 -1.2 0
-17.526 -15.731 -19.549 -0 -1.2 0
-14.168 -22.384 -15.783 -0 -1.2 0
-13.918 -22.75 -15.504 -0 -1.2 0
-20.775 -2.242 -21.698 -0 -1.2 0
-20.76 -2.764 -21.68 -0 -1.2 0
-20.737 -3.288 -21.655 -0 -1.2 0
-20.708 -3.809 -21.624 -0 -1.2 0
-20.673 -4.33 -21.586 -0 -1.2 0
-20.632 -4.85 -21.541 -0 -1.2 0
-20.584 -5.37 -21.49 -0 -1.2 0
-20.53 -5.887 -21.431 -0 -1.2 0
-20.47 -6.403 -21.367 -0 -1.2 0
-20.404 -6.918 -21.297 -0 -1.2 0
-20.331 -7.43 -21.22 -0 -1.2 0
-20.253 -7.941 -21.136 -0 -1.2 0
-20.168 -8.45 -21.046 -0 -1.2 0
-20.077 -8.956 -20.949 -0 -1.2 0
-19.98 -9.46 -20.847 -0 -1.2 0
-19.652 -10.957 -20.5 -0 -1.2 0
-19.531 -11.45 -20.372 -0 -1.2 0
-18 -16.183 -18.758 -0 -1.2 0
-16.601 -19.231 -17.287 -0 -1.2 0
-14.954 -22.009 -15.558 -0 -1.2 0
-14.7 -22.382 -15.292 -0 -1.2 0
-14.442 -22.748 -15.021 -0 -1.2 0
-21.56 -2.238 -20.919 -0 -1.2 0
-21.544 -2.761 -20.901 -0 -1.2 0
-21.521 -3.284 -20.876 -0 -1.2 0
-21.491 -3.805 -20.846 -0 -1.2 0
-21.456 -4.326 -20.809 -0 -1.2 0
-21.413 -4.846 -20.765 -0 -1.2 0
-21.364 -5.366 -20.716 -0 -1.2 0
-21.308 -5.883 -20.66 -0 -1.2 0
-21.245 -6.4 -20.598 -0 -1.2 0
-21.177 -6.914 -20.529 -0 -1.2 0
-21.102 -7.427 -20.455 -0 -1.2 0
-21.021 -7.938 -20.373 -0 -1.2 0
-20.739 -9.457 -20.094 -0 -1.2 0
-16.292 -20.852 -15.732 -0 -1.2 0
-15.53 -22.006 -14.988 -0 -1.2 0
-15.267 -22.379 -14.731 -0 -1.2 0
-14.999 -22.745 -14.469 -0 -1.2 0
-22.273 -1.712 -20.182 -0 -1.2 0
-22.263 -2.235 -20.17 -0 -1.2 0
-22.247 -2.757 -20.153 -0 -1.2 0
-22.223 -3.281 -20.128 -0 -1.2 0
-22.192 -3.802 -20.099 -0 -1.2 0
-22.156 -4.323 -20.063 -0 -1.2 0
-22.112 -4.843 -20.021 -0 -1.2 0
-22.062 -5.363 -19.973 -0 -1.2 0
-22.004 -5.88 -19.918 -0 -1.2 0
-21.94 -6.396 -19.858 -0 -1.2 0
-21.87 -6.911 -19.792 -0 -1.2 0
-21.709 -7.934 -19.64 -0 -1.2 0
-21.618 -8.443 -19.556 -0 -1.2 0
-21.418 -9.454 -19.37 -0 -1.2 0
-21.308 -9.956 -19.268 -0 -1.2 0
-21.192 -10.455 -19.16 -0 -1.2 0
-21.069 -10.95 -19.046 -0 -1.2 0
-20.939 -11.444 -18.927 -0 -1.2 0
-16.312 -21.625 -14.683 -0 -1.2 0
-15.774 -22.377 -14.191 -0 -1.2 0
-15.497 -22.743 -13.939 -0 -1.2 0
-22.951 -1.708 -19.409 -0 -1.2 0
-22.94 -2.231 -19.397 -0 -1.2 0
-22.924 -2.753 -19.38 -0 -1.2 0
-22.899 -3.277 -19.357 -0 -1.2 0
-22.868 -3.798 -19.328 -0 -1.2 0
-22.83 -4.319 -19.293 -0 -1.2 0
-22.785 -4.839 -19.252 -0 -1.2 0
-22.733 -5.359 -19.206 -0 -1.2 0
-22.675 -5.876 -19.153 -0 -1.2 0
-22.609 -6.393 -19.095 -0 -1.2 0
-22.537 -6.907 -19.031 -0 -1.2 0
-22.457 -7.42 -18.96 -0 -1.2 0
-22.371 -7.931 -18.885 -0 -1.2 0
-22.278 -8.439 -18.803 -0 -1.2 0
-22.178 -8.946 -18.716 -0 -1.2 0
-22.072 -9.45 -18.624 -0 -1.2 0
-21.959 -9.952 -18.525 -0 -1.2 0
-21.839 -10.451 -18.421 -0 -1.2 0
-21.713 -10.947 -18.312 -0 -1.2 0
-16.262 -22.374 -13.635 -0 -1.2 0
-15.976 -22.74 -13.392 -0 -1.2 0
-23.643 -1.703 -18.56 -0 -1.2 0
-23.633 -2.226 -18.549 -0 -1.2 0
-23.615 -2.749 -18.532 -0 -1.2 0
-23.591 -3.272 -18.509 -0 -1.2 0
-23.559 -3.793 -18.481 -0 -1.2 0
-23.52 -4.314 -18.447 -0 -1.2 0
-23.474 -4.834 -18.408 -0 -1.2 0
-23.42 -5.354 -18.363 -0 -1.2 0
-23.361 -5.871 -18.312 -0 -1.2 0
-23.293 -6.388 -18.256 -0 -1.2 0
-23.219 -6.902 -18.195 -0 -1.2 0
-23.137 -7.415 -18.127 -0 -1.2 0
-23.049 -7.926 -18.054 -0 -1.2 0
-22.953 -8.434 -17.976 -0 -1.2 0
-22.851 -8.941 -17.893 -0 -1.2 0
-22.74 -9.445 -17.804 -0 -1.2 0
-22.624 -9.947 -17.709 -0 -1.2 0
-22.502 -10.446 -17.609 -0 -1.2 0
-21.62 -13.374 -16.898 -0 -1.2 0
-21.449 -13.851 -16.762 -0 -1.2 0
-18.148 -20.445 -14.126 -0 -1.2 0
-17.609 -21.234 -13.697 -0 -1.2 0
-17.048 -21.997 -13.252 -0 -1.2 0
-16.759 -22.37 -13.023 -0 -1.2 0
-16.467 -22.737 -12.791 -0 -1.2 0
-24.252 -1.698 -17.757 -0 -1.2 0
-24.242 -2.221 -17.747 -0 -1.2 0
-24.223 -2.743 -17.73 -0 -1.2 0
-24.199 -3.267 -17.708 -0 -1.2 0
-24.166 -3.788 -17.681 -0 -1.2 0
-24.127 -4.309 -17.648 -0 -1.2 0
-24.08 -4.829 -17.61 -0 -1.2 0
-24.025 -5.349 -17.567 -0 -1.2 0
-23.964 -5.866 -17.518 -0 -1.2 0
-23.894 -6.383 -17.464 -0 -1.2 0
-23.819 -6.897 -17.405 -0 -1.2 0
-23.735 -7.41 -17.339 -0 -1.2 0
-23.645 -7.921 -17.27 -0 -1.2 0
-23.546 -8.429 -17.195 -0 -1.2 0
-23.442 -8.936 -17.114 -0 -1.2 0
-23.329 -9.44 -17.029 -0 -1.2 0
-23.21 -9.942 -16.938 -0 -1.2 0
-22.81 -11.431 -16.635 -0 -1.2 0
-17.784 -21.615 -12.88 -0 -1.2 0
-17.494 -21.994 -12.665 -0 -1.2 0
-17.198 -22.366 -12.446 -0 -1.2 0
-16.898 -22.733 -12.223 -0 -1.2 0
-24.834 -1.692 -16.935 -0 -1.2 0
-24.823 -2.215 -16.925 -0 -1.2 0
-24.805 -2.737 -16.909 -0 -1.2 0
-24.78 -3.261 -16.887 -0 -1.2 0
-24.747 -3.782 -16.861 -0 -1.2 0
-24.707 -4.303 -16.829 -0 -1.2 0
-24.658 -4.823 -16.793 -0 -1.2 0
-24.602 -5.343 -16.751 -0 -1.2 0
-24.54 -5.86 -16.704 -0 -1.2 0
-24.469 -6.377 -16.652 -0 -1.2 0
-24.392 -6.891 -16.595 -0 -1.2 0
-24.306 -7.404 -16.532 -0 -1.2 0
-24.214 -7.915 -16.465 -0 -1.2 0
-24.113 -8.424 -16.394 -0 -1.2 0
-24.006 -8.93 -16.317 -0 -1.2 0
-23.891 -9.434 -16.235 -0 -1.2 0
-23.21 -11.915 -15.751 -0 -1.2 0
-23.053 -12.402 -15.639 -0 -1.2 0
-19.074 -20.436 -12.863 -0 -1.2 0
-18.794 -20.834 -12.669 -0 -1.2 0
-18.508 -21.225 -12.47 -0 -1.2 0
-18.217 -21.61 -12.268 -0 -1.2 0
-17.92 -21.989 -12.063 -0 -1.2 0
-17.617 -22.362 -11.854 -0 -1.2 0
-17.31 -22.729 -11.641 -0 -1.2 0
-25.432 -1.162 -16.035 -0 -1.2 0
-25.419 -2.208 -16.018 -0 -1.2 0
-25.4 -2.73 -16.003 -0 -1.2 0
-25.375 -3.254 -15.982 -0 -1.2 0
-25.341 -3.775 -15.957 -0 -1.2 0
-25.299 -4.296 -15.926 -0 -1.2 0
-25.251 -4.816 -15.891 -0 -1.2 0
-25.193 -5.336 -15.851 -0 -1.2 0
-25.13 -5.853 -15.806 -0 -1.2 0
-25.057 -6.37 -15.756 -0 -1.2 0
-24.978 -6.884 -15.702 -0 -1.2 0
-24.89 -7.397 -15.642 -0 -1.2 0
-24.796 -7.908 -15.579 -0 -1.2 0
-24.693 -8.417 -15.51 -0 -1.2 0
-24.584 -8.923 -15.437 -0 -1.2 0
-24.466 -9.428 -15.359 -0 -1.2 0
-24.342 -9.93 -15.276 -0 -1.2 0
-24.21 -10.429 -15.189 -0 -1.2 0
-24.07 -10.925 -15.097 -0 -1.2 0
-23.923 -11.418 -15 -0 -1.2 0
-22.065 -16.153 -13.788 -0 -1.2 0
-19.537 -20.431 -12.157 -0 -1.2 0
-19.251 -20.828 -11.974 -0 -1.2 0
-18.958 -21.22 -11.785 -0 -1.2 0
-18.66 -21.605 -11.594 -0 -1.2 0
-18.356 -21.984 -11.399 -0 -1.2 0
-18.046 -22.357 -11.201 -0 -1.2 0
-17.732 -22.724 -10.999 -0 -1.2 0
-25.96 -1.678 -15.156 -0 -1.2 0
-25.949 -2.2 -15.146 -0 -1.2 0
-25.93 -2.723 -15.131 -0 -1.2 0
-25.904 -3.247 -15.11 -0 -1.2 0
-25.87 -3.768 -15.086 -0 -1.2 0
-25.827 -4.289 -15.056 -0 -1.2 0
-25.778 -4.809 -15.023 -0 -1.2 0
-25.72 -5.329 -14.985 -0 -1.2 0
-25.655 -5.846 -14.942 -0 -1.2 0
-25.581 -6.363 -14.895 -0 -1.2 0
-25.501 -6.877 -14.843 -0 -1.2 0
-25.411 -7.39 -14.786 -0 -1.2 0
-25.315 -7.901 -14.725 -0 -1.2 0
-25.21 -8.41 -14.66 -0 -1.2 0
-25.099 -8.916 -14.59 -0 -1.2 0
-24.979 -9.421 -14.516 -0 -1.2 0
-24.717 -10.422 -14.354 -0 -1.2 0
-22.751 -15.692 -13.158 -0 -1.2 0
-22.529 -16.147 -13.024 -0 -1.2 0
-21.575 -17.921 -12.452 -0 -1.2 0
-21.321 -18.351 -12.299 -0 -1.2 0
-21.059 -18.778 -12.142 -0 -1.2 0
-20.236 -20.022 -11.65 -0 -1.2 0
-19.95 -20.425 -11.479 -0 -1.2 0
-19.657 -20.823 -11.305 -0 -1.2 0
-19.359 -21.214 -11.126 -0 -1.2 0
-19.054 -21.6 -10.945 -0 -1.2 0
-18.744 -21.979 -10.76 -0 -1.2 0
-18.428 -22.352 -10.572 -0 -1.2 0
-18.107 -22.719 -10.381 -0 -1.2 0
-26.5 -1.669 -14.191 -0 -1.2 0
-26.49 -2.192 -14.181 -0 -1.2 0
-26.471 -2.714 -14.166 -0 -1.2 0
-26.445 -3.238 -14.146 -0 -1.2 0
-26.409 -3.759 -14.123 -0 -1.2 0
-26.366 -4.28 -14.095 -0 -1.2 0
-26.316 -4.8 -14.063 -0 -1.2 0
-26.257 -5.32 -14.027 -0 -1.2 0
-26.191 -5.838 -13.986 -0 -1.2 0
-26.115 -6.354 -13.941 -0 -1.2 0
-26.033 -6.868 -13.892 -0 -1.2 0
-25.942 -7.381 -13.838 -0 -1.2 0
-25.844 -7.892 -13.781 -0 -1.2 0
-25.737 -8.401 -13.719 -0 -1.2 0
-25.624 -8.908 -13.654 -0 -1.2 0
-25.501 -9.412 -13.584 -0 -1.2 0
-25.372 -9.914 -13.509 -0 -1.2 0
-25.235 -10.413 -13.431 -0 -1.2 0
-22.769 -16.59 -12.051 -0 -1.2 0
-22.283 -17.477 -11.782 -0 -1.2 0
-22.029 -17.914 -11.642 -0 -1.2 0
-21.769 -18.344 -11.498 -0 -1.2 0
-21.502 -18.771 -11.351 -0 -1.2 0
-21.229 -19.191 -11.2 -0 -1.2 0
-20.949 -19.606 -11.046 -0 -1.2 0
-20.663 -20.015 -10.889 -0 -1.2 0
-20.371 -20.419 -10.728 -0 -1.2 0
-20.072 -20.816 -10.565 -0 -1.2 0
-19.767 -21.208 -10.397 -0 -1.2 0
-19.457 -21.593 -10.227 -0 -1.2 0
-19.14 -21.972 -10.054 -0 -1.2 0
-18.817 -22.346 -9.877 -0 -1.2 0
-18.49 -22.713 -9.698 -0 -1.2 0
-26.97 -1.66 -13.277 -0 -1.2 0
-26.941 -2.706 -13.253 -0 -1.2 0
-26.914 -3.229 -13.234 -0 -1.2 0
-26.878 -3.751 -13.212 -0 -1.2 0
-26.835 -4.272 -13.185 -0 -1.2 0
-26.784 -4.792 -13.155 -0 -1.2 0
-26.723 -5.312 -13.121 -0 -1.2 0
-26.656 -5.829 -13.081 -0 -1.2 0
-26.58 -6.346 -13.039 -0 -1.2 0
-26.496 -6.86 -12.993 -0 -1.2 0
-26.404 -7.373 -12.942 -0 -1.2 0
