# .PCD v.7 - Point Cloud Data file format
FIELDS x y z vp_x vp_y vp_z
SIZE 4 4 4 4 4 4
TYPE F F F F F F
COUNT 1 1 1 1 1 1
WIDTH 1518
HEIGHT 1
VIEWPOINT 0 -1.20013 0 1 0 0 0
POINTS 1518
DATA ascii
-23.626 -18.021 7.704 -0 -1.2 0
-23.336 -18.451 7.63 -0 -1.2 0
-23.039 -18.875 7.554 -0 -1.2 0
-22.735 -19.294 7.475 -0 -1.2 0
-22.424 -19.707 7.394 -0 -1.2 0
-22.106 -20.115 7.311 -0 -1.2 0
-21.782 -20.517 7.225 -0 -1.2 0
-21.45 -20.913 7.138 -0 -1.2 0
-21.112 -21.302 7.048 -0 -1.2 0
-20.768 -21.686 6.957 -0 -1.2 0
-20.418 -22.064 6.862 -0 -1.2 0
-20.061 -22.435 6.765 -0 -1.2 0
-28.436 0.316 9.684 -0 -1.2 0
-28.449 -0.207 9.705 -0 -1.2 0
-28.452 -1.252 9.741 -0 -1.2 0
-28.439 -1.775 9.753 -0 -1.2 0
-28.419 -2.298 9.764 -0 -1.2 0
-28.39 -2.821 9.772 -0 -1.2 0
-28.351 -3.343 9.776 -0 -1.2 0
-28.305 -3.865 9.776 -0 -1.2 0
-28.25 -4.385 9.775 -0 -1.2 0
-28.187 -4.905 9.77 -0 -1.2 0
-28.114 -5.424 9.763 -0 -1.2 0
-28.034 -5.941 9.753 -0 -1.2 0
-27.944 -6.457 9.739 -0 -1.2 0
-27.846 -6.971 9.723 -0 -1.2 0
-27.739 -7.483 9.703 -0 -1.2 0
-27.625 -7.993 9.68 -0 -1.2 0
-27.502 -8.501 9.655 -0 -1.2 0
-27.371 -9.008 9.627 -0 -1.2 0
-27.231 -9.512 9.595 -0 -1.2 0
-27.083 -10.013 9.562 -0 -1.2 0
-26.926 -10.511 9.524 -0 -1.2 0
-26.762 -11.007 9.484 -0 -1.2 0
-26.589 -11.499 9.441 -0 -1.2 0
-26.409 -11.988 9.395 -0 -1.2 0
-26.22 -12.474 9.347 -0 -1.2 0
-26.023 -12.956 9.296 -0 -1.2 0
-25.819 -13.436 9.241 -0 -1.2 0
-25.607 -13.911 9.185 -0 -1.2 0
-25.386 -14.382 9.124 -0 -1.2 0
-25.159 -14.849 9.062 -0 -1.2 0
-24.924 -15.312 8.996 -0 -1.2 0
-24.68 -15.771 8.928 -0 -1.2 0
-24.43 -16.226 8.857 -0 -1.2 0
-24.172 -16.675 8.784 -0 -1.2 0
-23.906 -17.12 8.707 -0 -1.2 0
-23.633 -17.56 8.628 -0 -1.2 0
-23.353 -17.994 8.547 -0 -1.2 0
-23.067 -18.425 8.463 -0 -1.2 0
-22.773 -18.849 8.376 -0 -1.2 0
-22.472 -19.268 8.287 -0 -1.2 0
-22.164 -19.682 8.195 -0 -1.2 0
-21.85 -20.09 8.101 -0 -1.2 0
-21.529 -20.492 8.004 -0 -1.2 0
-21.202 -20.888 7.904 -0 -1.2 0
-20.868 -21.278 7.803 -0 -1.2 0
-20.528 -21.662 7.699 -0 -1.2 0
-20.181 -22.04 7.593 -0 -1.2 0
-19.829 -22.412 7.485 -0 -1.2 0
-28.077 0.868 10.589 -0 -1.2 0
-28.114 -1.222 10.674 -0 -1.2 0
-28.103 -1.745 10.686 -0 -1.2 0
-28.082 -2.268 10.697 -0 -1.2 0
-28.053 -2.791 10.703 -0 -1.2 0
-28.016 -3.313 10.706 -0 -1.2 0
-27.969 -3.835 10.706 -0 -1.2 0
-27.914 -4.355 10.703 -0 -1.2 0
-27.852 -4.876 10.697 -0 -1.2 0
-27.78 -5.394 10.687 -0 -1.2 0
-27.7 -5.912 10.673 -0 -1.2 0
-27.611 -6.427 10.657 -0 -1.2 0
-27.515 -6.941 10.638 -0 -1.2 0
-27.41 -7.454 10.615 -0 -1.2 0
-27.296 -7.964 10.589 -0 -1.2 0
-27.175 -8.472 10.56 -0 -1.2 0
-27.045 -8.979 10.527 -0 -1.2 0
-26.907 -9.483 10.492 -0 -1.2 0
-26.761 -9.984 10.453 -0 -1.2 0
-26.605 -10.482 10.411 -0 -1.2 0
-26.443 -10.978 10.365 -0 -1.2 0
-26.272 -11.47 10.317 -0 -1.2 0
-26.094 -11.96 10.266 -0 -1.2 0
-25.908 -12.446 10.211 -0 -1.2 0
-25.713 -12.928 10.154 -0 -1.2 0
-25.511 -13.408 10.093 -0 -1.2 0
-25.301 -13.883 10.029 -0 -1.2 0
-25.083 -14.355 9.962 -0 -1.2 0
-24.858 -14.822 9.892 -0 -1.2 0
-24.625 -15.286 9.819 -0 -1.2 0
-24.385 -15.745 9.743 -0 -1.2 0
-24.137 -16.2 9.664 -0 -1.2 0
-23.882 -16.649 9.583 -0 -1.2 0
-23.62 -17.094 9.498 -0 -1.2 0
-23.35 -17.535 9.41 -0 -1.2 0
-23.074 -17.969 9.319 -0 -1.2 0
-22.79 -18.4 9.226 -0 -1.2 0
-22.5 -18.825 9.13 -0 -1.2 0
-22.203 -19.244 9.03 -0 -1.2 0
-21.898 -19.658 8.929 -0 -1.2 0
-21.588 -20.066 8.825 -0 -1.2 0
-21.271 -20.469 8.718 -0 -1.2 0
-20.947 -20.865 8.608 -0 -1.2 0
-20.617 -21.256 8.496 -0 -1.2 0
-20.281 -21.64 8.381 -0 -1.2 0
-19.938 -22.019 8.263 -0 -1.2 0
-19.59 -22.391 8.143 -0 -1.2 0
-27.712 0.898 11.505 -0 -1.2 0
-27.734 0.376 11.532 -0 -1.2 0
-27.752 -0.67 11.575 -0 -1.2 0
-27.748 -1.192 11.591 -0 -1.2 0
-27.737 -1.715 11.604 -0 -1.2 0
-27.716 -2.238 11.614 -0 -1.2 0
-27.687 -2.762 11.619 -0 -1.2 0
-27.651 -3.283 11.622 -0 -1.2 0
-27.237 -3.769 11.465 -0 -1.2 0
-27.551 -4.325 11.615 -0 -1.2 0
-27.488 -4.846 11.607 -0 -1.2 0
-27.418 -5.365 11.595 -0 -1.2 0
-27.339 -5.882 11.58 -0 -1.2 0
-27.252 -6.398 11.561 -0 -1.2 0
-26.984 -6.876 11.465 -0 -1.2 0
-27.052 -7.425 11.512 -0 -1.2 0
-26.94 -7.935 11.482 -0 -1.2 0
-26.819 -8.443 11.449 -0 -1.2 0
-26.691 -8.95 11.412 -0 -1.2 0
-26.555 -9.454 11.373 -0 -1.2 0
-26.41 -9.955 11.329 -0 -1.2 0
-26.258 -10.454 11.282 -0 -1.2 0
-26.097 -10.95 11.233 -0 -1.2 0
-25.929 -11.442 11.179 -0 -1.2 0
-25.752 -11.932 11.121 -0 -1.2 0
-25.568 -12.419 11.061 -0 -1.2 0
-25.376 -12.901 10.997 -0 -1.2 0
-25.177 -13.381 10.93 -0 -1.2 0
-24.969 -13.856 10.86 -0 -1.2 0
-24.755 -14.328 10.786 -0 -1.2 0
-24.532 -14.795 10.709 -0 -1.2 0
-24.302 -15.26 10.628 -0 -1.2 0
-24.064 -15.719 10.544 -0 -1.2 0
-23.82 -16.174 10.458 -0 -1.2 0
-23.568 -16.624 10.367 -0 -1.2 0
-23.31 -17.069 10.275 -0 -1.2 0
-23.043 -17.51 10.179 -0 -1.2 0
-22.77 -17.945 10.079 -0 -1.2 0
-22.49 -18.376 9.976 -0 -1.2 0
-22.204 -18.801 9.871 -0 -1.2 0
-21.91 -19.22 9.762 -0 -1.2 0
-21.61 -19.634 9.651 -0 -1.2 0
-21.303 -20.043 9.536 -0 -1.2 0
-20.991 -20.446 9.419 -0 -1.2 0
-20.67 -20.843 9.299 -0 -1.2 0
-20.345 -21.234 9.176 -0 -1.2 0
-20.013 -21.619 9.05 -0 -1.2 0
-19.674 -21.997 8.921 -0 -1.2 0
-19.33 -22.37 8.79 -0 -1.2 0
-27.293 0.929 12.458 -0 -1.2 0
-27.316 0.407 12.487 -0 -1.2 0
-27.329 -1.161 12.548 -0 -1.2 0
-27.318 -1.684 12.56 -0 -1.2 0
-27.297 -2.206 12.568 -0 -1.2 0
-27.269 -2.73 12.574 -0 -1.2 0
-27.232 -3.252 12.574 -0 -1.2 0
-27.187 -3.774 12.571 -0 -1.2 0
-27.134 -4.294 12.566 -0 -1.2 0
-27.072 -4.815 12.555 -0 -1.2 0
-27.003 -5.333 12.541 -0 -1.2 0
-26.925 -5.851 12.523 -0 -1.2 0
-26.839 -6.367 12.501 -0 -1.2 0
-26.744 -6.881 12.476 -0 -1.2 0
-26.642 -7.394 12.446 -0 -1.2 0
-26.532 -7.904 12.413 -0 -1.2 0
-26.414 -8.413 12.376 -0 -1.2 0
-26.286 -8.919 12.335 -0 -1.2 0
-26.152 -9.424 12.291 -0 -1.2 0
-26.009 -9.925 12.243 -0 -1.2 0
-25.859 -10.424 12.19 -0 -1.2 0
-25.701 -10.92 12.135 -0 -1.2 0
-25.535 -11.413 12.075 -0 -1.2 0
-25.361 -11.903 12.013 -0 -1.2 0
-25.18 -12.39 11.946 -0 -1.2 0
-24.99 -12.872 11.875 -0 -1.2 0
-24.793 -13.352 11.802 -0 -1.2 0
-24.59 -13.828 11.724 -0 -1.2 0
-24.377 -14.3 11.643 -0 -1.2 0
-24.159 -14.768 11.559 -0 -1.2 0
-23.932 -15.232 11.471 -0 -1.2 0
-23.698 -15.691 11.379 -0 -1.2 0
-23.457 -16.146 11.284 -0 -1.2 0
-23.209 -16.597 11.186 -0 -1.2 0
-22.954 -17.042 11.084 -0 -1.2 0
-22.692 -17.483 10.978 -0 -1.2 0
-22.423 -17.919 10.87 -0 -1.2 0
-22.147 -18.35 10.758 -0 -1.2 0
-21.864 -18.775 10.643 -0 -1.2 0
-21.576 -19.195 10.525 -0 -1.2 0
-21.279 -19.61 10.403 -0 -1.2 0
-20.978 -20.019 10.278 -0 -1.2 0
-20.669 -20.422 10.15 -0 -1.2 0
-20.354 -20.819 10.019 -0 -1.2 0
-20.033 -21.21 9.885 -0 -1.2 0
-19.706 -21.596 9.748 -0 -1.2 0
-19.373 -21.975 9.608 -0 -1.2 0
-19.034 -22.348 9.466 -0 -1.2 0
-26.876 0.958 13.329 -0 -1.2 0
-26.911 -1.132 13.42 -0 -1.2 0
-26.899 -1.655 13.433 -0 -1.2 0
-26.88 -2.177 13.441 -0 -1.2 0
-26.851 -2.701 13.446 -0 -1.2 0
-26.814 -3.223 13.445 -0 -1.2 0
-26.771 -3.745 13.441 -0 -1.2 0
-26.718 -4.265 13.433 -0 -1.2 0
-26.657 -4.786 13.421 -0 -1.2 0
-26.588 -5.305 13.405 -0 -1.2 0
-26.512 -5.822 13.384 -0 -1.2 0
-26.426 -6.338 13.36 -0 -1.2 0
-26.334 -6.853 13.332 -0 -1.2 0
-26.233 -7.365 13.3 -0 -1.2 0
-26.123 -7.876 13.263 -0 -1.2 0
-26.007 -8.385 13.222 -0 -1.2 0
-25.882 -8.891 13.178 -0 -1.2 0
-25.75 -9.396 13.129 -0 -1.2 0
-25.609 -9.898 13.077 -0 -1.2 0
-25.461 -10.396 13.02 -0 -1.2 0
-25.305 -10.893 12.959 -0 -1.2 0
-25.142 -11.386 12.895 -0 -1.2 0
-24.97 -11.876 12.827 -0 -1.2 0
-24.791 -12.363 12.755 -0 -1.2 0
-24.605 -12.845 12.678 -0 -1.2 0
-24.411 -13.326 12.599 -0 -1.2 0
-24.209 -13.801 12.515 -0 -1.2 0
-24.001 -14.274 12.427 -0 -1.2 0
-23.786 -14.742 12.336 -0 -1.2 0
-23.562 -15.206 12.241 -0 -1.2 0
-23.332 -15.666 12.142 -0 -1.2 0
-23.095 -16.121 12.039 -0 -1.2 0
-22.85 -16.572 11.932 -0 -1.2 0
-22.599 -17.018 11.823 -0 -1.2 0
-22.341 -17.459 11.71 -0 -1.2 0
-22.076 -17.895 11.593 -0 -1.2 0
-21.804 -18.326 11.472 -0 -1.2 0
-21.526 -18.752 11.348 -0 -1.2 0
-21.241 -19.172 11.22 -0 -1.2 0
-20.95 -19.587 11.089 -0 -1.2 0
-20.652 -19.996 10.955 -0 -1.2 0
-20.348 -20.4 10.817 -0 -1.2 0
-20.038 -20.797 10.677 -0 -1.2 0
-19.722 -21.189 10.532 -0 -1.2 0
-19.4 -21.574 10.385 -0 -1.2 0
-19.072 -21.954 10.234 -0 -1.2 0
-18.738 -22.327 10.081 -0 -1.2 0
-26.468 -0.583 14.265 -0 -1.2 0
-26.464 -1.106 14.281 -0 -1.2 0
-26.452 -1.628 14.293 -0 -1.2 0
-26.433 -2.151 14.301 -0 -1.2 0
-26.405 -2.675 14.305 -0 -1.2 0
-26.369 -3.197 14.304 -0 -1.2 0
-26.325 -3.718 14.298 -0 -1.2 0
-26.273 -4.239 14.289 -0 -1.2 0
-26.214 -4.76 14.275 -0 -1.2 0
-26.145 -5.279 14.257 -0 -1.2 0
-26.07 -5.796 14.234 -0 -1.2 0
-25.987 -6.312 14.206 -0 -1.2 0
-25.895 -6.827 14.175 -0 -1.2 0
-25.796 -7.34 14.14 -0 -1.2 0
-25.689 -7.85 14.1 -0 -1.2 0
-25.574 -8.359 14.055 -0 -1.2 0
-25.45 -8.866 14.007 -0 -1.2 0
-25.32 -9.371 13.954 -0 -1.2 0
-25.182 -9.872 13.897 -0 -1.2 0
-25.036 -10.371 13.836 -0 -1.2 0
-24.882 -10.868 13.771 -0 -1.2 0
-24.721 -11.361 13.702 -0 -1.2 0
-24.553 -11.852 13.627 -0 -1.2 0
-24.377 -12.338 13.55 -0 -1.2 0
-24.193 -12.821 13.467 -0 -1.2 0
-24.003 -13.302 13.382 -0 -1.2 0
-23.805 -13.778 13.292 -0 -1.2 0
-23.6 -14.25 13.197 -0 -1.2 0
-23.387 -14.718 13.099 -0 -1.2 0
-23.168 -15.183 12.996 -0 -1.2 0
-22.941 -15.643 12.891 -0 -1.2 0
-22.708 -16.099 12.78 -0 -1.2 0
-22.467 -16.549 12.666 -0 -1.2 0
-22.22 -16.995 12.549 -0 -1.2 0
-21.966 -17.437 12.426 -0 -1.2 0
-21.705 -17.873 12.301 -0 -1.2 0
-21.438 -18.305 12.173 -0 -1.2 0
-21.164 -18.73 12.039 -0 -1.2 0
-20.884 -19.151 11.902 -0 -1.2 0
-20.598 -19.566 11.762 -0 -1.2 0
-20.304 -19.976 11.619 -0 -1.2 0
-20.005 -20.38 11.472 -0 -1.2 0
-19.7 -20.778 11.322 -0 -1.2 0
-19.389 -21.169 11.167 -0 -1.2 0
-19.072 -21.555 11.009 -0 -1.2 0
-18.75 -21.935 10.848 -0 -1.2 0
-18.422 -22.309 10.685 -0 -1.2 0
-25.911 1.006 15.112 -0 -1.2 0
-25.932 0.484 15.142 -0 -1.2 0
-25.943 -0.038 15.168 -0 -1.2 0
-25.943 -1.084 15.205 -0 -1.2 0
-25.932 -1.607 15.217 -0 -1.2 0
-25.912 -2.129 15.224 -0 -1.2 0
-25.886 -2.653 15.225 -0 -1.2 0
-25.85 -3.175 15.223 -0 -1.2 0
-25.808 -3.697 15.217 -0 -1.2 0
-25.756 -4.217 15.204 -0 -1.2 0
-25.698 -4.738 15.189 -0 -1.2 0
-25.631 -5.257 15.167 -0 -1.2 0
-25.557 -5.775 15.143 -0 -1.2 0
-25.474 -6.291 15.112 -0 -1.2 0
-25.385 -6.806 15.077 -0 -1.2 0
-25.287 -7.318 15.038 -0 -1.2 0
-25.182 -7.829 14.994 -0 -1.2 0
-25.069 -8.338 14.946 -0 -1.2 0
-24.948 -8.845 14.893 -0 -1.2 0
-24.82 -9.35 14.836 -0 -1.2 0
-24.684 -9.852 14.774 -0 -1.2 0
-24.541 -10.351 14.707 -0 -1.2 0
-24.392 -10.848 14.637 -0 -1.2 0
-24.233 -11.34 14.561 -0 -1.2 0
-24.068 -11.831 14.481 -0 -1.2 0
-23.895 -12.318 14.398 -0 -1.2 0
-23.716 -12.801 14.309 -0 -1.2 0
-23.528 -13.282 14.215 -0 -1.2 0
-23.334 -13.758 14.118 -0 -1.2 0
-23.132 -14.231 14.017 -0 -1.2 0
-22.924 -14.699 13.911 -0 -1.2 0
-22.709 -15.164 13.8 -0 -1.2 0
-22.487 -15.624 13.687 -0 -1.2 0
-22.258 -16.08 13.569 -0 -1.2 0
-22.022 -16.531 13.446 -0 -1.2 0
-21.78 -16.977 13.319 -0 -1.2 0
-21.53 -17.419 13.189 -0 -1.2 0
-21.274 -17.855 13.054 -0 -1.2 0
-21.013 -18.287 12.915 -0 -1.2 0
-20.744 -18.713 12.772 -0 -1.2 0
-20.469 -19.134 12.626 -0 -1.2 0
-20.188 -19.549 12.476 -0 -1.2 0
-19.901 -19.959 12.322 -0 -1.2 0
-19.608 -20.363 12.164 -0 -1.2 0
-19.309 -20.762 12.002 -0 -1.2 0
-19.004 -21.154 11.837 -0 -1.2 0
-18.693 -21.54 11.669 -0 -1.2 0
-18.377 -21.92 11.496 -0 -1.2 0
-18.054 -22.294 11.321 -0 -1.2 0
-25.427 -0.542 16.044 -0 -1.2 0
-25.423 -1.065 16.06 -0 -1.2 0
-25.411 -1.587 16.071 -0 -1.2 0
-25.392 -2.11 16.077 -0 -1.2 0
-25.365 -2.634 16.078 -0 -1.2 0
-25.331 -3.156 16.074 -0 -1.2 0
-25.288 -3.678 16.067 -0 -1.2 0
-25.238 -4.198 16.053 -0 -1.2 0
-25.18 -4.719 16.035 -0 -1.2 0
-25.115 -5.238 16.011 -0 -1.2 0
-25.043 -5.756 15.983 -0 -1.2 0
-24.961 -6.272 15.95 -0 -1.2 0
-24.874 -6.787 15.913 -0 -1.2 0
-24.778 -7.3 15.869 -0 -1.2 0
-24.675 -7.811 15.822 -0 -1.2 0
-24.564 -8.32 15.771 -0 -1.2 0
-24.446 -8.827 15.713 -0 -1.2 0
-24.321 -9.332 15.652 -0 -1.2 0
-24.187 -9.834 15.585 -0 -1.2 0
-24.047 -10.333 15.513 -0 -1.2 0
-23.899 -10.83 15.437 -0 -1.2 0
-23.744 -11.323 15.357 -0 -1.2 0
-23.582 -11.814 15.271 -0 -1.2 0
-23.413 -12.301 15.182 -0 -1.2 0
-23.236 -12.784 15.086 -0 -1.2 0
-23.053 -13.265 14.988 -0 -1.2 0
-22.863 -13.741 14.883 -0 -1.2 0
-22.665 -14.214 14.775 -0 -1.2 0
-22.461 -14.682 14.662 -0 -1.2 0
-22.25 -15.147 14.545 -0 -1.2 0
-22.032 -15.608 14.423 -0 -1.2 0
-21.807 -16.064 14.298 -0 -1.2 0
-21.576 -16.515 14.167 -0 -1.2 0
-21.338 -16.961 14.033 -0 -1.2 0
-21.094 -17.403 13.893 -0 -1.2 0
-20.844 -17.839 13.75 -0 -1.2 0
-20.586 -18.272 13.603 -0 -1.2 0
-20.323 -18.698 13.452 -0 -1.2 0
-20.053 -19.119 13.295 -0 -1.2 0
-19.778 -19.534 13.136 -0 -1.2 0
-19.497 -19.945 12.972 -0 -1.2 0
-19.21 -20.349 12.805 -0 -1.2 0
-18.916 -20.747 12.634 -0 -1.2 0
-18.617 -21.14 12.458 -0 -1.2 0
-18.312 -21.526 12.279 -0 -1.2 0
-18.003 -21.906 12.096 -0 -1.2 0
-17.687 -22.281 11.909 -0 -1.2 0
-24.844 1.043 16.805 -0 -1.2 0
-24.873 -1.047 16.899 -0 -1.2 0
-24.862 -1.569 16.909 -0 -1.2 0
-24.843 -2.092 16.915 -0 -1.2 0
-24.817 -2.616 16.915 -0 -1.2 0
-24.783 -3.138 16.909 -0 -1.2 0
-24.742 -3.66 16.899 -0 -1.2 0
-24.692 -4.181 16.884 -0 -1.2 0
-24.636 -4.702 16.864 -0 -1.2 0
-24.572 -5.221 16.838 -0 -1.2 0
-24.5 -5.738 16.808 -0 -1.2 0
-24.421 -6.254 16.771 -0 -1.2 0
-24.335 -6.769 16.731 -0 -1.2 0
-24.241 -7.282 16.685 -0 -1.2 0
-24.14 -7.793 16.635 -0 -1.2 0
-24.032 -8.302 16.578 -0 -1.2 0
-23.916 -8.809 16.517 -0 -1.2 0
-23.793 -9.315 16.451 -0 -1.2 0
-23.663 -9.817 16.38 -0 -1.2 0
-23.525 -10.316 16.304 -0 -1.2 0
-23.38 -10.813 16.222 -0 -1.2 0
-23.228 -11.306 16.137 -0 -1.2 0
-23.07 -11.797 16.046 -0 -1.2 0
-22.904 -12.284 15.95 -0 -1.2 0
-22.732 -12.768 15.85 -0 -1.2 0
-22.551 -13.249 15.744 -0 -1.2 0
-22.365 -13.725 15.634 -0 -1.2 0
-22.172 -14.198 15.519 -0 -1.2 0
-21.972 -14.667 15.4 -0 -1.2 0
-21.766 -15.132 15.275 -0 -1.2 0
-21.552 -15.592 15.146 -0 -1.2 0
-21.332 -16.048 15.012 -0 -1.2 0
-21.106 -16.5 14.874 -0 -1.2 0
-20.873 -16.946 14.731 -0 -1.2 0
-20.634 -17.389 14.584 -0 -1.2 0
-20.389 -17.825 14.433 -0 -1.2 0
-20.137 -18.257 14.276 -0 -1.2 0
-19.879 -18.684 14.117 -0 -1.2 0
-19.616 -19.105 13.952 -0 -1.2 0
-19.347 -19.521 13.783 -0 -1.2 0
-19.071 -19.931 13.61 -0 -1.2 0
-18.79 -20.336 13.433 -0 -1.2 0
-18.503 -20.734 13.251 -0 -1.2 0
-18.21 -21.127 13.067 -0 -1.2 0
-17.911 -21.513 12.877 -0 -1.2 0
-17.608 -21.894 12.684 -0 -1.2 0
-17.299 -22.268 12.487 -0 -1.2 0
-24.251 -1.029 17.779 -0 -1.2 0
-24.24 -1.552 17.789 -0 -1.2 0
-24.221 -2.075 17.793 -0 -1.2 0
-24.196 -2.599 17.793 -0 -1.2 0
-24.162 -3.12 17.786 -0 -1.2 0
-24.122 -3.642 17.774 -0 -1.2 0
-24.074 -4.163 17.758 -0 -1.2 0
-24.018 -4.684 17.735 -0 -1.2 0
-23.956 -5.203 17.707 -0 -1.2 0
-23.886 -5.721 17.673 -0 -1.2 0
-23.809 -6.237 17.634 -0 -1.2 0
-23.724 -6.752 17.59 -0 -1.2 0
-23.633 -7.265 17.541 -0 -1.2 0
-23.534 -7.776 17.486 -0 -1.2 0
-23.428 -8.285 17.427 -0 -1.2 0
-23.315 -8.793 17.362 -0 -1.2 0
-23.195 -9.298 17.29 -0 -1.2 0
-23.068 -9.8 17.215 -0 -1.2 0
-22.934 -10.299 17.134 -0 -1.2 0
-22.793 -10.796 17.047 -0 -1.2 0
-22.644 -11.29 16.956 -0 -1.2 0
-22.49 -11.781 16.86 -0 -1.2 0
-22.327 -12.268 16.758 -0 -1.2 0
-22.159 -12.752 16.65 -0 -1.2 0
-21.984 -13.233 16.538 -0 -1.2 0
-21.802 -13.709 16.422 -0 -1.2 0
-21.613 -14.183 16.3 -0 -1.2 0
-21.418 -14.651 16.173 -0 -1.2 0
-21.216 -15.117 16.041 -0 -1.2 0
-21.008 -15.577 15.904 -0 -1.2 0
-20.794 -16.033 15.763 -0 -1.2 0
-20.574 -16.485 15.617 -0 -1.2 0
-20.346 -16.932 15.465 -0 -1.2 0
-20.113 -17.374 15.31 -0 -1.2 0
-19.874 -17.811 15.149 -0 -1.2 0
-19.629 -18.243 14.984 -0 -1.2 0
-19.377 -18.67 14.814 -0 -1.2 0
-19.12 -19.091 14.64 -0 -1.2 0
-18.857 -19.507 14.462 -0 -1.2 0
-18.588 -19.918 14.28 -0 -1.2 0
-18.313 -20.323 14.092 -0 -1.2 0
-18.033 -20.721 13.9 -0 -1.2 0
-17.748 -21.114 13.704 -0 -1.2 0
-17.457 -21.501 13.505 -0 -1.2 0
-17.161 -21.882 13.301 -0 -1.2 0
-16.859 -22.256 13.092 -0 -1.2 0
-23.567 -3.106 18.57 -0 -1.2 0
-23.527 -3.628 18.557 -0 -1.2 0
-23.48 -4.149 18.538 -0 -1.2 0
-23.426 -4.67 18.513 -0 -1.2 0
-23.365 -5.189 18.483 -0 -1.2 0
-23.296 -5.707 18.447 -0 -1.2 0
-23.221 -6.223 18.406 -0 -1.2 0
-23.138 -6.738 18.358 -0 -1.2 0
-23.049 -7.251 18.306 -0 -1.2 0
-22.952 -7.762 18.248 -0 -1.2 0
-22.849 -8.271 18.185 -0 -1.2 0
-22.738 -8.779 18.115 -0 -1.2 0
-22.621 -9.284 18.041 -0 -1.2 0
-22.498 -9.786 17.96 -0 -1.2 0
-22.366 -10.285 17.875 -0 -1.2 0
-22.228 -10.783 17.784 -0 -1.2 0
-22.084 -11.276 17.687 -0 -1.2 0
-21.932 -11.768 17.586 -0 -1.2 0
-21.775 -12.255 17.478 -0 -1.2 0
-21.61 -12.738 17.366 -0 -1.2 0
-21.439 -13.22 17.248 -0 -1.2 0
-21.261 -13.696 17.125 -0 -1.2 0
-21.077 -14.17 16.997 -0 -1.2 0
-20.887 -14.638 16.863 -0 -1.2 0
-20.69 -15.104 16.725 -0 -1.2 0
-20.487 -15.564 16.582 -0 -1.2 0
-20.277 -16.021 16.433 -0 -1.2 0
-20.062 -16.473 16.279 -0 -1.2 0
-19.84 -16.919 16.12 -0 -1.2 0
-19.613 -17.362 15.958 -0 -1.2 0
-19.379 -17.799 15.789 -0 -1.2 0
-19.14 -18.232 15.615 -0 -1.2 0
-18.895 -18.658 15.438 -0 -1.2 0
-18.644 -19.08 15.256 -0 -1.2 0
-18.387 -19.496 15.068 -0 -1.2 0
-18.125 -19.907 14.876 -0 -1.2 0
-17.857 -20.312 14.68 -0 -1.2 0
-17.583 -20.711 14.479 -0 -1.2 0
-17.305 -21.103 14.274 -0 -1.2 0
-17.021 -21.49 14.065 -0 -1.2 0
-16.732 -21.871 13.851 -0 -1.2 0
-16.439 -22.246 13.633 -0 -1.2 0
-23.04 -0.479 19.314 -0 -1.2 0
-23.035 -1.001 19.328 -0 -1.2 0
-23.025 -1.524 19.337 -0 -1.2 0
-23.006 -2.047 19.34 -0 -1.2 0
-22.612 -6.21 19.153 -0 -1.2 0
-22.531 -6.725 19.103 -0 -1.2 0
-22.444 -7.239 19.047 -0 -1.2 0
-22.35 -7.75 18.985 -0 -1.2 0
-22.249 -8.259 18.918 -0 -1.2 0
-22.141 -8.766 18.846 -0 -1.2 0
-22.026 -9.272 18.767 -0 -1.2 0
-21.906 -9.774 18.683 -0 -1.2 0
-21.778 -10.273 18.593 -0 -1.2 0
-21.643 -10.771 18.497 -0 -1.2 0
-21.503 -11.264 18.396 -0 -1.2 0
-21.356 -11.756 18.289 -0 -1.2 0
-21.201 -12.243 18.177 -0 -1.2 0
-21.041 -12.727 18.059 -0 -1.2 0
-20.874 -13.208 17.935 -0 -1.2 0
-20.701 -13.685 17.807 -0 -1.2 0
-20.522 -14.158 17.672 -0 -1.2 0
-20.336 -14.627 17.532 -0 -1.2 0
-20.144 -15.093 17.388 -0 -1.2 0
-19.946 -15.553 17.237 -0 -1.2 0
-19.742 -16.01 17.082 -0 -1.2 0
-19.532 -16.462 16.921 -0 -1.2 0
-19.316 -16.909 16.755 -0 -1.2 0
-19.094 -17.351 16.584 -0 -1.2 0
-18.866 -17.788 16.408 -0 -1.2 0
-18.633 -18.221 16.227 -0 -1.2 0
-18.394 -18.648 16.042 -0 -1.2 0
-18.15 -19.07 15.851 -0 -1.2 0
-17.899 -19.486 15.655 -0 -1.2 0
-17.644 -19.897 15.455 -0 -1.2 0
-17.384 -20.302 15.25 -0 -1.2 0
-17.117 -20.701 15.04 -0 -1.2 0
-16.846 -21.094 14.826 -0 -1.2 0
-16.569 -21.481 14.607 -0 -1.2 0
-16.288 -21.862 14.384 -0 -1.2 0
-16.001 -22.237 14.156 -0 -1.2 0
-21.576 -8.245 19.689 -0 -1.2 0
-21.472 -8.752 19.611 -0 -1.2 0
-21.36 -9.257 19.529 -0 -1.2 0
-21.242 -9.76 19.44 -0 -1.2 0
-21.119 -10.259 19.346 -0 -1.2 0
-20.988 -10.757 19.246 -0 -1.2 0
-20.851 -11.25 19.14 -0 -1.2 0
-20.707 -11.742 19.028 -0 -1.2 0
-20.558 -12.23 18.909 -0 -1.2 0
-20.403 -12.713 18.786 -0 -1.2 0
-20.241 -13.195 18.657 -0 -1.2 0
-20.073 -13.672 18.521 -0 -1.2 0
-19.899 -14.145 18.381 -0 -1.2 0
-19.718 -14.614 18.235 -0 -1.2 0
-19.532 -15.08 18.083 -0 -1.2 0
-19.339 -15.541 17.925 -0 -1.2 0
-19.142 -15.998 17.763 -0 -1.2 0
-18.937 -16.449 17.595 -0 -1.2 0
-18.728 -16.896 17.422 -0 -1.2 0
-18.513 -17.339 17.243 -0 -1.2 0
-18.292 -17.776 17.058 -0 -1.2 0
-18.065 -18.209 16.87 -0 -1.2 0
-17.833 -18.636 16.676 -0 -1.2 0
-17.596 -19.058 16.476 -0 -1.2 0
-17.354 -19.475 16.271 -0 -1.2 0
-17.106 -19.886 16.062 -0 -1.2 0
-16.852 -20.291 15.849 -0 -1.2 0
-16.594 -20.69 15.629 -0 -1.2 0
-16.33 -21.083 15.405 -0 -1.2 0
-16.062 -21.471 15.177 -0 -1.2 0
-15.789 -21.852 14.944 -0 -1.2 0
-15.512 -22.227 14.707 -0 -1.2 0
-21.662 0.607 20.787 -0 -1.2 0
-21.674 -0.438 20.836 -0 -1.2 0
-21.67 -0.961 20.85 -0 -1.2 0
-21.66 -1.484 20.858 -0 -1.2 0
-21.642 -2.007 20.859 -0 -1.2 0
-21.618 -2.531 20.855 -0 -1.2 0
-21.588 -3.053 20.844 -0 -1.2 0
-21.552 -3.575 20.827 -0 -1.2 0
-20.926 -8.22 20.388 -0 -1.2 0
-20.825 -8.728 20.308 -0 -1.2 0
-20.717 -9.233 20.222 -0 -1.2 0
-20.603 -9.736 20.13 -0 -1.2 0
-20.482 -10.235 20.031 -0 -1.2 0
-20.355 -10.733 19.927 -0 -1.2 0
-20.222 -11.227 19.816 -0 -1.2 0
-20.083 -11.718 19.7 -0 -1.2 0
-19.938 -12.206 19.577 -0 -1.2 0
-19.787 -12.69 19.448 -0 -1.2 0
-19.63 -13.172 19.315 -0 -1.2 0
-19.466 -13.649 19.174 -0 -1.2 0
-19.297 -14.123 19.027 -0 -1.2 0
-19.123 -14.591 18.876 -0 -1.2 0
-18.942 -15.057 18.719 -0 -1.2 0
-18.756 -15.519 18.555 -0 -1.2 0
-18.563 -15.976 18.386 -0 -1.2 0
-18.366 -16.428 18.211 -0 -1.2 0
-18.162 -16.875 18.032 -0 -1.2 0
-17.953 -17.318 17.846 -0 -1.2 0
-17.738 -17.755 17.655 -0 -1.2 0
-17.519 -18.189 17.458 -0 -1.2 0
-17.294 -18.616 17.256 -0 -1.2 0
-17.064 -19.038 17.05 -0 -1.2 0
-16.828 -19.455 16.838 -0 -1.2 0
-16.588 -19.866 16.62 -0 -1.2 0
-16.342 -20.272 16.399 -0 -1.2 0
-16.091 -20.671 16.171 -0 -1.2 0
-15.836 -21.065 15.939 -0 -1.2 0
-15.576 -21.452 15.702 -0 -1.2 0
-15.311 -21.834 15.461 -0 -1.2 0
-15.041 -22.209 15.214 -0 -1.2 0
-20.951 0.632 21.504 -0 -1.2 0
-20.959 0.109 21.532 -0 -1.2 0
-20.962 -0.413 21.553 -0 -1.2 0
-20.958 -0.936 21.567 -0 -1.2 0
-20.948 -1.459 21.575 -0 -1.2 0
-20.697 -5.111 21.447 -0 -1.2 0
-20.635 -5.63 21.403 -0 -1.2 0
-20.569 -6.146 21.351 -0 -1.2 0
-20.237 -8.196 21.082 -0 -1.2 0
-20.138 -8.703 21 -0 -1.2 0
-20.034 -9.209 20.91 -0 -1.2 0
-19.923 -9.712 20.814 -0 -1.2 0
-19.806 -10.211 20.712 -0 -1.2 0
-19.684 -10.709 20.603 -0 -1.2 0
-19.555 -11.203 20.489 -0 -1.2 0
-19.421 -11.695 20.367 -0 -1.2 0
-19.28 -12.183 20.24 -0 -1.2 0
-19.134 -12.667 20.107 -0 -1.2 0
-18.981 -13.149 19.967 -0 -1.2 0
-18.824 -13.626 19.821 -0 -1.2 0
-18.49 -14.569 19.513 -0 -1.2 0
-18.316 -15.035 19.349 -0 -1.2 0
-17.758 -16.406 18.824 -0 -1.2 0
-16.938 -18.168 18.043 -0 -1.2 0
-16.271 -19.435 17.4 -0 -1.2 0
-16.037 -19.847 17.175 -0 -1.2 0
-15.8 -20.252 16.945 -0 -1.2 0
-15.557 -20.652 16.71 -0 -1.2 0
-15.31 -21.046 16.469 -0 -1.2 0
-15.058 -21.434 16.224 -0 -1.2 0
-14.802 -21.816 15.973 -0 -1.2 0
-14.54 -22.192 15.718 -0 -1.2 0
-20.084 -3.001 22.305 -0 -1.2 0
-20.049 -3.523 22.286 -0 -1.2 0
-20.008 -4.045 22.26 -0 -1.2 0
-19.961 -4.566 22.227 -0 -1.2 0
-19.908 -5.085 22.186 -0 -1.2 0
-19.85 -5.604 22.14 -0 -1.2 0
-19.785 -6.12 22.088 -0 -1.2 0
-19.554 -7.66 21.887 -0 -1.2 0
-19.465 -8.17 21.807 -0 -1.2 0
-19.371 -8.678 21.72 -0 -1.2 0
-19.269 -9.184 21.627 -0 -1.2 0
-19.163 -9.686 21.527 -0 -1.2 0
-19.051 -10.186 21.421 -0 -1.2 0
-18.932 -10.684 21.309 -0 -1.2 0
-18.809 -11.178 21.19 -0 -1.2 0
-18.679 -11.67 21.063 -0 -1.2 0
-18.543 -12.158 20.932 -0 -1.2 0
-18.402 -12.642 20.793 -0 -1.2 0
-18.256 -13.125 20.649 -0 -1.2 0
-17.947 -14.076 20.34 -0 -1.2 0
-17.783 -14.546 20.177 -0 -1.2 0
-17.441 -15.474 19.832 -0 -1.2 0
-16.29 -18.147 18.653 -0 -1.2 0
-15.193 -20.232 17.515 -0 -1.2 0
-14.96 -20.632 17.271 -0 -1.2 0
-14.722 -21.026 17.022 -0 -1.2 0
-14.479 -21.415 16.768 -0 -1.2 0
-14.232 -21.797 16.508 -0 -1.2 0
-13.982 -22.173 16.244 -0 -1.2 0
-19.398 -0.886 22.984 -0 -1.2 0
-19.388 -1.409 22.991 -0 -1.2 0
-19.372 -1.932 22.992 -0 -1.2 0
-19.35 -2.456 22.985 -0 -1.2 0
-19.322 -2.978 22.972 -0 -1.2 0
-19.289 -3.5 22.952 -0 -1.2 0
-19.249 -4.021 22.924 -0 -1.2 0
-19.204 -4.542 22.89 -0 -1.2 0
-19.153 -5.062 22.849 -0 -1.2 0
-19.096 -5.58 22.8 -0 -1.2 0
-19.034 -6.097 22.745 -0 -1.2 0
-18.891 -7.126 22.613 -0 -1.2 0
-18.81 -7.637 22.537 -0 -1.2 0
-18.725 -8.147 22.455 -0 -1.2 0
-18.634 -8.655 22.365 -0 -1.2 0
-18.537 -9.161 22.269 -0 -1.2 0
-18.326 -10.164 22.055 -0 -1.2 0
-18.212 -10.662 21.939 -0 -1.2 0
-18.093 -11.156 21.816 -0 -1.2 0
-17.968 -11.648 21.686 -0 -1.2 0
-17.838 -12.136 21.55 -0 -1.2 0
-14.611 -20.214 18.024 -0 -1.2 0
-14.386 -20.615 17.772 -0 -1.2 0
-14.158 -21.009 17.515 -0 -1.2 0
-13.924 -21.397 17.252 -0 -1.2 0
-13.687 -21.78 16.985 -0 -1.2 0
-13.445 -22.157 16.712 -0 -1.2 0
-18.546 0.707 23.609 -0 -1.2 0
-18.553 0.183 23.638 -0 -1.2 0
-18.555 -0.339 23.66 -0 -1.2 0
-18.551 -0.861 23.674 -0 -1.2 0
-18.541 -1.384 23.682 -0 -1.2 0
-18.526 -1.907 23.682 -0 -1.2 0
-18.505 -2.431 23.674 -0 -1.2 0
-18.478 -2.953 23.66 -0 -1.2 0
-18.446 -3.475 23.639 -0 -1.2 0
-18.408 -3.997 23.61 -0 -1.2 0
-18.365 -4.518 23.574 -0 -1.2 0
-18.316 -5.037 23.531 -0 -1.2 0
-18.261 -5.556 23.481 -0 -1.2 0
-18.064 -7.102 23.287 -0 -1.2 0
-17.987 -7.614 23.208 -0 -1.2 0
-17.818 -8.631 23.03 -0 -1.2 0
-17.725 -9.137 22.93 -0 -1.2 0
-17.413 -10.639 22.589 -0 -1.2 0
-14.784 -18.536 19.529 -0 -1.2 0
-14.586 -18.959 19.293 -0 -1.2 0
-14.384 -19.376 19.051 -0 -1.2 0
-14.177 -19.789 18.802 -0 -1.2 0
-13.966 -20.195 18.549 -0 -1.2 0
-13.752 -20.596 18.289 -0 -1.2 0
-13.532 -20.991 18.025 -0 -1.2 0
-13.309 -21.38 17.755 -0 -1.2 0
-13.082 -21.762 17.478 -0 -1.2 0
-12.851 -22.139 17.197 -0 -1.2 0
-17.742 0.729 24.22 -0 -1.2 0
-17.746 -0.84 24.285 -0 -1.2 0
-17.737 -1.362 24.292 -0 -1.2 0
-17.722 -1.885 24.291 -0 -1.2 0
-17.701 -2.409 24.284 -0 -1.2 0
-17.676 -2.932 24.269 -0 -1.2 0
-17.645 -3.454 24.246 -0 -1.2 0
-17.609 -3.975 24.217 -0 -1.2 0
-17.566 -4.496 24.179 -0 -1.2 0
-17.52 -5.016 24.135 -0 -1.2 0
-17.468 -5.534 24.083 -0 -1.2 0
-17.278 -7.08 23.883 -0 -1.2 0
-17.205 -7.592 23.802 -0 -1.2 0
-17.126 -8.102 23.714 -0 -1.2 0
-17.042 -8.61 23.619 -0 -1.2 0
-13.354 -20.179 19.014 -0 -1.2 0
-13.147 -20.58 18.748 -0 -1.2 0
-12.938 -20.975 18.475 -0 -1.2 0
-12.724 -21.364 18.198 -0 -1.2 0
-12.507 -21.747 17.914 -0 -1.2 0
-12.285 -22.124 17.626 -0 -1.2 0
-16.919 0.75 24.803 -0 -1.2 0
-16.927 -0.296 24.854 -0 -1.2 0
-16.923 -0.819 24.869 -0 -1.2 0
-16.855 -2.911 24.851 -0 -1.2 0
-16.825 -3.433 24.827 -0 -1.2 0
-16.79 -3.954 24.797 -0 -1.2 0
-16.749 -4.476 24.758 -0 -1.2 0
-16.705 -4.995 24.712 -0 -1.2 0
-16.655 -5.514 24.659 -0 -1.2 0
-16.539 -6.546 24.529 -0 -1.2 0
-16.474 -7.06 24.453 -0 -1.2 0
-16.404 -7.572 24.37 -0 -1.2 0
-16.328 -8.082 24.279 -0 -1.2 0
-16.073 -9.6 23.963 -0 -1.2 0
-15.878 -10.598 23.716 -0 -1.2 0
-13.65 -18.072 20.733 -0 -1.2 0
-12.126 -21.349 18.621 -0 -1.2 0
-11.918 -21.732 18.331 -0 -1.2 0
-11.707 -22.109 18.035 -0 -1.2 0
-16.023 0.781 25.391 -0 -1.2 0
-16.03 -0.264 25.444 -0 -1.2 0
-16.026 -0.787 25.458 -0 -1.2 0
-16.016 -1.31 25.465 -0 -1.2 0
-16.003 -1.833 25.464 -0 -1.2 0
-15.983 -2.357 25.456 -0 -1.2 0
-15.816 -4.963 25.297 -0 -1.2 0
-15.659 -6.515 25.109 -0 -1.2 0
-15.597 -7.029 25.031 -0 -1.2 0
-15.53 -7.541 24.947 -0 -1.2 0
-15.458 -8.051 24.854 -0 -1.2 0
-15.381 -8.559 24.753 -0 -1.2 0
-15.3 -9.066 24.645 -0 -1.2 0
-11.662 -20.935 19.351 -0 -1.2 0
-11.272 -21.709 18.763 -0 -1.2 0
-11.071 -22.087 18.46 -0 -1.2 0
-15.178 0.811 25.906 -0 -1.2 0
-14.883 -5.97 25.689 -0 -1.2 0
-14.828 -6.486 25.618 -0 -1.2 0
-14.769 -7 25.538 -0 -1.2 0
-14.705 -7.512 25.452 -0 -1.2 0
-14.636 -8.022 25.356 -0 -1.2 0
-14.564 -8.531 25.254 -0 -1.2 0
-14.325 0.84 26.387 -0 -1.2 0
-14.33 -0.205 26.442 -0 -1.2 0
-14.325 -0.728 26.457 -0 -1.2 0
-14.316 -1.251 26.464 -0 -1.2 0
-14.303 -1.774 26.463 -0 -1.2 0
-14.285 -2.298 26.454 -0 -1.2 0
-14.264 -2.82 26.437 -0 -1.2 0
-14.132 -4.905 26.289 -0 -1.2 0
-13.989 -6.457 26.094 -0 -1.2 0
-13.845 -6.933 25.849 -0 -1.2 0
-13.872 -7.483 25.924 -0 -1.2 0
-13.738 -8.502 25.723 -0 -1.2 0
-13.665 -9.009 25.611 -0 -1.2 0
-13.141 -11.99 24.775 -0 -1.2 0
-13.39 0.871 26.875 -0 -1.2 0
-13.393 0.348 26.908 -0 -1.2 0
-13.392 -0.174 26.931 -0 -1.2 0
-13.387 -0.696 26.946 -0 -1.2 0
-13.328 -2.789 26.926 -0 -1.2 0
-13.304 -3.311 26.9 -0 -1.2 0
-13.274 -3.833 26.867 -0 -1.2 0
-13.241 -4.354 26.825 -0 -1.2 0
-13.204 -4.874 26.775 -0 -1.2 0
-12.861 -5.294 26.105 -0 -1.2 0
-12.926 -5.84 26.261 -0 -1.2 0
-13.069 -6.426 26.576 -0 -1.2 0
-13.016 -6.94 26.494 -0 -1.2 0
-12.959 -7.453 26.404 -0 -1.2 0
-12.898 -7.963 26.305 -0 -1.2 0
-12.833 -8.472 26.198 -0 -1.2 0
-12.765 -8.979 26.084 -0 -1.2 0
-12.271 -11.961 25.233 -0 -1.2 0
-11.526 -15.287 23.893 -0 -1.2 0
-11.406 -15.746 23.671 -0 -1.2 0
-12.505 0.9 27.299 -0 -1.2 0
-12.493 -1.19 27.377 -0 -1.2 0
-12.482 -1.713 27.377 -0 -1.2 0
-12.465 -2.238 27.367 -0 -1.2 0
-12.446 -2.76 27.35 -0 -1.2 0
-12.421 -3.282 27.324 -0 -1.2 0
-12.394 -3.804 27.289 -0 -1.2 0
-12.362 -4.326 27.248 -0 -1.2 0
-12.328 -4.845 27.197 -0 -1.2 0
-12.289 -5.364 27.137 -0 -1.2 0
-12.247 -5.881 27.07 -0 -1.2 0
-12.102 -6.355 26.78 -0 -1.2 0
-12.15 -6.912 26.911 -0 -1.2 0
-12.096 -7.425 26.819 -0 -1.2 0
-12.039 -7.935 26.719 -0 -1.2 0
-11.978 -8.444 26.611 -0 -1.2 0
-11.913 -8.951 26.494 -0 -1.2 0
-11.172 -13.382 25.092 -0 -1.2 0
-11.072 -13.858 24.897 -0 -1.2 0
-11.593 0.929 27.699 -0 -1.2 0
-11.589 -0.638 27.772 -0 -1.2 0
-11.581 -1.161 27.78 -0 -1.2 0
-11.569 -1.684 27.778 -0 -1.2 0
-11.553 -2.209 27.769 -0 -1.2 0
-11.534 -2.731 27.75 -0 -1.2 0
-11.512 -3.253 27.725 -0 -1.2 0
-11.486 -3.775 27.689 -0 -1.2 0
-11.456 -4.297 27.647 -0 -1.2 0
-11.424 -4.817 27.595 -0 -1.2 0
-11.347 -5.853 27.467 -0 -1.2 0
-11.303 -6.369 27.39 -0 -1.2 0
-11.257 -6.884 27.305 -0 -1.2 0
-11.206 -7.396 27.212 -0 -1.2 0
-11.153 -7.907 27.11 -0 -1.2 0
-11.096 -8.416 27.001 -0 -1.2 0
-11.036 -8.923 26.883 -0 -1.2 0
-10.344 -13.356 25.46 -0 -1.2 0
-10.055 -14.772 24.845 -0 -1.2 0
-10.526 -2.7 28.154 -0 -1.2 0
-10.505 -3.222 28.126 -0 -1.2 0
-10.48 -3.744 28.091 -0 -1.2 0
-10.453 -4.266 28.048 -0 -1.2 0
-10.423 -4.786 27.995 -0 -1.2 0
-10.388 -5.305 27.935 -0 -1.2 0
-10.351 -5.822 27.865 -0 -1.2 0
-10.311 -6.338 27.788 -0 -1.2 0
-10.268 -6.853 27.701 -0 -1.2 0
-10.222 -7.366 27.607 -0 -1.2 0
-10.119 -8.385 27.393 -0 -1.2 0
-9.253 -14.276 25.421 -0 -1.2 0
-9.162 -14.745 25.205 -0 -1.2 0
-8.771 -16.574 24.267 -0 -1.2 0
-8.667 -17.021 24.013 -0 -1.2 0
-9.449 -5.276 28.274 -0 -1.2 0
-9.415 -5.794 28.205 -0 -1.2 0
-9.377 -6.31 28.125 -0 -1.2 0
-9.337 -6.825 28.039 -0 -1.2 0
-9.294 -7.338 27.943 -0 -1.2 0
-9.249 -7.849 27.839 -0 -1.2 0
-9.2 -8.358 27.726 -0 -1.2 0
-9.15 -8.865 27.605 -0 -1.2 0
-8.486 -13.778 25.942 -0 -1.2 0
-8.148 -15.644 25.053 -0 -1.2 0
-8.057 -16.099 24.812 -0 -1.2 0
-5.699 1.073 29.489 -0 -1.2 0
-4.644 1.093 29.675 -0 -1.2 0
3.183 0.178 29.939 -0 -1.2 0
5.11 2.296 29.507 -0 -1.2 0
6.128 0.216 29.482 -0 -1.2 0
6.605 -19.345 23.032 -0 -1.2 0
6.349 -20.566 22.078 -0 -1.2 0
7.426 -18.921 23.117 -0 -1.2 0
7.336 -19.34 22.815 -0 -1.2 0
7.903 -20.155 21.94 -0 -1.2 0
8.723 -19.744 21.985 -0 -1.2 0
8.606 -20.151 21.678 -0 -1.2 0
9.793 -18.484 22.567 -0 -1.2 0
9.553 -19.327 21.994 -0 -1.2 0
10.447 -18.888 21.949 -0 -1.2 0
10.316 -19.308 21.664 -0 -1.2 0
10.181 -19.721 21.372 -0 -1.2 0
11.421 -18.035 22.143 -0 -1.2 0
11.286 -18.465 21.876 -0 -1.2 0
11.147 -18.889 21.602 -0 -1.2 0
12.265 -17.604 22.018 -0 -1.2 0
12.125 -18.039 21.762 -0 -1.2 0
11.981 -18.469 21.5 -0 -1.2 0
15.526 0.265 25.809 -0 -1.2 0
12.869 -18.044 21.326 -0 -1.2 0
12.716 -18.474 21.069 -0 -1.2 0
12.062 -20.137 19.979 -0 -1.2 0
11.351 -21.709 18.791 -0 -1.2 0
13.859 -17.176 21.382 -0 -1.2 0
13.546 -18.05 20.898 -0 -1.2 0
13.383 -18.48 20.646 -0 -1.2 0
12.693 -20.143 19.579 -0 -1.2 0
12.511 -20.545 19.296 -0 -1.2 0
12.325 -20.94 19.008 -0 -1.2 0
11.942 -21.714 18.415 -0 -1.2 0
17.201 0.25 24.723 -0 -1.2 0
13.692 -19.329 19.685 -0 -1.2 0
13.128 -20.551 18.876 -0 -1.2 0
12.932 -20.946 18.594 -0 -1.2 0
12.733 -21.336 18.307 -0 -1.2 0
12.528 -21.72 18.015 -0 -1.2 0
13.798 -20.558 18.383 -0 -1.2 0
13.591 -20.954 18.109 -0 -1.2 0
13.381 -21.343 17.83 -0 -1.2 0
13.165 -21.727 17.545 -0 -1.2 0
18.938 -0.292 23.444 -0 -1.2 0
14.616 -20.165 18.164 -0 -1.2 0
14.187 -20.961 17.637 -0 -1.2 0
13.967 -21.351 17.366 -0 -1.2 0
13.742 -21.735 17.089 -0 -1.2 0
19.732 -0.298 22.78 -0 -1.2 0
19.737 -0.821 22.789 -0 -1.2 0
19.736 -1.344 22.79 -0 -1.2 0
19.729 -1.868 22.784 -0 -1.2 0
19.716 -2.391 22.772 -0 -1.2 0
19.697 -2.914 22.753 -0 -1.2 0
19.673 -3.436 22.726 -0 -1.2 0
19.641 -3.958 22.693 -0 -1.2 0
19.604 -4.479 22.653 -0 -1.2 0
19.562 -4.999 22.606 -0 -1.2 0
19.513 -5.517 22.552 -0 -1.2 0
19.459 -6.035 22.492 -0 -1.2 0
19.098 -8.595 22.086 -0 -1.2 0
14.993 -20.57 17.409 -0 -1.2 0
14.767 -20.966 17.15 -0 -1.2 0
14.536 -21.355 16.886 -0 -1.2 0
14.301 -21.739 16.617 -0 -1.2 0
20.566 -0.825 22.042 -0 -1.2 0
20.566 -1.348 22.044 -0 -1.2 0
20.558 -1.872 22.039 -0 -1.2 0
20.545 -2.395 22.027 -0 -1.2 0
20.524 -2.918 22.009 -0 -1.2 0
20.498 -3.44 21.984 -0 -1.2 0
20.465 -3.962 21.951 -0 -1.2 0
20.427 -4.483 21.913 -0 -1.2 0
20.382 -5.003 21.869 -0 -1.2 0
20.331 -5.521 21.816 -0 -1.2 0
20.274 -6.038 21.759 -0 -1.2 0
20.21 -6.554 21.694 -0 -1.2 0
15.135 -21.358 16.348 -0 -1.2 0
14.89 -21.742 16.089 -0 -1.2 0
21.311 -0.306 21.309 -0 -1.2 0
21.315 -0.829 21.318 -0 -1.2 0
21.314 -1.352 21.32 -0 -1.2 0
21.306 -1.877 21.315 -0 -1.2 0
21.291 -2.399 21.304 -0 -1.2 0
21.27 -2.922 21.287 -0 -1.2 0
21.243 -3.444 21.263 -0 -1.2 0
21.209 -3.967 21.233 -0 -1.2 0
21.169 -4.487 21.196 -0 -1.2 0
21.121 -5.007 21.153 -0 -1.2 0
18.517 -15.865 18.627 -0 -1.2 0
16.407 -20.176 16.55 -0 -1.2 0
16.167 -20.577 16.314 -0 -1.2 0
15.922 -20.972 16.073 -0 -1.2 0
15.674 -21.361 15.827 -0 -1.2 0
15.42 -21.745 15.576 -0 -1.2 0
22.034 -0.312 20.561 -0 -1.2 0
22.038 -0.835 20.569 -0 -1.2 0
22.036 -1.358 20.571 -0 -1.2 0
22.028 -1.882 20.568 -0 -1.2 0
22.012 -2.405 20.557 -0 -1.2 0
21.99 -2.928 20.541 -0 -1.2 0
21.962 -3.45 20.519 -0 -1.2 0
21.926 -3.972 20.489 -0 -1.2 0
21.885 -4.493 20.454 -0 -1.2 0
21.835 -5.013 20.413 -0 -1.2 0
21.78 -5.531 20.365 -0 -1.2 0
21.718 -6.048 20.312 -0 -1.2 0
21.65 -6.564 20.253 -0 -1.2 0
21.575 -7.077 20.186 -0 -1.2 0
20.988 -10.118 19.664 -0 -1.2 0
20.742 -11.111 19.441 -0 -1.2 0
16.452 -20.976 15.525 -0 -1.2 0
16.194 -21.365 15.288 -0 -1.2 0
15.931 -21.749 15.046 -0 -1.2 0
22.787 -0.842 19.735 -0 -1.2 0
22.785 -1.365 19.738 -0 -1.2 0
22.776 -1.889 19.734 -0 -1.2 0
22.76 -2.412 19.725 -0 -1.2 0
22.737 -2.935 19.71 -0 -1.2 0
22.707 -3.457 19.689 -0 -1.2 0
22.67 -3.979 19.661 -0 -1.2 0
22.626 -4.5 19.629 -0 -1.2 0
22.575 -5.02 19.59 -0 -1.2 0
22.518 -5.538 19.544 -0 -1.2 0
22.454 -6.055 19.493 -0 -1.2 0
22.383 -6.57 19.437 -0 -1.2 0
21.697 -10.125 18.876 -0 -1.2 0
19.161 -17.222 16.747 -0 -1.2 0
17.001 -20.981 14.914 -0 -1.2 0
16.734 -21.37 14.688 -0 -1.2 0
16.462 -21.754 14.456 -0 -1.2 0
23.441 -0.326 18.937 -0 -1.2 0
23.446 -0.849 18.945 -0 -1.2 0
23.443 -1.372 18.949 -0 -1.2 0
23.434 -1.896 18.946 -0 -1.2 0
23.417 -2.419 18.937 -0 -1.2 0
23.393 -2.942 18.923 -0 -1.2 0
23.362 -3.464 18.904 -0 -1.2 0
23.324 -3.986 18.877 -0 -1.2 0
23.279 -4.507 18.846 -0 -1.2 0
23.227 -5.027 18.81 -0 -1.2 0
23.167 -5.545 18.767 -0 -1.2 0
22.947 -7.091 18.605 -0 -1.2 0
22.86 -7.603 18.539 -0 -1.2 0
19.253 -18.101 15.735 -0 -1.2 0
17.208 -21.376 14.118 -0 -1.2 0
16.929 -21.759 13.897 -0 -1.2 0
17.375 -21.765 13.324 -0 -1.2 0
24.719 -0.344 17.234 -0 -1.2 0
24.723 -0.867 17.243 -0 -1.2 0
24.72 -1.39 17.246 -0 -1.2 0
24.71 -1.914 17.245 -0 -1.2 0
24.691 -2.437 17.239 -0 -1.2 0
24.666 -2.96 17.227 -0 -1.2 0
24.633 -3.482 17.209 -0 -1.2 0
24.592 -4.004 17.187 -0 -1.2 0
24.544 -4.525 17.16 -0 -1.2 0
24.489 -5.045 17.127 -0 -1.2 0
24.426 -5.563 17.089 -0 -1.2 0
24.277 -6.595 16.998 -0 -1.2 0
24.193 -7.109 16.944 -0 -1.2 0
22.43 -13.567 15.793 -0 -1.2 0
21.856 -14.978 15.411 -0 -1.2 0
18.419 -21 13.089 -0 -1.2 0
25.29 -0.354 16.381 -0 -1.2 0
25.295 -0.877 16.391 -0 -1.2 0
25.292 -1.4 16.394 -0 -1.2 0
25.281 -1.924 16.394 -0 -1.2 0
25.262 -2.447 16.389 -0 -1.2 0
25.235 -2.97 16.378 -0 -1.2 0
25.201 -3.492 16.362 -0 -1.2 0
25.159 -4.014 16.341 -0 -1.2 0
25.109 -4.535 16.316 -0 -1.2 0
25.053 -5.054 16.286 -0 -1.2 0
23.929 -10.655 15.628 -0 -1.2 0
23.126 -13.097 15.139 -0 -1.2 0
21.93 -15.906 14.401 -0 -1.2 0
18.238 -21.779 12.087 -0 -1.2 0
25.81 0.681 15.463 -0 -1.2 0
25.842 -0.364 15.496 -0 -1.2 0
25.846 -0.886 15.505 -0 -1.2 0
25.842 -1.41 15.509 -0 -1.2 0
25.83 -1.934 15.51 -0 -1.2 0
25.811 -2.457 15.504 -0 -1.2 0
25.784 -2.979 15.495 -0 -1.2 0
25.749 -3.501 15.481 -0 -1.2 0
25.706 -4.024 15.462 -0 -1.2 0
25.597 -5.064 15.41 -0 -1.2 0
25.457 -6.099 15.34 -0 -1.2 0
25.375 -6.614 15.297 -0 -1.2 0
25.286 -7.128 15.251 -0 -1.2 0
18.63 -21.786 11.46 -0 -1.2 0
26.368 0.669 14.49 -0 -1.2 0
26.388 0.147 14.507 -0 -1.2 0
26.084 -0.384 14.348 -0 -1.2 0
26.106 -0.9 14.368 -0 -1.2 0
26.11 -1.418 14.377 -0 -1.2 0
26.081 -1.935 14.368 -0 -1.2 0
26.304 -3.513 14.512 -0 -1.2 0
25.685 -3.97 14.179 -0 -1.2 0
25.691 -5.526 14.203 -0 -1.2 0
26.006 -6.11 14.384 -0 -1.2 0
25.922 -6.626 14.345 -0 -1.2 0
19.026 -21.794 10.771 -0 -1.2 0
26.788 -3.524 13.594 -0 -1.2 0
26.482 -6.122 13.478 -0 -1.2 0
26.397 -6.637 13.442 -0 -1.2 0
26.304 -7.15 13.402 -0 -1.2 0
25.615 -8.574 13.075 -0 -1.2 0
24.574 -13.127 12.615 -0 -1.2 0
23.97 -14.549 12.332 -0 -1.2 0
20.009 -21.031 10.427 -0 -1.2 0
19.693 -21.419 10.274 -0 -1.2 0
19.371 -21.802 10.117 -0 -1.2 0
27.307 0.645 12.627 -0 -1.2 0
27.24 -3.537 12.66 -0 -1.2 0
25.554 -11.136 11.995 -0 -1.2 0
20.966 -20.246 10.016 -0 -1.2 0
20.657 -20.646 9.879 -0 -1.2 0
20.343 -21.04 9.74 -0 -1.2 0
20.021 -21.428 9.598 -0 -1.2 0
19.694 -21.811 9.453 -0 -1.2 0
27.76 0.631 11.595 -0 -1.2 0
27.286 -6.663 11.511 -0 -1.2 0
27.189 -7.176 11.479 -0 -1.2 0
21.617 -19.851 9.357 -0 -1.2 0
21.31 -20.256 9.235 -0 -1.2 0
20.996 -20.656 9.11 -0 -1.2 0
20.675 -21.05 8.983 -0 -1.2 0
20.349 -21.438 8.853 -0 -1.2 0
20.016 -21.821 8.72 -0 -1.2 0
27.59 -1.465 10.447 -0 -1.2 0
27.605 -1.979 10.461 -0 -1.2 0
27.602 -2.493 10.468 -0 -1.2 0
27.684 -3.013 10.508 -0 -1.2 0
27.805 -3.541 10.561 -0 -1.2 0
27.566 -7.19 10.531 -0 -1.2 0
22.811 -18.611 8.927 -0 -1.2 0
22.22 -19.45 8.719 -0 -1.2 0
21.915 -19.861 8.611 -0 -1.2 0
21.603 -20.267 8.5 -0 -1.2 0
21.284 -20.667 8.386 -0 -1.2 0
20.96 -21.06 8.27 -0 -1.2 0
20.628 -21.448 8.152 -0 -1.2 0
20.291 -21.831 8.031 -0 -1.2 0
26.979 -10.738 9.316 -0 -1.2 0
26.069 -13.177 9.051 -0 -1.2 0
24.464 -16.434 8.565 -0 -1.2 0
24.204 -16.882 8.485 -0 -1.2 0
23.937 -17.324 8.402 -0 -1.2 0
23.662 -17.762 8.316 -0 -1.2 0
23.382 -18.195 8.229 -0 -1.2 0
23.093 -18.623 8.139 -0 -1.2 0
22.797 -19.044 8.046 -0 -1.2 0
22.495 -19.462 7.952 -0 -1.2 0
22.186 -19.873 7.854 -0 -1.2 0
21.87 -20.278 7.755 -0 -1.2 0
21.548 -20.678 7.653 -0 -1.2 0
21.218 -21.071 7.549 -0 -1.2 0
20.883 -21.459 7.442 -0 -1.2 0
20.541 -21.841 7.334 -0 -1.2 0
28.868 -0.465 8.601 -0 -1.2 0
28.872 -0.988 8.611 -0 -1.2 0
28.867 -1.511 8.619 -0 -1.2 0
28.76 -3.602 8.624 -0 -1.2 0
25.322 -14.406 7.792 -0 -1.2 0
24.872 -14.743 7.666 -0 -1.2 0
25.002 -16.001 7.726 -0 -1.2 0
24.485 -16.901 7.588 -0 -1.2 0
24.214 -17.343 7.516 -0 -1.2 0
23.937 -17.781 7.441 -0 -1.2 0
23.652 -18.213 7.365 -0 -1.2 0
23.36 -18.641 7.285 -0 -1.2 0
23.061 -19.063 7.204 -0 -1.2 0
22.755 -19.479 7.12 -0 -1.2 0
22.442 -19.89 7.035 -0 -1.2 0
22.122 -20.295 6.947 -0 -1.2 0
21.796 -20.695 6.857 -0 -1.2 0
21.463 -21.088 6.766 -0 -1.2 0
21.123 -21.476 6.672 -0 -1.2 0
20.778 -21.857 6.576 -0 -1.2 0
29.141 -0.486 7.619 -0 -1.2 0
29.144 -1.009 7.63 -0 -1.2 0
29.139 -1.532 7.638 -0 -1.2 0
29.126 -2.056 7.644 -0 -1.2 0
29.031 -3.623 7.646 -0 -1.2 0
26.408 -13.695 7.144 -0 -1.2 0
25.238 -14.258 6.851 -0 -1.2 0
25.232 -14.832 6.86 -0 -1.2 0
24.581 -15.048 6.695 -0 -1.2 0
25.176 -15.985 6.866 -0 -1.2 0
24.977 -16.471 6.823 -0 -1.2 0
24.712 -16.919 6.762 -0 -1.2 0
24.439 -17.361 6.699 -0 -1.2 0
24.159 -17.799 6.634 -0 -1.2 0
23.871 -18.231 6.567 -0 -1.2 0
23.576 -18.658 6.498 -0 -1.2 0
23.274 -19.079 6.427 -0 -1.2 0
22.966 -19.496 6.355 -0 -1.2 0
22.649 -19.907 6.279 -0 -1.2 0
22.326 -20.312 6.203 -0 -1.2 0
21.997 -20.711 6.125 -0 -1.2 0
21.661 -21.104 6.044 -0 -1.2 0
21.317 -21.491 5.962 -0 -1.2 0
20.968 -21.872 5.878 -0 -1.2 0
29.38 -0.508 6.628 -0 -1.2 0
29.384 -1.031 6.639 -0 -1.2 0
29.378 -1.554 6.647 -0 -1.2 0
27.603 -11.295 6.427 -0 -1.2 0
26.622 -13.715 6.252 -0 -1.2 0
26.401 -14.187 6.211 -0 -1.2 0
25.169 -14.705 5.944 -0 -1.2 0
25.151 -15.869 5.962 -0 -1.2 0
25.179 -16.49 5.979 -0 -1.2 0
24.911 -16.937 5.927 -0 -1.2 0
24.636 -17.379 5.874 -0 -1.2 0
24.353 -17.817 5.819 -0 -1.2 0
24.063 -18.249 5.762 -0 -1.2 0
23.766 -18.676 5.703 -0 -1.2 0
23.461 -19.097 5.642 -0 -1.2 0
23.149 -19.513 5.58 -0 -1.2 0
22.831 -19.924 5.516 -0 -1.2 0
22.505 -20.328 5.451 -0 -1.2 0
22.173 -20.727 5.384 -0 -1.2 0
21.833 -21.12 5.315 -0 -1.2 0
21.488 -21.507 5.245 -0 -1.2 0
21.135 -21.888 5.173 -0 -1.2 0
29.6 -0.532 5.553 -0 -1.2 0
29.604 -1.055 5.565 -0 -1.2 0
29.598 -1.578 5.573 -0 -1.2 0
29.56 -2.625 5.586 -0 -1.2 0
29.528 -3.147 5.589 -0 -1.2 0
29.487 -3.669 5.592 -0 -1.2 0
25.09 -15.745 4.999 -0 -1.2 0
25.153 -16.382 5.024 -0 -1.2 0
25.094 -16.958 5.024 -0 -1.2 0
24.817 -17.399 4.98 -0 -1.2 0
24.531 -17.836 4.936 -0 -1.2 0
24.24 -18.268 4.889 -0 -1.2 0
23.94 -18.695 4.841 -0 -1.2 0
23.633 -19.116 4.792 -0 -1.2 0
23.318 -19.532 4.741 -0 -1.2 0
22.997 -19.942 4.689 -0 -1.2 0
22.669 -20.346 4.636 -0 -1.2 0
22.335 -20.745 4.581 -0 -1.2 0
21.992 -21.137 4.525 -0 -1.2 0
21.644 -21.524 4.467 -0 -1.2 0
21.289 -21.905 4.408 -0 -1.2 0
29.772 -0.555 4.535 -0 -1.2 0
29.775 -1.078 4.545 -0 -1.2 0
29.77 -1.601 4.554 -0 -1.2 0
29.731 -2.647 4.568 -0 -1.2 0
29.699 -3.17 4.573 -0 -1.2 0
29.657 -3.692 4.577 -0 -1.2 0
29.517 -4.204 4.565 -0 -1.2 0
29.4 -5.77 4.578 -0 -1.2 0
29.219 -6.802 4.571 -0 -1.2 0
29.114 -7.315 4.564 -0 -1.2 0
29.001 -7.826 4.557 -0 -1.2 0
28.563 -8.256 4.5 -0 -1.2 0
28.609 -9.347 4.527 -0 -1.2 0
28.462 -9.849 4.514 -0 -1.2 0
28.305 -10.348 4.501 -0 -1.2 0
28.139 -10.844 4.485 -0 -1.2 0
27.966 -11.339 4.468 -0 -1.2 0
27.783 -11.829 4.45 -0 -1.2 0
27.394 -12.8 4.41 -0 -1.2 0
27.186 -13.28 4.388 -0 -1.2 0
26.971 -13.757 4.364 -0 -1.2 0
26.747 -14.229 4.34 -0 -1.2 0
26.515 -14.698 4.314 -0 -1.2 0
25.978 -15.003 4.239 -0 -1.2 0
26.026 -15.623 4.258 -0 -1.2 0
25.771 -16.079 4.229 -0 -1.2 0
25.508 -16.53 4.198 -0 -1.2 0
25.236 -16.977 4.165 -0 -1.2 0
24.957 -17.418 4.132 -0 -1.2 0
24.67 -17.855 4.097 -0 -1.2 0
24.376 -18.287 4.061 -0 -1.2 0
24.075 -18.713 4.023 -0 -1.2 0
23.766 -19.134 3.985 -0 -1.2 0
23.45 -19.55 3.946 -0 -1.2 0
23.127 -19.96 3.904 -0 -1.2 0
22.797 -20.364 3.863 -0 -1.2 0
22.459 -20.762 3.819 -0 -1.2 0
22.116 -21.154 3.776 -0 -1.2 0
21.766 -21.541 3.73 -0 -1.2 0
21.408 -21.921 3.684 -0 -1.2 0
29.896 -0.055 3.493 -0 -1.2 0
29.908 -0.578 3.504 -0 -1.2 0
29.912 -1.101 3.516 -0 -1.2 0
29.906 -1.624 3.525 -0 -1.2 0
29.868 -2.671 3.54 -0 -1.2 0
29.835 -3.193 3.548 -0 -1.2 0
29.792 -3.715 3.552 -0 -1.2 0
29.741 -4.237 3.556 -0 -1.2 0
29.681 -4.757 3.56 -0 -1.2 0
29.613 -5.276 3.562 -0 -1.2 0
29.535 -5.793 3.563 -0 -1.2 0
29.448 -6.31 3.563 -0 -1.2 0
29.351 -6.825 3.562 -0 -1.2 0
29.247 -7.337 3.56 -0 -1.2 0
29.134 -7.848 3.557 -0 -1.2 0
29.01 -8.358 3.552 -0 -1.2 0
28.88 -8.865 3.548 -0 -1.2 0
28.74 -9.369 3.541 -0 -1.2 0
28.591 -9.871 3.534 -0 -1.2 0
28.433 -10.371 3.525 -0 -1.2 0
28.267 -10.866 3.516 -0 -1.2 0
28.092 -11.36 3.505 -0 -1.2 0
27.91 -11.851 3.494 -0 -1.2 0
27.718 -12.337 3.481 -0 -1.2 0
27.517 -12.822 3.467 -0 -1.2 0
27.309 -13.301 3.452 -0 -1.2 0
27.092 -13.778 3.437 -0 -1.2 0
26.867 -14.25 3.42 -0 -1.2 0
26.634 -14.719 3.402 -0 -1.2 0
26.393 -15.183 3.384 -0 -1.2 0
26.144 -15.644 3.364 -0 -1.2 0
25.886 -16.099 3.343 -0 -1.2 0
25.622 -16.55 3.321 -0 -1.2 0
25.349 -16.997 3.298 -0 -1.2 0
25.069 -17.437 3.275 -0 -1.2 0
24.78 -17.874 3.25 -0 -1.2 0
24.485 -18.306 3.224 -0 -1.2 0
24.182 -18.732 3.198 -0 -1.2 0
23.872 -19.152 3.171 -0 -1.2 0
23.554 -19.568 3.141 -0 -1.2 0
23.229 -19.978 3.112 -0 -1.2 0
22.898 -20.382 3.082 -0 -1.2 0
22.559 -20.779 3.051 -0 -1.2 0
22.213 -21.172 3.018 -0 -1.2 0
21.862 -21.558 2.985 -0 -1.2 0
21.503 -21.938 2.952 -0 -1.2 0
30.015 -0.604 2.39 -0 -1.2 0
30.019 -1.127 2.401 -0 -1.2 0
30.013 -1.65 2.411 -0 -1.2 0
29.975 -2.696 2.428 -0 -1.2 0
29.941 -3.219 2.436 -0 -1.2 0
29.899 -3.74 2.444 -0 -1.2 0
29.848 -4.262 2.45 -0 -1.2 0
29.788 -4.782 2.455 -0 -1.2 0
29.718 -5.301 2.461 -0 -1.2 0
29.639 -5.819 2.464 -0 -1.2 0
29.552 -6.335 2.467 -0 -1.2 0
29.456 -6.85 2.471 -0 -1.2 0
29.351 -7.362 2.472 -0 -1.2 0
29.236 -7.873 2.474 -0 -1.2 0
29.114 -8.382 2.474 -0 -1.2 0
28.981 -8.889 2.474 -0 -1.2 0
28.841 -9.394 2.473 -0 -1.2 0
28.691 -9.895 2.472 -0 -1.2 0
28.534 -10.395 2.469 -0 -1.2 0
28.367 -10.891 2.466 -0 -1.2 0
28.192 -11.384 2.462 -0 -1.2 0
28.008 -11.874 2.458 -0 -1.2 0
27.815 -12.361 2.452 -0 -1.2 0
27.614 -12.845 2.447 -0 -1.2 0
27.405 -13.324 2.44 -0 -1.2 0
27.187 -13.801 2.432 -0 -1.2 0
26.961 -14.273 2.425 -0 -1.2 0
26.727 -14.742 2.415 -0 -1.2 0
26.485 -15.206 2.406 -0 -1.2 0
26.235 -15.666 2.396 -0 -1.2 0
25.977 -16.121 2.385 -0 -1.2 0
25.711 -16.571 2.373 -0 -1.2 0
25.437 -17.018 2.36 -0 -1.2 0
25.156 -17.459 2.347 -0 -1.2 0
24.867 -17.896 2.334 -0 -1.2 0
24.57 -18.326 2.319 -0 -1.2 0
24.266 -18.752 2.304 -0 -1.2 0
23.954 -19.173 2.288 -0 -1.2 0
23.636 -19.588 2.271 -0 -1.2 0
23.31 -19.997 2.255 -0 -1.2 0
22.976 -20.401 2.236 -0 -1.2 0
22.637 -20.799 2.218 -0 -1.2 0
22.29 -21.19 2.199 -0 -1.2 0
21.936 -21.576 2.179 -0 -1.2 0
21.576 -21.956 2.159 -0 -1.2 0
30.065 -0.102 1.345 -0 -1.2 0
30.078 -0.625 1.357 -0 -1.2 0
30.081 -1.148 1.367 -0 -1.2 0
30.076 -1.671 1.378 -0 -1.2 0
30.036 -2.717 1.397 -0 -1.2 0
30.003 -3.24 1.407 -0 -1.2 0
29.961 -3.762 1.416 -0 -1.2 0
29.91 -4.283 1.424 -0 -1.2 0
29.849 -4.803 1.432 -0 -1.2 0
29.78 -5.322 1.439 -0 -1.2 0
29.701 -5.84 1.446 -0 -1.2 0
29.613 -6.356 1.453 -0 -1.2 0
29.517 -6.87 1.459 -0 -1.2 0
29.412 -7.383 1.466 -0 -1.2 0
29.297 -7.894 1.471 -0 -1.2 0
29.174 -8.403 1.476 -0 -1.2 0
29.041 -8.91 1.48 -0 -1.2 0
28.901 -9.414 1.485 -0 -1.2 0
28.751 -9.915 1.488 -0 -1.2 0
28.593 -10.415 1.492 -0 -1.2 0
28.425 -10.91 1.495 -0 -1.2 0
28.25 -11.404 1.497 -0 -1.2 0
28.065 -11.894 1.499 -0 -1.2 0
27.872 -12.38 1.501 -0 -1.2 0
27.671 -12.864 1.502 -0 -1.2 0
27.462 -13.344 1.503 -0 -1.2 0
27.243 -13.82 1.503 -0 -1.2 0
27.017 -14.292 1.503 -0 -1.2 0
26.783 -14.76 1.503 -0 -1.2 0
26.54 -15.224 1.501 -0 -1.2 0
26.29 -15.684 1.5 -0 -1.2 0
26.03 -16.139 1.498 -0 -1.2 0
25.764 -16.59 1.496 -0 -1.2 0
25.49 -17.036 1.493 -0 -1.2 0
25.207 -17.476 1.49 -0 -1.2 0
24.918 -17.913 1.486 -0 -1.2 0
24.62 -18.344 1.482 -0 -1.2 0
24.315 -18.769 1.477 -0 -1.2 0
24.003 -19.189 1.472 -0 -1.2 0
23.684 -19.605 1.467 -0 -1.2 0
23.358 -20.014 1.462 -0 -1.2 0
23.024 -20.417 1.455 -0 -1.2 0
22.683 -20.814 1.449 -0 -1.2 0
22.335 -21.206 1.442 -0 -1.2 0
21.981 -21.592 1.434 -0 -1.2 0
21.62 -21.971 1.427 -0 -1.2 0
30.092 -0.123 0.333 -0 -1.2 0
30.105 -0.646 0.344 -0 -1.2 0
30.108 -1.169 0.355 -0 -1.2 0
30.087 -2.216 0.376 -0 -1.2 0
30.063 -2.738 0.388 -0 -1.2 0
30.03 -3.261 0.398 -0 -1.2 0
29.987 -3.782 0.408 -0 -1.2 0
29.936 -4.304 0.419 -0 -1.2 0
29.876 -4.824 0.429 -0 -1.2 0
29.805 -5.343 0.439 -0 -1.2 0
29.727 -5.86 0.45 -0 -1.2 0
29.64 -6.376 0.459 -0 -1.2 0
29.543 -6.891 0.469 -0 -1.2 0
29.438 -7.403 0.479 -0 -1.2 0
29.323 -7.914 0.488 -0 -1.2 0
29.2 -8.423 0.498 -0 -1.2 0
29.067 -8.93 0.508 -0 -1.2 0
28.926 -9.434 0.516 -0 -1.2 0
28.777 -9.935 0.526 -0 -1.2 0
28.618 -10.435 0.534 -0 -1.2 0
28.451 -10.93 0.544 -0 -1.2 0
28.274 -11.424 0.552 -0 -1.2 0
28.09 -11.913 0.561 -0 -1.2 0
27.897 -12.399 0.569 -0 -1.2 0
27.695 -12.883 0.577 -0 -1.2 0
27.485 -13.363 0.585 -0 -1.2 0
27.267 -13.839 0.592 -0 -1.2 0
27.04 -14.31 0.601 -0 -1.2 0
26.806 -14.779 0.608 -0 -1.2 0
26.563 -15.242 0.616 -0 -1.2 0
26.312 -15.702 0.623 -0 -1.2 0
26.053 -16.157 0.63 -0 -1.2 0
25.787 -16.607 0.636 -0 -1.2 0
25.511 -17.053 0.643 -0 -1.2 0
25.23 -17.494 0.65 -0 -1.2 0
24.94 -17.93 0.657 -0 -1.2 0
24.642 -18.36 0.663 -0 -1.2 0
24.337 -18.786 0.668 -0 -1.2 0
24.025 -19.206 0.674 -0 -1.2 0
23.705 -19.621 0.68 -0 -1.2 0
23.378 -20.03 0.686 -0 -1.2 0
23.044 -20.433 0.69 -0 -1.2 0
22.703 -20.83 0.696 -0 -1.2 0
22.355 -21.221 0.7 -0 -1.2 0
22 -21.606 0.706 -0 -1.2 0
21.639 -21.986 0.71 -0 -1.2 0
30.083 -0.146 -0.753 -0 -1.2 0
30.095 -0.669 -0.742 -0 -1.2 0
30.099 -1.192 -0.731 -0 -1.2 0
30.093 -1.715 -0.719 -0 -1.2 0
30.077 -2.239 -0.707 -0 -1.2 0
30.053 -2.761 -0.695 -0 -1.2 0
30.02 -3.283 -0.683 -0 -1.2 0
29.978 -3.805 -0.671 -0 -1.2 0
29.927 -4.327 -0.658 -0 -1.2 0
29.866 -4.847 -0.646 -0 -1.2 0
29.797 -5.365 -0.633 -0 -1.2 0
29.718 -5.883 -0.619 -0 -1.2 0
29.63 -6.399 -0.606 -0 -1.2 0
29.534 -6.913 -0.592 -0 -1.2 0
29.429 -7.426 -0.579 -0 -1.2 0
29.314 -7.936 -0.565 -0 -1.2 0
29.19 -8.445 -0.551 -0 -1.2 0
29.058 -8.952 -0.536 -0 -1.2 0
28.917 -9.456 -0.522 -0 -1.2 0
28.767 -9.957 -0.507 -0 -1.2 0
28.609 -10.456 -0.492 -0 -1.2 0
28.441 -10.952 -0.477 -0 -1.2 0
28.266 -11.445 -0.461 -0 -1.2 0
28.081 -11.935 -0.446 -0 -1.2 0
27.888 -12.42 -0.43 -0 -1.2 0
27.687 -12.904 -0.415 -0 -1.2 0
27.477 -13.383 -0.399 -0 -1.2 0
