# .PCD v.7 - Point Cloud Data file format
FIELDS x y z vp_x vp_y vp_z
SIZE 4 4 4 4 4 4
TYPE F F F F F F
COUNT 1 1 1 1 1 1
WIDTH 1463
HEIGHT 1
VIEWPOINT 0 -1.20013 0 1 0 0 0
POINTS 1463
DATA ascii
26.102 -10.451 -12.171 -0 -1.2 0
25.459 -12.417 -11.84 -0 -1.2 0
25.091 -13.38 -11.653 -0 -1.2 0
24.896 -13.855 -11.555 -0 -1.2 0
20.984 -5.065 -21.515 -0 -1.2 0
16.679 1.044 -25.198 -0 -1.2 0
13.835 0.904 -26.843 -0 -1.2 0
12.859 1.381 -27.274 -0 -1.2 0
12.944 -0.185 -27.332 -0 -1.2 0
6.434 -22.19 -20.548 -0 -1.2 0
6.108 -20.288 -22.429 -0 -1.2 0
5.971 -21.08 -21.758 -0 -1.2 0
5.9 -21.467 -21.413 -0 -1.2 0
6.085 -7.599 -27.975 -0 -1.2 0
6.101 -8.123 -27.971 -0 -1.2 0
6.113 -8.647 -27.946 -0 -1.2 0
6.127 -9.177 -27.932 -0 -1.2 0
6.141 -9.712 -27.918 -0 -1.2 0
6.154 -10.249 -27.893 -0 -1.2 0
6.168 -10.795 -27.877 -0 -1.2 0
6.15 -11.292 -27.713 -0 -1.2 0
5.846 -16.034 -25.53 -0 -1.2 0
5.674 -17.811 -24.436 -0 -1.2 0
5.578 -18.67 -23.845 -0 -1.2 0
5.475 -19.507 -23.225 -0 -1.2 0
5.366 -20.322 -22.575 -0 -1.2 0
5.25 -21.113 -21.9 -0 -1.2 0
5.19 -21.5 -21.552 -0 -1.2 0
5.128 -21.88 -21.197 -0 -1.2 0
5.065 -22.255 -20.837 -0 -1.2 0
5.159 -1.603 -29.709 -0 -1.2 0
5.173 -2.125 -29.692 -0 -1.2 0
5.185 -2.649 -29.668 -0 -1.2 0
5.196 -3.171 -29.633 -0 -1.2 0
5.204 -3.693 -29.591 -0 -1.2 0
5.211 -4.213 -29.539 -0 -1.2 0
5.217 -4.734 -29.478 -0 -1.2 0
5.222 -5.253 -29.409 -0 -1.2 0
5.224 -5.771 -29.33 -0 -1.2 0
5.226 -6.287 -29.242 -0 -1.2 0
5.226 -6.801 -29.146 -0 -1.2 0
5.223 -7.314 -29.041 -0 -1.2 0
5.219 -7.825 -28.926 -0 -1.2 0
5.215 -8.334 -28.804 -0 -1.2 0
5.208 -8.841 -28.673 -0 -1.2 0
5.189 -9.847 -28.383 -0 -1.2 0
5.178 -10.346 -28.226 -0 -1.2 0
4.92 -16.075 -25.686 -0 -1.2 0
4.888 -16.526 -25.422 -0 -1.2 0
4.856 -16.972 -25.15 -0 -1.2 0
4.67 -19.129 -23.68 -0 -1.2 0
4.628 -19.544 -23.364 -0 -1.2 0
4.586 -19.954 -23.04 -0 -1.2 0
4.541 -20.358 -22.71 -0 -1.2 0
4.449 -21.148 -22.03 -0 -1.2 0
4.4 -21.535 -21.679 -0 -1.2 0
4.139 -0.599 -29.854 -0 -1.2 0
4.155 -1.122 -29.856 -0 -1.2 0
4.17 -1.645 -29.849 -0 -1.2 0
4.184 -2.167 -29.833 -0 -1.2 0
4.196 -2.691 -29.808 -0 -1.2 0
4.208 -3.213 -29.773 -0 -1.2 0
4.217 -3.735 -29.731 -0 -1.2 0
4.226 -4.255 -29.678 -0 -1.2 0
4.233 -4.776 -29.617 -0 -1.2 0
4.239 -5.295 -29.546 -0 -1.2 0
4.244 -5.813 -29.468 -0 -1.2 0
4.25 -6.843 -29.283 -0 -1.2 0
4.251 -7.356 -29.177 -0 -1.2 0
4.251 -7.866 -29.062 -0 -1.2 0
4.246 -8.882 -28.806 -0 -1.2 0
4.242 -9.386 -28.665 -0 -1.2 0
4.237 -9.888 -28.515 -0 -1.2 0
3.952 -17.886 -24.695 -0 -1.2 0
3.768 -20.391 -22.81 -0 -1.2 0
3.168 -1.685 -29.958 -0 -1.2 0
3.181 -2.208 -29.941 -0 -1.2 0
3.195 -2.732 -29.916 -0 -1.2 0
3.207 -3.253 -29.882 -0 -1.2 0
3.218 -3.775 -29.838 -0 -1.2 0
3.228 -4.296 -29.785 -0 -1.2 0
3.237 -4.816 -29.724 -0 -1.2 0
3.245 -5.335 -29.653 -0 -1.2 0
3.252 -5.853 -29.573 -0 -1.2 0
3.258 -6.368 -29.485 -0 -1.2 0
3.267 -7.395 -29.281 -0 -1.2 0
3.274 -8.921 -28.909 -0 -1.2 0
2.019 -1.205 -30.048 -0 -1.2 0
2.049 -2.25 -30.024 -0 -1.2 0
2.063 -2.774 -29.998 -0 -1.2 0
2.076 -3.295 -29.964 -0 -1.2 0
2.088 -3.817 -29.92 -0 -1.2 0
2.101 -4.338 -29.867 -0 -1.2 0
2.112 -4.858 -29.805 -0 -1.2 0
2.122 -5.377 -29.734 -0 -1.2 0
2.132 -5.894 -29.655 -0 -1.2 0
2.142 -6.41 -29.565 -0 -1.2 0
2.165 -7.947 -29.245 -0 -1.2 0
2.155 -18.81 -24.236 -0 -1.2 0
0.992 -1.238 -30.086 -0 -1.2 0
1.007 -1.761 -30.079 -0 -1.2 0
1.022 -2.283 -30.062 -0 -1.2 0
1.037 -2.807 -30.037 -0 -1.2 0
1.051 -3.329 -30.002 -0 -1.2 0
1.065 -3.85 -29.958 -0 -1.2 0
1.078 -4.371 -29.904 -0 -1.2 0
1.091 -4.891 -29.842 -0 -1.2 0
1.104 -5.41 -29.772 -0 -1.2 0
1.117 -5.927 -29.691 -0 -1.2 0
1.129 -6.442 -29.602 -0 -1.2 0
1.141 -6.957 -29.504 -0 -1.2 0
1.153 -7.469 -29.396 -0 -1.2 0
1.175 -8.488 -29.156 -0 -1.2 0
1.323 -18.837 -24.263 -0 -1.2 0
-0.05 -0.748 -30.087 -0 -1.2 0
-0.019 -1.794 -30.082 -0 -1.2 0
-0.004 -2.316 -30.065 -0 -1.2 0
0.01 -2.84 -30.039 -0 -1.2 0
0.025 -3.361 -30.004 -0 -1.2 0
0.041 -3.883 -29.96 -0 -1.2 0
0.057 -4.403 -29.907 -0 -1.2 0
0.072 -4.924 -29.845 -0 -1.2 0
0.087 -5.442 -29.773 -0 -1.2 0
0.148 -7.501 -29.399 -0 -1.2 0
0.178 -8.52 -29.157 -0 -1.2 0
0.193 -9.026 -29.023 -0 -1.2 0
-1.127 -1.829 -30.045 -0 -1.2 0
-1.111 -2.352 -30.028 -0 -1.2 0
-1.095 -2.875 -30.002 -0 -1.2 0
-1.079 -3.397 -29.967 -0 -1.2 0
-1.062 -3.918 -29.923 -0 -1.2 0
-1.045 -4.439 -29.87 -0 -1.2 0
-1.027 -4.959 -29.808 -0 -1.2 0
-1.009 -5.477 -29.737 -0 -1.2 0
-0.991 -5.994 -29.656 -0 -1.2 0
-0.973 -6.51 -29.567 -0 -1.2 0
-0.282 -20.928 -22.587 -0 -1.2 0
-0.181 -22.45 -21.151 -0 -1.2 0
-2.171 -1.339 -29.981 -0 -1.2 0
-2.156 -1.861 -29.974 -0 -1.2 0
-2.14 -2.384 -29.957 -0 -1.2 0
-2.123 -2.908 -29.931 -0 -1.2 0
-2.105 -3.429 -29.896 -0 -1.2 0
-2.087 -3.951 -29.852 -0 -1.2 0
-2.068 -4.471 -29.799 -0 -1.2 0
-2.049 -4.991 -29.737 -0 -1.2 0
-2.029 -5.51 -29.666 -0 -1.2 0
-2.008 -6.027 -29.586 -0 -1.2 0
-1.942 -7.568 -29.291 -0 -1.2 0
-1.022 -21.342 -22.181 -0 -1.2 0
-0.947 -22.102 -21.464 -0 -1.2 0
-1.885 -20.583 -22.783 -0 -1.2 0
-1.837 -20.977 -22.443 -0 -1.2 0
-1.739 -21.749 -21.743 -0 -1.2 0
-1.639 -22.496 -21.014 -0 -1.2 0
-4.322 -0.883 -29.719 -0 -1.2 0
-4.307 -1.406 -29.72 -0 -1.2 0
-4.291 -1.928 -29.713 -0 -1.2 0
-4.274 -2.451 -29.696 -0 -1.2 0
-4.256 -2.975 -29.67 -0 -1.2 0
-4.235 -3.496 -29.636 -0 -1.2 0
-4.214 -4.017 -29.592 -0 -1.2 0
-4.192 -4.538 -29.539 -0 -1.2 0
-3.664 -12.617 -27.491 -0 -1.2 0
-2.733 -20.609 -22.66 -0 -1.2 0
-2.611 -21.392 -21.975 -0 -1.2 0
-2.548 -21.774 -21.623 -0 -1.2 0
-2.422 -22.52 -20.899 -0 -1.2 0
-5.367 0.131 -29.51 -0 -1.2 0
-5.276 -3.006 -29.491 -0 -1.2 0
-5.255 -3.528 -29.456 -0 -1.2 0
-5.232 -4.049 -29.413 -0 -1.2 0
-5.208 -4.569 -29.361 -0 -1.2 0
-5.182 -5.089 -29.298 -0 -1.2 0
-5.155 -5.607 -29.228 -0 -1.2 0
-5.126 -6.124 -29.149 -0 -1.2 0
-5.095 -6.639 -29.061 -0 -1.2 0
-4.92 -9.186 -28.488 -0 -1.2 0
-4.797 -10.687 -28.04 -0 -1.2 0
-4.234 -15.933 -25.751 -0 -1.2 0
-3.794 -18.998 -23.796 -0 -1.2 0
-3.726 -19.416 -23.487 -0 -1.2 0
-3.657 -19.827 -23.171 -0 -1.2 0
-3.587 -20.233 -22.847 -0 -1.2 0
-3.516 -20.633 -22.518 -0 -1.2 0
-3.444 -21.027 -22.181 -0 -1.2 0
-3.37 -21.415 -21.837 -0 -1.2 0
-3.297 -21.797 -21.486 -0 -1.2 0
-3.221 -22.173 -21.13 -0 -1.2 0
-3.145 -22.543 -20.767 -0 -1.2 0
-6.393 0.111 -29.293 -0 -1.2 0
-6.383 -0.412 -29.312 -0 -1.2 0
-6.371 -0.935 -29.323 -0 -1.2 0
-6.323 -2.503 -29.3 -0 -1.2 0
-6.303 -3.026 -29.275 -0 -1.2 0
-6.281 -3.548 -29.241 -0 -1.2 0
-6.258 -4.069 -29.197 -0 -1.2 0
-6.232 -4.589 -29.145 -0 -1.2 0
-6.205 -5.109 -29.084 -0 -1.2 0
-6.175 -5.627 -29.015 -0 -1.2 0
-6.144 -6.144 -28.936 -0 -1.2 0
-6.076 -7.173 -28.752 -0 -1.2 0
-6.039 -7.684 -28.647 -0 -1.2 0
-6 -8.194 -28.533 -0 -1.2 0
-5.827 -10.209 -27.992 -0 -1.2 0
-5.778 -10.706 -27.835 -0 -1.2 0
-5.625 -12.18 -27.314 -0 -1.2 0
-4.86 -17.732 -24.499 -0 -1.2 0
-4.556 -19.432 -23.315 -0 -1.2 0
-4.476 -19.843 -23.001 -0 -1.2 0
-4.395 -20.249 -22.68 -0 -1.2 0
-4.313 -20.649 -22.352 -0 -1.2 0
-4.229 -21.043 -22.017 -0 -1.2 0
-4.144 -21.431 -21.676 -0 -1.2 0
-4.058 -21.812 -21.329 -0 -1.2 0
-3.971 -22.188 -20.974 -0 -1.2 0
-3.882 -22.557 -20.613 -0 -1.2 0
-7.493 0.094 -29.019 -0 -1.2 0
-7.405 -3.043 -29.001 -0 -1.2 0
-7.382 -3.565 -28.967 -0 -1.2 0
-7.357 -4.086 -28.924 -0 -1.2 0
-7.33 -4.606 -28.873 -0 -1.2 0
-7.301 -5.126 -28.813 -0 -1.2 0
-7.269 -5.644 -28.744 -0 -1.2 0
-7.235 -6.161 -28.666 -0 -1.2 0
-6.937 -9.726 -27.878 -0 -1.2 0
-6.72 -11.708 -27.241 -0 -1.2 0
-6.599 -12.681 -26.872 -0 -1.2 0
-5.795 -17.747 -24.272 -0 -1.2 0
-5.711 -18.179 -23.989 -0 -1.2 0
-5.625 -18.607 -23.7 -0 -1.2 0
-5.537 -19.029 -23.402 -0 -1.2 0
-5.448 -19.446 -23.099 -0 -1.2 0
-5.356 -19.857 -22.788 -0 -1.2 0
-5.264 -20.263 -22.47 -0 -1.2 0
-5.17 -20.662 -22.145 -0 -1.2 0
-5.074 -21.056 -21.813 -0 -1.2 0
-4.976 -21.444 -21.475 -0 -1.2 0
-4.877 -21.825 -21.13 -0 -1.2 0
-4.777 -22.2 -20.779 -0 -1.2 0
-4.675 -22.57 -20.421 -0 -1.2 0
-8.505 0.08 -28.725 -0 -1.2 0
-8.498 -0.443 -28.745 -0 -1.2 0
-8.487 -0.966 -28.756 -0 -1.2 0
-8.474 -1.489 -28.757 -0 -1.2 0
-8.458 -2.011 -28.75 -0 -1.2 0
-8.44 -2.534 -28.734 -0 -1.2 0
-8.419 -3.058 -28.709 -0 -1.2 0
-8.396 -3.579 -28.676 -0 -1.2 0
-8.369 -4.1 -28.633 -0 -1.2 0
-8.341 -4.62 -28.583 -0 -1.2 0
-8.309 -5.14 -28.523 -0 -1.2 0
-8.276 -5.658 -28.455 -0 -1.2 0
-8.24 -6.175 -28.377 -0 -1.2 0
-8.202 -6.69 -28.292 -0 -1.2 0
-8.022 -8.731 -27.863 -0 -1.2 0
-7.971 -9.236 -27.735 -0 -1.2 0
-7.862 -10.239 -27.453 -0 -1.2 0
-6.656 -17.759 -24.028 -0 -1.2 0
-6.562 -18.191 -23.748 -0 -1.2 0
-6.466 -18.619 -23.462 -0 -1.2 0
-6.369 -19.041 -23.168 -0 -1.2 0
-6.269 -19.458 -22.867 -0 -1.2 0
-6.167 -19.868 -22.559 -0 -1.2 0
-6.064 -20.274 -22.245 -0 -1.2 0
-5.959 -20.674 -21.923 -0 -1.2 0
-5.852 -21.067 -21.594 -0 -1.2 0
-5.743 -21.454 -21.259 -0 -1.2 0
-5.632 -21.836 -20.919 -0 -1.2 0
-5.52 -22.211 -20.57 -0 -1.2 0
-5.406 -22.58 -20.216 -0 -1.2 0
-9.507 0.067 -28.399 -0 -1.2 0
-9.501 -0.456 -28.418 -0 -1.2 0
-9.491 -0.979 -28.429 -0 -1.2 0
-9.478 -1.502 -28.43 -0 -1.2 0
-9.463 -2.024 -28.423 -0 -1.2 0
-9.444 -2.547 -28.408 -0 -1.2 0
-9.422 -3.07 -28.383 -0 -1.2 0
-9.399 -3.592 -28.351 -0 -1.2 0
-9.372 -4.113 -28.309 -0 -1.2 0
-9.341 -4.633 -28.258 -0 -1.2 0
-9.309 -5.153 -28.2 -0 -1.2 0
-9 -8.744 -27.548 -0 -1.2 0
-8.63 -11.734 -26.662 -0 -1.2 0
-8.559 -12.222 -26.486 -0 -1.2 0
-8.329 -13.664 -25.908 -0 -1.2 0
-7.989 -15.533 -25.028 -0 -1.2 0
-7.897 -15.99 -24.788 -0 -1.2 0
-7.803 -16.442 -24.541 -0 -1.2 0
-7.707 -16.89 -24.287 -0 -1.2 0
-7.609 -17.332 -24.025 -0 -1.2 0
-7.507 -17.77 -23.756 -0 -1.2 0
-7.405 -18.202 -23.48 -0 -1.2 0
-7.299 -18.63 -23.196 -0 -1.2 0
-7.192 -19.052 -22.906 -0 -1.2 0
-7.081 -19.468 -22.608 -0 -1.2 0
-6.97 -19.879 -22.304 -0 -1.2 0
-6.856 -20.284 -21.992 -0 -1.2 0
-6.739 -20.684 -21.675 -0 -1.2 0
-6.621 -21.077 -21.35 -0 -1.2 0
-6.501 -21.464 -21.019 -0 -1.2 0
-6.38 -21.845 -20.681 -0 -1.2 0
-6.255 -22.221 -20.338 -0 -1.2 0
-6.129 -22.589 -19.987 -0 -1.2 0
-10.557 0.056 -28.014 -0 -1.2 0
-10.552 -0.468 -28.033 -0 -1.2 0
-10.542 -0.991 -28.043 -0 -1.2 0
-10.53 -1.513 -28.045 -0 -1.2 0
-10.514 -2.036 -28.038 -0 -1.2 0
-10.496 -2.559 -28.023 -0 -1.2 0
-10.475 -3.082 -27.999 -0 -1.2 0
-10.45 -3.604 -27.967 -0 -1.2 0
-10.421 -4.125 -27.926 -0 -1.2 0
-10.39 -4.645 -27.876 -0 -1.2 0
-10.356 -5.165 -27.819 -0 -1.2 0
-10.318 -5.683 -27.752 -0 -1.2 0
-10.276 -6.2 -27.677 -0 -1.2 0
-10.135 -7.739 -27.401 -0 -1.2 0
-10.025 -8.756 -27.176 -0 -1.2 0
-9.77 -10.76 -26.626 -0 -1.2 0
-9.699 -11.254 -26.468 -0 -1.2 0
-9.625 -11.745 -26.302 -0 -1.2 0
-9.547 -12.233 -26.128 -0 -1.2 0
-9.383 -13.197 -25.756 -0 -1.2 0
-9.209 -14.148 -25.354 -0 -1.2 0
-9.118 -14.618 -25.14 -0 -1.2 0
-9.023 -15.083 -24.919 -0 -1.2 0
-8.926 -15.544 -24.69 -0 -1.2 0
-8.826 -16.001 -24.455 -0 -1.2 0
-8.723 -16.453 -24.211 -0 -1.2 0
-8.618 -16.9 -23.959 -0 -1.2 0
-8.511 -17.342 -23.702 -0 -1.2 0
-8.4 -17.78 -23.436 -0 -1.2 0
-8.287 -18.212 -23.164 -0 -1.2 0
-8.172 -18.64 -22.884 -0 -1.2 0
-8.054 -19.061 -22.597 -0 -1.2 0
-7.934 -19.478 -22.303 -0 -1.2 0
-7.811 -19.888 -22.003 -0 -1.2 0
-7.685 -20.294 -21.695 -0 -1.2 0
-7.558 -20.693 -21.382 -0 -1.2 0
-7.428 -21.086 -21.062 -0 -1.2 0
-7.296 -21.473 -20.735 -0 -1.2 0
-7.162 -21.854 -20.402 -0 -1.2 0
-7.025 -22.229 -20.062 -0 -1.2 0
-6.887 -22.598 -19.717 -0 -1.2 0
-11.511 -0.477 -27.642 -0 -1.2 0
-11.502 -1 -27.653 -0 -1.2 0
-11.491 -1.523 -27.655 -0 -1.2 0
-11.475 -2.046 -27.648 -0 -1.2 0
-11.457 -2.568 -27.633 -0 -1.2 0
-11.434 -3.092 -27.61 -0 -1.2 0
-11.408 -3.613 -27.577 -0 -1.2 0
-11.379 -4.134 -27.537 -0 -1.2 0
-11.347 -4.655 -27.489 -0 -1.2 0
-11.31 -5.174 -27.432 -0 -1.2 0
-11.271 -5.692 -27.367 -0 -1.2 0
-11.227 -6.209 -27.293 -0 -1.2 0
-11.182 -6.724 -27.21 -0 -1.2 0
-11.132 -7.237 -27.12 -0 -1.2 0
-11.078 -7.749 -27.021 -0 -1.2 0
-10.832 -9.773 -26.544 -0 -1.2 0
-10.689 -10.769 -26.257 -0 -1.2 0
-10.612 -11.264 -26.101 -0 -1.2 0
-10.533 -11.754 -25.938 -0 -1.2 0
-10.45 -12.242 -25.766 -0 -1.2 0
-10.363 -12.726 -25.586 -0 -1.2 0
-10.275 -13.206 -25.4 -0 -1.2 0
-10.182 -13.684 -25.204 -0 -1.2 0
-10.087 -14.157 -25.001 -0 -1.2 0
-9.988 -14.627 -24.791 -0 -1.2 0
-9.887 -15.091 -24.573 -0 -1.2 0
-9.783 -15.553 -24.348 -0 -1.2 0
-9.674 -16.009 -24.115 -0 -1.2 0
-9.564 -16.461 -23.875 -0 -1.2 0
-9.451 -16.908 -23.627 -0 -1.2 0
-9.334 -17.35 -23.373 -0 -1.2 0
-9.215 -17.788 -23.111 -0 -1.2 0
-9.093 -18.22 -22.841 -0 -1.2 0
-8.969 -18.648 -22.566 -0 -1.2 0
-8.841 -19.069 -22.283 -0 -1.2 0
-8.711 -19.486 -21.994 -0 -1.2 0
-8.579 -19.896 -21.698 -0 -1.2 0
-8.444 -20.302 -21.395 -0 -1.2 0
-8.305 -20.701 -21.085 -0 -1.2 0
-8.165 -21.094 -20.77 -0 -1.2 0
-8.022 -21.481 -20.447 -0 -1.2 0
-7.876 -21.862 -20.119 -0 -1.2 0
-7.729 -22.237 -19.784 -0 -1.2 0
-7.579 -22.605 -19.443 -0 -1.2 0
-12.422 -2.054 -27.225 -0 -1.2 0
-12.404 -2.576 -27.211 -0 -1.2 0
-12.38 -3.1 -27.188 -0 -1.2 0
-12.354 -3.621 -27.157 -0 -1.2 0
-12.324 -4.143 -27.117 -0 -1.2 0
-12.29 -4.663 -27.068 -0 -1.2 0
-12.253 -5.183 -27.012 -0 -1.2 0
-12.211 -5.701 -26.948 -0 -1.2 0
-12.165 -6.217 -26.875 -0 -1.2 0
-12.117 -6.732 -26.795 -0 -1.2 0
-12.064 -7.245 -26.706 -0 -1.2 0
-12.008 -7.757 -26.609 -0 -1.2 0
-11.884 -8.773 -26.39 -0 -1.2 0
-11.818 -9.278 -26.268 -0 -1.2 0
-11.747 -9.781 -26.139 -0 -1.2 0
-11.673 -10.28 -26.002 -0 -1.2 0
-11.595 -10.777 -25.856 -0 -1.2 0
-11.513 -11.271 -25.703 -0 -1.2 0
-11.429 -11.762 -25.542 -0 -1.2 0
-11.34 -12.25 -25.373 -0 -1.2 0
-11.248 -12.734 -25.196 -0 -1.2 0
-11.153 -13.214 -25.012 -0 -1.2 0
-11.054 -13.692 -24.82 -0 -1.2 0
-10.953 -14.165 -24.62 -0 -1.2 0
-10.847 -14.634 -24.413 -0 -1.2 0
-10.738 -15.099 -24.198 -0 -1.2 0
-10.627 -15.56 -23.977 -0 -1.2 0
-10.512 -16.016 -23.748 -0 -1.2 0
-10.393 -16.469 -23.511 -0 -1.2 0
-10.272 -16.916 -23.267 -0 -1.2 0
-10.147 -17.358 -23.016 -0 -1.2 0
-10.019 -17.795 -22.758 -0 -1.2 0
-9.889 -18.227 -22.493 -0 -1.2 0
-9.754 -18.655 -22.221 -0 -1.2 0
-9.618 -19.076 -21.943 -0 -1.2 0
-9.478 -19.493 -21.658 -0 -1.2 0
-9.336 -19.903 -21.367 -0 -1.2 0
-9.19 -20.308 -21.068 -0 -1.2 0
-9.042 -20.707 -20.763 -0 -1.2 0
-8.891 -21.1 -20.452 -0 -1.2 0
-8.738 -21.487 -20.135 -0 -1.2 0
-8.581 -21.868 -19.811 -0 -1.2 0
-8.422 -22.243 -19.481 -0 -1.2 0
-8.261 -22.611 -19.146 -0 -1.2 0
-13.438 -1.547 -26.74 -0 -1.2 0
-13.423 -2.07 -26.734 -0 -1.2 0
-13.248 -5.199 -26.525 -0 -1.2 0
-13.203 -5.716 -26.462 -0 -1.2 0
-13.156 -6.233 -26.39 -0 -1.2 0
-13.105 -6.748 -26.311 -0 -1.2 0
-13.049 -7.261 -26.224 -0 -1.2 0
-12.99 -7.772 -26.128 -0 -1.2 0
-12.926 -8.281 -26.025 -0 -1.2 0
-12.859 -8.789 -25.913 -0 -1.2 0
-12.787 -9.293 -25.794 -0 -1.2 0
-12.713 -9.796 -25.667 -0 -1.2 0
-12.633 -10.296 -25.532 -0 -1.2 0
-12.551 -10.792 -25.389 -0 -1.2 0
-12.464 -11.287 -25.239 -0 -1.2 0
-12.374 -11.777 -25.08 -0 -1.2 0
-12.279 -12.265 -24.914 -0 -1.2 0
-12.181 -12.749 -24.74 -0 -1.2 0
-12.08 -13.229 -24.559 -0 -1.2 0
-11.974 -13.707 -24.371 -0 -1.2 0
-11.865 -14.179 -24.175 -0 -1.2 0
-11.753 -14.649 -23.971 -0 -1.2 0
-11.637 -15.113 -23.76 -0 -1.2 0
-11.516 -15.574 -23.542 -0 -1.2 0
-11.393 -16.031 -23.317 -0 -1.2 0
-11.266 -16.483 -23.084 -0 -1.2 0
-11.136 -16.93 -22.845 -0 -1.2 0
-11.003 -17.371 -22.598 -0 -1.2 0
-10.866 -17.809 -22.345 -0 -1.2 0
-10.726 -18.241 -22.085 -0 -1.2 0
-10.582 -18.668 -21.818 -0 -1.2 0
-10.435 -19.089 -21.544 -0 -1.2 0
-10.286 -19.506 -21.264 -0 -1.2 0
-10.133 -19.916 -20.977 -0 -1.2 0
-9.977 -20.321 -20.684 -0 -1.2 0
-9.818 -20.72 -20.385 -0 -1.2 0
-9.655 -21.113 -20.079 -0 -1.2 0
-9.49 -21.499 -19.767 -0 -1.2 0
-9.322 -21.88 -19.449 -0 -1.2 0
-9.152 -22.254 -19.125 -0 -1.2 0
-8.979 -22.623 -18.796 -0 -1.2 0
-14.152 -5.742 -25.952 -0 -1.2 0
-14.103 -6.258 -25.883 -0 -1.2 0
-14.048 -6.773 -25.805 -0 -1.2 0
-13.99 -7.286 -25.719 -0 -1.2 0
-13.926 -7.797 -25.625 -0 -1.2 0
-13.86 -8.306 -25.523 -0 -1.2 0
-13.788 -8.813 -25.414 -0 -1.2 0
-13.713 -9.318 -25.296 -0 -1.2 0
-13.633 -9.821 -25.171 -0 -1.2 0
-13.55 -10.32 -25.039 -0 -1.2 0
-13.462 -10.817 -24.898 -0 -1.2 0
-13.37 -11.311 -24.751 -0 -1.2 0
-13.274 -11.801 -24.595 -0 -1.2 0
-13.174 -12.289 -24.432 -0 -1.2 0
-13.07 -12.773 -24.261 -0 -1.2 0
-12.962 -13.252 -24.083 -0 -1.2 0
-12.85 -13.73 -23.898 -0 -1.2 0
-12.734 -14.203 -23.706 -0 -1.2 0
-12.614 -14.672 -23.506 -0 -1.2 0
-12.491 -15.136 -23.298 -0 -1.2 0
-12.364 -15.597 -23.084 -0 -1.2 0
-12.232 -16.053 -22.863 -0 -1.2 0
-12.097 -16.505 -22.634 -0 -1.2 0
-11.959 -16.952 -22.4 -0 -1.2 0
-11.817 -17.393 -22.158 -0 -1.2 0
-11.671 -17.831 -21.909 -0 -1.2 0
-11.521 -18.262 -21.653 -0 -1.2 0
-11.369 -18.689 -21.391 -0 -1.2 0
-11.213 -19.11 -21.123 -0 -1.2 0
-11.053 -19.526 -20.847 -0 -1.2 0
-10.89 -19.936 -20.566 -0 -1.2 0
-10.723 -20.341 -20.278 -0 -1.2 0
-10.554 -20.739 -19.984 -0 -1.2 0
-10.381 -21.132 -19.684 -0 -1.2 0
-10.205 -21.518 -19.378 -0 -1.2 0
-10.025 -21.899 -19.066 -0 -1.2 0
-9.843 -22.273 -18.748 -0 -1.2 0
-9.658 -22.641 -18.424 -0 -1.2 0
-14.845 -7.821 -25.086 -0 -1.2 0
-14.775 -8.33 -24.988 -0 -1.2 0
-14.699 -8.837 -24.88 -0 -1.2 0
-14.62 -9.342 -24.765 -0 -1.2 0
-14.536 -9.844 -24.643 -0 -1.2 0
-14.448 -10.344 -24.512 -0 -1.2 0
-14.355 -10.84 -24.374 -0 -1.2 0
-14.258 -11.334 -24.229 -0 -1.2 0
-14.156 -11.824 -24.076 -0 -1.2 0
-14.051 -12.312 -23.917 -0 -1.2 0
-13.941 -12.796 -23.75 -0 -1.2 0
-13.827 -13.275 -23.575 -0 -1.2 0
-13.709 -13.753 -23.393 -0 -1.2 0
-13.586 -14.225 -23.205 -0 -1.2 0
-13.459 -14.694 -23.009 -0 -1.2 0
-13.329 -15.158 -22.806 -0 -1.2 0
-13.193 -15.619 -22.596 -0 -1.2 0
-13.054 -16.075 -22.379 -0 -1.2 0
-12.912 -16.526 -22.155 -0 -1.2 0
-12.765 -16.973 -21.925 -0 -1.2 0
-12.614 -17.414 -21.687 -0 -1.2 0
-12.46 -17.851 -21.444 -0 -1.2 0
-12.302 -18.282 -21.193 -0 -1.2 0
-12.139 -18.709 -20.936 -0 -1.2 0
-11.974 -19.13 -20.673 -0 -1.2 0
-11.804 -19.546 -20.403 -0 -1.2 0
-11.632 -19.955 -20.127 -0 -1.2 0
-11.455 -20.36 -19.846 -0 -1.2 0
-11.275 -20.758 -19.557 -0 -1.2 0
-11.091 -21.151 -19.263 -0 -1.2 0
-10.905 -21.537 -18.963 -0 -1.2 0
-10.715 -21.917 -18.657 -0 -1.2 0
-10.521 -22.291 -18.346 -0 -1.2 0
-10.325 -22.659 -18.029 -0 -1.2 0
-16.261 -3.191 -25.01 -0 -1.2 0
-16.06 -5.791 -24.787 -0 -1.2 0
-16.006 -6.308 -24.72 -0 -1.2 0
-15.946 -6.822 -24.645 -0 -1.2 0
-15.882 -7.335 -24.562 -0 -1.2 0
-15.812 -7.846 -24.472 -0 -1.2 0
-15.738 -8.355 -24.374 -0 -1.2 0
-15.659 -8.862 -24.27 -0 -1.2 0
-15.575 -9.366 -24.157 -0 -1.2 0
-15.486 -9.869 -24.037 -0 -1.2 0
-15.394 -10.368 -23.911 -0 -1.2 0
-15.296 -10.864 -23.776 -0 -1.2 0
-15.194 -11.358 -23.634 -0 -1.2 0
-15.086 -11.848 -23.485 -0 -1.2 0
-14.975 -12.336 -23.329 -0 -1.2 0
-14.858 -12.819 -23.166 -0 -1.2 0
-14.738 -13.298 -22.995 -0 -1.2 0
-14.613 -13.776 -22.817 -0 -1.2 0
-14.483 -14.248 -22.633 -0 -1.2 0
-14.349 -14.717 -22.441 -0 -1.2 0
-14.21 -15.181 -22.243 -0 -1.2 0
-14.068 -15.641 -22.038 -0 -1.2 0
-13.921 -16.097 -21.826 -0 -1.2 0
-13.77 -16.548 -21.607 -0 -1.2 0
-13.613 -16.994 -21.382 -0 -1.2 0
-13.454 -17.435 -21.151 -0 -1.2 0
-13.29 -17.872 -20.912 -0 -1.2 0
-13.123 -18.303 -20.668 -0 -1.2 0
-12.951 -18.73 -20.416 -0 -1.2 0
-12.775 -19.151 -20.16 -0 -1.2 0
-12.596 -19.566 -19.896 -0 -1.2 0
-12.413 -19.975 -19.626 -0 -1.2 0
-12.225 -20.38 -19.351 -0 -1.2 0
-12.035 -20.778 -19.07 -0 -1.2 0
-11.84 -21.17 -18.782 -0 -1.2 0
-11.642 -21.556 -18.489 -0 -1.2 0
-11.441 -21.935 -18.19 -0 -1.2 0
-11.235 -22.309 -17.885 -0 -1.2 0
-11.026 -22.676 -17.577 -0 -1.2 0
-16.942 -5.813 -24.181 -0 -1.2 0
-16.885 -6.33 -24.115 -0 -1.2 0
-16.823 -6.844 -24.041 -0 -1.2 0
-16.756 -7.357 -23.96 -0 -1.2 0
-16.683 -7.868 -23.872 -0 -1.2 0
-16.606 -8.377 -23.778 -0 -1.2 0
-16.523 -8.883 -23.675 -0 -1.2 0
-16.436 -9.388 -23.565 -0 -1.2 0
-16.343 -9.89 -23.447 -0 -1.2 0
-16.246 -10.389 -23.324 -0 -1.2 0
-16.143 -10.885 -23.192 -0 -1.2 0
-16.036 -11.379 -23.053 -0 -1.2 0
-15.924 -11.869 -22.907 -0 -1.2 0
-15.807 -12.356 -22.755 -0 -1.2 0
-15.685 -12.84 -22.595 -0 -1.2 0
-15.559 -13.319 -22.429 -0 -1.2 0
-15.427 -13.796 -22.255 -0 -1.2 0
-15.291 -14.268 -22.075 -0 -1.2 0
-15.15 -14.737 -21.888 -0 -1.2 0
-15.005 -15.2 -21.694 -0 -1.2 0
-14.855 -15.661 -21.494 -0 -1.2 0
-14.7 -16.116 -21.287 -0 -1.2 0
-14.542 -16.567 -21.073 -0 -1.2 0
-14.379 -17.013 -20.853 -0 -1.2 0
-14.211 -17.454 -20.627 -0 -1.2 0
-14.038 -17.891 -20.394 -0 -1.2 0
-13.862 -18.322 -20.155 -0 -1.2 0
-13.682 -18.748 -19.91 -0 -1.2 0
-13.498 -19.169 -19.659 -0 -1.2 0
-13.309 -19.584 -19.402 -0 -1.2 0
-13.116 -19.993 -19.139 -0 -1.2 0
-12.919 -20.397 -18.869 -0 -1.2 0
-12.719 -20.795 -18.594 -0 -1.2 0
-12.514 -21.187 -18.313 -0 -1.2 0
-12.306 -21.572 -18.028 -0 -1.2 0
-12.094 -21.952 -17.736 -0 -1.2 0
-11.878 -22.325 -17.438 -0 -1.2 0
-11.659 -22.692 -17.135 -0 -1.2 0
-17.432 -8.397 -23.165 -0 -1.2 0
-17.346 -8.904 -23.064 -0 -1.2 0
-17.255 -9.408 -22.957 -0 -1.2 0
-17.158 -9.91 -22.843 -0 -1.2 0
-17.057 -10.409 -22.721 -0 -1.2 0
-16.95 -10.905 -22.593 -0 -1.2 0
-16.839 -11.399 -22.457 -0 -1.2 0
-16.721 -11.888 -22.315 -0 -1.2 0
-16.598 -12.376 -22.167 -0 -1.2 0
-16.472 -12.859 -22.01 -0 -1.2 0
-16.34 -13.338 -21.848 -0 -1.2 0
-16.202 -13.815 -21.679 -0 -1.2 0
-16.061 -14.287 -21.503 -0 -1.2 0
-15.913 -14.755 -21.32 -0 -1.2 0
-15.762 -15.219 -21.131 -0 -1.2 0
-15.604 -15.679 -20.935 -0 -1.2 0
-15.443 -16.134 -20.734 -0 -1.2 0
-15.278 -16.585 -20.525 -0 -1.2 0
-15.106 -17.031 -20.311 -0 -1.2 0
-14.931 -17.472 -20.09 -0 -1.2 0
-14.751 -17.909 -19.863 -0 -1.2 0
-14.567 -18.339 -19.629 -0 -1.2 0
-14.379 -18.765 -19.39 -0 -1.2 0
-14.185 -19.185 -19.145 -0 -1.2 0
-13.988 -19.601 -18.894 -0 -1.2 0
-13.786 -20.009 -18.638 -0 -1.2 0
-13.58 -20.413 -18.375 -0 -1.2 0
-13.371 -20.811 -18.107 -0 -1.2 0
-13.156 -21.202 -17.833 -0 -1.2 0
-12.939 -21.588 -17.553 -0 -1.2 0
-12.716 -21.967 -17.268 -0 -1.2 0
-12.49 -22.34 -16.979 -0 -1.2 0
-12.261 -22.707 -16.683 -0 -1.2 0
-18.297 -8.418 -22.473 -0 -1.2 0
-18.208 -8.924 -22.376 -0 -1.2 0
-18.113 -9.428 -22.272 -0 -1.2 0
-18.013 -9.93 -22.16 -0 -1.2 0
-17.906 -10.429 -22.042 -0 -1.2 0
-17.795 -10.925 -21.917 -0 -1.2 0
-17.678 -11.419 -21.786 -0 -1.2 0
-17.556 -11.908 -21.647 -0 -1.2 0
-17.428 -12.395 -21.502 -0 -1.2 0
-17.296 -12.879 -21.351 -0 -1.2 0
-17.157 -13.358 -21.193 -0 -1.2 0
-17.015 -13.834 -21.029 -0 -1.2 0
-16.866 -14.306 -20.858 -0 -1.2 0
-16.713 -14.774 -20.68 -0 -1.2 0
-16.554 -15.238 -20.496 -0 -1.2 0
-16.39 -15.698 -20.306 -0 -1.2 0
-16.222 -16.153 -20.11 -0 -1.2 0
-16.047 -16.604 -19.907 -0 -1.2 0
-15.869 -17.049 -19.699 -0 -1.2 0
-15.686 -17.49 -19.484 -0 -1.2 0
-15.498 -17.926 -19.263 -0 -1.2 0
-15.306 -18.357 -19.037 -0 -1.2 0
-15.108 -18.783 -18.804 -0 -1.2 0
-14.906 -19.203 -18.565 -0 -1.2 0
-14.699 -19.617 -18.322 -0 -1.2 0
-14.488 -20.026 -18.072 -0 -1.2 0
-14.273 -20.43 -17.818 -0 -1.2 0
-14.053 -20.827 -17.557 -0 -1.2 0
-13.829 -21.218 -17.29 -0 -1.2 0
-13.601 -21.603 -17.02 -0 -1.2 0
-13.369 -21.982 -16.743 -0 -1.2 0
-13.132 -22.355 -16.461 -0 -1.2 0
-12.891 -22.722 -16.174 -0 -1.2 0
-19.384 -6.39 -22.121 -0 -1.2 0
-19.314 -6.905 -22.053 -0 -1.2 0
-19.24 -7.417 -21.978 -0 -1.2 0
-19.159 -7.928 -21.897 -0 -1.2 0
-19.071 -8.437 -21.808 -0 -1.2 0
-18.979 -8.943 -21.713 -0 -1.2 0
-18.88 -9.447 -21.611 -0 -1.2 0
-18.777 -9.949 -21.503 -0 -1.2 0
-18.666 -10.448 -21.389 -0 -1.2 0
-18.551 -10.944 -21.267 -0 -1.2 0
-18.43 -11.437 -21.139 -0 -1.2 0
-18.303 -11.927 -21.005 -0 -1.2 0
-18.17 -12.414 -20.863 -0 -1.2 0
-17.889 -13.376 -20.563 -0 -1.2 0
-17.74 -13.852 -20.403 -0 -1.2 0
-17.586 -14.324 -20.236 -0 -1.2 0
-17.427 -14.792 -20.064 -0 -1.2 0
-17.262 -15.255 -19.886 -0 -1.2 0
-17.092 -15.715 -19.7 -0 -1.2 0
-16.916 -16.17 -19.509 -0 -1.2 0
-16.736 -16.621 -19.313 -0 -1.2 0
-16.551 -17.066 -19.109 -0 -1.2 0
-16.36 -17.507 -18.901 -0 -1.2 0
-16.164 -17.943 -18.687 -0 -1.2 0
-15.964 -18.373 -18.467 -0 -1.2 0
-15.759 -18.799 -18.241 -0 -1.2 0
-15.549 -19.219 -18.009 -0 -1.2 0
-15.334 -19.633 -17.772 -0 -1.2 0
-15.114 -20.042 -17.529 -0 -1.2 0
-14.89 -20.445 -17.282 -0 -1.2 0
-14.661 -20.842 -17.029 -0 -1.2 0
-14.429 -21.233 -16.77 -0 -1.2 0
-14.191 -21.618 -16.506 -0 -1.2 0
-13.95 -21.997 -16.238 -0 -1.2 0
-13.703 -22.369 -15.963 -0 -1.2 0
-13.453 -22.736 -15.685 -0 -1.2 0
-20.396 -3.817 -21.664 -0 -1.2 0
-20.355 -4.338 -21.63 -0 -1.2 0
-20.308 -4.858 -21.591 -0 -1.2 0
-20.255 -5.378 -21.544 -0 -1.2 0
-20.196 -5.895 -21.492 -0 -1.2 0
-20.13 -6.411 -21.433 -0 -1.2 0
-20.058 -6.925 -21.366 -0 -1.2 0
-19.98 -7.438 -21.293 -0 -1.2 0
-19.897 -7.949 -21.214 -0 -1.2 0
-19.807 -8.457 -21.128 -0 -1.2 0
-19.711 -8.964 -21.037 -0 -1.2 0
-19.609 -9.468 -20.938 -0 -1.2 0
-19.388 -10.468 -20.722 -0 -1.2 0
-19.267 -10.964 -20.603 -0 -1.2 0
-19.143 -11.457 -20.479 -0 -1.2 0
-18.873 -12.434 -20.212 -0 -1.2 0
-18.731 -12.916 -20.069 -0 -1.2 0
-18.582 -13.395 -19.92 -0 -1.2 0
-18.268 -14.343 -19.603 -0 -1.2 0
-18.104 -14.811 -19.436 -0 -1.2 0
-17.756 -15.734 -19.083 -0 -1.2 0
-17.574 -16.188 -18.898 -0 -1.2 0
-17.387 -16.639 -18.707 -0 -1.2 0
-17.194 -17.084 -18.51 -0 -1.2 0
-16.997 -17.524 -18.308 -0 -1.2 0
-16.795 -17.96 -18.1 -0 -1.2 0
-16.587 -18.39 -17.885 -0 -1.2 0
-16.373 -18.816 -17.667 -0 -1.2 0
-16.156 -19.236 -17.442 -0 -1.2 0
-15.933 -19.65 -17.212 -0 -1.2 0
-15.706 -20.058 -16.977 -0 -1.2 0
-15.474 -20.461 -16.737 -0 -1.2 0
-15.236 -20.858 -16.491 -0 -1.2 0
-14.994 -21.249 -16.24 -0 -1.2 0
-14.749 -21.634 -15.984 -0 -1.2 0
-14.497 -22.012 -15.723 -0 -1.2 0
-14.243 -22.385 -15.458 -0 -1.2 0
-13.982 -22.751 -15.188 -0 -1.2 0
-21.29 -0.179 -20.937 -0 -1.2 0
-21.293 -0.704 -20.95 -0 -1.2 0
-21.289 -1.227 -20.957 -0 -1.2 0
-21.279 -1.75 -20.957 -0 -1.2 0
-21.263 -2.272 -20.951 -0 -1.2 0
-21.241 -2.795 -20.938 -0 -1.2 0
-21.212 -3.318 -20.919 -0 -1.2 0
-21.175 -3.839 -20.894 -0 -1.2 0
-21.134 -4.36 -20.862 -0 -1.2 0
-21.085 -4.88 -20.824 -0 -1.2 0
-21.03 -5.4 -20.778 -0 -1.2 0
-20.969 -5.917 -20.728 -0 -1.2 0
-20.901 -6.433 -20.67 -0 -1.2 0
-20.828 -6.947 -20.606 -0 -1.2 0
-20.747 -7.46 -20.535 -0 -1.2 0
-20.661 -7.97 -20.459 -0 -1.2 0
-20.567 -8.479 -20.376 -0 -1.2 0
-20.363 -9.489 -20.192 -0 -1.2 0
-20.251 -9.991 -20.09 -0 -1.2 0
-20.01 -10.985 -19.868 -0 -1.2 0
-19.601 -12.454 -19.49 -0 -1.2 0
-19.299 -13.415 -19.208 -0 -1.2 0
-17.862 -17.103 -17.846 -0 -1.2 0
-17.656 -17.543 -17.65 -0 -1.2 0
-17.446 -17.979 -17.449 -0 -1.2 0
-17.231 -18.409 -17.243 -0 -1.2 0
-17.011 -18.834 -17.031 -0 -1.2 0
-16.785 -19.253 -16.815 -0 -1.2 0
-16.554 -19.667 -16.592 -0 -1.2 0
-16.318 -20.075 -16.364 -0 -1.2 0
-16.077 -20.478 -16.133 -0 -1.2 0
-15.831 -20.875 -15.895 -0 -1.2 0
-15.58 -21.266 -15.653 -0 -1.2 0
-15.325 -21.65 -15.406 -0 -1.2 0
-15.064 -22.028 -15.153 -0 -1.2 0
-14.8 -22.4 -14.897 -0 -1.2 0
-14.531 -22.766 -14.636 -0 -1.2 0
-21.993 -0.724 -20.21 -0 -1.2 0
-21.99 -1.247 -20.217 -0 -1.2 0
-21.98 -1.77 -20.217 -0 -1.2 0
-21.964 -2.292 -20.211 -0 -1.2 0
-21.94 -2.815 -20.198 -0 -1.2 0
-21.911 -3.338 -20.18 -0 -1.2 0
-21.874 -3.859 -20.156 -0 -1.2 0
-21.831 -4.38 -20.124 -0 -1.2 0
-21.781 -4.9 -20.087 -0 -1.2 0
-21.725 -5.42 -20.044 -0 -1.2 0
-21.662 -5.937 -19.994 -0 -1.2 0
-21.592 -6.453 -19.938 -0 -1.2 0
-21.516 -6.967 -19.876 -0 -1.2 0
-21.248 -8.498 -19.654 -0 -1.2 0
-21.146 -9.004 -19.569 -0 -1.2 0
-20.923 -10.01 -19.378 -0 -1.2 0
-20.54 -11.497 -19.048 -0 -1.2 0
-20.253 -12.473 -18.798 -0 -1.2 0
-18.247 -17.56 -17.02 -0 -1.2 0
-17.808 -18.425 -16.626 -0 -1.2 0
-17.58 -18.85 -16.421 -0 -1.2 0
-17.347 -19.27 -16.211 -0 -1.2 0
-17.109 -19.683 -15.997 -0 -1.2 0
-16.865 -20.091 -15.777 -0 -1.2 0
-16.617 -20.494 -15.553 -0 -1.2 0
-16.363 -20.89 -15.323 -0 -1.2 0
-16.104 -21.281 -15.09 -0 -1.2 0
-15.841 -21.665 -14.851 -0 -1.2 0
-15.572 -22.043 -14.608 -0 -1.2 0
-15.299 -22.415 -14.36 -0 -1.2 0
-15.021 -22.78 -14.108 -0 -1.2 0
-22.67 -0.743 -19.447 -0 -1.2 0
-22.656 -1.789 -19.452 -0 -1.2 0
-22.64 -2.312 -19.447 -0 -1.2 0
-22.617 -2.835 -19.435 -0 -1.2 0
-22.586 -3.358 -19.417 -0 -1.2 0
-22.549 -3.879 -19.393 -0 -1.2 0
-22.504 -4.4 -19.363 -0 -1.2 0
-22.453 -4.92 -19.327 -0 -1.2 0
-22.396 -5.439 -19.285 -0 -1.2 0
-22.331 -5.956 -19.237 -0 -1.2 0
-21.315 -11.023 -18.436 -0 -1.2 0
-20.881 -12.491 -18.083 -0 -1.2 0
-20.724 -12.974 -17.954 -0 -1.2 0
-20.392 -13.928 -17.68 -0 -1.2 0
-20.034 -14.866 -17.384 -0 -1.2 0
-19.652 -15.788 -17.067 -0 -1.2 0
-17.89 -19.285 -15.59 -0 -1.2 0
-17.644 -19.699 -15.383 -0 -1.2 0
-17.394 -20.107 -15.172 -0 -1.2 0
-17.137 -20.509 -14.955 -0 -1.2 0
-16.877 -20.905 -14.734 -0 -1.2 0
-16.61 -21.295 -14.509 -0 -1.2 0
-16.338 -21.679 -14.279 -0 -1.2 0
-16.062 -22.057 -14.044 -0 -1.2 0
-15.78 -22.429 -13.806 -0 -1.2 0
-15.494 -22.794 -13.562 -0 -1.2 0
-23.38 -0.764 -18.586 -0 -1.2 0
-23.368 -1.81 -18.591 -0 -1.2 0
-23.351 -2.333 -18.585 -0 -1.2 0
-23.327 -2.855 -18.574 -0 -1.2 0
-23.295 -3.379 -18.557 -0 -1.2 0
-23.257 -3.9 -18.533 -0 -1.2 0
-23.212 -4.421 -18.505 -0 -1.2 0
-23.159 -4.94 -18.47 -0 -1.2 0
-23.1 -5.46 -18.43 -0 -1.2 0
-23.033 -5.977 -18.384 -0 -1.2 0
-22.96 -6.493 -18.332 -0 -1.2 0
-22.88 -7.007 -18.275 -0 -1.2 0
-22.793 -7.519 -18.212 -0 -1.2 0
-22.374 -9.547 -17.904 -0 -1.2 0
-22.252 -10.049 -17.814 -0 -1.2 0
-22.123 -10.547 -17.717 -0 -1.2 0
-18.95 -18.458 -15.272 -0 -1.2 0
-18.461 -19.302 -14.889 -0 -1.2 0
-18.208 -19.716 -14.691 -0 -1.2 0
-17.95 -20.123 -14.488 -0 -1.2 0
-17.686 -20.525 -14.281 -0 -1.2 0
-17.416 -20.921 -14.069 -0 -1.2 0
-17.141 -21.311 -13.854 -0 -1.2 0
-16.862 -21.695 -13.633 -0 -1.2 0
-16.576 -22.072 -13.409 -0 -1.2 0
-16.287 -22.444 -13.18 -0 -1.2 0
-15.992 -22.809 -12.947 -0 -1.2 0
-23.416 -7.538 -17.397 -0 -1.2 0
-22.987 -9.566 -17.102 -0 -1.2 0
-22.862 -10.067 -17.015 -0 -1.2 0
-21.617 -13.964 -16.131 -0 -1.2 0
-21.239 -14.902 -15.86 -0 -1.2 0
-18.972 -19.317 -14.214 -0 -1.2 0
-18.713 -19.73 -14.025 -0 -1.2 0
-18.447 -20.138 -13.83 -0 -1.2 0
-18.176 -20.54 -13.632 -0 -1.2 0
-17.9 -20.935 -13.429 -0 -1.2 0
-17.617 -21.325 -13.223 -0 -1.2 0
-17.331 -21.708 -13.012 -0 -1.2 0
-17.038 -22.086 -12.797 -0 -1.2 0
-16.74 -22.457 -12.578 -0 -1.2 0
-16.438 -22.822 -12.355 -0 -1.2 0
-24.624 -0.803 -16.908 -0 -1.2 0
-24.612 -1.849 -16.912 -0 -1.2 0
-24.594 -2.372 -16.906 -0 -1.2 0
-24.569 -2.894 -16.895 -0 -1.2 0
-24.537 -3.417 -16.879 -0 -1.2 0
-24.497 -3.938 -16.858 -0 -1.2 0
-24.45 -4.459 -16.831 -0 -1.2 0
-24.395 -4.979 -16.799 -0 -1.2 0
-24.333 -5.498 -16.763 -0 -1.2 0
-24.264 -6.015 -16.72 -0 -1.2 0
-24.01 -7.557 -16.563 -0 -1.2 0
-23.911 -8.068 -16.5 -0 -1.2 0
-23.692 -9.081 -16.358 -0 -1.2 0
-22.528 -13.029 -15.593 -0 -1.2 0
-19.719 -18.915 -13.699 -0 -1.2 0
-19.459 -19.333 -13.523 -0 -1.2 0
-19.193 -19.746 -13.341 -0 -1.2 0
-18.921 -20.153 -13.156 -0 -1.2 0
-18.643 -20.555 -12.966 -0 -1.2 0
-18.359 -20.951 -12.773 -0 -1.2 0
-18.07 -21.34 -12.575 -0 -1.2 0
-17.776 -21.723 -12.374 -0 -1.2 0
-17.477 -22.1 -12.169 -0 -1.2 0
-17.171 -22.471 -11.961 -0 -1.2 0
-16.861 -22.836 -11.747 -0 -1.2 0
-25.223 -1.881 -15.987 -0 -1.2 0
-24.748 -3.929 -15.702 -0 -1.2 0
-24.867 -6.046 -15.802 -0 -1.2 0
-24.788 -6.562 -15.756 -0 -1.2 0
-24.702 -7.076 -15.706 -0 -1.2 0
-24.398 -8.606 -15.526 -0 -1.2 0
-24.282 -9.112 -15.456 -0 -1.2 0
-23.89 -10.614 -15.219 -0 -1.2 0
-23.431 -12.09 -14.938 -0 -1.2 0
-20.974 -17.654 -13.408 -0 -1.2 0
-20.473 -18.516 -13.092 -0 -1.2 0
-20.211 -18.941 -12.929 -0 -1.2 0
-19.945 -19.359 -12.76 -0 -1.2 0
-19.673 -19.771 -12.588 -0 -1.2 0
-19.394 -20.178 -12.413 -0 -1.2 0
-19.11 -20.579 -12.233 -0 -1.2 0
-18.82 -20.975 -12.049 -0 -1.2 0
-18.523 -21.364 -11.862 -0 -1.2 0
-18.222 -21.746 -11.671 -0 -1.2 0
-17.914 -22.123 -11.477 -0 -1.2 0
-17.602 -22.494 -11.279 -0 -1.2 0
-17.284 -22.858 -11.077 -0 -1.2 0
-25.762 -1.908 -15.109 -0 -1.2 0
-25.744 -2.431 -15.103 -0 -1.2 0
-25.718 -2.954 -15.091 -0 -1.2 0
-25.684 -3.477 -15.077 -0 -1.2 0
-25.643 -3.998 -15.057 -0 -1.2 0
-25.593 -4.518 -15.031 -0 -1.2 0
-25.536 -5.038 -15.002 -0 -1.2 0
-25.472 -5.557 -14.968 -0 -1.2 0
-25.398 -6.074 -14.929 -0 -1.2 0
-25.318 -6.59 -14.886 -0 -1.2 0
-25.135 -7.615 -14.784 -0 -1.2 0
-25.032 -8.125 -14.728 -0 -1.2 0
-24.92 -8.633 -14.665 -0 -1.2 0
-24.675 -9.642 -14.528 -0 -1.2 0
-23.934 -12.116 -14.106 -0 -1.2 0
-23.585 -13.083 -13.906 -0 -1.2 0
-23.01 -14.506 -13.573 -0 -1.2 0
-21.911 -16.795 -12.935 -0 -1.2 0
-21.424 -17.677 -12.652 -0 -1.2 0
-21.172 -18.111 -12.504 -0 -1.2 0
-20.912 -18.539 -12.352 -0 -1.2 0
-20.646 -18.963 -12.197 -0 -1.2 0
-20.374 -19.381 -12.037 -0 -1.2 0
-20.096 -19.793 -11.874 -0 -1.2 0
-19.811 -20.2 -11.707 -0 -1.2 0
-19.52 -20.601 -11.536 -0 -1.2 0
-19.225 -20.996 -11.363 -0 -1.2 0
-18.922 -21.384 -11.185 -0 -1.2 0
-18.614 -21.767 -11.003 -0 -1.2 0
-18.3 -22.143 -10.819 -0 -1.2 0
-17.981 -22.513 -10.631 -0 -1.2 0
-17.656 -22.877 -10.439 -0 -1.2 0
-26.27 -1.935 -14.212 -0 -1.2 0
-26.252 -2.458 -14.206 -0 -1.2 0
-26.225 -2.98 -14.196 -0 -1.2 0
-26.191 -3.503 -14.181 -0 -1.2 0
-26.148 -4.024 -14.161 -0 -1.2 0
-26.099 -4.545 -14.138 -0 -1.2 0
-26.04 -5.064 -14.109 -0 -1.2 0
-25.974 -5.583 -14.077 -0 -1.2 0
-25.9 -6.1 -14.039 -0 -1.2 0
-25.818 -6.616 -13.998 -0 -1.2 0
-25.729 -7.129 -13.952 -0 -1.2 0
-25.631 -7.641 -13.902 -0 -1.2 0
-25.292 -9.164 -13.725 -0 -1.2 0
-25.163 -9.667 -13.658 -0 -1.2 0
-25.027 -10.168 -13.586 -0 -1.2 0
-22.1 -17.261 -12.018 -0 -1.2 0
-21.848 -17.699 -11.882 -0 -1.2 0
-21.591 -18.133 -11.742 -0 -1.2 0
-21.326 -18.561 -11.598 -0 -1.2 0
-21.054 -18.985 -11.451 -0 -1.2 0
-20.777 -19.402 -11.3 -0 -1.2 0
-20.493 -19.814 -11.146 -0 -1.2 0
-20.204 -20.22 -10.988 -0 -1.2 0
-19.908 -20.621 -10.827 -0 -1.2 0
-19.605 -21.016 -10.662 -0 -1.2 0
-19.298 -21.404 -10.494 -0 -1.2 0
-18.983 -21.786 -10.323 -0 -1.2 0
-18.663 -22.162 -10.148 -0 -1.2 0
-18.338 -22.532 -9.971 -0 -1.2 0
-18.007 -22.896 -9.79 -0 -1.2 0
-26.792 -0.391 -13.222 -0 -1.2 0
-26.765 -2.484 -13.221 -0 -1.2 0
-26.739 -3.007 -13.211 -0 -1.2 0
-26.704 -3.53 -13.196 -0 -1.2 0
-26.66 -4.051 -13.178 -0 -1.2 0
-26.61 -4.571 -13.155 -0 -1.2 0
-26.55 -5.091 -13.129 -0 -1.2 0
-26.483 -5.61 -13.097 -0 -1.2 0
-26.407 -6.127 -13.062 -0 -1.2 0
-26.324 -6.642 -13.023 -0 -1.2 0
-26.233 -7.156 -12.979 -0 -1.2 0
-26.133 -7.668 -12.932 -0 -1.2 0
-26.026 -8.177 -12.881 -0 -1.2 0
-25.911 -8.685 -12.825 -0 -1.2 0
-25.371 -10.692 -12.564 -0 -1.2 0
-25.055 -11.678 -12.408 -0 -1.2 0
-24.331 -13.61 -12.053 -0 -1.2 0
-22.278 -17.722 -11.034 -0 -1.2 0
-22.015 -18.155 -10.903 -0 -1.2 0
-21.745 -18.583 -10.769 -0 -1.2 0
-21.469 -19.006 -10.631 -0 -1.2 0
-21.186 -19.424 -10.49 -0 -1.2 0
-20.897 -19.835 -10.346 -0 -1.2 0
-20.601 -20.241 -10.198 -0 -1.2 0
-20.299 -20.642 -10.047 -0 -1.2 0
-19.991 -21.036 -9.893 -0 -1.2 0
-19.677 -21.424 -9.736 -0 -1.2 0
-19.357 -21.806 -9.575 -0 -1.2 0
-19.031 -22.182 -9.412 -0 -1.2 0
-18.699 -22.551 -9.246 -0 -1.2 0
-18.362 -22.915 -9.076 -0 -1.2 0
-27.228 -1.985 -12.3 -0 -1.2 0
-27.209 -2.508 -12.294 -0 -1.2 0
-27.183 -3.03 -12.283 -0 -1.2 0
-27.147 -3.553 -12.269 -0 -1.2 0
-27.103 -4.074 -12.251 -0 -1.2 0
-27.051 -4.595 -12.229 -0 -1.2 0
-26.991 -5.114 -12.203 -0 -1.2 0
-26.922 -5.633 -12.174 -0 -1.2 0
-26.846 -6.15 -12.14 -0 -1.2 0
-26.761 -6.665 -12.104 -0 -1.2 0
-26.668 -7.178 -12.063 -0 -1.2 0
-26.567 -7.69 -12.018 -0 -1.2 0
-26.457 -8.2 -11.97 -0 -1.2 0
-26.34 -8.707 -11.917 -0 -1.2 0
-26.215 -9.213 -11.861 -0 -1.2 0
-24.736 -13.631 -11.191 -0 -1.2 0
-24.105 -15.041 -10.904 -0 -1.2 0
-23.88 -15.502 -10.801 -0 -1.2 0
-23.161 -16.86 -10.472 -0 -1.2 0
-22.909 -17.303 -10.356 -0 -1.2 0
-22.648 -17.741 -10.237 -0 -1.2 0
-22.381 -18.175 -10.114 -0 -1.2 0
-22.106 -18.602 -9.988 -0 -1.2 0
-21.825 -19.025 -9.86 -0 -1.2 0
-21.538 -19.442 -9.727 -0 -1.2 0
-21.244 -19.854 -9.592 -0 -1.2 0
-20.943 -20.259 -9.454 -0 -1.2 0
-20.636 -20.659 -9.312 -0 -1.2 0
-20.323 -21.054 -9.169 -0 -1.2 0
-20.003 -21.441 -9.021 -0 -1.2 0
-19.678 -21.823 -8.871 -0 -1.2 0
-19.347 -22.198 -8.719 -0 -1.2 0
-19.01 -22.568 -8.563 -0 -1.2 0
-18.667 -22.931 -8.404 -0 -1.2 0
-27.649 -1.484 -11.368 -0 -1.2 0
-27.638 -2.007 -11.364 -0 -1.2 0
-26.736 -8.728 -11.001 -0 -1.2 0
-24.688 -14.594 -10.147 -0 -1.2 0
-23.511 -16.879 -9.652 -0 -1.2 0
-23.253 -17.322 -9.544 -0 -1.2 0
-22.988 -17.759 -9.433 -0 -1.2 0
-22.717 -18.193 -9.319 -0 -1.2 0
-22.438 -18.62 -9.201 -0 -1.2 0
-22.153 -19.043 -9.081 -0 -1.2 0
-21.862 -19.459 -8.958 -0 -1.2 0
-21.563 -19.871 -8.832 -0 -1.2 0
-21.258 -20.276 -8.703 -0 -1.2 0
-20.946 -20.676 -8.572 -0 -1.2 0
-20.629 -21.07 -8.438 -0 -1.2 0
-20.304 -21.457 -8.301 -0 -1.2 0
-19.974 -21.839 -8.162 -0 -1.2 0
-19.638 -22.214 -8.019 -0 -1.2 0
-19.295 -22.583 -7.874 -0 -1.2 0
-18.947 -22.946 -7.728 -0 -1.2 0
-28.045 -2.028 -10.343 -0 -1.2 0
-28.025 -2.551 -10.336 -0 -1.2 0
-27.997 -3.073 -10.326 -0 -1.2 0
-27.961 -3.596 -10.313 -0 -1.2 0
-27.915 -4.117 -10.296 -0 -1.2 0
-27.862 -4.637 -10.276 -0 -1.2 0
-27.8 -5.156 -10.253 -0 -1.2 0
-27.729 -5.675 -10.227 -0 -1.2 0
-27.65 -6.192 -10.197 -0 -1.2 0
-27.563 -6.707 -10.165 -0 -1.2 0
-27.468 -7.22 -10.128 -0 -1.2 0
-27.363 -7.732 -10.089 -0 -1.2 0
-27.251 -8.242 -10.047 -0 -1.2 0
-27.13 -8.749 -10.001 -0 -1.2 0
-26.864 -9.757 -9.901 -0 -1.2 0
-25.268 -14.144 -9.294 -0 -1.2 0
-25.052 -14.613 -9.212 -0 -1.2 0
-24.595 -15.54 -9.038 -0 -1.2 0
-24.11 -16.449 -8.853 -0 -1.2 0
-23.856 -16.897 -8.756 -0 -1.2 0
-23.595 -17.34 -8.657 -0 -1.2 0
-23.327 -17.777 -8.554 -0 -1.2 0
-23.051 -18.21 -8.449 -0 -1.2 0
-22.769 -18.637 -8.341 -0 -1.2 0
-22.479 -19.06 -8.231 -0 -1.2 0
-22.183 -19.476 -8.118 -0 -1.2 0
-21.88 -19.888 -8.002 -0 -1.2 0
-21.57 -20.292 -7.884 -0 -1.2 0
-21.255 -20.692 -7.763 -0 -1.2 0
-20.932 -21.086 -7.639 -0 -1.2 0
-20.604 -21.473 -7.514 -0 -1.2 0
-20.268 -21.854 -7.386 -0 -1.2 0
-19.926 -22.229 -7.256 -0 -1.2 0
-19.579 -22.598 -7.123 -0 -1.2 0
-19.225 -22.961 -6.988 -0 -1.2 0
-28.391 -2.034 -9.379 -0 -1.2 0
-28.37 -2.557 -9.373 -0 -1.2 0
-28.342 -3.079 -9.363 -0 -1.2 0
-28.306 -3.602 -9.351 -0 -1.2 0
-28.26 -4.123 -9.335 -0 -1.2 0
-28.206 -4.644 -9.316 -0 -1.2 0
-28.143 -5.163 -9.294 -0 -1.2 0
-28.072 -5.682 -9.27 -0 -1.2 0
-27.992 -6.198 -9.243 -0 -1.2 0
-27.903 -6.714 -9.212 -0 -1.2 0
-27.807 -7.227 -9.179 -0 -1.2 0
-27.702 -7.738 -9.142 -0 -1.2 0
-27.588 -8.248 -9.104 -0 -1.2 0
-27.05 -10.263 -8.919 -0 -1.2 0
-26.895 -10.76 -8.865 -0 -1.2 0
-26.731 -11.254 -8.808 -0 -1.2 0
-26.38 -12.233 -8.687 -0 -1.2 0
-26.192 -12.718 -8.622 -0 -1.2 0
-25.996 -13.199 -8.554 -0 -1.2 0
-25.793 -13.676 -8.485 -0 -1.2 0
-25.582 -14.15 -8.412 -0 -1.2 0
-25.363 -14.619 -8.336 -0 -1.2 0
-25.136 -15.085 -8.257 -0 -1.2 0
-24.659 -16.003 -8.094 -0 -1.2 0
-24.41 -16.455 -8.007 -0 -1.2 0
-24.153 -16.903 -7.918 -0 -1.2 0
-23.889 -17.345 -7.827 -0 -1.2 0
-23.617 -17.782 -7.733 -0 -1.2 0
-23.338 -18.216 -7.637 -0 -1.2 0
-23.053 -18.642 -7.538 -0 -1.2 0
-22.76 -19.065 -7.437 -0 -1.2 0
-22.461 -19.481 -7.333 -0 -1.2 0
-22.154 -19.893 -7.228 -0 -1.2 0
-21.84 -20.297 -7.119 -0 -1.2 0
-21.52 -20.697 -7.009 -0 -1.2 0
-21.194 -21.091 -6.896 -0 -1.2 0
-20.861 -21.478 -6.781 -0 -1.2 0
-20.522 -21.859 -6.664 -0 -1.2 0
-20.176 -22.234 -6.545 -0 -1.2 0
-19.824 -22.602 -6.423 -0 -1.2 0
-19.467 -22.965 -6.299 -0 -1.2 0
-28.705 -2.04 -8.404 -0 -1.2 0
-28.685 -2.562 -8.398 -0 -1.2 0
-28.656 -3.084 -8.389 -0 -1.2 0
-28.619 -3.607 -8.377 -0 -1.2 0
-28.573 -4.128 -8.362 -0 -1.2 0
-28.519 -4.649 -8.345 -0 -1.2 0
-28.456 -5.168 -8.325 -0 -1.2 0
-28.383 -5.687 -8.302 -0 -1.2 0
-28.303 -6.203 -8.276 -0 -1.2 0
-28.213 -6.719 -8.249 -0 -1.2 0
-28.116 -7.232 -8.218 -0 -1.2 0
-28.009 -7.744 -8.184 -0 -1.2 0
-27.894 -8.253 -8.148 -0 -1.2 0
-27.771 -8.76 -8.11 -0 -1.2 0
-27.64 -9.265 -8.069 -0 -1.2 0
-27.5 -9.768 -8.025 -0 -1.2 0
-27.35 -10.268 -7.979 -0 -1.2 0
-27.194 -10.765 -7.93 -0 -1.2 0
-27.029 -11.259 -7.879 -0 -1.2 0
-26.287 -13.204 -7.648 -0 -1.2 0
-25.417 -15.09 -7.378 -0 -1.2 0
-25.18 -15.55 -7.305 -0 -1.2 0
-24.935 -16.007 -7.229 -0 -1.2 0
-24.683 -16.459 -7.151 -0 -1.2 0
-24.423 -16.907 -7.07 -0 -1.2 0
-24.156 -17.35 -6.987 -0 -1.2 0
-23.882 -17.787 -6.902 -0 -1.2 0
-23.6 -18.22 -6.815 -0 -1.2 0
-23.311 -18.647 -6.725 -0 -1.2 0
-23.015 -19.069 -6.633 -0 -1.2 0
-22.712 -19.485 -6.539 -0 -1.2 0
-22.402 -19.897 -6.444 -0 -1.2 0
-22.086 -20.301 -6.346 -0 -1.2 0
-21.762 -20.701 -6.245 -0 -1.2 0
-21.432 -21.094 -6.143 -0 -1.2 0
-21.096 -21.482 -6.039 -0 -1.2 0
-20.753 -21.863 -5.933 -0 -1.2 0
-20.404 -22.238 -5.824 -0 -1.2 0
-20.048 -22.606 -5.715 -0 -1.2 0
-19.686 -22.968 -5.603 -0 -1.2 0
-29.008 -2.044 -7.341 -0 -1.2 0
-28.988 -2.566 -7.335 -0 -1.2 0
-28.959 -3.089 -7.325 -0 -1.2 0
-28.922 -3.612 -7.314 -0 -1.2 0
-28.875 -4.132 -7.301 -0 -1.2 0
-28.819 -4.653 -7.285 -0 -1.2 0
-28.756 -5.172 -7.266 -0 -1.2 0
-28.683 -5.691 -7.246 -0 -1.2 0
-28.602 -6.208 -7.223 -0 -1.2 0
-28.511 -6.723 -7.198 -0 -1.2 0
-28.413 -7.236 -7.17 -0 -1.2 0
-28.306 -7.748 -7.141 -0 -1.2 0
-28.19 -8.257 -7.108 -0 -1.2 0
-28.065 -8.764 -7.074 -0 -1.2 0
-27.933 -9.269 -7.036 -0 -1.2 0
-27.79 -9.772 -6.997 -0 -1.2 0
-27.14 -11.755 -6.817 -0 -1.2 0
-26.957 -12.242 -6.768 -0 -1.2 0
-26.766 -12.727 -6.715 -0 -1.2 0
-26.566 -13.208 -6.66 -0 -1.2 0
-26.358 -13.684 -6.603 -0 -1.2 0
-25.918 -14.628 -6.482 -0 -1.2 0
-25.687 -15.093 -6.419 -0 -1.2 0
-25.448 -15.554 -6.354 -0 -1.2 0
-25.201 -16.011 -6.287 -0 -1.2 0
-24.946 -16.463 -6.217 -0 -1.2 0
-24.683 -16.911 -6.146 -0 -1.2 0
-24.413 -17.353 -6.072 -0 -1.2 0
-24.136 -17.79 -5.996 -0 -1.2 0
-23.851 -18.223 -5.918 -0 -1.2 0
-23.56 -18.65 -5.839 -0 -1.2 0
-23.261 -19.073 -5.757 -0 -1.2 0
-22.955 -19.489 -5.675 -0 -1.2 0
-22.641 -19.9 -5.589 -0 -1.2 0
-22.321 -20.305 -5.502 -0 -1.2 0
-21.995 -20.704 -5.413 -0 -1.2 0
-21.661 -21.098 -5.323 -0 -1.2 0
-21.321 -21.485 -5.23 -0 -1.2 0
-20.975 -21.866 -5.136 -0 -1.2 0
-20.622 -22.241 -5.041 -0 -1.2 0
-20.262 -22.609 -4.943 -0 -1.2 0
-19.898 -22.971 -4.844 -0 -1.2 0
-29.246 0.046 -6.35 -0 -1.2 0
-29.235 -2.569 -6.339 -0 -1.2 0
-29.205 -3.091 -6.33 -0 -1.2 0
-29.168 -3.614 -6.32 -0 -1.2 0
-29.121 -4.135 -6.307 -0 -1.2 0
-29.065 -4.656 -6.293 -0 -1.2 0
-29.001 -5.175 -6.276 -0 -1.2 0
-28.927 -5.694 -6.257 -0 -1.2 0
-28.846 -6.21 -6.236 -0 -1.2 0
-28.755 -6.725 -6.213 -0 -1.2 0
-28.656 -7.239 -6.188 -0 -1.2 0
-28.547 -7.75 -6.162 -0 -1.2 0
-28.43 -8.26 -6.133 -0 -1.2 0
-28.304 -8.767 -6.101 -0 -1.2 0
-28.17 -9.272 -6.069 -0 -1.2 0
-28.028 -9.774 -6.034 -0 -1.2 0
-27.877 -10.275 -5.997 -0 -1.2 0
-27.717 -10.772 -5.958 -0 -1.2 0
-27.549 -11.266 -5.917 -0 -1.2 0
-26.994 -12.73 -5.783 -0 -1.2 0
-26.793 -13.21 -5.734 -0 -1.2 0
-26.584 -13.687 -5.684 -0 -1.2 0
-26.366 -14.161 -5.631 -0 -1.2 0
-26.141 -14.63 -5.577 -0 -1.2 0
-25.906 -15.096 -5.521 -0 -1.2 0
-25.665 -15.556 -5.463 -0 -1.2 0
-25.159 -16.465 -5.342 -0 -1.2 0
-24.894 -16.913 -5.279 -0 -1.2 0
-24.623 -17.355 -5.214 -0 -1.2 0
-24.343 -17.792 -5.147 -0 -1.2 0
-24.056 -18.225 -5.078 -0 -1.2 0
-23.761 -18.652 -5.009 -0 -1.2 0
-23.46 -19.075 -4.937 -0 -1.2 0
-23.151 -19.491 -4.863 -0 -1.2 0
-22.835 -19.902 -4.789 -0 -1.2 0
-22.513 -20.307 -4.712 -0 -1.2 0
-22.183 -20.706 -4.633 -0 -1.2 0
-21.848 -21.1 -4.554 -0 -1.2 0
-21.505 -21.487 -4.472 -0 -1.2 0
-21.155 -21.868 -4.39 -0 -1.2 0
-20.799 -22.242 -4.305 -0 -1.2 0
-20.437 -22.611 -4.22 -0 -1.2 0
-20.069 -22.973 -4.133 -0 -1.2 0
-29.448 -2.57 -5.335 -0 -1.2 0
-29.418 -3.093 -5.328 -0 -1.2 0
-29.38 -3.616 -5.317 -0 -1.2 0
-29.334 -4.136 -5.306 -0 -1.2 0
-29.277 -4.657 -5.293 -0 -1.2 0
-29.212 -5.176 -5.278 -0 -1.2 0
-29.139 -5.695 -5.261 -0 -1.2 0
-29.056 -6.212 -5.242 -0 -1.2 0
-28.965 -6.727 -5.222 -0 -1.2 0
-28.865 -7.24 -5.199 -0 -1.2 0
-28.756 -7.752 -5.175 -0 -1.2 0
-28.638 -8.261 -5.149 -0 -1.2 0
-28.512 -8.768 -5.123 -0 -1.2 0
-28.376 -9.273 -5.093 -0 -1.2 0
-28.233 -9.776 -5.063 -0 -1.2 0
-28.081 -10.276 -5.03 -0 -1.2 0
-27.92 -10.773 -4.997 -0 -1.2 0
-27.751 -11.267 -4.961 -0 -1.2 0
-27.573 -11.759 -4.923 -0 -1.2 0
-27.387 -12.246 -4.884 -0 -1.2 0
-27.192 -12.731 -4.843 -0 -1.2 0
-26.989 -13.212 -4.801 -0 -1.2 0
-26.559 -14.162 -4.711 -0 -1.2 0
-26.332 -14.631 -4.665 -0 -1.2 0
-26.096 -15.097 -4.616 -0 -1.2 0
-25.853 -15.557 -4.566 -0 -1.2 0
-25.602 -16.014 -4.514 -0 -1.2 0
-25.344 -16.466 -4.461 -0 -1.2 0
-25.077 -16.914 -4.406 -0 -1.2 0
-24.804 -17.356 -4.35 -0 -1.2 0
-24.522 -17.794 -4.292 -0 -1.2 0
-24.233 -18.227 -4.233 -0 -1.2 0
-23.936 -18.653 -4.172 -0 -1.2 0
-23.632 -19.076 -4.11 -0 -1.2 0
-23.321 -19.492 -4.047 -0 -1.2 0
-23.004 -19.903 -3.982 -0 -1.2 0
-22.679 -20.308 -3.915 -0 -1.2 0
-22.346 -20.707 -3.848 -0 -1.2 0
-22.008 -21.101 -3.78 -0 -1.2 0
-21.663 -21.488 -3.709 -0 -1.2 0
-21.311 -21.869 -3.637 -0 -1.2 0
-20.952 -22.243 -3.565 -0 -1.2 0
-20.588 -22.612 -3.491 -0 -1.2 0
-20.216 -22.974 -3.416 -0 -1.2 0
-29.636 -2.571 -4.268 -0 -1.2 0
-29.607 -3.093 -4.26 -0 -1.2 0
-29.568 -3.616 -4.251 -0 -1.2 0
-29.521 -4.137 -4.241 -0 -1.2 0
-29.465 -4.657 -4.228 -0 -1.2 0
-29.4 -5.176 -4.215 -0 -1.2 0
-29.325 -5.695 -4.201 -0 -1.2 0
-29.243 -6.212 -4.184 -0 -1.2 0
-29.15 -6.727 -4.167 -0 -1.2 0
-29.049 -7.24 -4.147 -0 -1.2 0
-28.94 -7.752 -4.127 -0 -1.2 0
-28.821 -8.261 -4.105 -0 -1.2 0
-28.694 -8.768 -4.082 -0 -1.2 0
-28.558 -9.273 -4.057 -0 -1.2 0
-28.413 -9.776 -4.03 -0 -1.2 0
-28.26 -10.276 -4.003 -0 -1.2 0
-28.099 -10.773 -3.974 -0 -1.2 0
-27.928 -11.267 -3.944 -0 -1.2 0
-27.75 -11.759 -3.912 -0 -1.2 0
-27.562 -12.246 -3.879 -0 -1.2 0
-27.366 -12.731 -3.845 -0 -1.2 0
-27.162 -13.212 -3.809 -0 -1.2 0
-26.949 -13.688 -3.773 -0 -1.2 0
-26.729 -14.162 -3.734 -0 -1.2 0
-26.5 -14.631 -3.695 -0 -1.2 0
-26.264 -15.097 -3.654 -0 -1.2 0
-26.019 -15.557 -3.611 -0 -1.2 0
-25.767 -16.015 -3.568 -0 -1.2 0
-25.506 -16.466 -3.523 -0 -1.2 0
-25.238 -16.914 -3.478 -0 -1.2 0
-24.962 -17.357 -3.43 -0 -1.2 0
-24.679 -17.794 -3.382 -0 -1.2 0
-24.388 -18.227 -3.333 -0 -1.2 0
-24.09 -18.653 -3.283 -0 -1.2 0
-23.784 -19.076 -3.231 -0 -1.2 0
-23.471 -19.492 -3.178 -0 -1.2 0
-23.151 -19.903 -3.124 -0 -1.2 0
-22.824 -20.308 -3.069 -0 -1.2 0
-22.49 -20.707 -3.013 -0 -1.2 0
-22.149 -21.101 -2.955 -0 -1.2 0
-21.802 -21.488 -2.898 -0 -1.2 0
-21.448 -21.869 -2.838 -0 -1.2 0
-21.087 -22.243 -2.777 -0 -1.2 0
-20.719 -22.612 -2.716 -0 -1.2 0
-20.346 -22.974 -2.654 -0 -1.2 0
-29.803 -0.477 -3.304 -0 -1.2 0
-29.81 -1.001 -3.301 -0 -1.2 0
-29.807 -1.524 -3.297 -0 -1.2 0
-29.797 -2.047 -3.292 -0 -1.2 0
-29.776 -2.57 -3.286 -0 -1.2 0
-29.747 -3.092 -3.279 -0 -1.2 0
-29.708 -3.615 -3.271 -0 -1.2 0
-29.66 -4.136 -3.261 -0 -1.2 0
-29.604 -4.656 -3.25 -0 -1.2 0
-29.539 -5.175 -3.238 -0 -1.2 0
-29.464 -5.694 -3.226 -0 -1.2 0
-29.38 -6.211 -3.212 -0 -1.2 0
-29.288 -6.726 -3.195 -0 -1.2 0
-29.187 -7.239 -3.179 -0 -1.2 0
-29.076 -7.751 -3.162 -0 -1.2 0
-28.958 -8.26 -3.143 -0 -1.2 0
-28.83 -8.768 -3.124 -0 -1.2 0
-28.693 -9.272 -3.103 -0 -1.2 0
-28.547 -9.775 -3.081 -0 -1.2 0
-28.394 -10.275 -3.057 -0 -1.2 0
-28.231 -10.772 -3.034 -0 -1.2 0
-28.06 -11.266 -3.008 -0 -1.2 0
-27.881 -11.758 -2.982 -0 -1.2 0
-27.692 -12.245 -2.954 -0 -1.2 0
-27.495 -12.73 -2.926 -0 -1.2 0
-27.29 -13.211 -2.897 -0 -1.2 0
-27.077 -13.687 -2.865 -0 -1.2 0
-26.856 -14.161 -2.834 -0 -1.2 0
-26.625 -14.63 -2.801 -0 -1.2 0
-26.388 -15.096 -2.767 -0 -1.2 0
-26.142 -15.556 -2.734 -0 -1.2 0
-25.888 -16.014 -2.698 -0 -1.2 0
-25.627 -16.466 -2.661 -0 -1.2 0
-25.357 -16.913 -2.623 -0 -1.2 0
-25.08 -17.356 -2.585 -0 -1.2 0
-24.795 -17.793 -2.545 -0 -1.2 0
-24.503 -18.226 -2.505 -0 -1.2 0
-24.203 -18.652 -2.464 -0 -1.2 0
-23.896 -19.075 -2.422 -0 -1.2 0
-23.582 -19.491 -2.379 -0 -1.2 0
-23.26 -19.902 -2.335 -0 -1.2 0
-22.931 -20.307 -2.29 -0 -1.2 0
-22.596 -20.707 -2.244 -0 -1.2 0
-22.254 -21.1 -2.197 -0 -1.2 0
-21.904 -21.487 -2.15 -0 -1.2 0
-21.549 -21.868 -2.102 -0 -1.2 0
-21.186 -22.243 -2.052 -0 -1.2 0
-20.817 -22.611 -2.003 -0 -1.2 0
-20.442 -22.973 -1.953 -0 -1.2 0
-29.911 -0.475 -2.321 -0 -1.2 0
-29.918 -1 -2.317 -0 -1.2 0
-29.916 -1.523 -2.313 -0 -1.2 0
-29.904 -2.046 -2.308 -0 -1.2 0
-29.885 -2.568 -2.301 -0 -1.2 0
-29.855 -3.091 -2.295 -0 -1.2 0
-29.816 -3.614 -2.287 -0 -1.2 0
-29.768 -4.134 -2.277 -0 -1.2 0
-29.712 -4.655 -2.268 -0 -1.2 0
-29.646 -5.174 -2.257 -0 -1.2 0
-29.571 -5.693 -2.247 -0 -1.2 0
-29.487 -6.21 -2.234 -0 -1.2 0
-29.395 -6.725 -2.221 -0 -1.2 0
-29.293 -7.238 -2.208 -0 -1.2 0
-29.182 -7.75 -2.193 -0 -1.2 0
-29.063 -8.259 -2.177 -0 -1.2 0
-28.934 -8.766 -2.161 -0 -1.2 0
-28.797 -9.271 -2.144 -0 -1.2 0
-28.651 -9.774 -2.126 -0 -1.2 0
-28.497 -10.274 -2.107 -0 -1.2 0
-28.333 -10.771 -2.088 -0 -1.2 0
-28.161 -11.265 -2.068 -0 -1.2 0
-27.981 -11.756 -2.046 -0 -1.2 0
-27.792 -12.244 -2.024 -0 -1.2 0
-27.594 -12.729 -2.002 -0 -1.2 0
-27.388 -13.209 -1.978 -0 -1.2 0
-27.175 -13.686 -1.954 -0 -1.2 0
-26.952 -14.16 -1.928 -0 -1.2 0
-26.722 -14.629 -1.903 -0 -1.2 0
-26.483 -15.095 -1.877 -0 -1.2 0
-26.236 -15.555 -1.849 -0 -1.2 0
