# .PCD v.7 - Point Cloud Data file format
FIELDS x y z vp_x vp_y vp_z
SIZE 4 4 4 4 4 4
TYPE F F F F F F
COUNT 1 1 1 1 1 1
WIDTH 1612
HEIGHT 1
VIEWPOINT 0 -1.20013 0 1 0 0 0
POINTS 1612
DATA ascii
5.04 0.086 -2.405 -0 -1.2 0
5.465 0.08 -2.608 -0 -1.2 0
6.051 0.088 -2.889 -0 -1.2 0
6.638 0.076 -3.17 -0 -1.2 0
7.433 0.074 -3.55 -0 -1.2 0
8.345 0.057 -3.987 -0 -1.2 0
9.545 0.041 -4.561 -0 -1.2 0
11.225 0.027 -5.364 -0 -1.2 0
12.951 -0.047 -6.189 -0 -1.2 0
18.529 0.052 -8.863 -0 -1.2 0
19.106 -0.279 -9.131 -0 -1.2 0
19.047 -0.649 -9.094 -0 -1.2 0
19.137 -1.015 -9.127 -0 -1.2 0
19.283 -1.385 -9.187 -0 -1.2 0
21.923 -6.567 -10.324 -0 -1.2 0
16.663 -5.927 -7.822 -0 -1.2 0
16.449 -6.202 -7.713 -0 -1.2 0
16.36 -6.514 -7.662 -0 -1.2 0
12.871 -5.622 -6.014 -0 -1.2 0
11.934 -5.544 -5.567 -0 -1.2 0
16.305 -7.532 -7.61 -0 -1.2 0
11.123 -5.717 -5.175 -0 -1.2 0
14.399 -7.404 -6.701 -0 -1.2 0
11.401 -6.336 -5.293 -0 -1.2 0
14.198 -7.951 -6.592 -0 -1.2 0
14.765 -8.565 -6.847 -0 -1.2 0
11.202 -7.012 -5.18 -0 -1.2 0
12.907 -8.225 -5.966 -0 -1.2 0
11.68 -7.822 -5.389 -0 -1.2 0
13.069 -8.949 -6.027 -0 -1.2 0
9.637 -7.356 -4.423 -0 -1.2 0
10.488 -8.186 -4.81 -0 -1.2 0
11.935 -9.488 -5.47 -0 -1.2 0
12.68 -10.359 -5.806 -0 -1.2 0
10.818 -9.288 -4.94 -0 -1.2 0
14.015 -12.128 -6.402 -0 -1.2 0
9.384 -8.732 -4.268 -0 -1.2 0
14.003 -12.943 -6.375 -0 -1.2 0
9.766 -9.634 -4.428 -0 -1.2 0
11.514 -11.539 -5.218 -0 -1.2 0
8.889 -9.425 -4.013 -0 -1.2 0
10.198 -11.004 -4.602 -0 -1.2 0
9.119 -10.26 -4.103 -0 -1.2 0
8.85 -10.299 -3.973 -0 -1.2 0
8.259 -9.98 -3.698 -0 -1.2 0
1.085 0.029 -0.554 -0 -1.2 0
1.115 0.023 -0.57 -0 -1.2 0
1.152 0.023 -0.589 -0 -1.2 0
1.189 0.023 -0.608 -0 -1.2 0
1.226 0.02 -0.628 -0 -1.2 0
1.264 0.017 -0.647 -0 -1.2 0
1.308 0.019 -0.67 -0 -1.2 0
1.354 0.019 -0.694 -0 -1.2 0
1.392 0.012 -0.714 -0 -1.2 0
1.445 0.016 -0.741 -0 -1.2 0
1.491 0.012 -0.765 -0 -1.2 0
1.552 0.018 -0.797 -0 -1.2 0
1.599 0.011 -0.822 -0 -1.2 0
1.661 0.013 -0.854 -0 -1.2 0
1.716 0.008 -0.882 -0 -1.2 0
1.771 0 -0.911 -0 -1.2 0
1.85 0.006 -0.952 -0 -1.2 0
1.914 0 -0.985 -0 -1.2 0
2.002 0.005 -1.031 -0 -1.2 0
2.091 0.006 -1.077 -0 -1.2 0
2.172 0.001 -1.119 -0 -1.2 0
2.261 -0.002 -1.166 -0 -1.2 0
2.36 -0.006 -1.217 -0 -1.2 0
2.483 -0.002 -1.281 -0 -1.2 0
2.599 -0.006 -1.341 -0 -1.2 0
2.741 -0.003 -1.415 -0 -1.2 0
2.883 -0.007 -1.489 -0 -1.2 0
3.043 -0.009 -1.572 -0 -1.2 0
3.22 -0.011 -1.664 -0 -1.2 0
3.493 0.01 -1.806 -0 -1.2 0
3.92 0.069 -2.029 -0 -1.2 0
4.281 0.091 -2.218 -0 -1.2 0
4.61 0.09 -2.389 -0 -1.2 0
4.949 0.08 -2.565 -0 -1.2 0
5.436 0.089 -2.819 -0 -1.2 0
5.934 0.081 -3.078 -0 -1.2 0
6.547 0.074 -3.397 -0 -1.2 0
7.302 0.067 -3.789 -0 -1.2 0
8.182 0.048 -4.245 -0 -1.2 0
9.373 0.031 -4.864 -0 -1.2 0
11.032 0.017 -5.727 -0 -1.2 0
12.438 -0.082 -6.455 -0 -1.2 0
17.412 -0.013 -9.043 -0 -1.2 0
18.967 -0.658 -9.836 -0 -1.2 0
19.011 -1.029 -9.849 -0 -1.2 0
19.208 -1.403 -9.942 -0 -1.2 0
21.49 -7.007 -10.989 -0 -1.2 0
15.963 -5.812 -8.144 -0 -1.2 0
13.154 -5.53 -6.691 -0 -1.2 0
13.104 -5.792 -6.658 -0 -1.2 0
11.933 -5.885 -6.047 -0 -1.2 0
13.65 -6.879 -6.915 -0 -1.2 0
22.64 -11.216 -11.481 -0 -1.2 0
11.225 -6.349 -5.667 -0 -1.2 0
11.47 -6.727 -5.785 -0 -1.2 0
17.897 -10.745 -9.026 -0 -1.2 0
12.882 -8.338 -6.479 -0 -1.2 0
13.11 -8.787 -6.586 -0 -1.2 0
8.629 -6.574 -4.311 -0 -1.2 0
8.952 -7.011 -4.468 -0 -1.2 0
8.405 -6.867 -4.188 -0 -1.2 0
8.437 -7.115 -4.197 -0 -1.2 0
8.603 -7.471 -4.276 -0 -1.2 0
10.371 -9.086 -5.154 -0 -1.2 0
13.934 -12.256 -6.928 -0 -1.2 0
12.006 -11.057 -5.955 -0 -1.2 0
11.803 -11.245 -5.845 -0 -1.2 0
10.126 -10.106 -5 -0 -1.2 0
11.404 -11.618 -5.628 -0 -1.2 0
9.111 -9.786 -4.482 -0 -1.2 0
9.145 -10.127 -4.491 -0 -1.2 0
11.591 -12.97 -5.692 -0 -1.2 0
8.494 -10.078 -4.154 -0 -1.2 0
9.388 -11.381 -4.585 -0 -1.2 0
1.06 0.021 -0.586 -0 -1.2 0
1.096 0.022 -0.606 -0 -1.2 0
1.125 0.016 -0.623 -0 -1.2 0
1.162 0.015 -0.643 -0 -1.2 0
1.205 0.019 -0.667 -0 -1.2 0
1.242 0.016 -0.688 -0 -1.2 0
1.286 0.018 -0.713 -0 -1.2 0
1.33 0.018 -0.738 -0 -1.2 0
1.368 0.011 -0.759 -0 -1.2 0
1.413 0.009 -0.784 -0 -1.2 0
1.465 0.011 -0.814 -0 -1.2 0
1.511 0.006 -0.839 -0 -1.2 0
1.564 0.004 -0.869 -0 -1.2 0
1.632 0.011 -0.907 -0 -1.2 0
1.679 0.001 -0.934 -0 -1.2 0
1.741 0 -0.968 -0 -1.2 0
1.803 -0.004 -1.003 -0 -1.2 0
1.873 -0.006 -1.043 -0 -1.2 0
1.952 -0.005 -1.087 -0 -1.2 0
2.046 0.001 -1.14 -0 -1.2 0
2.134 0 -1.189 -0 -1.2 0
2.222 -0.004 -1.239 -0 -1.2 0
2.311 -0.012 -1.289 -0 -1.2 0
2.424 -0.011 -1.352 -0 -1.2 0
2.554 -0.008 -1.425 -0 -1.2 0
2.685 -0.009 -1.499 -0 -1.2 0
2.824 -0.012 -1.577 -0 -1.2 0
2.982 -0.014 -1.666 -0 -1.2 0
3.173 -0.011 -1.773 -0 -1.2 0
3.381 -0.008 -1.89 -0 -1.2 0
3.868 0.07 -2.165 -0 -1.2 0
4.198 0.086 -2.352 -0 -1.2 0
4.513 0.083 -2.529 -0 -1.2 0
4.914 0.088 -2.754 -0 -1.2 0
5.316 0.078 -2.98 -0 -1.2 0
5.891 0.088 -3.303 -0 -1.2 0
6.433 0.069 -3.608 -0 -1.2 0
7.166 0.059 -4.019 -0 -1.2 0
8.022 0.038 -4.5 -0 -1.2 0
9.209 0.024 -5.166 -0 -1.2 0
10.84 0.008 -6.082 -0 -1.2 0
12.073 -0.105 -6.773 -0 -1.2 0
12.612 -0.311 -7.07 -0 -1.2 0
12.624 -0.562 -7.071 -0 -1.2 0
12.66 -0.813 -7.084 -0 -1.2 0
12.682 -1.064 -7.091 -0 -1.2 0
12.74 -3.613 -7.058 -0 -1.2 0
12.72 -3.869 -7.04 -0 -1.2 0
13.158 -4.235 -7.276 -0 -1.2 0
13.17 -4.511 -7.276 -0 -1.2 0
13.23 -4.803 -7.302 -0 -1.2 0
13.293 -5.101 -7.33 -0 -1.2 0
13.401 -5.417 -7.383 -0 -1.2 0
13.445 -5.72 -7.4 -0 -1.2 0
13.493 -6.028 -7.419 -0 -1.2 0
11.795 -5.662 -6.473 -0 -1.2 0
11.965 -6.261 -6.554 -0 -1.2 0
13.034 -7.02 -7.135 -0 -1.2 0
12.936 -7.273 -7.074 -0 -1.2 0
12.836 -7.525 -7.011 -0 -1.2 0
12.985 -7.907 -7.085 -0 -1.2 0
12.622 -8.018 -6.878 -0 -1.2 0
11.853 -7.883 -6.449 -0 -1.2 0
11.479 -7.953 -6.237 -0 -1.2 0
7.923 -6.013 -4.289 -0 -1.2 0
8.648 -6.691 -4.679 -0 -1.2 0
8.315 -6.69 -4.491 -0 -1.2 0
12.91 -10.159 -6.985 -0 -1.2 0
8.578 -7.333 -4.624 -0 -1.2 0
8.485 -7.501 -4.566 -0 -1.2 0
10.394 -9.253 -5.594 -0 -1.2 0
10.214 -9.41 -5.49 -0 -1.2 0
10.074 -9.597 -5.406 -0 -1.2 0
9.848 -9.708 -5.276 -0 -1.2 0
9.636 -9.825 -5.154 -0 -1.2 0
8.962 -9.5 -4.784 -0 -1.2 0
9.075 -9.91 -4.836 -0 -1.2 0
9.69 -10.846 -5.158 -0 -1.2 0
8.857 -10.315 -4.704 -0 -1.2 0
8.272 -10.002 -4.383 -0 -1.2 0
8.125 -10.148 -4.296 -0 -1.2 0
1.032 0.013 -0.619 -0 -1.2 0
1.061 0.008 -0.636 -0 -1.2 0
1.096 0.008 -0.658 -0 -1.2 0
1.138 0.014 -0.683 -0 -1.2 0
1.187 0.025 -0.713 -0 -1.2 0
1.216 0.015 -0.731 -0 -1.2 0
1.259 0.017 -0.757 -0 -1.2 0
1.303 0.017 -0.784 -0 -1.2 0
1.34 0.01 -0.806 -0 -1.2 0
1.391 0.013 -0.837 -0 -1.2 0
1.435 0.009 -0.864 -0 -1.2 0
1.487 0.01 -0.896 -0 -1.2 0
1.532 0.003 -0.923 -0 -1.2 0
1.585 0 -0.955 -0 -1.2 0
1.645 0 -0.992 -0 -1.2 0
1.705 -0.002 -1.029 -0 -1.2 0
1.766 -0.006 -1.066 -0 -1.2 0
1.835 -0.008 -1.108 -0 -1.2 0
1.912 -0.006 -1.155 -0 -1.2 0
1.982 -0.013 -1.197 -0 -1.2 0
2.075 -0.01 -1.254 -0 -1.2 0
2.169 -0.01 -1.311 -0 -1.2 0
2.264 -0.014 -1.369 -0 -1.2 0
2.374 -0.013 -1.436 -0 -1.2 0
2.494 -0.014 -1.509 -0 -1.2 0
2.63 -0.012 -1.592 -0 -1.2 0
2.767 -0.014 -1.675 -0 -1.2 0
2.921 -0.017 -1.769 -0 -1.2 0
3.108 -0.014 -1.883 -0 -1.2 0
3.305 -0.014 -2.003 -0 -1.2 0
3.798 0.07 -2.305 -0 -1.2 0
4.113 0.082 -2.498 -0 -1.2 0
4.454 0.088 -2.706 -0 -1.2 0
4.814 0.084 -2.924 -0 -1.2 0
5.233 0.08 -3.18 -0 -1.2 0
5.755 0.08 -3.497 -0 -1.2 0
6.311 0.065 -3.835 -0 -1.2 0
7.012 0.052 -4.262 -0 -1.2 0
7.902 0.037 -4.804 -0 -1.2 0
9.081 0.024 -5.522 -0 -1.2 0
10.671 0.005 -6.49 -0 -1.2 0
11.854 -0.112 -7.207 -0 -1.2 0
12.347 -0.323 -7.502 -0 -1.2 0
12.359 -0.574 -7.503 -0 -1.2 0
12.343 -0.825 -7.486 -0 -1.2 0
12.289 -1.075 -7.447 -0 -1.2 0
12.315 -1.324 -7.456 -0 -1.2 0
12.322 -1.574 -7.454 -0 -1.2 0
12.307 -1.823 -7.438 -0 -1.2 0
12.272 -2.071 -7.411 -0 -1.2 0
12.353 -2.329 -7.453 -0 -1.2 0
12.378 -2.583 -7.461 -0 -1.2 0
12.408 -2.841 -7.473 -0 -1.2 0
12.434 -3.1 -7.482 -0 -1.2 0
12.439 -3.357 -7.478 -0 -1.2 0
12.482 -3.624 -7.498 -0 -1.2 0
12.555 -3.901 -7.535 -0 -1.2 0
12.364 -4.117 -7.413 -0 -1.2 0
12.261 -4.351 -7.344 -0 -1.2 0
12.18 -4.589 -7.289 -0 -1.2 0
12.121 -4.833 -7.246 -0 -1.2 0
11.135 -4.767 -6.647 -0 -1.2 0
11.237 -5.047 -6.702 -0 -1.2 0
11.253 -5.301 -6.705 -0 -1.2 0
11.922 -5.818 -7.099 -0 -1.2 0
11.893 -6.075 -7.074 -0 -1.2 0
11.667 -6.246 -6.933 -0 -1.2 0
11.752 -6.555 -6.976 -0 -1.2 0
11.671 -6.791 -6.92 -0 -1.2 0
11.657 -7.062 -6.906 -0 -1.2 0
14.239 -9.085 -8.425 -0 -1.2 0
8.577 -6.104 -5.053 -0 -1.2 0
15.065 -10.309 -8.895 -0 -1.2 0
7.816 -6.054 -4.592 -0 -1.2 0
9.847 -7.614 -5.788 -0 -1.2 0
8.377 -6.856 -4.912 -0 -1.2 0
8.525 -7.192 -4.994 -0 -1.2 0
8.508 -7.417 -4.978 -0 -1.2 0
9.144 -8.154 -5.346 -0 -1.2 0
8.962 -8.273 -5.231 -0 -1.2 0
8.109 -7.825 -4.723 -0 -1.2 0
7.94 -7.926 -4.618 -0 -1.2 0
10.966 -10.901 -6.383 -0 -1.2 0
8.388 -8.848 -4.867 -0 -1.2 0
9.134 -9.848 -5.295 -0 -1.2 0
8.574 -9.597 -4.96 -0 -1.2 0
8.364 -9.681 -4.831 -0 -1.2 0
8.224 -9.833 -4.741 -0 -1.2 0
8.744 -10.715 -5.034 -0 -1.2 0
8.036 -10.24 -4.617 -0 -1.2 0
1.017 0.02 -0.656 -0 -1.2 0
1.045 0.014 -0.675 -0 -1.2 0
1.086 0.021 -0.701 -0 -1.2 0
1.115 0.013 -0.72 -0 -1.2 0
1.156 0.017 -0.747 -0 -1.2 0
1.185 0.008 -0.766 -0 -1.2 0
1.227 0.009 -0.794 -0 -1.2 0
1.27 0.01 -0.821 -0 -1.2 0
1.313 0.009 -0.85 -0 -1.2 0
1.356 0.006 -0.878 -0 -1.2 0
1.406 0.008 -0.911 -0 -1.2 0
1.443 -0.002 -0.935 -0 -1.2 0
1.494 -0.003 -0.968 -0 -1.2 0
1.552 -0.001 -1.006 -0 -1.2 0
1.611 0 -1.045 -0 -1.2 0
1.671 -0.003 -1.084 -0 -1.2 0
1.73 -0.007 -1.123 -0 -1.2 0
1.798 -0.009 -1.167 -0 -1.2 0
1.866 -0.013 -1.211 -0 -1.2 0
1.941 -0.015 -1.261 -0 -1.2 0
2.033 -0.012 -1.321 -0 -1.2 0
2.125 -0.012 -1.381 -0 -1.2 0
2.218 -0.015 -1.442 -0 -1.2 0
2.326 -0.015 -1.513 -0 -1.2 0
2.435 -0.019 -1.583 -0 -1.2 0
2.577 -0.014 -1.677 -0 -1.2 0
2.719 -0.014 -1.77 -0 -1.2 0
2.862 -0.019 -1.863 -0 -1.2 0
3.045 -0.016 -1.983 -0 -1.2 0
3.237 -0.017 -2.109 -0 -1.2 0
3.649 0.043 -2.379 -0 -1.2 0
4.054 0.086 -2.646 -0 -1.2 0
4.388 0.09 -2.865 -0 -1.2 0
4.765 0.093 -3.112 -0 -1.2 0
5.143 0.079 -3.359 -0 -1.2 0
5.621 0.071 -3.672 -0 -1.2 0
6.183 0.06 -4.038 -0 -1.2 0
6.861 0.044 -4.483 -0 -1.2 0
7.799 0.04 -5.096 -0 -1.2 0
8.855 0.011 -5.787 -0 -1.2 0
10.446 -0.004 -6.828 -0 -1.2 0
11.721 -0.113 -7.66 -0 -1.2 0
14.175 -0.2 -9.264 -0 -1.2 0
13.939 -0.504 -9.101 -0 -1.2 0
14.158 -0.789 -9.237 -0 -1.2 0
18.799 -4.208 -12.184 -0 -1.2 0
18.491 -4.548 -11.973 -0 -1.2 0
18.443 -4.93 -11.931 -0 -1.2 0
12.611 -4.798 -8.117 -0 -1.2 0
12.607 -5.073 -8.107 -0 -1.2 0
20.823 -8.141 -13.404 -0 -1.2 0
14.797 -6.426 -9.505 -0 -1.2 0
11.754 -5.589 -7.534 -0 -1.2 0
10.822 -5.477 -6.927 -0 -1.2 0
13.732 -6.98 -8.793 -0 -1.2 0
13.625 -7.252 -8.715 -0 -1.2 0
17.291 -9.326 -11.06 -0 -1.2 0
17.654 -9.924 -11.281 -0 -1.2 0
11.238 -6.974 -7.159 -0 -1.2 0
11.046 -7.145 -7.029 -0 -1.2 0
10.663 -7.201 -6.777 -0 -1.2 0
10.342 -7.278 -6.566 -0 -1.2 0
9.918 -7.279 -6.288 -0 -1.2 0
9.542 -7.293 -6.04 -0 -1.2 0
13.759 -10.425 -8.718 -0 -1.2 0
8.049 -6.75 -5.078 -0 -1.2 0
8.262 -7.131 -5.207 -0 -1.2 0
8.366 -7.445 -5.267 -0 -1.2 0
8.182 -7.543 -5.144 -0 -1.2 0
7.881 -7.536 -4.947 -0 -1.2 0
7.576 -7.515 -4.748 -0 -1.2 0
8.221 -8.323 -5.148 -0 -1.2 0
10.358 -10.554 -6.488 -0 -1.2 0
10.313 -10.853 -6.451 -0 -1.2 0
8.873 -9.778 -5.537 -0 -1.2 0
9.375 -10.599 -5.843 -0 -1.2 0
8.033 -9.514 -4.993 -0 -1.2 0
8.823 -10.676 -5.48 -0 -1.2 0
8.569 -10.722 -5.312 -0 -1.2 0
8.747 -11.27 -5.414 -0 -1.2 0
0.995 0.019 -0.689 -0 -1.2 0
1.028 0.02 -0.713 -0 -1.2 0
1.062 0.02 -0.737 -0 -1.2 0
1.09 0.012 -0.756 -0 -1.2 0
1.124 0.01 -0.78 -0 -1.2 0
1.159 0.007 -0.805 -0 -1.2 0
1.194 0.002 -0.829 -0 -1.2 0
1.242 0.009 -0.863 -0 -1.2 0
1.277 0.002 -0.888 -0 -1.2 0
1.326 0.005 -0.922 -0 -1.2 0
1.368 0.002 -0.952 -0 -1.2 0
1.425 0.007 -0.991 -0 -1.2 0
1.475 0.006 -1.026 -0 -1.2 0
1.518 -0.002 -1.057 -0 -1.2 0
1.569 -0.007 -1.092 -0 -1.2 0
1.627 -0.01 -1.133 -0 -1.2 0
1.685 -0.014 -1.174 -0 -1.2 0
1.758 -0.011 -1.225 -0 -1.2 0
1.824 -0.015 -1.272 -0 -1.2 0
1.892 -0.022 -1.318 -0 -1.2 0
1.988 -0.013 -1.387 -0 -1.2 0
2.071 -0.018 -1.444 -0 -1.2 0
2.169 -0.017 -1.513 -0 -1.2 0
2.282 -0.013 -1.594 -0 -1.2 0
2.397 -0.014 -1.674 -0 -1.2 0
2.52 -0.016 -1.761 -0 -1.2 0
2.651 -0.019 -1.853 -0 -1.2 0
2.806 -0.019 -1.962 -0 -1.2 0
2.955 -0.028 -2.065 -0 -1.2 0
3.174 -0.016 -2.22 -0 -1.2 0
3.402 -0.013 -2.38 -0 -1.2 0
3.964 0.082 -2.778 -0 -1.2 0
4.315 0.093 -3.024 -0 -1.2 0
4.652 0.087 -3.261 -0 -1.2 0
5.022 0.073 -3.52 -0 -1.2 0
5.489 0.064 -3.848 -0 -1.2 0
6.038 0.053 -4.234 -0 -1.2 0
6.678 0.033 -4.683 -0 -1.2 0
7.7 0.044 -5.401 -0 -1.2 0
8.701 0.009 -6.103 -0 -1.2 0
10.167 -0.019 -7.132 -0 -1.2 0
11.7 -0.102 -8.207 -0 -1.2 0
13.234 -0.252 -9.281 -0 -1.2 0
13.182 -0.535 -9.237 -0 -1.2 0
13.355 -0.811 -9.352 -0 -1.2 0
17.631 -5.242 -12.234 -0 -1.2 0
17.414 -5.573 -12.072 -0 -1.2 0
18.208 -6.181 -12.614 -0 -1.2 0
14.431 -5.444 -9.98 -0 -1.2 0
12.569 -5.161 -8.679 -0 -1.2 0
12.481 -5.414 -8.61 -0 -1.2 0
14.803 -6.561 -10.211 -0 -1.2 0
15.938 -7.721 -10.976 -0 -1.2 0
11.491 -6.135 -7.895 -0 -1.2 0
11.244 -6.293 -7.717 -0 -1.2 0
15.225 -8.515 -10.455 -0 -1.2 0
15.304 -8.928 -10.498 -0 -1.2 0
17.852 -10.682 -12.24 -0 -1.2 0
13.026 -8.741 -8.902 -0 -1.2 0
13.874 -9.603 -9.475 -0 -1.2 0
13.689 -9.851 -9.338 -0 -1.2 0
9.066 -7.122 -6.165 -0 -1.2 0
9.997 -8.02 -6.794 -0 -1.2 0
8.78 -7.415 -5.956 -0 -1.2 0
8.004 -7.079 -5.42 -0 -1.2 0
7.15 -6.642 -4.831 -0 -1.2 0
7.264 -6.946 -4.903 -0 -1.2 0
7.12 -7.045 -4.8 -0 -1.2 0
7.451 -7.556 -5.018 -0 -1.2 0
9.424 -9.586 -6.349 -0 -1.2 0
8.482 -9.007 -5.702 -0 -1.2 0
8.582 -9.39 -5.762 -0 -1.2 0
8.636 -9.741 -5.791 -0 -1.2 0
8.577 -9.985 -5.742 -0 -1.2 0
9.062 -10.824 -6.06 -0 -1.2 0
8.377 -10.398 -5.591 -0 -1.2 0
7.875 -10.14 -5.245 -0 -1.2 0
7.723 -10.274 -5.134 -0 -1.2 0
0.958 0.004 -0.716 -0 -1.2 0
0.996 0.012 -0.745 -0 -1.2 0
1.029 0.012 -0.77 -0 -1.2 0
1.062 0.011 -0.795 -0 -1.2 0
1.096 0.009 -0.82 -0 -1.2 0
1.135 0.012 -0.85 -0 -1.2 0
1.169 0.007 -0.876 -0 -1.2 0
1.21 0.008 -0.907 -0 -1.2 0
1.244 0.001 -0.933 -0 -1.2 0
1.292 0.004 -0.969 -0 -1.2 0
1.34 0.006 -1.005 -0 -1.2 0
1.381 0.001 -1.037 -0 -1.2 0
1.423 -0.005 -1.068 -0 -1.2 0
1.472 -0.009 -1.105 -0 -1.2 0
1.528 -0.008 -1.148 -0 -1.2 0
1.578 -0.016 -1.184 -0 -1.2 0
1.642 -0.015 -1.233 -0 -1.2 0
1.713 -0.012 -1.288 -0 -1.2 0
1.777 -0.016 -1.336 -0 -1.2 0
1.85 -0.018 -1.39 -0 -1.2 0
1.931 -0.019 -1.451 -0 -1.2 0
2.018 -0.02 -1.517 -0 -1.2 0
2.113 -0.019 -1.589 -0 -1.2 0
2.216 -0.019 -1.668 -0 -1.2 0
2.335 -0.016 -1.759 -0 -1.2 0
2.455 -0.018 -1.849 -0 -1.2 0
2.583 -0.021 -1.945 -0 -1.2 0
2.726 -0.024 -2.054 -0 -1.2 0
2.894 -0.024 -2.181 -0 -1.2 0
3.092 -0.019 -2.332 -0 -1.2 0
3.284 -0.026 -2.476 -0 -1.2 0
3.854 0.075 -2.911 -0 -1.2 0
4.22 0.094 -3.189 -0 -1.2 0
4.532 0.082 -3.425 -0 -1.2 0
4.885 0.066 -3.691 -0 -1.2 0
5.308 0.051 -4.012 -0 -1.2 0
5.867 0.044 -4.435 -0 -1.2 0
6.514 0.028 -4.925 -0 -1.2 0
7.565 0.047 -5.721 -0 -1.2 0
8.461 -0.001 -6.398 -0 -1.2 0
9.905 -0.028 -7.49 -0 -1.2 0
11.494 -0.105 -8.692 -0 -1.2 0
13.085 -0.252 -9.893 -0 -1.2 0
13.169 -0.534 -9.95 -0 -1.2 0
13.092 -0.822 -9.882 -0 -1.2 0
16.648 -6.262 -12.423 -0 -1.2 0
16.525 -6.604 -12.319 -0 -1.2 0
17.512 -7.342 -13.047 -0 -1.2 0
16.249 -7.271 -12.092 -0 -1.2 0
12.399 -6.095 -9.209 -0 -1.2 0
12.285 -6.343 -9.117 -0 -1.2 0
12.215 -6.608 -9.056 -0 -1.2 0
12.117 -6.86 -8.974 -0 -1.2 0
12.032 -7.117 -8.903 -0 -1.2 0
10.612 -6.669 -7.84 -0 -1.2 0
7.946 -5.461 -5.855 -0 -1.2 0
8.069 -5.736 -5.94 -0 -1.2 0
8.135 -5.988 -5.983 -0 -1.2 0
15.999 -11.187 -11.792 -0 -1.2 0
8.375 -6.582 -6.149 -0 -1.2 0
8.476 -6.882 -6.217 -0 -1.2 0
7.261 -6.249 -5.314 -0 -1.2 0
7.535 -6.661 -5.51 -0 -1.2 0
7.781 -7.07 -5.684 -0 -1.2 0
7.861 -7.367 -5.737 -0 -1.2 0
6.879 -6.785 -5.009 -0 -1.2 0
9.239 -9.048 -6.733 -0 -1.2 0
7.374 -7.663 -5.359 -0 -1.2 0
7.929 -8.688 -5.751 -0 -1.2 0
7.096 -8.127 -5.136 -0 -1.2 0
8.306 -9.633 -6.01 -0 -1.2 0
8.866 -10.537 -6.409 -0 -1.2 0
8.387 -10.337 -6.052 -0 -1.2 0
8.692 -11.012 -6.264 -0 -1.2 0
10.071 -13.002 -7.252 -0 -1.2 0
10.308 -13.71 -7.412 -0 -1.2 0
0.944 0.017 -0.756 -0 -1.2 0
0.97 0.011 -0.777 -0 -1.2 0
1.008 0.018 -0.808 -0 -1.2 0
1.035 0.01 -0.83 -0 -1.2 0
1.073 0.014 -0.861 -0 -1.2 0
1.112 0.017 -0.892 -0 -1.2 0
1.139 0.006 -0.914 -0 -1.2 0
1.173 0.001 -0.941 -0 -1.2 0
1.212 0 -0.974 -0 -1.2 0
1.258 0.003 -1.011 -0 -1.2 0
1.305 0.005 -1.049 -0 -1.2 0
1.346 0 -1.082 -0 -1.2 0
1.393 -0.001 -1.12 -0 -1.2 0
1.434 -0.011 -1.154 -0 -1.2 0
1.496 -0.005 -1.203 -0 -1.2 0
1.544 -0.013 -1.242 -0 -1.2 0
1.599 -0.017 -1.286 -0 -1.2 0
1.662 -0.018 -1.337 -0 -1.2 0
1.726 -0.022 -1.388 -0 -1.2 0
1.803 -0.02 -1.451 -0 -1.2 0
1.881 -0.021 -1.514 -0 -1.2 0
1.973 -0.017 -1.589 -0 -1.2 0
2.06 -0.021 -1.659 -0 -1.2 0
2.159 -0.021 -1.74 -0 -1.2 0
2.275 -0.018 -1.835 -0 -1.2 0
2.399 -0.017 -1.936 -0 -1.2 0
2.524 -0.021 -2.036 -0 -1.2 0
2.657 -0.027 -2.143 -0 -1.2 0
2.813 -0.03 -2.269 -0 -1.2 0
3.005 -0.025 -2.426 -0 -1.2 0
3.207 -0.027 -2.59 -0 -1.2 0
3.786 0.082 -3.063 -0 -1.2 0
4.104 0.088 -3.321 -0 -1.2 0
4.431 0.082 -3.586 -0 -1.2 0
4.759 0.062 -3.851 -0 -1.2 0
5.172 0.047 -4.186 -0 -1.2 0
5.709 0.037 -4.621 -0 -1.2 0
6.408 0.033 -5.188 -0 -1.2 0
7.278 0.025 -5.894 -0 -1.2 0
8.29 -0.002 -6.713 -0 -1.2 0
9.658 -0.036 -7.821 -0 -1.2 0
11.253 -0.111 -9.113 -0 -1.2 0
13.337 -0.225 -10.799 -0 -1.2 0
13.049 -0.535 -10.557 -0 -1.2 0
13.067 -0.827 -10.562 -0 -1.2 0
14.191 -1.119 -11.466 -0 -1.2 0
13.276 -1.414 -10.716 -0 -1.2 0
19.198 -7.231 -15.35 -0 -1.2 0
17.306 -7.446 -13.81 -0 -1.2 0
15.923 -7.321 -12.693 -0 -1.2 0
17.743 -8.466 -14.136 -0 -1.2 0
18.198 -9.555 -14.473 -0 -1.2 0
7.824 -4.91 -6.193 -0 -1.2 0
11.573 -7.347 -9.164 -0 -1.2 0
8.008 -5.618 -6.323 -0 -1.2 0
7.955 -5.798 -6.275 -0 -1.2 0
8.154 -6.135 -6.426 -0 -1.2 0
8.471 -6.564 -6.671 -0 -1.2 0
9.844 -7.732 -7.751 -0 -1.2 0
11.629 -9.274 -9.154 -0 -1.2 0
7.729 -6.736 -6.064 -0 -1.2 0
7.479 -6.771 -5.861 -0 -1.2 0
7.477 -6.993 -5.852 -0 -1.2 0
7.701 -7.407 -6.022 -0 -1.2 0
12.053 -11.386 -9.437 -0 -1.2 0
7.942 -8.108 -6.198 -0 -1.2 0
7.76 -8.199 -6.047 -0 -1.2 0
10.172 -10.772 -7.93 -0 -1.2 0
7.214 -8.183 -5.605 -0 -1.2 0
7.137 -8.359 -5.537 -0 -1.2 0
9.949 -11.615 -7.725 -0 -1.2 0
9.517 -11.51 -7.377 -0 -1.2 0
10.831 -13.378 -8.389 -0 -1.2 0
8.421 -10.959 -6.504 -0 -1.2 0
0.918 0.016 -0.787 -0 -1.2 0
0.949 0.017 -0.814 -0 -1.2 0
0.98 0.017 -0.841 -0 -1.2 0
1.006 0.009 -0.864 -0 -1.2 0
1.038 0.007 -0.891 -0 -1.2 0
1.076 0.01 -0.924 -0 -1.2 0
1.102 0 -0.947 -0 -1.2 0
1.146 0.006 -0.985 -0 -1.2 0
1.191 0.011 -1.024 -0 -1.2 0
1.23 0.008 -1.058 -0 -1.2 0
1.269 0.003 -1.092 -0 -1.2 0
1.309 -0.001 -1.126 -0 -1.2 0
1.349 -0.008 -1.16 -0 -1.2 0
1.401 -0.006 -1.206 -0 -1.2 0
1.455 -0.006 -1.252 -0 -1.2 0
1.508 -0.009 -1.299 -0 -1.2 0
1.569 -0.008 -1.351 -0 -1.2 0
1.623 -0.015 -1.397 -0 -1.2 0
1.685 -0.019 -1.451 -0 -1.2 0
1.754 -0.022 -1.51 -0 -1.2 0
1.835 -0.019 -1.581 -0 -1.2 0
1.918 -0.019 -1.654 -0 -1.2 0
2.003 -0.023 -1.726 -0 -1.2 0
2.107 -0.019 -1.817 -0 -1.2 0
2.213 -0.02 -1.909 -0 -1.2 0
2.34 -0.016 -2.021 -0 -1.2 0
2.462 -0.02 -2.126 -0 -1.2 0
2.584 -0.029 -2.23 -0 -1.2 0
2.721 -0.037 -2.349 -0 -1.2 0
2.909 -0.034 -2.512 -0 -1.2 0
3.113 -0.032 -2.689 -0 -1.2 0
3.353 -0.029 -2.898 -0 -1.2 0
3.991 0.084 -3.455 -0 -1.2 0
4.309 0.078 -3.731 -0 -1.2 0
4.651 0.064 -4.026 -0 -1.2 0
5.045 0.045 -4.368 -0 -1.2 0
5.537 0.029 -4.795 -0 -1.2 0
6.225 0.027 -5.391 -0 -1.2 0
7.056 0.015 -6.112 -0 -1.2 0
8.055 -0.01 -6.977 -0 -1.2 0
9.581 -0.023 -8.301 -0 -1.2 0
11.501 -0.07 -9.966 -0 -1.2 0
13.439 -0.205 -11.643 -0 -1.2 0
13.046 -0.532 -11.292 -0 -1.2 0
13.048 -0.832 -11.284 -0 -1.2 0
13.16 -1.131 -11.373 -0 -1.2 0
13.245 -1.435 -11.438 -0 -1.2 0
17.44 -7.692 -14.892 -0 -1.2 0
15.367 -7.669 -13.095 -0 -1.2 0
12.247 -7.265 -10.4 -0 -1.2 0
12.224 -7.573 -10.371 -0 -1.2 0
8.176 -5.632 -6.916 -0 -1.2 0
8.465 -6.021 -7.157 -0 -1.2 0
8.346 -6.178 -7.049 -0 -1.2 0
10.543 -8.115 -8.898 -0 -1.2 0
7.624 -6.377 -6.417 -0 -1.2 0
10.419 -8.632 -8.774 -0 -1.2 0
7.942 -7.064 -6.672 -0 -1.2 0
8.153 -7.469 -6.843 -0 -1.2 0
7.623 -7.286 -6.389 -0 -1.2 0
7.498 -7.419 -6.277 -0 -1.2 0
8.545 -8.585 -7.15 -0 -1.2 0
7.327 -7.994 -6.11 -0 -1.2 0
7.151 -8.073 -5.956 -0 -1.2 0
6.415 -7.574 -5.332 -0 -1.2 0
10.207 -11.82 -8.498 -0 -1.2 0
6.937 -8.618 -5.755 -0 -1.2 0
6.973 -8.923 -5.777 -0 -1.2 0
7.031 -9.267 -5.817 -0 -1.2 0
0.889 0.015 -0.819 -0 -1.2 0
0.914 0.009 -0.842 -0 -1.2 0
0.944 0.009 -0.871 -0 -1.2 0
0.974 0.008 -0.899 -0 -1.2 0
1.005 0.006 -0.928 -0 -1.2 0
1.042 0.009 -0.962 -0 -1.2 0
1.073 0.004 -0.991 -0 -1.2 0
1.104 0 -1.02 -0 -1.2 0
1.147 0.003 -1.06 -0 -1.2 0
1.185 0 -1.095 -0 -1.2 0
1.229 0.002 -1.136 -0 -1.2 0
1.267 -0.002 -1.172 -0 -1.2 0
1.312 -0.004 -1.214 -0 -1.2 0
1.357 -0.007 -1.256 -0 -1.2 0
1.408 -0.007 -1.303 -0 -1.2 0
1.454 -0.016 -1.345 -0 -1.2 0
1.507 -0.02 -1.394 -0 -1.2 0
1.572 -0.017 -1.454 -0 -1.2 0
1.632 -0.021 -1.51 -0 -1.2 0
1.717 -0.01 -1.591 -0 -1.2 0
1.784 -0.017 -1.652 -0 -1.2 0
1.864 -0.017 -1.727 -0 -1.2 0
1.94 -0.025 -1.797 -0 -1.2 0
2.047 -0.018 -1.898 -0 -1.2 0
2.15 -0.019 -1.994 -0 -1.2 0
2.259 -0.021 -2.096 -0 -1.2 0
2.377 -0.025 -2.205 -0 -1.2 0
2.503 -0.032 -2.321 -0 -1.2 0
2.635 -0.04 -2.445 -0 -1.2 0
2.81 -0.04 -2.608 -0 -1.2 0
3.007 -0.038 -2.791 -0 -1.2 0
3.219 -0.041 -2.989 -0 -1.2 0
3.843 0.074 -3.575 -0 -1.2 0
4.173 0.074 -3.882 -0 -1.2 0
4.504 0.059 -4.19 -0 -1.2 0
4.921 0.049 -4.579 -0 -1.2 0
5.369 0.025 -4.996 -0 -1.2 0
6.035 0.021 -5.617 -0 -1.2 0
6.805 0.003 -6.334 -0 -1.2 0
7.808 -0.017 -7.267 -0 -1.2 0
9.388 -0.02 -8.74 -0 -1.2 0
11.064 -0.088 -10.301 -0 -1.2 0
9.876 -0.433 -9.183 -0 -1.2 0
12.999 -0.528 -12.091 -0 -1.2 0
12.979 -0.838 -12.063 -0 -1.2 0
13.117 -1.145 -12.183 -0 -1.2 0
19.379 -7.227 -17.836 -0 -1.2 0
19.384 -7.711 -17.825 -0 -1.2 0
17.443 -7.926 -16.01 -0 -1.2 0
19.271 -10.137 -17.647 -0 -1.2 0
14.71 -8.378 -13.449 -0 -1.2 0
10.783 -7.297 -9.822 -0 -1.2 0
9.296 -6.955 -8.444 -0 -1.2 0
11.584 -8.739 -10.524 -0 -1.2 0
7.424 -6.192 -6.723 -0 -1.2 0
7.516 -6.477 -6.801 -0 -1.2 0
7.256 -6.507 -6.557 -0 -1.2 0
6.881 -6.434 -6.209 -0 -1.2 0
6.764 -6.552 -6.096 -0 -1.2 0
8.502 -8.24 -7.667 -0 -1.2 0
7.544 -7.672 -6.791 -0 -1.2 0
9.426 -9.641 -8.485 -0 -1.2 0
7.499 -8.135 -6.733 -0 -1.2 0
6.894 -7.801 -6.181 -0 -1.2 0
6.78 -7.93 -6.071 -0 -1.2 0
8.578 -10.074 -7.681 -0 -1.2 0
7.091 -8.77 -6.335 -0 -1.2 0
8.167 -10.261 -7.293 -0 -1.2 0
6.683 -8.844 -5.953 -0 -1.2 0
8.293 -11.418 -7.375 -0 -1.2 0
0.866 0.021 -0.853 -0 -1.2 0
0.885 0.008 -0.872 -0 -1.2 0
0.919 0.015 -0.907 -0 -1.2 0
0.949 0.014 -0.936 -0 -1.2 0
0.979 0.011 -0.966 -0 -1.2 0
0.998 -0.004 -0.985 -0 -1.2 0
1.039 0.003 -1.026 -0 -1.2 0
1.075 0.004 -1.062 -0 -1.2 0
1.111 0.002 -1.098 -0 -1.2 0
1.154 0.005 -1.14 -0 -1.2 0
1.19 0.001 -1.177 -0 -1.2 0
1.233 0.001 -1.219 -0 -1.2 0
1.277 0 -1.262 -0 -1.2 0
1.32 -0.004 -1.306 -0 -1.2 0
1.364 -0.009 -1.35 -0 -1.2 0
1.408 -0.017 -1.392 -0 -1.2 0
1.465 -0.016 -1.449 -0 -1.2 0
1.522 -0.018 -1.506 -0 -1.2 0
1.581 -0.023 -1.563 -0 -1.2 0
1.656 -0.017 -1.64 -0 -1.2 0
1.74 -0.009 -1.724 -0 -1.2 0
1.806 -0.019 -1.788 -0 -1.2 0
1.891 -0.019 -1.873 -0 -1.2 0
1.989 -0.016 -1.972 -0 -1.2 0
2.076 -0.025 -2.057 -0 -1.2 0
2.188 -0.023 -2.169 -0 -1.2 0
2.303 -0.028 -2.283 -0 -1.2 0
2.424 -0.034 -2.403 -0 -1.2 0
2.559 -0.041 -2.538 -0 -1.2 0
2.722 -0.042 -2.7 -0 -1.2 0
2.913 -0.041 -2.89 -0 -1.2 0
3.132 -0.04 -3.108 -0 -1.2 0
3.585 0.026 -3.563 -0 -1.2 0
4.021 0.064 -3.997 -0 -1.2 0
4.334 0.047 -4.309 -0 -1.2 0
4.718 0.032 -4.691 -0 -1.2 0
5.2 0.02 -5.172 -0 -1.2 0
5.831 0.014 -5.8 -0 -1.2 0
6.591 -0.003 -6.555 -0 -1.2 0
7.59 -0.021 -7.55 -0 -1.2 0
9.064 -0.032 -9.018 -0 -1.2 0
9.241 -0.239 -9.189 -0 -1.2 0
9.106 -0.475 -9.046 -0 -1.2 0
9.243 -0.692 -9.177 -0 -1.2 0
9.639 -0.91 -9.565 -0 -1.2 0
10.557 -6.206 -10.315 -0 -1.2 0
10.497 -6.461 -10.247 -0 -1.2 0
9.74 -6.34 -9.497 -0 -1.2 0
10.525 -7.058 -10.256 -0 -1.2 0
10.559 -7.375 -10.28 -0 -1.2 0
9.087 -6.753 -8.832 -0 -1.2 0
9.861 -7.525 -9.58 -0 -1.2 0
7.123 -5.937 -6.902 -0 -1.2 0
7.262 -6.249 -7.031 -0 -1.2 0
7.504 -6.65 -7.259 -0 -1.2 0
7.137 -6.596 -6.895 -0 -1.2 0
6.636 -6.416 -6.402 -0 -1.2 0
6.805 -6.77 -6.559 -0 -1.2 0
8.08 -8.109 -7.788 -0 -1.2 0
7.352 -7.717 -7.074 -0 -1.2 0
7.379 -7.994 -7.092 -0 -1.2 0
7.178 -8.056 -6.89 -0 -1.2 0
6.582 -7.707 -6.307 -0 -1.2 0
7.885 -9.319 -7.556 -0 -1.2 0
8.623 -10.422 -8.258 -0 -1.2 0
8.924 -11.094 -8.536 -0 -1.2 0
6.767 -8.928 -6.455 -0 -1.2 0
8.27 -11.022 -7.887 -0 -1.2 0
7.989 -11.018 -7.607 -0 -1.2 0
7.705 -10.995 -7.324 -0 -1.2 0
7.905 -11.61 -7.505 -0 -1.2 0
0.832 0.014 -0.877 -0 -1.2 0
0.86 0.014 -0.907 -0 -1.2 0
0.888 0.014 -0.937 -0 -1.2 0
0.912 0.006 -0.962 -0 -1.2 0
0.946 0.01 -0.998 -0 -1.2 0
0.98 0.013 -1.034 -0 -1.2 0
1.004 0.002 -1.06 -0 -1.2 0
1.039 0.002 -1.097 -0 -1.2 0
1.068 -0.004 -1.128 -0 -1.2 0
1.109 -0.001 -1.172 -0 -1.2 0
1.156 0.006 -1.221 -0 -1.2 0
1.192 0 -1.26 -0 -1.2 0
1.228 -0.007 -1.298 -0 -1.2 0
1.27 -0.01 -1.343 -0 -1.2 0
1.324 -0.005 -1.4 -0 -1.2 0
1.367 -0.013 -1.446 -0 -1.2 0
1.428 -0.008 -1.511 -0 -1.2 0
1.471 -0.02 -1.556 -0 -1.2 0
1.539 -0.015 -1.628 -0 -1.2 0
1.607 -0.014 -1.701 -0 -1.2 0
1.682 -0.011 -1.781 -0 -1.2 0
1.751 -0.016 -1.855 -0 -1.2 0
1.827 -0.021 -1.935 -0 -1.2 0
1.929 -0.014 -2.044 -0 -1.2 0
2.012 -0.023 -2.131 -0 -1.2 0
2.115 -0.025 -2.241 -0 -1.2 0
2.219 -0.033 -2.351 -0 -1.2 0
2.336 -0.039 -2.475 -0 -1.2 0
2.473 -0.043 -2.621 -0 -1.2 0
2.63 -0.045 -2.788 -0 -1.2 0
2.815 -0.044 -2.985 -0 -1.2 0
3.013 -0.047 -3.196 -0 -1.2 0
3.259 -0.045 -3.458 -0 -1.2 0
3.866 0.053 -4.107 -0 -1.2 0
4.188 0.043 -4.451 -0 -1.2 0
4.566 0.029 -4.853 -0 -1.2 0
5.026 0.015 -5.342 -0 -1.2 0
5.629 0.006 -5.982 -0 -1.2 0
6.342 -0.013 -6.741 -0 -1.2 0
7.281 -0.036 -7.74 -0 -1.2 0
8.746 -0.043 -9.299 -0 -1.2 0
8.679 -0.272 -9.221 -0 -1.2 0
8.629 -0.496 -9.161 -0 -1.2 0
8.728 -0.71 -9.259 -0 -1.2 0
9.105 -0.923 -9.653 -0 -1.2 0
8.042 -5.124 -8.388 -0 -1.2 0
8.152 -5.408 -8.495 -0 -1.2 0
10.125 -6.747 -10.553 -0 -1.2 0
13.706 -9.154 -14.29 -0 -1.2 0
8.256 -6.175 -8.583 -0 -1.2 0
10.848 -8.102 -11.28 -0 -1.2 0
14.286 -10.767 -14.856 -0 -1.2 0
8.465 -7.066 -8.776 -0 -1.2 0
7.249 -6.653 -7.495 -0 -1.2 0
6.736 -6.471 -6.955 -0 -1.2 0
7.298 -7.162 -7.53 -0 -1.2 0
7.631 -7.694 -7.868 -0 -1.2 0
7.16 -7.526 -7.373 -0 -1.2 0
7.131 -7.747 -7.335 -0 -1.2 0
9.418 -10.233 -9.69 -0 -1.2 0
8.554 -9.7 -8.788 -0 -1.2 0
6.718 -8.085 -6.884 -0 -1.2 0
10.554 -12.519 -10.826 -0 -1.2 0
8.607 -10.732 -8.811 -0 -1.2 0
8.288 -10.705 -8.472 -0 -1.2 0
8.554 -11.367 -8.734 -0 -1.2 0
6.458 -9.101 -6.575 -0 -1.2 0
7.782 -11.099 -7.921 -0 -1.2 0
7.68 -11.31 -7.805 -0 -1.2 0
0.8 0.013 -0.906 -0 -1.2 0
0.822 0.007 -0.931 -0 -1.2 0
0.849 0.006 -0.962 -0 -1.2 0
0.877 0.005 -0.994 -0 -1.2 0
0.909 0.009 -1.031 -0 -1.2 0
0.937 0.006 -1.063 -0 -1.2 0
0.965 0.001 -1.095 -0 -1.2 0
0.999 0.001 -1.133 -0 -1.2 0
1.027 -0.005 -1.166 -0 -1.2 0
1.072 0.003 -1.217 -0 -1.2 0
1.106 0 -1.256 -0 -1.2 0
1.151 0.004 -1.308 -0 -1.2 0
1.186 -0.002 -1.347 -0 -1.2 0
1.226 -0.006 -1.394 -0 -1.2 0
1.273 -0.006 -1.447 -0 -1.2 0
1.32 -0.01 -1.5 -0 -1.2 0
1.367 -0.014 -1.554 -0 -1.2 0
1.426 -0.011 -1.621 -0 -1.2 0
1.479 -0.017 -1.682 -0 -1.2 0
1.545 -0.015 -1.758 -0 -1.2 0
1.617 -0.013 -1.84 -0 -1.2 0
1.689 -0.014 -1.923 -0 -1.2 0
1.762 -0.02 -2.006 -0 -1.2 0
1.854 -0.016 -2.112 -0 -1.2 0
1.934 -0.025 -2.202 -0 -1.2 0
2.015 -0.038 -2.294 -0 -1.2 0
2.121 -0.042 -2.414 -0 -1.2 0
2.246 -0.042 -2.557 -0 -1.2 0
2.377 -0.046 -2.708 -0 -1.2 0
2.529 -0.048 -2.881 -0 -1.2 0
2.706 -0.047 -3.083 -0 -1.2 0
2.897 -0.05 -3.302 -0 -1.2 0
3.12 -0.053 -3.557 -0 -1.2 0
3.697 0.043 -4.221 -0 -1.2 0
4.007 0.032 -4.576 -0 -1.2 0
4.389 0.024 -5.013 -0 -1.2 0
4.825 0.008 -5.509 -0 -1.2 0
5.392 -0.003 -6.157 -0 -1.2 0
6.097 -0.02 -6.963 -0 -1.2 0
7.058 -0.035 -8.063 -0 -1.2 0
8.375 -0.056 -9.568 -0 -1.2 0
8.475 -0.268 -9.675 -0 -1.2 0
8.46 -0.493 -9.651 -0 -1.2 0
8.47 -0.716 -9.655 -0 -1.2 0
8.634 -0.935 -9.836 -0 -1.2 0
11.764 -6.913 -13.22 -0 -1.2 0
10.213 -6.735 -11.452 -0 -1.2 0
10.04 -6.936 -11.246 -0 -1.2 0
10.542 -7.545 -11.801 -0 -1.2 0
8.869 -6.784 -9.913 -0 -1.2 0
8.055 -6.504 -8.99 -0 -1.2 0
8.067 -6.764 -8.995 -0 -1.2 0
6.426 -5.805 -7.151 -0 -1.2 0
6.564 -6.118 -7.297 -0 -1.2 0
6.566 -6.334 -7.293 -0 -1.2 0
7.527 -7.358 -8.358 -0 -1.2 0
8.386 -8.363 -9.308 -0 -1.2 0
7.163 -7.541 -7.935 -0 -1.2 0
6.808 -7.459 -7.533 -0 -1.2 0
7.112 -8.001 -7.862 -0 -1.2 0
8.334 -9.505 -9.211 -0 -1.2 0
7.797 -9.252 -8.605 -0 -1.2 0
6.792 -8.453 -7.482 -0 -1.2 0
8.268 -10.394 -9.106 -0 -1.2 0
6.709 -8.898 -7.372 -0 -1.2 0
8.166 -10.948 -8.97 -0 -1.2 0
7.906 -11.672 -8.65 -0 -1.2 0
0.769 0.012 -0.932 -0 -1.2 0
0.791 0.006 -0.958 -0 -1.2 0
0.817 0.006 -0.99 -0 -1.2 0
0.843 0.004 -1.022 -0 -1.2 0
0.875 0.008 -1.06 -0 -1.2 0
0.906 0.011 -1.099 -0 -1.2 0
0.929 0 -1.126 -0 -1.2 0
0.961 0 -1.165 -0 -1.2 0
0.998 0.005 -1.211 -0 -1.2 0
1.031 0.002 -1.251 -0 -1.2 0
1.069 0.004 -1.298 -0 -1.2 0
1.107 0.003 -1.345 -0 -1.2 0
1.141 -0.003 -1.386 -0 -1.2 0
1.18 -0.007 -1.433 -0 -1.2 0
1.225 -0.008 -1.488 -0 -1.2 0
1.275 -0.006 -1.549 -0 -1.2 0
1.32 -0.01 -1.605 -0 -1.2 0
1.371 -0.013 -1.667 -0 -1.2 0
1.429 -0.013 -1.737 -0 -1.2 0
1.486 -0.017 -1.806 -0 -1.2 0
1.555 -0.014 -1.892 -0 -1.2 0
1.631 -0.012 -1.984 -0 -1.2 0
1.701 -0.018 -2.07 -0 -1.2 0
1.772 -0.026 -2.156 -0 -1.2 0
1.856 -0.031 -2.257 -0 -1.2 0
1.939 -0.04 -2.358 -0 -1.2 0
2.034 -0.047 -2.475 -0 -1.2 0
2.154 -0.047 -2.622 -0 -1.2 0
2.275 -0.053 -2.769 -0 -1.2 0
2.439 -0.047 -2.969 -0 -1.2 0
2.609 -0.047 -3.178 -0 -1.2 0
2.799 -0.049 -3.41 -0 -1.2 0
2.996 -0.059 -3.65 -0 -1.2 0
3.297 -0.044 -4.019 -0 -1.2 0
3.855 0.028 -4.704 -0 -1.2 0
4.223 0.019 -5.154 -0 -1.2 0
4.63 0 -5.649 -0 -1.2 0
5.181 -0.009 -6.323 -0 -1.2 0
5.866 -0.026 -7.159 -0 -1.2 0
6.866 -0.031 -8.381 -0 -1.2 0
7.73 -0.108 -9.435 -0 -1.2 0
7.137 -0.381 -8.702 -0 -1.2 0
7.129 -0.578 -8.685 -0 -1.2 0
7.244 -0.767 -8.819 -0 -1.2 0
9.496 -1.18 -11.557 -0 -1.2 0
8.959 -1.42 -10.894 -0 -1.2 0
15.555 -9.115 -18.695 -0 -1.2 0
10.045 -6.87 -12.036 -0 -1.2 0
8.207 -6.571 -9.8 -0 -1.2 0
8.044 -6.718 -9.595 -0 -1.2 0
7.532 -6.602 -8.973 -0 -1.2 0
6.962 -6.409 -8.282 -0 -1.2 0
6.58 -6.335 -7.819 -0 -1.2 0
6.785 -6.729 -8.055 -0 -1.2 0
6.203 -6.455 -7.354 -0 -1.2 0
6.54 -6.98 -7.747 -0 -1.2 0
6.521 -7.195 -7.718 -0 -1.2 0
7.637 -8.528 -9.035 -0 -1.2 0
6.652 -7.81 -7.857 -0 -1.2 0
7.98 -9.469 -9.424 -0 -1.2 0
7.358 -9.098 -8.676 -0 -1.2 0
7.148 -9.152 -8.416 -0 -1.2 0
7.246 -9.56 -8.523 -0 -1.2 0
0.738 0.011 -0.956 -0 -1.2 0
0.754 -0.001 -0.977 -0 -1.2 0
0.784 0.005 -1.016 -0 -1.2 0
0.809 0.003 -1.049 -0 -1.2 0
0.835 0.001 -1.082 -0 -1.2 0
0.865 0.004 -1.122 -0 -1.2 0
0.891 0 -1.156 -0 -1.2 0
0.922 0 -1.196 -0 -1.2 0
0.953 -0.001 -1.237 -0 -1.2 0
0.989 0.001 -1.284 -0 -1.2 0
1.026 0.002 -1.332 -0 -1.2 0
1.063 0.002 -1.38 -0 -1.2 0
1.1 0 -1.429 -0 -1.2 0
1.137 -0.004 -1.478 -0 -1.2 0
1.185 0 -1.541 -0 -1.2 0
1.223 -0.007 -1.59 -0 -1.2 0
1.272 -0.007 -1.654 -0 -1.2 0
1.321 -0.01 -1.718 -0 -1.2 0
1.371 -0.015 -1.783 -0 -1.2 0
1.431 -0.014 -1.862 -0 -1.2 0
1.492 -0.016 -1.942 -0 -1.2 0
1.559 -0.018 -2.03 -0 -1.2 0
1.627 -0.023 -2.117 -0 -1.2 0
1.696 -0.031 -2.205 -0 -1.2 0
1.775 -0.037 -2.309 -0 -1.2 0
1.855 -0.045 -2.413 -0 -1.2 0
1.952 -0.049 -2.54 -0 -1.2 0
2.061 -0.052 -2.683 -0 -1.2 0
2.189 -0.052 -2.85 -0 -1.2 0
2.34 -0.05 -3.047 -0 -1.2 0
2.504 -0.049 -3.261 -0 -1.2 0
2.668 -0.059 -3.476 -0 -1.2 0
2.869 -0.064 -3.738 -0 -1.2 0
3.123 -0.062 -4.071 -0 -1.2 0
3.693 0.022 -4.82 -0 -1.2 0
4.046 0.014 -5.281 -0 -1.2 0
4.442 -0.004 -5.797 -0 -1.2 0
4.977 -0.014 -6.497 -0 -1.2 0
5.646 -0.029 -7.371 -0 -1.2 0
6.618 -0.032 -8.641 -0 -1.2 0
7.61 -0.089 -9.936 -0 -1.2 0
6.68 -0.407 -8.709 -0 -1.2 0
6.671 -0.598 -8.69 -0 -1.2 0
6.752 -0.784 -8.789 -0 -1.2 0
6.987 -0.972 -9.092 -0 -1.2 0
7.739 -1.177 -10.066 -0 -1.2 0
8.664 -1.432 -11.267 -0 -1.2 0
15.556 -8.036 -20.047 -0 -1.2 0
9.24 -6.637 -11.837 -0 -1.2 0
14.035 -9.98 -17.99 -0 -1.2 0
8 -6.403 -10.224 -0 -1.2 0
7.066 -6.01 -9.017 -0 -1.2 0
6.982 -6.183 -8.902 -0 -1.2 0
6.552 -6.087 -8.343 -0 -1.2 0
6.562 -6.319 -8.348 -0 -1.2 0
6.46 -6.461 -8.209 -0 -1.2 0
6.475 -6.702 -8.222 -0 -1.2 0
6.359 -6.829 -8.064 -0 -1.2 0
6.295 -7.002 -7.975 -0 -1.2 0
6.218 -7.161 -7.87 -0 -1.2 0
7.52 -8.728 -9.516 -0 -1.2 0
6.304 -7.729 -7.962 -0 -1.2 0
8.47 -10.368 -10.701 -0 -1.2 0
8.405 -10.638 -10.606 -0 -1.2 0
8.187 -10.729 -10.318 -0 -1.2 0
8.043 -10.901 -10.124 -0 -1.2 0
7.869 -11.031 -9.891 -0 -1.2 0
7.641 -11.084 -9.591 -0 -1.2 0
0.7 0.003 -0.976 -0 -1.2 0
0.723 0.004 -1.009 -0 -1.2 0
0.752 0.011 -1.049 -0 -1.2 0
0.771 0.003 -1.077 -0 -1.2 0
0.796 0 -1.111 -0 -1.2 0
0.825 0.003 -1.152 -0 -1.2 0
0.858 0.011 -1.199 -0 -1.2 0
0.883 0.004 -1.234 -0 -1.2 0
0.913 0.003 -1.276 -0 -1.2 0
0.948 0.006 -1.325 -0 -1.2 0
0.978 0.001 -1.367 -0 -1.2 0
1.018 0.006 -1.424 -0 -1.2 0
1.048 -0.001 -1.467 -0 -1.2 0
1.084 -0.005 -1.517 -0 -1.2 0
1.13 0 -1.581 -0 -1.2 0
1.166 -0.009 -1.632 -0 -1.2 0
1.213 -0.008 -1.698 -0 -1.2 0
1.26 -0.012 -1.764 -0 -1.2 0
1.312 -0.012 -1.837 -0 -1.2 0
1.365 -0.016 -1.911 -0 -1.2 0
1.423 -0.018 -1.993 -0 -1.2 0
1.492 -0.015 -2.091 -0 -1.2 0
1.546 -0.028 -2.165 -0 -1.2 0
1.617 -0.033 -2.263 -0 -1.2 0
1.698 -0.035 -2.378 -0 -1.2 0
1.774 -0.045 -2.485 -0 -1.2 0
1.861 -0.051 -2.608 -0 -1.2 0
1.971 -0.052 -2.762 -0 -1.2 0
2.087 -0.055 -2.925 -0 -1.2 0
2.231 -0.053 -3.128 -0 -1.2 0
2.387 -0.052 -3.347 -0 -1.2 0
2.544 -0.062 -3.568 -0 -1.2 0
2.746 -0.062 -3.853 -0 -1.2 0
2.972 -0.068 -4.17 -0 -1.2 0
3.294 -0.054 -4.625 -0 -1.2 0
3.852 0.007 -5.411 -0 -1.2 0
4.252 -0.004 -5.974 -0 -1.2 0
4.763 -0.016 -6.692 -0 -1.2 0
5.406 -0.031 -7.597 -0 -1.2 0
6.281 -0.045 -8.828 -0 -1.2 0
7.192 -0.106 -10.108 -0 -1.2 0
6.334 -0.418 -8.888 -0 -1.2 0
6.319 -0.609 -8.862 -0 -1.2 0
6.42 -0.793 -8.996 -0 -1.2 0
6.552 -0.982 -9.177 -0 -1.2 0
6.533 -4.987 -9.004 -0 -1.2 0
6.87 -5.416 -9.462 -0 -1.2 0
6.489 -5.392 -8.929 -0 -1.2 0
6.6 -5.69 -9.074 -0 -1.2 0
7.003 -6.212 -9.622 -0 -1.2 0
6.853 -6.339 -9.404 -0 -1.2 0
6.399 -6.214 -8.771 -0 -1.2 0
5.991 -6.1 -8.201 -0 -1.2 0
6.439 -6.712 -8.809 -0 -1.2 0
6.11 -6.648 -8.349 -0 -1.2 0
5.938 -6.714 -8.105 -0 -1.2 0
7.242 -8.521 -9.874 -0 -1.2 0
5.889 -7.356 -8.012 -0 -1.2 0
8.166 -10.133 -11.115 -0 -1.2 0
8.433 -10.784 -11.467 -0 -1.2 0
6.616 -8.964 -8.977 -0 -1.2 0
9.942 -13.388 -13.496 -0 -1.2 0
7.618 -10.838 -10.319 -0 -1.2 0
7.421 -10.922 -10.037 -0 -1.2 0
7.223 -10.998 -9.756 -0 -1.2 0
0.671 0.01 -1.004 -0 -1.2 0
0.69 0.003 -1.032 -0 -1.2 0
0.712 0.003 -1.067 -0 -1.2 0
0.739 0.009 -1.108 -0 -1.2 0
0.767 0.012 -1.149 -0 -1.2 0
0.786 0.002 -1.178 -0 -1.2 0
0.823 0.016 -1.233 -0 -1.2 0
0.842 0.003 -1.263 -0 -1.2 0
0.875 0.008 -1.312 -0 -1.2 0
0.903 0.005 -1.355 -0 -1.2 0
0.932 0 -1.399 -0 -1.2 0
0.966 0 -1.449 -0 -1.2 0
0.999 -0.002 -1.5 -0 -1.2 0
1.038 0 -1.559 -0 -1.2 0
1.082 0.002 -1.625 -0 -1.2 0
1.117 -0.005 -1.677 -0 -1.2 0
1.161 -0.005 -1.744 -0 -1.2 0
1.201 -0.013 -1.804 -0 -1.2 0
1.256 -0.009 -1.887 -0 -1.2 0
1.311 -0.009 -1.97 -0 -1.2 0
1.356 -0.019 -2.038 -0 -1.2 0
1.417 -0.021 -2.13 -0 -1.2 0
1.479 -0.027 -2.222 -0 -1.2 0
1.546 -0.032 -2.323 -0 -1.2 0
1.613 -0.04 -2.424 -0 -1.2 0
1.691 -0.046 -2.541 -0 -1.2 0
1.785 -0.048 -2.683 -0 -1.2 0
1.879 -0.054 -2.825 -0 -1.2 0
1.989 -0.057 -2.992 -0 -1.2 0
2.132 -0.052 -3.207 -0 -1.2 0
2.27 -0.058 -3.416 -0 -1.2 0
2.43 -0.062 -3.657 -0 -1.2 0
2.607 -0.07 -3.924 -0 -1.2 0
2.822 -0.075 -4.249 -0 -1.2 0
3.076 -0.08 -4.632 -0 -1.2 0
3.673 0.003 -5.535 -0 -1.2 0
4.076 -0.003 -6.143 -0 -1.2 0
4.54 -0.021 -6.844 -0 -1.2 0
5.148 -0.038 -7.762 -0 -1.2 0
5.971 -0.055 -9.004 -0 -1.2 0
6.22 -0.207 -9.373 -0 -1.2 0
6.22 -0.404 -9.366 -0 -1.2 0
6.235 -0.598 -9.381 -0 -1.2 0
6.209 -0.796 -9.335 -0 -1.2 0
6.258 -0.989 -9.403 -0 -1.2 0
11.959 -6.591 -17.798 -0 -1.2 0
12.538 -7.692 -18.631 -0 -1.2 0
12.319 -7.992 -18.289 -0 -1.2 0
6.513 -4.949 -9.639 -0 -1.2 0
6.616 -5.237 -9.782 -0 -1.2 0
6.243 -5.217 -9.22 -0 -1.2 0
5.764 -5.1 -8.501 -0 -1.2 0
6.519 -5.861 -9.612 -0 -1.2 0
6.337 -5.953 -9.334 -0 -1.2 0
6.385 -6.223 -9.396 -0 -1.2 0
5.973 -6.11 -8.779 -0 -1.2 0
7.278 -7.49 -10.697 -0 -1.2 0
5.565 -6.185 -8.16 -0 -1.2 0
10.472 -11.125 -15.384 -0 -1.2 0
6.366 -7.422 -9.323 -0 -1.2 0
9.119 -10.925 -13.348 -0 -1.2 0
6.869 -9.064 -10.02 -0 -1.2 0
8.893 -11.821 -12.973 -0 -1.2 0
10.27 -13.951 -14.973 -0 -1.2 0
11.333 -15.808 -16.507 -0 -1.2 0
0.637 0.009 -1.026 -0 -1.2 0
0.655 0.003 -1.055 -0 -1.2 0
0.68 0.009 -1.096 -0 -1.2 0
0.702 0.008 -1.132 -0 -1.2 0
0.728 0.011 -1.174 -0 -1.2 0
0.746 0.001 -1.204 -0 -1.2 0
0.777 0.009 -1.253 -0 -1.2 0
0.803 0.008 -1.297 -0 -1.2 0
0.83 0.007 -1.34 -0 -1.2 0
0.858 0.004 -1.384 -0 -1.2 0
0.893 0.01 -1.443 -0 -1.2 0
0.917 0 -1.481 -0 -1.2 0
0.953 0.001 -1.54 -0 -1.2 0
0.994 0.008 -1.607 -0 -1.2 0
1.023 -0.003 -1.652 -0 -1.2 0
1.06 -0.006 -1.713 -0 -1.2 0
1.098 -0.011 -1.774 -0 -1.2 0
1.145 -0.01 -1.85 -0 -1.2 0
1.183 -0.019 -1.911 -0 -1.2 0
1.24 -0.014 -2.005 -0 -1.2 0
1.288 -0.021 -2.082 -0 -1.2 0
1.345 -0.023 -2.176 -0 -1.2 0
1.4 -0.031 -2.262 -0 -1.2 0
1.458 -0.04 -2.357 -0 -1.2 0
1.532 -0.042 -2.476 -0 -1.2 0
1.605 -0.048 -2.596 -0 -1.2 0
1.689 -0.053 -2.733 -0 -1.2 0
1.789 -0.053 -2.894 -0 -1.2 0
1.894 -0.058 -3.064 -0 -1.2 0
2.019 -0.057 -3.268 -0 -1.2 0
2.145 -0.065 -3.473 -0 -1.2 0
2.302 -0.068 -3.728 -0 -1.2 0
2.47 -0.075 -4 -0 -1.2 0
2.674 -0.08 -4.332 -0 -1.2 0
2.921 -0.084 -4.732 -0 -1.2 0
3.276 -0.068 -5.309 -0 -1.2 0
3.864 -0.01 -6.267 -0 -1.2 0
4.316 -0.024 -7 -0 -1.2 0
4.914 -0.038 -7.971 -0 -1.2 0
5.685 -0.059 -9.223 -0 -1.2 0
6.692 -0.095 -10.857 -0 -1.2 0
6.177 -0.379 -10.009 -0 -1.2 0
6.165 -0.585 -9.983 -0 -1.2 0
6.162 -0.789 -9.969 -0 -1.2 0
6.183 -0.992 -9.997 -0 -1.2 0
6.283 -1.402 -10.143 -0 -1.2 0
7.092 -5.527 -11.295 -0 -1.2 0
7.19 -5.847 -11.441 -0 -1.2 0
6.716 -5.777 -10.675 -0 -1.2 0
6.39 -5.783 -10.145 -0 -1.2 0
6.055 -5.761 -9.601 -0 -1.2 0
10.24 -9.401 -16.258 -0 -1.2 0
9.33 -9.018 -14.795 -0 -1.2 0
10.464 -10.395 -16.583 -0 -1.2 0
9.96 -11.147 -15.733 -0 -1.2 0
8.978 -10.525 -14.164 -0 -1.2 0
8.781 -10.689 -13.837 -0 -1.2 0
8.574 -10.831 -13.495 -0 -1.2 0
8.068 -11.72 -12.639 -0 -1.2 0
0.592 -0.005 -1.036 -0 -1.2 0
0.613 -0.004 -1.071 -0 -1.2 0
0.636 0.001 -1.113 -0 -1.2 0
0.664 0.013 -1.163 -0 -1.2 0
0.678 -0.001 -1.186 -0 -1.2 0
0.71 0.013 -1.243 -0 -1.2 0
0.731 0.008 -1.28 -0 -1.2 0
0.752 0.001 -1.318 -0 -1.2 0
0.786 0.012 -1.376 -0 -1.2 0
0.811 0.008 -1.421 -0 -1.2 0
0.837 0.004 -1.467 -0 -1.2 0
0.867 0.002 -1.52 -0 -1.2 0
0.889 -0.009 -1.558 -0 -1.2 0
0.928 -0.003 -1.627 -0 -1.2 0
0.963 -0.004 -1.688 -0 -1.2 0
0.998 -0.008 -1.75 -0 -1.2 0
1.033 -0.012 -1.812 -0 -1.2 0
1.073 -0.016 -1.883 -0 -1.2 0
1.118 -0.017 -1.961 -0 -1.2 0
1.167 -0.016 -2.048 -0 -1.2 0
1.212 -0.022 -2.127 -0 -1.2 0
1.262 -0.028 -2.214 -0 -1.2 0
1.318 -0.033 -2.311 -0 -1.2 0
1.377 -0.038 -2.416 -0 -1.2 0
1.446 -0.04 -2.538 -0 -1.2 0
1.511 -0.051 -2.652 -0 -1.2 0
1.595 -0.052 -2.799 -0 -1.2 0
1.689 -0.053 -2.964 -0 -1.2 0
1.787 -0.057 -3.138 -0 -1.2 0
1.905 -0.057 -3.346 -0 -1.2 0
2.029 -0.063 -3.564 -0 -1.2 0
2.167 -0.071 -3.808 -0 -1.2 0
2.32 -0.08 -4.078 -0 -1.2 0
2.513 -0.086 -4.416 -0 -1.2 0
2.754 -0.086 -4.842 -0 -1.2 0
3.03 -0.09 -5.328 -0 -1.2 0
3.613 -0.021 -6.358 -0 -1.2 0
4.067 -0.029 -7.158 -0 -1.2 0
4.606 -0.049 -8.107 -0 -1.2 0
5.386 -0.059 -9.481 -0 -1.2 0
5.142 -0.29 -9.042 -0 -1.2 0
5.072 -0.48 -8.911 -0 -1.2 0
5.164 -0.65 -9.067 -0 -1.2 0
5.146 -0.832 -9.026 -0 -1.2 0
6.102 -0.995 -10.706 -0 -1.2 0
9.527 -7.078 -16.492 -0 -1.2 0
10.374 -8.007 -17.949 -0 -1.2 0
6.325 -5.54 -10.912 -0 -1.2 0
6.341 -6.044 -10.92 -0 -1.2 0
5.936 -5.96 -10.209 -0 -1.2 0
9.118 -8.957 -15.696 -0 -1.2 0
8.427 -9.049 -14.473 -0 -1.2 0
9.666 -10.631 -16.592 -0 -1.2 0
8.273 -9.603 -14.18 -0 -1.2 0
8.539 -10.626 -14.607 -0 -1.2 0
8.466 -10.924 -14.465 -0 -1.2 0
8.024 -10.774 -13.692 -0 -1.2 0
8.08 -11.22 -13.773 -0 -1.2 0
7.594 -11.339 -12.912 -0 -1.2 0
0.557 -0.006 -1.055 -0 -1.2 0
0.583 0.008 -1.104 -0 -1.2 0
0.606 0.014 -1.147 -0 -1.2 0
0.618 0 -1.171 -0 -1.2 0
0.645 0.01 -1.221 -0 -1.2 0
0.664 0.005 -1.259 -0 -1.2 0
0.688 0.007 -1.304 -0 -1.2 0
0.712 0.006 -1.349 -0 -1.2 0
0.735 0.005 -1.394 -0 -1.2 0
0.759 0.001 -1.44 -0 -1.2 0
0.787 0.003 -1.494 -0 -1.2 0
0.82 0.007 -1.555 -0 -1.2 0
0.848 0.005 -1.609 -0 -1.2 0
0.877 0 -1.664 -0 -1.2 0
0.91 -0.001 -1.727 -0 -1.2 0
0.943 -0.004 -1.79 -0 -1.2 0
0.976 -0.009 -1.853 -0 -1.2 0
1.01 -0.018 -1.917 -0 -1.2 0
1.052 -0.018 -1.997 -0 -1.2 0
1.094 -0.022 -2.077 -0 -1.2 0
1.145 -0.02 -2.174 -0 -1.2 0
1.192 -0.026 -2.263 -0 -1.2 0
1.24 -0.035 -2.353 -0 -1.2 0
1.296 -0.04 -2.46 -0 -1.2 0
1.357 -0.046 -2.576 -0 -1.2 0
1.426 -0.049 -2.709 -0 -1.2 0
1.501 -0.054 -2.851 -0 -1.2 0
1.584 -0.058 -3.01 -0 -1.2 0
1.677 -0.063 -3.187 -0 -1.2 0
1.793 -0.06 -3.408 -0 -1.2 0
1.905 -0.068 -3.621 -0 -1.2 0
2.039 -0.074 -3.877 -0 -1.2 0
2.193 -0.08 -4.17 -0 -1.2 0
2.364 -0.089 -4.497 -0 -1.2 0
2.578 -0.095 -4.904 -0 -1.2 0
2.847 -0.096 -5.417 -0 -1.2 0
3.204 -0.09 -6.097 -0 -1.2 0
3.827 -0.034 -7.289 -0 -1.2 0
4.362 -0.049 -8.308 -0 -1.2 0
5.031 -0.075 -9.584 -0 -1.2 0
4.672 -0.325 -8.889 -0 -1.2 0
4.654 -0.502 -8.845 -0 -1.2 0
4.754 -0.844 -9.023 -0 -1.2 0
6.068 -0.997 -11.522 -0 -1.2 0
9.575 -7.497 -17.933 -0 -1.2 0
9.109 -7.552 -17.041 -0 -1.2 0
8.74 -8.736 -16.287 -0 -1.2 0
7.847 -8.97 -14.574 -0 -1.2 0
8.194 -10.432 -15.172 -0 -1.2 0
7.876 -11.586 -14.519 -0 -1.2 0
0.525 0 -1.079 -0 -1.2 0
0.549 0.014 -1.129 -0 -1.2 0
0.564 0.007 -1.16 -0 -1.2 0
0.582 0.005 -1.197 -0 -1.2 0
0.604 0.009 -1.242 -0 -1.2 0
0.625 0.011 -1.287 -0 -1.2 0
0.644 0.006 -1.326 -0 -1.2 0
0.67 0.011 -1.379 -0 -1.2 0
0.692 0.01 -1.425 -0 -1.2 0
0.718 0.012 -1.479 -0 -1.2 0
0.744 0.012 -1.534 -0 -1.2 0
0.767 0.006 -1.581 -0 -1.2 0
0.794 0.003 -1.636 -0 -1.2 0
0.825 0.004 -1.7 -0 -1.2 0
0.848 -0.007 -1.748 -0 -1.2 0
0.883 -0.006 -1.82 -0 -1.2 0
0.914 -0.01 -1.885 -0 -1.2 0
0.953 -0.009 -1.965 -0 -1.2 0
0.985 -0.02 -2.03 -0 -1.2 0
1.024 -0.024 -2.112 -0 -1.2 0
1.068 -0.026 -2.202 -0 -1.2 0
1.112 -0.032 -2.293 -0 -1.2 0
1.16 -0.037 -2.393 -0 -1.2 0
1.214 -0.042 -2.502 -0 -1.2 0
1.27 -0.048 -2.619 -0 -1.2 0
1.336 -0.051 -2.754 -0 -1.2 0
1.41 -0.052 -2.907 -0 -1.2 0
1.488 -0.057 -3.07 -0 -1.2 0
1.575 -0.062 -3.25 -0 -1.2 0
1.679 -0.062 -3.465 -0 -1.2 0
1.784 -0.071 -3.682 -0 -1.2 0
1.91 -0.076 -3.943 -0 -1.2 0
2.04 -0.089 -4.213 -0 -1.2 0
2.214 -0.092 -4.573 -0 -1.2 0
2.414 -0.099 -4.987 -0 -1.2 0
2.657 -0.104 -5.49 -0 -1.2 0
2.944 -0.114 -6.083 -0 -1.2 0
3.567 -0.045 -7.376 -0 -1.2 0
4.063 -0.06 -8.403 -0 -1.2 0
4.724 -0.078 -9.772 -0 -1.2 0
4.336 -0.338 -8.958 -0 -1.2 0
4.276 -0.52 -8.823 -0 -1.2 0
4.339 -0.684 -8.946 -0 -1.2 0
4.37 -0.856 -9.004 -0 -1.2 0
4.822 -1.021 -9.933 -0 -1.2 0
7.72 -10.492 -15.509 -0 -1.2 0
8.501 -11.871 -17.062 -0 -1.2 0
0.492 0.012 -1.11 -0 -1.2 0
0.505 0.006 -1.141 -0 -1.2 0
0.519 0 -1.172 -0 -1.2 0
0.539 0.004 -1.217 -0 -1.2 0
0.562 0.014 -1.27 -0 -1.2 0
0.576 0.003 -1.302 -0 -1.2 0
0.596 0.005 -1.348 -0 -1.2 0
0.617 0.004 -1.394 -0 -1.2 0
0.641 0.009 -1.449 -0 -1.2 0
0.662 0.005 -1.496 -0 -1.2 0
0.686 0.005 -1.552 -0 -1.2 0
0.711 0.005 -1.607 -0 -1.2 0
0.735 0.002 -1.664 -0 -1.2 0
0.76 -0.001 -1.72 -0 -1.2 0
0.789 -0.003 -1.785 -0 -1.2 0
0.817 -0.007 -1.85 -0 -1.2 0
0.846 -0.012 -1.916 -0 -1.2 0
0.879 -0.016 -1.99 -0 -1.2 0
0.915 -0.017 -2.073 -0 -1.2 0
0.952 -0.02 -2.156 -0 -1.2 0
0.989 -0.027 -2.239 -0 -1.2 0
1.03 -0.033 -2.331 -0 -1.2 0
1.082 -0.032 -2.449 -0 -1.2 0
1.127 -0.041 -2.552 -0 -1.2 0
1.183 -0.042 -2.68 -0 -1.2 0
1.241 -0.05 -2.809 -0 -1.2 0
1.305 -0.055 -2.955 -0 -1.2 0
1.378 -0.059 -3.12 -0 -1.2 0
1.459 -0.064 -3.303 -0 -1.2 0
1.551 -0.068 -3.514 -0 -1.2 0
1.656 -0.072 -3.751 -0 -1.2 0
1.769 -0.079 -4.008 -0 -1.2 0
1.894 -0.09 -4.292 -0 -1.2 0
2.051 -0.096 -4.648 -0 -1.2 0
2.228 -0.105 -5.05 -0 -1.2 0
2.449 -0.113 -5.553 -0 -1.2 0
2.719 -0.121 -6.166 -0 -1.2 0
3.121 -0.11 -7.08 -0 -1.2 0
3.771 -0.064 -8.559 -0 -1.2 0
4.367 -0.088 -9.913 -0 -1.2 0
3.941 -0.359 -8.932 -0 -1.2 0
3.9 -0.536 -8.832 -0 -1.2 0
3.954 -0.699 -8.948 -0 -1.2 0
4.004 -0.865 -9.052 -0 -1.2 0
4.378 -1.03 -9.895 -0 -1.2 0
4.666 -1.423 -10.53 -0 -1.2 0
8.397 -10.828 -18.562 -0 -1.2 0
7.19 -10.541 -15.831 -0 -1.2 0
0.455 0.012 -1.126 -0 -1.2 0
0.467 0.005 -1.157 -0 -1.2 0
0.48 -0.001 -1.189 -0 -1.2 0
0.501 0.009 -1.241 -0 -1.2 0
0.52 0.013 -1.287 -0 -1.2 0
0.533 0.002 -1.32 -0 -1.2 0
0.551 0.004 -1.367 -0 -1.2 0
0.57 0.003 -1.414 -0 -1.2 0
0.593 0.008 -1.469 -0 -1.2 0
0.615 0.01 -1.525 -0 -1.2 0
0.641 0.016 -1.589 -0 -1.2 0
0.657 0.004 -1.63 -0 -1.2 0
0.68 0.001 -1.687 -0 -1.2 0
0.706 0.001 -1.752 -0 -1.2 0
0.733 0 -1.818 -0 -1.2 0
0.756 -0.008 -1.876 -0 -1.2 0
0.789 -0.004 -1.959 -0 -1.2 0
0.816 -0.012 -2.026 -0 -1.2 0
0.847 -0.018 -2.102 -0 -1.2 0
0.884 -0.018 -2.194 -0 -1.2 0
0.918 -0.025 -2.278 -0 -1.2 0
0.952 -0.035 -2.364 -0 -1.2 0
0.997 -0.037 -2.475 -0 -1.2 0
1.045 -0.039 -2.596 -0 -1.2 0
1.094 -0.044 -2.717 -0 -1.2 0
1.151 -0.048 -2.857 -0 -1.2 0
1.211 -0.054 -3.005 -0 -1.2 0
1.278 -0.059 -3.173 -0 -1.2 0
1.352 -0.064 -3.358 -0 -1.2 0
1.431 -0.073 -3.554 -0 -1.2 0
1.528 -0.076 -3.795 -0 -1.2 0
1.628 -0.087 -4.046 -0 -1.2 0
1.744 -0.097 -4.334 -0 -1.2 0
1.893 -0.101 -4.704 -0 -1.2 0
2.053 -0.113 -5.102 -0 -1.2 0
2.261 -0.118 -5.621 -0 -1.2 0
2.511 -0.127 -6.242 -0 -1.2 0
2.838 -0.132 -7.058 -0 -1.2 0
3.435 -0.085 -8.549 -0 -1.2 0
3.758 -0.166 -9.349 -0 -1.2 0
3.766 -0.341 -9.362 -0 -1.2 0
3.749 -0.519 -9.307 -0 -1.2 0
3.758 -0.694 -9.323 -0 -1.2 0
3.789 -0.865 -9.392 -0 -1.2 0
3.998 -1.037 -9.903 -0 -1.2 0
4.907 -1.249 -12.157 -0 -1.2 0
4.241 -1.425 -10.491 -0 -1.2 0
0.417 0.011 -1.14 -0 -1.2 0
0.429 0.005 -1.172 -0 -1.2 0
0.445 0.011 -1.218 -0 -1.2 0
0.46 0.008 -1.257 -0 -1.2 0
0.474 0.006 -1.297 -0 -1.2 0
0.489 0.001 -1.337 -0 -1.2 0
0.509 0.009 -1.391 -0 -1.2 0
0.526 0.008 -1.439 -0 -1.2 0
0.544 0.007 -1.488 -0 -1.2 0
0.561 0.003 -1.537 -0 -1.2 0
0.582 0.003 -1.593 -0 -1.2 0
0.6 -0.002 -1.643 -0 -1.2 0
0.624 0 -1.708 -0 -1.2 0
0.648 0 -1.774 -0 -1.2 0
0.675 0.004 -1.849 -0 -1.2 0
0.694 -0.009 -1.9 -0 -1.2 0
0.724 -0.006 -1.984 -0 -1.2 0
0.752 -0.008 -2.06 -0 -1.2 0
0.777 -0.019 -2.128 -0 -1.2 0
0.808 -0.023 -2.213 -0 -1.2 0
0.842 -0.027 -2.307 -0 -1.2 0
0.877 -0.033 -2.402 -0 -1.2 0
0.918 -0.035 -2.515 -0 -1.2 0
0.959 -0.041 -2.629 -0 -1.2 0
1.007 -0.043 -2.76 -0 -1.2 0
1.058 -0.047 -2.902 -0 -1.2 0
1.114 -0.053 -3.052 -0 -1.2 0
1.169 -0.064 -3.204 -0 -1.2 0
1.241 -0.066 -3.401 -0 -1.2 0
1.323 -0.067 -3.626 -0 -1.2 0
1.402 -0.079 -3.843 -0 -1.2 0
1.498 -0.087 -4.106 -0 -1.2 0
1.604 -0.098 -4.398 -0 -1.2 0
1.727 -0.11 -4.735 -0 -1.2 0
1.877 -0.12 -5.148 -0 -1.2 0
2.072 -0.123 -5.683 -0 -1.2 0
2.297 -0.134 -6.303 -0 -1.2 0
2.601 -0.137 -7.138 -0 -1.2 0
2.984 -0.146 -8.19 -0 -1.2 0
3.672 -0.111 -10.085 -0 -1.2 0
4.319 -0.155 -11.862 -0 -1.2 0
3.695 -0.482 -10.129 -0 -1.2 0
3.681 -0.672 -10.079 -0 -1.2 0
3.693 -0.857 -10.103 -0 -1.2 0
3.741 -1.044 -10.226 -0 -1.2 0
3.904 -1.433 -10.651 -0 -1.2 0
0.376 0.01 -1.154 -0 -1.2 0
0.389 0.011 -1.193 -0 -1.2 0
0.401 0.01 -1.233 -0 -1.2 0
0.414 0.008 -1.273 -0 -1.2 0
0.425 -0.001 -1.306 -0 -1.2 0
0.443 0.007 -1.361 -0 -1.2 0
0.453 -0.003 -1.394 -0 -1.2 0
0.472 0.001 -1.45 -0 -1.2 0
0.487 0 -1.499 -0 -1.2 0
0.508 0.008 -1.563 -0 -1.2 0
0.527 0.008 -1.621 -0 -1.2 0
0.546 0.007 -1.679 -0 -1.2 0
0.562 0 -1.73 -0 -1.2 0
0.581 -0.005 -1.788 -0 -1.2 0
0.606 -0.002 -1.864 -0 -1.2 0
0.63 -0.001 -1.94 -0 -1.2 0
0.65 -0.012 -2 -0 -1.2 0
0.677 -0.01 -2.086 -0 -1.2 0
0.703 -0.017 -2.163 -0 -1.2 0
0.731 -0.021 -2.25 -0 -1.2 0
0.762 -0.024 -2.345 -0 -1.2 0
0.787 -0.038 -2.423 -0 -1.2 0
0.827 -0.037 -2.546 -0 -1.2 0
0.867 -0.038 -2.67 -0 -1.2 0
0.908 -0.045 -2.795 -0 -1.2 0
0.954 -0.049 -2.938 -0 -1.2 0
1.003 -0.055 -3.09 -0 -1.2 0
1.057 -0.063 -3.253 -0 -1.2 0
1.122 -0.066 -3.452 -0 -1.2 0
1.195 -0.067 -3.68 -0 -1.2 0
1.272 -0.075 -3.918 -0 -1.2 0
1.35 -0.09 -4.157 -0 -1.2 0
1.445 -0.101 -4.451 -0 -1.2 0
1.55 -0.118 -4.775 -0 -1.2 0
1.692 -0.123 -5.212 -0 -1.2 0
1.867 -0.127 -5.753 -0 -1.2 0
2.068 -0.139 -6.371 -0 -1.2 0
2.332 -0.148 -7.189 -0 -1.2 0
2.662 -0.162 -8.206 -0 -1.2 0
3.23 -0.142 -9.964 -0 -1.2 0
3.902 -0.161 -12.037 -0 -1.2 0
3.607 -0.437 -11.109 -0 -1.2 0
3.576 -0.645 -11.003 -0 -1.2 0
3.587 -0.845 -11.027 -0 -1.2 0
3.638 -1.046 -11.171 -0 -1.2 0
3.804 -1.467 -11.658 -0 -1.2 0
0.337 0.009 -1.166 -0 -1.2 0
0.348 0.01 -1.206 -0 -1.2 0
0.36 0.009 -1.246 -0 -1.2 0
0.371 0.007 -1.286 -0 -1.2 0
0.383 0.004 -1.326 -0 -1.2 0
