# .PCD v.7 - Point Cloud Data file format
FIELDS x y z vp_x vp_y vp_z
SIZE 4 4 4 4 4 4
TYPE F F F F F F
COUNT 1 1 1 1 1 1
WIDTH 1474
HEIGHT 1
VIEWPOINT 0 -1.20014 0 1 0 0 0
POINTS 1474
DATA ascii
26.432 -13.952 -7.283 -0 -1.2 0
26.212 -14.423 -7.22 -0 -1.2 0
25.985 -14.89 -7.153 -0 -1.2 0
25.75 -15.353 -7.085 -0 -1.2 0
25.507 -15.812 -7.015 -0 -1.2 0
25.256 -16.266 -6.944 -0 -1.2 0
24.998 -16.715 -6.87 -0 -1.2 0
24.731 -17.16 -6.794 -0 -1.2 0
24.459 -17.599 -6.716 -0 -1.2 0
24.178 -18.034 -6.637 -0 -1.2 0
23.89 -18.464 -6.556 -0 -1.2 0
23.594 -18.888 -6.473 -0 -1.2 0
23.292 -19.307 -6.388 -0 -1.2 0
22.982 -19.72 -6.301 -0 -1.2 0
22.666 -20.128 -6.214 -0 -1.2 0
22.342 -20.529 -6.123 -0 -1.2 0
22.012 -20.925 -6.031 -0 -1.2 0
21.675 -21.315 -5.939 -0 -1.2 0
21.332 -21.699 -5.843 -0 -1.2 0
20.982 -22.077 -5.747 -0 -1.2 0
28.664 -4.961 -9.101 -0 -1.2 0
28.522 -5.997 -9.042 -0 -1.2 0
28.438 -6.513 -9.009 -0 -1.2 0
28.135 -8.049 -8.896 -0 -1.2 0
28.016 -8.558 -8.852 -0 -1.2 0
27.889 -9.064 -8.807 -0 -1.2 0
26.165 -13.965 -8.216 -0 -1.2 0
25.948 -14.436 -8.143 -0 -1.2 0
25.723 -14.903 -8.069 -0 -1.2 0
25.49 -15.366 -7.993 -0 -1.2 0
25.25 -15.824 -7.913 -0 -1.2 0
25.002 -16.278 -7.832 -0 -1.2 0
24.746 -16.727 -7.749 -0 -1.2 0
24.483 -17.172 -7.663 -0 -1.2 0
24.213 -17.611 -7.575 -0 -1.2 0
23.934 -18.046 -7.485 -0 -1.2 0
23.649 -18.475 -7.393 -0 -1.2 0
23.357 -18.9 -7.3 -0 -1.2 0
23.058 -19.318 -7.204 -0 -1.2 0
22.752 -19.731 -7.105 -0 -1.2 0
22.439 -20.139 -7.005 -0 -1.2 0
22.119 -20.54 -6.903 -0 -1.2 0
21.792 -20.936 -6.799 -0 -1.2 0
21.459 -21.326 -6.694 -0 -1.2 0
21.119 -21.709 -6.586 -0 -1.2 0
20.773 -22.087 -6.477 -0 -1.2 0
27.827 -8.063 -9.838 -0 -1.2 0
25.881 -13.978 -9.088 -0 -1.2 0
25.666 -14.448 -9.007 -0 -1.2 0
25.443 -14.916 -8.925 -0 -1.2 0
25.214 -15.378 -8.84 -0 -1.2 0
24.976 -15.837 -8.753 -0 -1.2 0
24.731 -16.29 -8.662 -0 -1.2 0
24.477 -16.739 -8.571 -0 -1.2 0
24.218 -17.184 -8.475 -0 -1.2 0
23.95 -17.623 -8.378 -0 -1.2 0
23.676 -18.058 -8.279 -0 -1.2 0
23.393 -18.487 -8.176 -0 -1.2 0
23.104 -18.911 -8.072 -0 -1.2 0
22.809 -19.329 -7.966 -0 -1.2 0
22.505 -19.742 -7.857 -0 -1.2 0
22.196 -20.15 -7.746 -0 -1.2 0
21.88 -20.551 -7.633 -0 -1.2 0
21.557 -20.947 -7.518 -0 -1.2 0
21.227 -21.336 -7.4 -0 -1.2 0
20.891 -21.72 -7.281 -0 -1.2 0
20.549 -22.097 -7.159 -0 -1.2 0
26.155 -12.555 -10.194 -0 -1.2 0
24.182 -16.751 -9.383 -0 -1.2 0
23.924 -17.196 -9.279 -0 -1.2 0
23.66 -17.635 -9.172 -0 -1.2 0
23.389 -18.07 -9.062 -0 -1.2 0
23.111 -18.499 -8.951 -0 -1.2 0
22.826 -18.923 -8.836 -0 -1.2 0
22.533 -19.341 -8.719 -0 -1.2 0
22.234 -19.754 -8.6 -0 -1.2 0
21.928 -20.161 -8.478 -0 -1.2 0
21.616 -20.562 -8.354 -0 -1.2 0
21.297 -20.957 -8.227 -0 -1.2 0
20.971 -21.347 -8.099 -0 -1.2 0
20.64 -21.73 -7.967 -0 -1.2 0
20.301 -22.108 -7.834 -0 -1.2 0
27.288 -7.071 -11.862 -0 -1.2 0
25.394 -13.531 -10.957 -0 -1.2 0
24.315 -15.864 -10.464 -0 -1.2 0
24.075 -16.317 -10.356 -0 -1.2 0
23.317 -17.648 -10.015 -0 -1.2 0
23.05 -18.083 -9.895 -0 -1.2 0
22.776 -18.512 -9.773 -0 -1.2 0
22.495 -18.936 -9.648 -0 -1.2 0
22.207 -19.353 -9.52 -0 -1.2 0
21.912 -19.766 -9.39 -0 -1.2 0
21.611 -20.173 -9.256 -0 -1.2 0
21.303 -20.574 -9.12 -0 -1.2 0
20.989 -20.97 -8.981 -0 -1.2 0
20.668 -21.359 -8.84 -0 -1.2 0
20.342 -21.742 -8.697 -0 -1.2 0
20.009 -22.119 -8.55 -0 -1.2 0
24.604 -14.489 -11.613 -0 -1.2 0
22.43 -18.524 -10.537 -0 -1.2 0
22.154 -18.947 -10.403 -0 -1.2 0
21.87 -19.365 -10.264 -0 -1.2 0
21.581 -19.778 -10.123 -0 -1.2 0
21.284 -20.185 -9.979 -0 -1.2 0
20.982 -20.585 -9.832 -0 -1.2 0
20.672 -20.98 -9.682 -0 -1.2 0
20.356 -21.369 -9.53 -0 -1.2 0
20.035 -21.752 -9.374 -0 -1.2 0
19.708 -22.13 -9.217 -0 -1.2 0
22.55 -17.672 -11.636 -0 -1.2 0
22.292 -18.106 -11.496 -0 -1.2 0
22.028 -18.535 -11.354 -0 -1.2 0
21.756 -18.958 -11.208 -0 -1.2 0
21.479 -19.376 -11.059 -0 -1.2 0
21.194 -19.788 -10.907 -0 -1.2 0
20.903 -20.195 -10.751 -0 -1.2 0
20.606 -20.596 -10.593 -0 -1.2 0
20.303 -20.991 -10.431 -0 -1.2 0
19.994 -21.379 -10.266 -0 -1.2 0
19.678 -21.762 -10.099 -0 -1.2 0
19.357 -22.139 -9.928 -0 -1.2 0
22.316 -17.247 -12.665 -0 -1.2 0
21.023 -19.388 -11.898 -0 -1.2 0
20.745 -19.8 -11.733 -0 -1.2 0
20.46 -20.207 -11.566 -0 -1.2 0
20.17 -20.607 -11.395 -0 -1.2 0
19.873 -21.002 -11.221 -0 -1.2 0
19.57 -21.391 -11.043 -0 -1.2 0
19.262 -21.773 -10.862 -0 -1.2 0
18.948 -22.15 -10.679 -0 -1.2 0
21.345 -18.131 -13.16 -0 -1.2 0
21.092 -18.559 -12.996 -0 -1.2 0
20.833 -18.982 -12.829 -0 -1.2 0
20.567 -19.4 -12.658 -0 -1.2 0
20.296 -19.812 -12.484 -0 -1.2 0
20.018 -20.218 -12.305 -0 -1.2 0
19.734 -20.619 -12.123 -0 -1.2 0
19.444 -21.013 -11.937 -0 -1.2 0
19.148 -21.402 -11.748 -0 -1.2 0
18.846 -21.784 -11.556 -0 -1.2 0
18.539 -22.161 -11.36 -0 -1.2 0
21.302 -17.273 -14.288 -0 -1.2 0
20.33 -18.995 -13.602 -0 -1.2 0
20.071 -19.412 -13.421 -0 -1.2 0
19.807 -19.824 -13.235 -0 -1.2 0
19.535 -20.23 -13.046 -0 -1.2 0
19.258 -20.631 -12.853 -0 -1.2 0
18.976 -21.025 -12.655 -0 -1.2 0
18.688 -21.413 -12.455 -0 -1.2 0
18.394 -21.796 -12.25 -0 -1.2 0
18.095 -22.172 -12.043 -0 -1.2 0
24.125 -5.616 -17.905 -0 -1.2 0
24.063 -6.133 -17.848 -0 -1.2 0
23.994 -6.648 -17.786 -0 -1.2 0
23.918 -7.162 -17.719 -0 -1.2 0
23.744 -8.183 -17.568 -0 -1.2 0
22.279 -13.615 -16.377 -0 -1.2 0
20.469 -17.725 -14.965 -0 -1.2 0
19.998 -18.587 -14.601 -0 -1.2 0
19.753 -19.009 -14.413 -0 -1.2 0
19.502 -19.426 -14.22 -0 -1.2 0
19.246 -19.838 -14.024 -0 -1.2 0
18.982 -20.244 -13.823 -0 -1.2 0
18.714 -20.644 -13.618 -0 -1.2 0
18.44 -21.038 -13.409 -0 -1.2 0
18.16 -21.426 -13.196 -0 -1.2 0
17.875 -21.808 -12.979 -0 -1.2 0
17.585 -22.184 -12.759 -0 -1.2 0
19.187 -19.023 -15.142 -0 -1.2 0
18.943 -19.44 -14.94 -0 -1.2 0
18.693 -19.851 -14.733 -0 -1.2 0
18.439 -20.257 -14.522 -0 -1.2 0
18.179 -20.657 -14.307 -0 -1.2 0
17.912 -21.051 -14.086 -0 -1.2 0
17.641 -21.439 -13.864 -0 -1.2 0
17.365 -21.821 -13.635 -0 -1.2 0
17.083 -22.197 -13.404 -0 -1.2 0
19.265 -17.754 -16.455 -0 -1.2 0
19.047 -18.187 -16.258 -0 -1.2 0
18.822 -18.615 -16.055 -0 -1.2 0
18.593 -19.037 -15.848 -0 -1.2 0
18.358 -19.454 -15.636 -0 -1.2 0
18.117 -19.865 -15.419 -0 -1.2 0
17.87 -20.271 -15.198 -0 -1.2 0
17.618 -20.67 -14.972 -0 -1.2 0
17.361 -21.064 -14.743 -0 -1.2 0
17.098 -21.452 -14.508 -0 -1.2 0
16.831 -21.833 -14.269 -0 -1.2 0
16.558 -22.209 -14.027 -0 -1.2 0
20.639 -12.224 -19.279 -0 -1.2 0
19.353 -15.993 -17.991 -0 -1.2 0
18.772 -17.335 -17.418 -0 -1.2 0
18.567 -17.772 -17.218 -0 -1.2 0
18.357 -18.205 -17.011 -0 -1.2 0
18.14 -18.632 -16.8 -0 -1.2 0
17.919 -19.054 -16.583 -0 -1.2 0
17.692 -19.471 -16.362 -0 -1.2 0
17.459 -19.882 -16.136 -0 -1.2 0
17.221 -20.287 -15.905 -0 -1.2 0
16.978 -20.687 -15.669 -0 -1.2 0
16.731 -21.08 -15.429 -0 -1.2 0
16.477 -21.467 -15.184 -0 -1.2 0
16.219 -21.849 -14.934 -0 -1.2 0
15.956 -22.224 -14.681 -0 -1.2 0
20.142 -11.262 -20.31 -0 -1.2 0
20.02 -11.754 -20.176 -0 -1.2 0
19.891 -12.241 -20.036 -0 -1.2 0
18.467 -16.461 -18.51 -0 -1.2 0
18.28 -16.908 -18.312 -0 -1.2 0
18.088 -17.351 -18.109 -0 -1.2 0
17.89 -17.788 -17.9 -0 -1.2 0
17.687 -18.221 -17.687 -0 -1.2 0
17.478 -18.648 -17.468 -0 -1.2 0
17.264 -19.07 -17.242 -0 -1.2 0
17.045 -19.486 -17.014 -0 -1.2 0
16.821 -19.897 -16.779 -0 -1.2 0
16.591 -20.302 -16.539 -0 -1.2 0
16.356 -20.701 -16.295 -0 -1.2 0
16.118 -21.094 -16.045 -0 -1.2 0
15.873 -21.482 -15.792 -0 -1.2 0
15.623 -21.863 -15.533 -0 -1.2 0
15.37 -22.238 -15.27 -0 -1.2 0
19.576 -10.286 -21.305 -0 -1.2 0
19.47 -10.783 -21.179 -0 -1.2 0
19.358 -11.277 -21.046 -0 -1.2 0
19.239 -11.768 -20.908 -0 -1.2 0
19.116 -12.256 -20.763 -0 -1.2 0
18.986 -12.739 -20.613 -0 -1.2 0
18.562 -14.171 -20.123 -0 -1.2 0
18.41 -14.64 -19.948 -0 -1.2 0
18.088 -15.566 -19.58 -0 -1.2 0
17.919 -16.023 -19.387 -0 -1.2 0
17.744 -16.475 -19.188 -0 -1.2 0
17.565 -16.921 -18.984 -0 -1.2 0
17.379 -17.364 -18.773 -0 -1.2 0
17.189 -17.801 -18.558 -0 -1.2 0
16.993 -18.234 -18.337 -0 -1.2 0
16.793 -18.661 -18.11 -0 -1.2 0
16.586 -19.083 -17.878 -0 -1.2 0
16.375 -19.498 -17.641 -0 -1.2 0
16.159 -19.909 -17.399 -0 -1.2 0
15.939 -20.314 -17.15 -0 -1.2 0
15.713 -20.713 -16.898 -0 -1.2 0
15.482 -21.106 -16.639 -0 -1.2 0
15.247 -21.493 -16.376 -0 -1.2 0
15.008 -21.874 -16.11 -0 -1.2 0
14.764 -22.249 -15.837 -0 -1.2 0
18.712 -10.298 -22.055 -0 -1.2 0
18.61 -10.795 -21.926 -0 -1.2 0
18.502 -11.289 -21.79 -0 -1.2 0
18.388 -11.78 -21.647 -0 -1.2 0
18.27 -12.268 -21.498 -0 -1.2 0
18.145 -12.751 -21.342 -0 -1.2 0
18.016 -13.232 -21.18 -0 -1.2 0
17.88 -13.709 -21.012 -0 -1.2 0
17.739 -14.183 -20.837 -0 -1.2 0
17.593 -14.651 -20.656 -0 -1.2 0
17.441 -15.117 -20.469 -0 -1.2 0
17.284 -15.577 -20.276 -0 -1.2 0
17.123 -16.034 -20.077 -0 -1.2 0
16.956 -16.486 -19.872 -0 -1.2 0
16.783 -16.932 -19.661 -0 -1.2 0
16.605 -17.375 -19.444 -0 -1.2 0
16.424 -17.812 -19.222 -0 -1.2 0
16.235 -18.244 -18.993 -0 -1.2 0
16.043 -18.671 -18.759 -0 -1.2 0
15.846 -19.093 -18.519 -0 -1.2 0
15.644 -19.509 -18.274 -0 -1.2 0
15.437 -19.919 -18.023 -0 -1.2 0
15.226 -20.324 -17.767 -0 -1.2 0
15.01 -20.723 -17.505 -0 -1.2 0
14.79 -21.116 -17.239 -0 -1.2 0
14.564 -21.503 -16.967 -0 -1.2 0
14.335 -21.884 -16.691 -0 -1.2 0
14.101 -22.259 -16.409 -0 -1.2 0
17.902 -10.306 -22.705 -0 -1.2 0
17.804 -10.803 -22.573 -0 -1.2 0
17.701 -11.296 -22.433 -0 -1.2 0
17.592 -11.788 -22.287 -0 -1.2 0
17.478 -12.275 -22.133 -0 -1.2 0
17.359 -12.758 -21.974 -0 -1.2 0
17.233 -13.24 -21.808 -0 -1.2 0
17.103 -13.716 -21.635 -0 -1.2 0
16.968 -14.19 -21.456 -0 -1.2 0
16.828 -14.658 -21.271 -0 -1.2 0
16.683 -15.124 -21.078 -0 -1.2 0
16.533 -15.584 -20.88 -0 -1.2 0
16.377 -16.041 -20.675 -0 -1.2 0
16.217 -16.493 -20.465 -0 -1.2 0
16.052 -16.939 -20.249 -0 -1.2 0
15.882 -17.382 -20.025 -0 -1.2 0
15.707 -17.818 -19.797 -0 -1.2 0
15.527 -18.251 -19.562 -0 -1.2 0
15.343 -18.678 -19.321 -0 -1.2 0
15.154 -19.099 -19.075 -0 -1.2 0
14.96 -19.515 -18.822 -0 -1.2 0
14.762 -19.926 -18.565 -0 -1.2 0
14.56 -20.331 -18.301 -0 -1.2 0
14.352 -20.729 -18.033 -0 -1.2 0
14.141 -21.122 -17.759 -0 -1.2 0
13.925 -21.509 -17.48 -0 -1.2 0
13.705 -21.89 -17.196 -0 -1.2 0
13.481 -22.265 -16.906 -0 -1.2 0
17.069 -10.31 -23.326 -0 -1.2 0
16.975 -10.807 -23.191 -0 -1.2 0
16.877 -11.301 -23.048 -0 -1.2 0
16.772 -11.792 -22.898 -0 -1.2 0
16.663 -12.28 -22.742 -0 -1.2 0
16.549 -12.763 -22.579 -0 -1.2 0
16.43 -13.244 -22.408 -0 -1.2 0
16.306 -13.721 -22.231 -0 -1.2 0
16.176 -14.194 -22.047 -0 -1.2 0
16.042 -14.663 -21.857 -0 -1.2 0
15.903 -15.128 -21.661 -0 -1.2 0
15.76 -15.589 -21.457 -0 -1.2 0
15.611 -16.045 -21.248 -0 -1.2 0
15.458 -16.497 -21.032 -0 -1.2 0
15.299 -16.943 -20.809 -0 -1.2 0
15.137 -17.386 -20.581 -0 -1.2 0
14.97 -17.823 -20.347 -0 -1.2 0
14.799 -18.255 -20.105 -0 -1.2 0
14.622 -18.682 -19.859 -0 -1.2 0
14.442 -19.103 -19.606 -0 -1.2 0
14.257 -19.519 -19.348 -0 -1.2 0
14.067 -19.93 -19.084 -0 -1.2 0
13.874 -20.334 -18.813 -0 -1.2 0
13.676 -20.733 -18.538 -0 -1.2 0
13.474 -21.126 -18.256 -0 -1.2 0
13.268 -21.513 -17.97 -0 -1.2 0
13.058 -21.893 -17.678 -0 -1.2 0
12.844 -22.268 -17.381 -0 -1.2 0
16.149 -10.312 -23.962 -0 -1.2 0
16.06 -10.809 -23.823 -0 -1.2 0
15.966 -11.302 -23.676 -0 -1.2 0
15.866 -11.794 -23.524 -0 -1.2 0
15.763 -12.281 -23.363 -0 -1.2 0
15.655 -12.765 -23.196 -0 -1.2 0
15.542 -13.246 -23.021 -0 -1.2 0
15.423 -13.722 -22.84 -0 -1.2 0
15.301 -14.196 -22.652 -0 -1.2 0
15.174 -14.664 -22.457 -0 -1.2 0
15.042 -15.13 -22.256 -0 -1.2 0
14.906 -15.59 -22.047 -0 -1.2 0
14.764 -16.047 -21.833 -0 -1.2 0
14.619 -16.498 -21.612 -0 -1.2 0
14.469 -16.945 -21.384 -0 -1.2 0
14.315 -17.387 -21.15 -0 -1.2 0
14.156 -17.824 -20.909 -0 -1.2 0
13.994 -18.257 -20.662 -0 -1.2 0
13.827 -18.683 -20.409 -0 -1.2 0
13.655 -19.105 -20.149 -0 -1.2 0
13.48 -19.52 -19.885 -0 -1.2 0
13.3 -19.931 -19.614 -0 -1.2 0
13.117 -20.336 -19.337 -0 -1.2 0
12.93 -20.735 -19.054 -0 -1.2 0
12.738 -21.127 -18.766 -0 -1.2 0
12.543 -21.514 -18.472 -0 -1.2 0
12.344 -21.895 -18.172 -0 -1.2 0
12.141 -22.269 -17.867 -0 -1.2 0
15.34 -9.814 -24.659 -0 -1.2 0
15.261 -10.313 -24.525 -0 -1.2 0
15.177 -10.811 -24.383 -0 -1.2 0
15.087 -11.304 -24.233 -0 -1.2 0
14.994 -11.795 -24.077 -0 -1.2 0
14.896 -12.283 -23.913 -0 -1.2 0
14.793 -12.766 -23.742 -0 -1.2 0
14.686 -13.248 -23.563 -0 -1.2 0
14.575 -13.724 -23.378 -0 -1.2 0
14.46 -14.197 -23.186 -0 -1.2 0
14.339 -14.666 -22.986 -0 -1.2 0
14.214 -15.131 -22.781 -0 -1.2 0
14.086 -15.592 -22.568 -0 -1.2 0
13.952 -16.048 -22.348 -0 -1.2 0
13.815 -16.5 -22.122 -0 -1.2 0
13.673 -16.946 -21.889 -0 -1.2 0
13.527 -17.389 -21.649 -0 -1.2 0
13.378 -17.825 -21.403 -0 -1.2 0
13.223 -18.258 -21.15 -0 -1.2 0
13.066 -18.685 -20.891 -0 -1.2 0
12.904 -19.106 -20.627 -0 -1.2 0
12.738 -19.522 -20.355 -0 -1.2 0
12.568 -19.932 -20.078 -0 -1.2 0
12.395 -20.337 -19.794 -0 -1.2 0
12.217 -20.736 -19.505 -0 -1.2 0
12.036 -21.128 -19.21 -0 -1.2 0
11.852 -21.515 -18.909 -0 -1.2 0
11.664 -21.896 -18.603 -0 -1.2 0
11.472 -22.27 -18.291 -0 -1.2 0
14.426 -9.819 -25.192 -0 -1.2 0
14.351 -10.318 -25.054 -0 -1.2 0
14.272 -10.815 -24.909 -0 -1.2 0
14.188 -11.309 -24.757 -0 -1.2 0
14.101 -11.8 -24.596 -0 -1.2 0
14.008 -12.287 -24.429 -0 -1.2 0
13.913 -12.771 -24.255 -0 -1.2 0
13.812 -13.252 -24.072 -0 -1.2 0
13.708 -13.728 -23.883 -0 -1.2 0
13.598 -14.202 -23.686 -0 -1.2 0
13.486 -14.67 -23.483 -0 -1.2 0
13.368 -15.136 -23.272 -0 -1.2 0
13.247 -15.596 -23.055 -0 -1.2 0
13.122 -16.052 -22.83 -0 -1.2 0
12.994 -16.504 -22.599 -0 -1.2 0
12.86 -16.95 -22.361 -0 -1.2 0
12.723 -17.393 -22.116 -0 -1.2 0
12.582 -17.829 -21.865 -0 -1.2 0
12.438 -18.262 -21.606 -0 -1.2 0
12.29 -18.688 -21.342 -0 -1.2 0
12.137 -19.11 -21.071 -0 -1.2 0
11.981 -19.526 -20.794 -0 -1.2 0
11.822 -19.936 -20.511 -0 -1.2 0
11.659 -20.341 -20.221 -0 -1.2 0
11.493 -20.739 -19.925 -0 -1.2 0
11.322 -21.132 -19.623 -0 -1.2 0
11.149 -21.519 -19.316 -0 -1.2 0
10.973 -21.899 -19.002 -0 -1.2 0
10.793 -22.274 -18.684 -0 -1.2 0
13.419 -9.823 -25.728 -0 -1.2 0
13.349 -10.322 -25.588 -0 -1.2 0
13.276 -10.82 -25.439 -0 -1.2 0
13.198 -11.313 -25.284 -0 -1.2 0
13.117 -11.804 -25.12 -0 -1.2 0
13.032 -12.292 -24.949 -0 -1.2 0
12.942 -12.775 -24.771 -0 -1.2 0
12.849 -13.256 -24.584 -0 -1.2 0
12.752 -13.733 -24.392 -0 -1.2 0
12.651 -14.206 -24.191 -0 -1.2 0
12.546 -14.674 -23.983 -0 -1.2 0
12.437 -15.14 -23.768 -0 -1.2 0
12.325 -15.6 -23.546 -0 -1.2 0
12.208 -16.056 -23.317 -0 -1.2 0
12.089 -16.508 -23.079 -0 -1.2 0
11.965 -16.954 -22.836 -0 -1.2 0
11.838 -17.397 -22.586 -0 -1.2 0
11.707 -17.833 -22.33 -0 -1.2 0
11.573 -18.266 -22.066 -0 -1.2 0
11.435 -18.692 -21.796 -0 -1.2 0
11.294 -19.114 -21.519 -0 -1.2 0
11.149 -19.529 -21.236 -0 -1.2 0
11.001 -19.94 -20.946 -0 -1.2 0
10.85 -20.344 -20.65 -0 -1.2 0
10.695 -20.743 -20.348 -0 -1.2 0
10.537 -21.135 -20.04 -0 -1.2 0
10.376 -21.522 -19.725 -0 -1.2 0
10.211 -21.903 -19.405 -0 -1.2 0
10.044 -22.277 -19.079 -0 -1.2 0
12.465 -9.827 -26.189 -0 -1.2 0
12.4 -10.326 -26.046 -0 -1.2 0
12.333 -10.823 -25.895 -0 -1.2 0
12.261 -11.317 -25.737 -0 -1.2 0
12.185 -11.808 -25.57 -0 -1.2 0
12.106 -12.295 -25.396 -0 -1.2 0
12.023 -12.778 -25.214 -0 -1.2 0
11.937 -13.26 -25.025 -0 -1.2 0
11.847 -13.736 -24.828 -0 -1.2 0
11.753 -14.209 -24.624 -0 -1.2 0
11.656 -14.678 -24.413 -0 -1.2 0
11.555 -15.143 -24.194 -0 -1.2 0
11.451 -15.603 -23.967 -0 -1.2 0
11.343 -16.06 -23.734 -0 -1.2 0
11.232 -16.511 -23.493 -0 -1.2 0
11.117 -16.958 -23.245 -0 -1.2 0
10.999 -17.4 -22.991 -0 -1.2 0
10.878 -17.837 -22.729 -0 -1.2 0
10.753 -18.269 -22.46 -0 -1.2 0
10.626 -18.695 -22.185 -0 -1.2 0
10.495 -19.117 -21.903 -0 -1.2 0
10.361 -19.532 -21.615 -0 -1.2 0
10.223 -19.943 -21.32 -0 -1.2 0
10.082 -20.347 -21.019 -0 -1.2 0
9.94 -20.746 -20.711 -0 -1.2 0
9.793 -21.138 -20.397 -0 -1.2 0
9.643 -21.525 -20.078 -0 -1.2 0
9.491 -21.905 -19.751 -0 -1.2 0
9.336 -22.28 -19.42 -0 -1.2 0
11.585 -9.328 -26.737 -0 -1.2 0
11.529 -9.83 -26.6 -0 -1.2 0
11.47 -10.329 -26.454 -0 -1.2 0
11.407 -10.826 -26.302 -0 -1.2 0
11.342 -11.32 -26.141 -0 -1.2 0
11.272 -11.811 -25.972 -0 -1.2 0
11.199 -12.298 -25.795 -0 -1.2 0
11.123 -12.781 -25.611 -0 -1.2 0
11.043 -13.263 -25.418 -0 -1.2 0
10.959 -13.739 -25.218 -0 -1.2 0
10.874 -14.212 -25.01 -0 -1.2 0
10.784 -14.681 -24.795 -0 -1.2 0
10.691 -15.146 -24.573 -0 -1.2 0
10.595 -15.606 -24.344 -0 -1.2 0
10.494 -16.063 -24.106 -0 -1.2 0
10.392 -16.514 -23.862 -0 -1.2 0
10.286 -16.96 -23.61 -0 -1.2 0
10.178 -17.403 -23.352 -0 -1.2 0
10.066 -17.839 -23.085 -0 -1.2 0
9.95 -18.272 -22.813 -0 -1.2 0
9.832 -18.698 -22.533 -0 -1.2 0
9.712 -19.119 -22.247 -0 -1.2 0
9.588 -19.535 -21.954 -0 -1.2 0
9.46 -19.945 -21.655 -0 -1.2 0
9.331 -20.35 -21.348 -0 -1.2 0
9.198 -20.748 -21.035 -0 -1.2 0
9.063 -21.141 -20.717 -0 -1.2 0
8.925 -21.527 -20.391 -0 -1.2 0
8.784 -21.908 -20.06 -0 -1.2 0
8.641 -22.282 -19.723 -0 -1.2 0
10.56 -9.331 -27.143 -0 -1.2 0
10.51 -9.833 -27.004 -0 -1.2 0
10.456 -10.332 -26.856 -0 -1.2 0
10.399 -10.829 -26.701 -0 -1.2 0
10.339 -11.322 -26.538 -0 -1.2 0
10.276 -11.814 -26.366 -0 -1.2 0
10.209 -12.301 -26.187 -0 -1.2 0
10.14 -12.784 -25.999 -0 -1.2 0
10.068 -13.265 -25.804 -0 -1.2 0
9.992 -13.742 -25.601 -0 -1.2 0
9.913 -14.215 -25.391 -0 -1.2 0
9.832 -14.683 -25.172 -0 -1.2 0
9.747 -15.149 -24.946 -0 -1.2 0
9.66 -15.609 -24.713 -0 -1.2 0
9.57 -16.065 -24.472 -0 -1.2 0
9.476 -16.517 -24.224 -0 -1.2 0
9.38 -16.963 -23.968 -0 -1.2 0
9.281 -17.405 -23.705 -0 -1.2 0
9.179 -17.842 -23.436 -0 -1.2 0
9.074 -18.274 -23.159 -0 -1.2 0
8.968 -18.7 -22.875 -0 -1.2 0
8.858 -19.122 -22.584 -0 -1.2 0
8.744 -19.537 -22.287 -0 -1.2 0
8.629 -19.948 -21.982 -0 -1.2 0
8.511 -20.352 -21.672 -0 -1.2 0
8.39 -20.75 -21.354 -0 -1.2 0
8.267 -21.143 -21.03 -0 -1.2 0
8.141 -21.529 -20.7 -0 -1.2 0
8.013 -21.91 -20.364 -0 -1.2 0
7.883 -22.284 -20.021 -0 -1.2 0
9.594 -9.333 -27.484 -0 -1.2 0
9.548 -9.835 -27.343 -0 -1.2 0
9.5 -10.334 -27.193 -0 -1.2 0
9.448 -10.831 -27.035 -0 -1.2 0
9.394 -11.325 -26.871 -0 -1.2 0
9.337 -11.816 -26.697 -0 -1.2 0
9.277 -12.303 -26.515 -0 -1.2 0
9.215 -12.786 -26.325 -0 -1.2 0
9.149 -13.267 -26.128 -0 -1.2 0
9.081 -13.744 -25.922 -0 -1.2 0
9.01 -14.217 -25.709 -0 -1.2 0
8.936 -14.685 -25.487 -0 -1.2 0
8.859 -15.151 -25.259 -0 -1.2 0
8.78 -15.611 -25.023 -0 -1.2 0
8.698 -16.067 -24.779 -0 -1.2 0
8.613 -16.519 -24.527 -0 -1.2 0
8.526 -16.965 -24.268 -0 -1.2 0
8.436 -17.407 -24.002 -0 -1.2 0
8.344 -17.844 -23.729 -0 -1.2 0
8.249 -18.276 -23.449 -0 -1.2 0
8.152 -18.702 -23.161 -0 -1.2 0
8.052 -19.124 -22.867 -0 -1.2 0
7.95 -19.539 -22.565 -0 -1.2 0
7.845 -19.949 -22.257 -0 -1.2 0
7.738 -20.354 -21.943 -0 -1.2 0
7.629 -20.752 -21.621 -0 -1.2 0
7.518 -21.145 -21.293 -0 -1.2 0
7.403 -21.531 -20.958 -0 -1.2 0
7.288 -21.912 -20.618 -0 -1.2 0
7.169 -22.286 -20.271 -0 -1.2 0
8.658 -8.833 -27.921 -0 -1.2 0
8.62 -9.338 -27.787 -0 -1.2 0
8.579 -9.84 -27.645 -0 -1.2 0
8.535 -10.339 -27.494 -0 -1.2 0
8.49 -10.837 -27.335 -0 -1.2 0
8.441 -11.33 -27.168 -0 -1.2 0
8.39 -11.821 -26.992 -0 -1.2 0
8.337 -12.308 -26.808 -0 -1.2 0
8.281 -12.791 -26.617 -0 -1.2 0
8.222 -13.272 -26.416 -0 -1.2 0
8.161 -13.749 -26.209 -0 -1.2 0
8.098 -14.222 -25.993 -0 -1.2 0
8.032 -14.69 -25.769 -0 -1.2 0
7.963 -15.155 -25.538 -0 -1.2 0
7.891 -15.616 -25.299 -0 -1.2 0
7.818 -16.072 -25.052 -0 -1.2 0
7.743 -16.523 -24.798 -0 -1.2 0
7.665 -16.969 -24.536 -0 -1.2 0
7.584 -17.412 -24.267 -0 -1.2 0
7.501 -17.848 -23.991 -0 -1.2 0
7.417 -18.28 -23.707 -0 -1.2 0
7.329 -18.707 -23.416 -0 -1.2 0
7.24 -19.128 -23.118 -0 -1.2 0
7.149 -19.543 -22.813 -0 -1.2 0
7.055 -19.954 -22.502 -0 -1.2 0
6.96 -20.358 -22.183 -0 -1.2 0
6.861 -20.756 -21.858 -0 -1.2 0
6.761 -21.149 -21.526 -0 -1.2 0
6.659 -21.535 -21.188 -0 -1.2 0
6.555 -21.915 -20.843 -0 -1.2 0
6.449 -22.29 -20.492 -0 -1.2 0
7.581 -8.844 -28.214 -0 -1.2 0
7.548 -9.349 -28.078 -0 -1.2 0
7.512 -9.851 -27.934 -0 -1.2 0
7.475 -10.351 -27.781 -0 -1.2 0
7.435 -10.848 -27.62 -0 -1.2 0
7.393 -11.341 -27.451 -0 -1.2 0
7.349 -11.832 -27.273 -0 -1.2 0
7.302 -12.319 -27.087 -0 -1.2 0
7.254 -12.802 -26.893 -0 -1.2 0
7.202 -13.283 -26.691 -0 -1.2 0
7.149 -13.759 -26.481 -0 -1.2 0
7.094 -14.232 -26.262 -0 -1.2 0
7.036 -14.701 -26.037 -0 -1.2 0
6.976 -15.166 -25.803 -0 -1.2 0
6.914 -15.626 -25.56 -0 -1.2 0
6.851 -16.082 -25.311 -0 -1.2 0
6.785 -16.533 -25.054 -0 -1.2 0
6.717 -16.979 -24.789 -0 -1.2 0
6.647 -17.422 -24.517 -0 -1.2 0
6.575 -17.858 -24.237 -0 -1.2 0
6.501 -18.29 -23.951 -0 -1.2 0
6.425 -18.716 -23.656 -0 -1.2 0
6.347 -19.137 -23.356 -0 -1.2 0
6.267 -19.553 -23.047 -0 -1.2 0
6.185 -19.963 -22.732 -0 -1.2 0
6.102 -20.367 -22.409 -0 -1.2 0
6.017 -20.765 -22.081 -0 -1.2 0
5.929 -21.157 -21.745 -0 -1.2 0
5.841 -21.544 -21.403 -0 -1.2 0
5.749 -21.924 -21.055 -0 -1.2 0
5.657 -22.298 -20.7 -0 -1.2 0
6.596 -8.348 -28.575 -0 -1.2 0
6.57 -8.855 -28.447 -0 -1.2 0
6.542 -9.36 -28.31 -0 -1.2 0
6.511 -9.862 -28.164 -0 -1.2 0
6.48 -10.361 -28.01 -0 -1.2 0
6.445 -10.858 -27.847 -0 -1.2 0
6.409 -11.351 -27.677 -0 -1.2 0
6.37 -11.842 -27.498 -0 -1.2 0
6.33 -12.329 -27.31 -0 -1.2 0
6.289 -12.812 -27.114 -0 -1.2 0
6.245 -13.293 -26.91 -0 -1.2 0
6.2 -13.769 -26.698 -0 -1.2 0
6.151 -14.242 -26.478 -0 -1.2 0
6.103 -14.71 -26.25 -0 -1.2 0
6.051 -15.175 -26.014 -0 -1.2 0
5.997 -15.635 -25.77 -0 -1.2 0
5.943 -16.091 -25.518 -0 -1.2 0
5.887 -16.542 -25.258 -0 -1.2 0
5.828 -16.989 -24.991 -0 -1.2 0
5.767 -17.431 -24.716 -0 -1.2 0
5.705 -17.867 -24.435 -0 -1.2 0
5.642 -18.299 -24.145 -0 -1.2 0
5.576 -18.725 -23.848 -0 -1.2 0
5.509 -19.146 -23.544 -0 -1.2 0
5.44 -19.561 -23.233 -0 -1.2 0
5.369 -19.971 -22.915 -0 -1.2 0
5.297 -20.375 -22.59 -0 -1.2 0
5.224 -20.773 -22.257 -0 -1.2 0
5.148 -21.165 -21.92 -0 -1.2 0
5.072 -21.552 -21.574 -0 -1.2 0
4.993 -21.932 -21.223 -0 -1.2 0
4.913 -22.306 -20.864 -0 -1.2 0
5.572 -8.358 -28.774 -0 -1.2 0
5.551 -8.865 -28.645 -0 -1.2 0
5.528 -9.37 -28.507 -0 -1.2 0
5.502 -9.872 -28.36 -0 -1.2 0
5.476 -10.371 -28.205 -0 -1.2 0
5.447 -10.868 -28.041 -0 -1.2 0
5.417 -11.361 -27.869 -0 -1.2 0
5.385 -11.852 -27.688 -0 -1.2 0
5.352 -12.339 -27.499 -0 -1.2 0
5.317 -12.822 -27.302 -0 -1.2 0
5.28 -13.302 -27.096 -0 -1.2 0
5.242 -13.778 -26.882 -0 -1.2 0
5.202 -14.251 -26.661 -0 -1.2 0
5.161 -14.719 -26.431 -0 -1.2 0
5.118 -15.184 -26.193 -0 -1.2 0
5.074 -15.644 -25.947 -0 -1.2 0
5.027 -16.1 -25.693 -0 -1.2 0
4.98 -16.551 -25.431 -0 -1.2 0
4.931 -16.997 -25.162 -0 -1.2 0
4.881 -17.439 -24.885 -0 -1.2 0
4.829 -17.875 -24.601 -0 -1.2 0
4.775 -18.307 -24.309 -0 -1.2 0
4.72 -18.733 -24.01 -0 -1.2 0
4.664 -19.154 -23.704 -0 -1.2 0
4.606 -19.569 -23.39 -0 -1.2 0
4.547 -19.979 -23.07 -0 -1.2 0
4.486 -20.383 -22.742 -0 -1.2 0
4.425 -20.781 -22.409 -0 -1.2 0
4.361 -21.173 -22.067 -0 -1.2 0
4.296 -21.559 -21.719 -0 -1.2 0
4.231 -21.939 -21.365 -0 -1.2 0
4.164 -22.313 -21.004 -0 -1.2 0
4.475 -7.859 -29.068 -0 -1.2 0
4.459 -8.368 -28.947 -0 -1.2 0
4.443 -8.875 -28.817 -0 -1.2 0
4.425 -9.38 -28.678 -0 -1.2 0
4.404 -9.882 -28.53 -0 -1.2 0
4.384 -10.381 -28.374 -0 -1.2 0
4.362 -10.878 -28.209 -0 -1.2 0
4.338 -11.371 -28.036 -0 -1.2 0
4.314 -11.862 -27.853 -0 -1.2 0
4.287 -12.349 -27.663 -0 -1.2 0
4.26 -12.832 -27.465 -0 -1.2 0
4.231 -13.312 -27.257 -0 -1.2 0
4.202 -13.788 -27.043 -0 -1.2 0
4.17 -14.261 -26.819 -0 -1.2 0
4.137 -14.729 -26.587 -0 -1.2 0
4.103 -15.194 -26.348 -0 -1.2 0
4.068 -15.654 -26.101 -0 -1.2 0
4.033 -16.11 -25.845 -0 -1.2 0
3.994 -16.561 -25.582 -0 -1.2 0
3.956 -17.007 -25.311 -0 -1.2 0
3.916 -17.449 -25.032 -0 -1.2 0
3.875 -17.884 -24.745 -0 -1.2 0
3.833 -18.316 -24.452 -0 -1.2 0
3.79 -18.742 -24.151 -0 -1.2 0
3.745 -19.163 -23.843 -0 -1.2 0
3.699 -19.578 -23.527 -0 -1.2 0
3.653 -19.988 -23.204 -0 -1.2 0
3.604 -20.392 -22.874 -0 -1.2 0
3.555 -20.789 -22.537 -0 -1.2 0
3.506 -21.181 -22.194 -0 -1.2 0
3.454 -21.567 -21.844 -0 -1.2 0
3.401 -21.947 -21.487 -0 -1.2 0
3.349 -22.321 -21.124 -0 -1.2 0
3.423 -7.869 -29.193 -0 -1.2 0
3.413 -8.378 -29.07 -0 -1.2 0
3.401 -8.885 -28.939 -0 -1.2 0
3.387 -9.39 -28.8 -0 -1.2 0
3.372 -9.891 -28.651 -0 -1.2 0
3.357 -10.39 -28.495 -0 -1.2 0
3.341 -10.887 -28.328 -0 -1.2 0
3.324 -11.38 -28.154 -0 -1.2 0
3.305 -11.871 -27.971 -0 -1.2 0
3.286 -12.358 -27.78 -0 -1.2 0
3.266 -12.841 -27.58 -0 -1.2 0
3.244 -13.321 -27.372 -0 -1.2 0
3.222 -13.797 -27.156 -0 -1.2 0
3.199 -14.27 -26.931 -0 -1.2 0
3.174 -14.738 -26.699 -0 -1.2 0
3.149 -15.203 -26.457 -0 -1.2 0
3.123 -15.663 -26.209 -0 -1.2 0
3.096 -16.118 -25.953 -0 -1.2 0
3.068 -16.569 -25.688 -0 -1.2 0
3.039 -17.015 -25.416 -0 -1.2 0
3.009 -17.457 -25.135 -0 -1.2 0
2.978 -17.893 -24.848 -0 -1.2 0
2.946 -18.324 -24.553 -0 -1.2 0
2.914 -18.75 -24.25 -0 -1.2 0
2.88 -19.171 -23.94 -0 -1.2 0
2.846 -19.586 -23.622 -0 -1.2 0
2.811 -19.995 -23.298 -0 -1.2 0
2.775 -20.399 -22.967 -0 -1.2 0
2.738 -20.797 -22.629 -0 -1.2 0
2.7 -21.189 -22.283 -0 -1.2 0
2.662 -21.574 -21.932 -0 -1.2 0
2.622 -21.954 -21.573 -0 -1.2 0
2.582 -22.328 -21.207 -0 -1.2 0
2.375 -7.367 -29.391 -0 -1.2 0
2.369 -7.878 -29.277 -0 -1.2 0
2.362 -8.387 -29.155 -0 -1.2 0
2.354 -8.894 -29.023 -0 -1.2 0
2.346 -9.399 -28.883 -0 -1.2 0
2.337 -9.901 -28.735 -0 -1.2 0
2.327 -10.399 -28.577 -0 -1.2 0
2.317 -10.896 -28.41 -0 -1.2 0
2.306 -11.389 -28.236 -0 -1.2 0
2.294 -11.88 -28.052 -0 -1.2 0
2.281 -12.367 -27.859 -0 -1.2 0
2.268 -12.849 -27.66 -0 -1.2 0
2.255 -13.33 -27.45 -0 -1.2 0
2.24 -13.806 -27.233 -0 -1.2 0
2.224 -14.279 -27.008 -0 -1.2 0
2.209 -14.746 -26.774 -0 -1.2 0
2.192 -15.211 -26.533 -0 -1.2 0
2.174 -15.671 -26.283 -0 -1.2 0
2.156 -16.127 -26.026 -0 -1.2 0
2.138 -16.577 -25.76 -0 -1.2 0
2.119 -17.023 -25.486 -0 -1.2 0
2.099 -17.465 -25.205 -0 -1.2 0
2.078 -17.9 -24.916 -0 -1.2 0
2.057 -18.332 -24.62 -0 -1.2 0
2.035 -18.758 -24.316 -0 -1.2 0
2.013 -19.179 -24.005 -0 -1.2 0
1.99 -19.593 -23.687 -0 -1.2 0
1.966 -20.003 -23.362 -0 -1.2 0
1.942 -20.406 -23.028 -0 -1.2 0
1.918 -20.804 -22.689 -0 -1.2 0
1.892 -21.196 -22.343 -0 -1.2 0
1.866 -21.581 -21.99 -0 -1.2 0
1.84 -21.961 -21.63 -0 -1.2 0
1.813 -22.335 -21.263 -0 -1.2 0
1.232 -7.377 -29.442 -0 -1.2 0
1.23 -7.888 -29.328 -0 -1.2 0
1.228 -8.397 -29.205 -0 -1.2 0
1.225 -8.904 -29.073 -0 -1.2 0
1.222 -9.409 -28.933 -0 -1.2 0
1.219 -9.91 -28.783 -0 -1.2 0
1.216 -10.409 -28.625 -0 -1.2 0
1.211 -10.906 -28.458 -0 -1.2 0
1.207 -11.399 -28.282 -0 -1.2 0
1.202 -11.889 -28.099 -0 -1.2 0
1.196 -12.376 -27.906 -0 -1.2 0
1.191 -12.859 -27.705 -0 -1.2 0
1.185 -13.34 -27.495 -0 -1.2 0
1.179 -13.815 -27.278 -0 -1.2 0
1.172 -14.288 -27.052 -0 -1.2 0
1.165 -14.756 -26.818 -0 -1.2 0
1.159 -15.22 -26.576 -0 -1.2 0
1.15 -15.68 -26.325 -0 -1.2 0
1.143 -16.136 -26.067 -0 -1.2 0
1.134 -16.586 -25.801 -0 -1.2 0
1.125 -17.032 -25.527 -0 -1.2 0
1.117 -17.473 -25.245 -0 -1.2 0
1.107 -17.909 -24.956 -0 -1.2 0
1.097 -18.341 -24.658 -0 -1.2 0
1.087 -18.766 -24.354 -0 -1.2 0
1.077 -19.187 -24.042 -0 -1.2 0
1.066 -19.601 -23.723 -0 -1.2 0
1.055 -20.011 -23.396 -0 -1.2 0
1.044 -20.414 -23.063 -0 -1.2 0
1.032 -20.812 -22.722 -0 -1.2 0
1.021 -21.203 -22.376 -0 -1.2 0
1.008 -21.589 -22.021 -0 -1.2 0
0.996 -21.968 -21.661 -0 -1.2 0
0.982 -22.342 -21.293 -0 -1.2 0
0.181 -6.875 -29.553 -0 -1.2 0
0.184 -7.387 -29.448 -0 -1.2 0
0.186 -7.898 -29.334 -0 -1.2 0
0.188 -8.407 -29.21 -0 -1.2 0
0.19 -8.914 -29.079 -0 -1.2 0
0.192 -9.418 -28.938 -0 -1.2 0
0.194 -9.92 -28.789 -0 -1.2 0
0.196 -10.419 -28.63 -0 -1.2 0
0.198 -10.916 -28.463 -0 -1.2 0
0.2 -11.408 -28.287 -0 -1.2 0
0.201 -11.899 -28.103 -0 -1.2 0
0.203 -12.386 -27.911 -0 -1.2 0
0.204 -12.868 -27.71 -0 -1.2 0
0.206 -13.349 -27.5 -0 -1.2 0
0.207 -13.825 -27.282 -0 -1.2 0
0.209 -14.297 -27.055 -0 -1.2 0
0.21 -14.765 -26.821 -0 -1.2 0
0.212 -15.229 -26.579 -0 -1.2 0
0.213 -15.689 -26.328 -0 -1.2 0
0.213 -16.144 -26.069 -0 -1.2 0
0.215 -16.595 -25.802 -0 -1.2 0
0.216 -17.041 -25.528 -0 -1.2 0
0.216 -17.482 -25.247 -0 -1.2 0
0.218 -17.918 -24.957 -0 -1.2 0
0.218 -18.349 -24.659 -0 -1.2 0
0.219 -18.774 -24.354 -0 -1.2 0
0.22 -19.195 -24.042 -0 -1.2 0
0.221 -19.609 -23.723 -0 -1.2 0
0.221 -20.019 -23.396 -0 -1.2 0
0.221 -20.422 -23.063 -0 -1.2 0
0.222 -20.82 -22.722 -0 -1.2 0
0.223 -21.211 -22.374 -0 -1.2 0
0.223 -21.596 -22.02 -0 -1.2 0
0.223 -21.976 -21.659 -0 -1.2 0
0.223 -22.349 -21.291 -0 -1.2 0
-0.862 -6.884 -29.522 -0 -1.2 0
-0.855 -7.397 -29.417 -0 -1.2 0
-0.85 -7.908 -29.303 -0 -1.2 0
-0.843 -8.417 -29.18 -0 -1.2 0
-0.837 -8.923 -29.048 -0 -1.2 0
-0.829 -9.428 -28.907 -0 -1.2 0
-0.823 -9.93 -28.757 -0 -1.2 0
-0.815 -10.429 -28.599 -0 -1.2 0
-0.807 -10.925 -28.432 -0 -1.2 0
-0.8 -11.418 -28.256 -0 -1.2 0
-0.791 -11.908 -28.072 -0 -1.2 0
-0.783 -12.395 -27.879 -0 -1.2 0
-0.774 -12.878 -27.678 -0 -1.2 0
-0.766 -13.358 -27.468 -0 -1.2 0
-0.756 -13.834 -27.25 -0 -1.2 0
-0.747 -14.306 -27.024 -0 -1.2 0
-0.737 -14.774 -26.79 -0 -1.2 0
-0.728 -15.238 -26.548 -0 -1.2 0
-0.718 -15.698 -26.297 -0 -1.2 0
-0.708 -16.153 -26.038 -0 -1.2 0
-0.697 -16.604 -25.772 -0 -1.2 0
-0.686 -17.049 -25.497 -0 -1.2 0
-0.675 -17.491 -25.215 -0 -1.2 0
-0.664 -17.926 -24.926 -0 -1.2 0
-0.653 -18.357 -24.629 -0 -1.2 0
-0.641 -18.783 -24.324 -0 -1.2 0
-0.629 -19.203 -24.011 -0 -1.2 0
-0.618 -19.617 -23.692 -0 -1.2 0
-0.606 -20.027 -23.365 -0 -1.2 0
-0.593 -20.43 -23.032 -0 -1.2 0
-0.581 -20.827 -22.691 -0 -1.2 0
-0.568 -21.219 -22.344 -0 -1.2 0
-0.556 -21.604 -21.989 -0 -1.2 0
-0.543 -21.983 -21.629 -0 -1.2 0
-0.53 -22.356 -21.261 -0 -1.2 0
-1.995 -6.38 -29.543 -0 -1.2 0
-1.985 -6.895 -29.447 -0 -1.2 0
-1.975 -7.408 -29.342 -0 -1.2 0
-1.965 -7.918 -29.228 -0 -1.2 0
-1.954 -8.427 -29.105 -0 -1.2 0
-1.942 -8.934 -28.973 -0 -1.2 0
-1.93 -9.438 -28.833 -0 -1.2 0
-1.917 -9.94 -28.683 -0 -1.2 0
-1.904 -10.439 -28.525 -0 -1.2 0
-1.89 -10.935 -28.358 -0 -1.2 0
-1.875 -11.428 -28.183 -0 -1.2 0
-1.86 -11.918 -27.999 -0 -1.2 0
-1.844 -12.405 -27.807 -0 -1.2 0
-1.829 -12.887 -27.606 -0 -1.2 0
-1.811 -13.368 -27.396 -0 -1.2 0
-1.794 -13.843 -27.179 -0 -1.2 0
-1.776 -14.316 -26.953 -0 -1.2 0
-1.758 -14.783 -26.719 -0 -1.2 0
-1.739 -15.248 -26.477 -0 -1.2 0
-1.719 -15.707 -26.226 -0 -1.2 0
-1.7 -16.162 -25.968 -0 -1.2 0
-1.678 -16.613 -25.703 -0 -1.2 0
-1.658 -17.058 -25.429 -0 -1.2 0
-1.637 -17.499 -25.147 -0 -1.2 0
-1.615 -17.935 -24.858 -0 -1.2 0
-1.591 -18.366 -24.561 -0 -1.2 0
-1.569 -18.791 -24.257 -0 -1.2 0
-1.545 -19.212 -23.945 -0 -1.2 0
-1.522 -19.626 -23.626 -0 -1.2 0
-1.497 -20.035 -23.3 -0 -1.2 0
-1.472 -20.438 -22.968 -0 -1.2 0
-1.446 -20.835 -22.627 -0 -1.2 0
-1.42 -21.227 -22.28 -0 -1.2 0
-1.394 -21.612 -21.926 -0 -1.2 0
-1.368 -21.991 -21.566 -0 -1.2 0
-1.341 -22.364 -21.2 -0 -1.2 0
-3.038 -6.39 -29.436 -0 -1.2 0
-3.026 -6.904 -29.34 -0 -1.2 0
-3.012 -7.417 -29.235 -0 -1.2 0
-2.997 -7.928 -29.121 -0 -1.2 0
-2.983 -8.436 -28.999 -0 -1.2 0
-2.966 -8.943 -28.867 -0 -1.2 0
-2.949 -9.448 -28.727 -0 -1.2 0
-2.931 -9.949 -28.578 -0 -1.2 0
-2.913 -10.448 -28.421 -0 -1.2 0
-2.893 -10.944 -28.253 -0 -1.2 0
-2.872 -11.437 -28.079 -0 -1.2 0
-2.85 -11.927 -27.895 -0 -1.2 0
-2.828 -12.414 -27.703 -0 -1.2 0
-2.805 -12.896 -27.503 -0 -1.2 0
-2.78 -13.377 -27.294 -0 -1.2 0
-2.755 -13.852 -27.077 -0 -1.2 0
-2.73 -14.325 -26.852 -0 -1.2 0
-2.703 -14.792 -26.619 -0 -1.2 0
-2.675 -15.256 -26.377 -0 -1.2 0
-2.648 -15.716 -26.128 -0 -1.2 0
-2.618 -16.171 -25.87 -0 -1.2 0
-2.588 -16.621 -25.605 -0 -1.2 0
-2.558 -17.066 -25.332 -0 -1.2 0
-2.526 -17.508 -25.051 -0 -1.2 0
-2.494 -17.943 -24.763 -0 -1.2 0
-2.461 -18.374 -24.467 -0 -1.2 0
-2.427 -18.799 -24.164 -0 -1.2 0
-2.393 -19.219 -23.853 -0 -1.2 0
-2.358 -19.633 -23.535 -0 -1.2 0
-2.322 -20.043 -23.21 -0 -1.2 0
-2.285 -20.446 -22.878 -0 -1.2 0
-2.248 -20.843 -22.538 -0 -1.2 0
-2.21 -21.234 -22.193 -0 -1.2 0
-2.172 -21.619 -21.84 -0 -1.2 0
-2.132 -21.998 -21.481 -0 -1.2 0
-2.092 -22.371 -21.115 -0 -1.2 0
-4.154 0.378 -29.721 -0 -1.2 0
-4.076 -5.883 -29.38 -0 -1.2 0
-4.062 -6.399 -29.294 -0 -1.2 0
-4.046 -6.914 -29.198 -0 -1.2 0
-4.029 -7.426 -29.094 -0 -1.2 0
-4.011 -7.937 -28.98 -0 -1.2 0
-3.991 -8.446 -28.857 -0 -1.2 0
-3.971 -8.952 -28.726 -0 -1.2 0
-3.949 -9.457 -28.587 -0 -1.2 0
-3.926 -9.958 -28.439 -0 -1.2 0
-3.901 -10.457 -28.282 -0 -1.2 0
-3.876 -10.953 -28.116 -0 -1.2 0
-3.849 -11.446 -27.942 -0 -1.2 0
-3.821 -11.936 -27.759 -0 -1.2 0
-3.792 -12.423 -27.567 -0 -1.2 0
-3.762 -12.905 -27.367 -0 -1.2 0
-3.73 -13.385 -27.16 -0 -1.2 0
-3.698 -13.861 -26.943 -0 -1.2 0
-3.664 -14.333 -26.719 -0 -1.2 0
-3.63 -14.8 -26.487 -0 -1.2 0
-3.594 -15.265 -26.246 -0 -1.2 0
-3.557 -15.724 -25.998 -0 -1.2 0
-3.52 -16.179 -25.741 -0 -1.2 0
-3.481 -16.629 -25.477 -0 -1.2 0
-3.441 -17.074 -25.205 -0 -1.2 0
-3.4 -17.515 -24.925 -0 -1.2 0
-3.358 -17.951 -24.638 -0 -1.2 0
-3.314 -18.382 -24.344 -0 -1.2 0
-3.27 -18.807 -24.042 -0 -1.2 0
-3.225 -19.227 -23.732 -0 -1.2 0
-3.179 -19.641 -23.415 -0 -1.2 0
-3.131 -20.05 -23.091 -0 -1.2 0
-3.083 -20.453 -22.76 -0 -1.2 0
-3.034 -20.85 -22.423 -0 -1.2 0
-2.985 -21.241 -22.079 -0 -1.2 0
-2.934 -21.626 -21.727 -0 -1.2 0
-2.882 -22.005 -21.369 -0 -1.2 0
-2.829 -22.377 -21.005 -0 -1.2 0
-5.259 0.368 -29.527 -0 -1.2 0
-5.17 -5.893 -29.189 -0 -1.2 0
-5.152 -6.409 -29.102 -0 -1.2 0
-5.134 -6.923 -29.006 -0 -1.2 0
-5.113 -7.436 -28.903 -0 -1.2 0
-5.09 -7.946 -28.79 -0 -1.2 0
-5.067 -8.455 -28.668 -0 -1.2 0
-5.04 -8.962 -28.538 -0 -1.2 0
-5.013 -9.466 -28.398 -0 -1.2 0
-4.985 -9.968 -28.251 -0 -1.2 0
-4.955 -10.466 -28.095 -0 -1.2 0
-4.923 -10.963 -27.93 -0 -1.2 0
-4.89 -11.455 -27.757 -0 -1.2 0
-4.856 -11.945 -27.575 -0 -1.2 0
-4.82 -12.432 -27.385 -0 -1.2 0
-4.782 -12.914 -27.187 -0 -1.2 0
-4.743 -13.394 -26.98 -0 -1.2 0
-4.703 -13.87 -26.764 -0 -1.2 0
-4.661 -14.342 -26.541 -0 -1.2 0
-4.617 -14.809 -26.31 -0 -1.2 0
-4.573 -15.273 -26.071 -0 -1.2 0
-4.527 -15.732 -25.824 -0 -1.2 0
-4.48 -16.187 -25.569 -0 -1.2 0
-4.431 -16.638 -25.306 -0 -1.2 0
-4.381 -17.083 -25.036 -0 -1.2 0
-4.33 -17.524 -24.758 -0 -1.2 0
-4.276 -17.959 -24.472 -0 -1.2 0
-4.222 -18.39 -24.179 -0 -1.2 0
-4.167 -18.815 -23.879 -0 -1.2 0
-4.111 -19.235 -23.571 -0 -1.2 0
-4.053 -19.649 -23.256 -0 -1.2 0
-3.994 -20.057 -22.933 -0 -1.2 0
-3.934 -20.46 -22.605 -0 -1.2 0
-3.872 -20.857 -22.269 -0 -1.2 0
-3.809 -21.248 -21.926 -0 -1.2 0
-3.746 -21.633 -21.577 -0 -1.2 0
-3.681 -22.012 -21.222 -0 -1.2 0
-3.614 -22.384 -20.859 -0 -1.2 0
-6.28 0.359 -29.311 -0 -1.2 0
-6.18 -5.902 -28.973 -0 -1.2 0
-6.16 -6.417 -28.887 -0 -1.2 0
-6.137 -6.932 -28.793 -0 -1.2 0
-6.113 -7.444 -28.689 -0 -1.2 0
-6.087 -7.955 -28.577 -0 -1.2 0
-6.059 -8.464 -28.456 -0 -1.2 0
-6.028 -8.97 -28.327 -0 -1.2 0
-5.997 -9.475 -28.189 -0 -1.2 0
-5.963 -9.976 -28.042 -0 -1.2 0
-5.928 -10.474 -27.886 -0 -1.2 0
-5.89 -10.971 -27.722 -0 -1.2 0
-5.852 -11.463 -27.55 -0 -1.2 0
-5.811 -11.954 -27.37 -0 -1.2 0
-5.768 -12.44 -27.181 -0 -1.2 0
-5.724 -12.922 -26.984 -0 -1.2 0
-5.678 -13.402 -26.778 -0 -1.2 0
-5.63 -13.878 -26.565 -0 -1.2 0
-5.581 -14.35 -26.343 -0 -1.2 0
-5.53 -14.817 -26.113 -0 -1.2 0
-5.477 -15.281 -25.875 -0 -1.2 0
-5.423 -15.74 -25.63 -0 -1.2 0
-5.366 -16.195 -25.376 -0 -1.2 0
-5.309 -16.645 -25.115 -0 -1.2 0
-5.249 -17.09 -24.846 -0 -1.2 0
-5.189 -17.531 -24.57 -0 -1.2 0
-5.126 -17.966 -24.286 -0 -1.2 0
-5.061 -18.397 -23.996 -0 -1.2 0
-4.996 -18.822 -23.697 -0 -1.2 0
-4.929 -19.242 -23.391 -0 -1.2 0
-4.86 -19.656 -23.078 -0 -1.2 0
-4.79 -20.064 -22.758 -0 -1.2 0
-4.718 -20.467 -22.432 -0 -1.2 0
-4.645 -20.864 -22.098 -0 -1.2 0
-4.571 -21.255 -21.758 -0 -1.2 0
-4.495 -21.639 -21.411 -0 -1.2 0
-4.418 -22.018 -21.057 -0 -1.2 0
-4.34 -22.391 -20.697 -0 -1.2 0
-7.344 0.351 -29.047 -0 -1.2 0
-7.207 -6.425 -28.626 -0 -1.2 0
-7.18 -6.939 -28.533 -0 -1.2 0
-7.152 -7.452 -28.43 -0 -1.2 0
-7.122 -7.963 -28.319 -0 -1.2 0
-7.09 -8.471 -28.199 -0 -1.2 0
-7.055 -8.978 -28.071 -0 -1.2 0
-7.018 -9.482 -27.933 -0 -1.2 0
-6.978 -9.983 -27.788 -0 -1.2 0
-6.937 -10.482 -27.634 -0 -1.2 0
-6.895 -10.978 -27.471 -0 -1.2 0
-6.85 -11.47 -27.3 -0 -1.2 0
-6.802 -11.961 -27.121 -0 -1.2 0
-6.753 -12.447 -26.934 -0 -1.2 0
-6.7 -12.929 -26.739 -0 -1.2 0
-6.647 -13.409 -26.535 -0 -1.2 0
-6.592 -13.884 -26.323 -0 -1.2 0
-6.534 -14.357 -26.103 -0 -1.2 0
-6.475 -14.824 -25.875 -0 -1.2 0
-6.413 -15.288 -25.639 -0 -1.2 0
-6.35 -15.747 -25.397 -0 -1.2 0
-6.284 -16.202 -25.145 -0 -1.2 0
-6.217 -16.652 -24.886 -0 -1.2 0
-6.148 -17.097 -24.62 -0 -1.2 0
-6.077 -17.537 -24.346 -0 -1.2 0
-6.004 -17.972 -24.064 -0 -1.2 0
-5.93 -18.403 -23.776 -0 -1.2 0
-5.853 -18.828 -23.479 -0 -1.2 0
-5.775 -19.248 -23.177 -0 -1.2 0
-5.695 -19.662 -22.866 -0 -1.2 0
-5.613 -20.07 -22.549 -0 -1.2 0
-5.529 -20.473 -22.225 -0 -1.2 0
-5.445 -20.87 -21.894 -0 -1.2 0
-5.357 -21.26 -21.556 -0 -1.2 0
-5.269 -21.645 -21.212 -0 -1.2 0
-5.179 -22.023 -20.862 -0 -1.2 0
-5.087 -22.396 -20.505 -0 -1.2 0
-8.477 0.343 -28.72 -0 -1.2 0
-8.293 -6.948 -28.211 -0 -1.2 0
-8.261 -7.46 -28.109 -0 -1.2 0
-8.226 -7.971 -27.999 -0 -1.2 0
-8.189 -8.479 -27.88 -0 -1.2 0
-8.149 -8.986 -27.753 -0 -1.2 0
-8.107 -9.49 -27.617 -0 -1.2 0
-8.062 -9.992 -27.473 -0 -1.2 0
-8.015 -10.49 -27.322 -0 -1.2 0
-7.965 -10.986 -27.161 -0 -1.2 0
-7.914 -11.479 -26.992 -0 -1.2 0
-7.859 -11.969 -26.814 -0 -1.2 0
-7.802 -12.455 -26.628 -0 -1.2 0
-7.743 -12.937 -26.436 -0 -1.2 0
-7.681 -13.417 -26.234 -0 -1.2 0
-7.617 -13.892 -26.024 -0 -1.2 0
-7.551 -14.364 -25.807 -0 -1.2 0
-7.483 -14.831 -25.581 -0 -1.2 0
-7.412 -15.295 -25.348 -0 -1.2 0
-7.339 -15.754 -25.107 -0 -1.2 0
-7.264 -16.209 -24.858 -0 -1.2 0
-7.187 -16.659 -24.602 -0 -1.2 0
-7.107 -17.104 -24.338 -0 -1.2 0
-6.941 -17.98 -23.789 -0 -1.2 0
-6.855 -18.41 -23.503 -0 -1.2 0
-6.767 -18.835 -23.21 -0 -1.2 0
-6.677 -19.255 -22.91 -0 -1.2 0
-6.585 -19.668 -22.604 -0 -1.2 0
-6.491 -20.077 -22.29 -0 -1.2 0
-6.394 -20.48 -21.969 -0 -1.2 0
-6.296 -20.876 -21.642 -0 -1.2 0
-6.196 -21.267 -21.308 -0 -1.2 0
-6.094 -21.651 -20.968 -0 -1.2 0
-5.99 -22.03 -20.621 -0 -1.2 0
-5.885 -22.402 -20.267 -0 -1.2 0
-9.24 -7.979 -27.664 -0 -1.2 0
-9.198 -8.488 -27.547 -0 -1.2 0
-9.154 -8.994 -27.421 -0 -1.2 0
-9.107 -9.498 -27.286 -0 -1.2 0
-9.057 -10 -27.145 -0 -1.2 0
-9.004 -10.498 -26.994 -0 -1.2 0
-8.949 -10.994 -26.834 -0 -1.2 0
-8.89 -11.486 -26.668 -0 -1.2 0
-8.83 -11.977 -26.492 -0 -1.2 0
-8.766 -12.463 -26.309 -0 -1.2 0
-8.7 -12.945 -26.117 -0 -1.2 0
-8.63 -13.425 -25.918 -0 -1.2 0
-8.56 -13.9 -25.71 -0 -1.2 0
-8.485 -14.372 -25.496 -0 -1.2 0
-8.408 -14.839 -25.273 -0 -1.2 0
-8.329 -15.303 -25.043 -0 -1.2 0
-8.163 -16.216 -24.558 -0 -1.2 0
-7.987 -17.111 -24.044 -0 -1.2 0
-7.896 -17.552 -23.776 -0 -1.2 0
-7.506 -19.261 -22.632 -0 -1.2 0
-7.402 -19.675 -22.328 -0 -1.2 0
-7.296 -20.083 -22.018 -0 -1.2 0
-7.189 -20.486 -21.701 -0 -1.2 0
-7.079 -20.882 -21.377 -0 -1.2 0
-6.967 -21.273 -21.048 -0 -1.2 0
-6.853 -21.657 -20.711 -0 -1.2 0
-6.737 -22.036 -20.368 -0 -1.2 0
-6.617 -22.408 -20.018 -0 -1.2 0
-10.548 0.326 -27.997 -0 -1.2 0
-10.196 -8.496 -27.176 -0 -1.2 0
-10.147 -9.002 -27.052 -0 -1.2 0
-10.094 -9.507 -26.92 -0 -1.2 0
-10.04 -10.008 -26.779 -0 -1.2 0
-9.981 -10.506 -26.63 -0 -1.2 0
-9.92 -11.002 -26.473 -0 -1.2 0
-9.856 -11.495 -26.308 -0 -1.2 0
-9.789 -11.985 -26.135 -0 -1.2 0
-9.718 -12.471 -25.953 -0 -1.2 0
-9.645 -12.953 -25.765 -0 -1.2 0
-9.568 -13.433 -25.568 -0 -1.2 0
-9.49 -13.908 -25.363 -0 -1.2 0
-9.407 -14.38 -25.151 -0 -1.2 0
-9.323 -14.847 -24.931 -0 -1.2 0
-9.145 -15.769 -24.467 -0 -1.2 0
-8.652 -17.994 -23.181 -0 -1.2 0
-8.436 -18.849 -22.616 -0 -1.2 0
-8.324 -19.268 -22.323 -0 -1.2 0
-8.21 -19.682 -22.024 -0 -1.2 0
-8.093 -20.09 -21.718 -0 -1.2 0
-7.973 -20.493 -21.404 -0 -1.2 0
-7.852 -20.889 -21.085 -0 -1.2 0
-7.727 -21.279 -20.759 -0 -1.2 0
-7.601 -21.664 -20.426 -0 -1.2 0
-7.472 -22.042 -20.088 -0 -1.2 0
-7.342 -22.414 -19.743 -0 -1.2 0
-11.146 -9.516 -26.483 -0 -1.2 0
-11.085 -10.017 -26.344 -0 -1.2 0
-11.021 -10.515 -26.198 -0 -1.2 0
-10.953 -11.012 -26.043 -0 -1.2 0
-10.731 -12.48 -25.532 -0 -1.2 0
-10.651 -12.962 -25.345 -0 -1.2 0
-10.48 -13.916 -24.951 -0 -1.2 0
-10.389 -14.388 -24.741 -0 -1.2 0
-9.891 -16.682 -23.583 -0 -1.2 0
-9.782 -17.127 -23.33 -0 -1.2 0
-9.67 -17.567 -23.069 -0 -1.2 0
-9.556 -18.002 -22.801 -0 -1.2 0
-9.439 -18.432 -22.527 -0 -1.2 0
-9.318 -18.857 -22.245 -0 -1.2 0
-9.195 -19.276 -21.957 -0 -1.2 0
-9.069 -19.689 -21.662 -0 -1.2 0
-8.939 -20.098 -21.36 -0 -1.2 0
-8.808 -20.5 -21.052 -0 -1.2 0
-8.674 -20.896 -20.737 -0 -1.2 0
-8.537 -21.286 -20.417 -0 -1.2 0
-8.397 -21.671 -20.089 -0 -1.2 0
-8.256 -22.049 -19.756 -0 -1.2 0
-8.112 -22.421 -19.417 -0 -1.2 0
-12.042 -10.026 -25.904 -0 -1.2 0
-11.973 -10.524 -25.76 -0 -1.2 0
-11.743 -12.002 -25.28 -0 -1.2 0
-11.385 -13.925 -24.532 -0 -1.2 0
-10.747 -16.69 -23.186 -0 -1.2 0
-10.629 -17.134 -22.938 -0 -1.2 0
-10.508 -17.575 -22.681 -0 -1.2 0
-10.383 -18.009 -22.418 -0 -1.2 0
-10.256 -18.44 -22.147 -0 -1.2 0
-10.126 -18.864 -21.87 -0 -1.2 0
-9.991 -19.283 -21.586 -0 -1.2 0
-9.572 -20.507 -20.696 -0 -1.2 0
-9.426 -20.903 -20.386 -0 -1.2 0
-9.278 -21.293 -20.07 -0 -1.2 0
-9.126 -21.677 -19.748 -0 -1.2 0
-8.973 -22.056 -19.42 -0 -1.2 0
-8.816 -22.428 -19.086 -0 -1.2 0
-12.908 -10.533 -25.288 -0 -1.2 0
-12.66 -12.011 -24.816 -0 -1.2 0
-12.276 -13.934 -24.081 -0 -1.2 0
-12.062 -14.872 -23.669 -0 -1.2 0
-11.949 -15.336 -23.453 -0 -1.2 0
-11.832 -15.794 -23.228 -0 -1.2 0
-11.588 -16.698 -22.759 -0 -1.2 0
-11.462 -17.143 -22.514 -0 -1.2 0
-11.331 -17.583 -22.262 -0 -1.2 0
-11.197 -18.017 -22.003 -0 -1.2 0
-11.059 -18.448 -21.738 -0 -1.2 0
-10.919 -18.872 -21.465 -0 -1.2 0
-10.323 -20.514 -20.312 -0 -1.2 0
-10.167 -20.91 -20.007 -0 -1.2 0
-10.007 -21.3 -19.697 -0 -1.2 0
-9.844 -21.684 -19.38 -0 -1.2 0
-9.678 -22.062 -19.058 -0 -1.2 0
-9.508 -22.434 -18.73 -0 -1.2 0
-13.869 -10.522 -24.765 -0 -1.2 0
-13.697 -11.511 -24.464 -0 -1.2 0
-13.604 -12.001 -24.304 -0 -1.2 0
-13.079 -14.395 -23.387 -0 -1.2 0
-12.961 -14.862 -23.182 -0 -1.2 0
-12.84 -15.325 -22.969 -0 -1.2 0
-12.716 -15.784 -22.751 -0 -1.2 0
-12.454 -16.688 -22.292 -0 -1.2 0
-12.318 -17.133 -22.051 -0 -1.2 0
-12.178 -17.573 -21.804 -0 -1.2 0
-11.581 -19.282 -20.752 -0 -1.2 0
-11.423 -19.695 -20.472 -0 -1.2 0
-11.261 -20.103 -20.187 -0 -1.2 0
-11.095 -20.506 -19.895 -0 -1.2 0
-10.927 -20.902 -19.597 -0 -1.2 0
-10.756 -21.292 -19.294 -0 -1.2 0
-10.58 -21.676 -18.984 -0 -1.2 0
-10.402 -22.054 -18.668 -0 -1.2 0
-10.221 -22.426 -18.347 -0 -1.2 0
-14.752 -10.508 -24.243 -0 -1.2 0
-14.148 -13.435 -23.278 -0 -1.2 0
-13.787 -14.848 -22.697 -0 -1.2 0
-13.526 -15.771 -22.276 -0 -1.2 0
-13.39 -16.226 -22.054 -0 -1.2 0
-12.32 -19.27 -20.321 -0 -1.2 0
-12.152 -19.683 -20.048 -0 -1.2 0
-11.98 -20.092 -19.769 -0 -1.2 0
-11.805 -20.494 -19.483 -0 -1.2 0
-11.626 -20.89 -19.192 -0 -1.2 0
-11.443 -21.281 -18.895 -0 -1.2 0
-11.257 -21.665 -18.591 -0 -1.2 0
-11.068 -22.043 -18.282 -0 -1.2 0
-10.875 -22.415 -17.969 -0 -1.2 0
-13.888 -17.108 -21.095 -0 -1.2 0
-13.568 -17.984 -20.617 -0 -1.2 0
-12.699 -20.081 -19.315 -0 -1.2 0
-12.513 -20.483 -19.037 -0 -1.2 0
-12.323 -20.88 -18.752 -0 -1.2 0
-12.129 -21.27 -18.462 -0 -1.2 0
-11.933 -21.655 -18.166 -0 -1.2 0
-16.006 -12.929 -22.294 -0 -1.2 0
-15.617 -14.357 -21.764 -0 -1.2 0
-13.256 -20.473 -18.527 -0 -1.2 0
-16.941 -12.436 -21.846 -0 -1.2 0
-16.815 -12.919 -21.688 -0 -1.2 0
-15.953 -15.737 -20.601 -0 -1.2 0
-14.534 -19.238 -18.801 -0 -1.2 0
-17.722 -12.427 -21.215 -0 -1.2 0
-17.31 -13.865 -20.737 -0 -1.2 0
-17.163 -14.337 -20.564 -0 -1.2 0
-13.664 -22.007 -16.438 -0 -1.2 0
-16.52 -17.946 -18.336 -0 -1.2 0
-17.718 -19.236 -15.806 -0 -1.2 0
-16.197 -21.634 -14.464 -0 -1.2 0
-15.926 -22.013 -14.225 -0 -1.2 0
-15.651 -22.385 -13.982 -0 -1.2 0
-20.949 -13.404 -17.359 -0 -1.2 0
-19.626 -16.646 -16.286 -0 -1.2 0
-19.413 -17.091 -16.111 -0 -1.2 0
-17.76 -20.065 -14.755 -0 -1.2 0
-17.501 -20.468 -14.543 -0 -1.2 0
-16.131 -22.391 -13.414 -0 -1.2 0
-22.583 -9.985 -17.386 -0 -1.2 0
-22.455 -10.483 -17.291 -0 -1.2 0
-21 -14.825 -16.199 -0 -1.2 0
-20.398 -16.203 -15.743 -0 -1.2 0
-20.185 -16.653 -15.582 -0 -1.2 0
-19.509 -17.973 -15.066 -0 -1.2 0
-18 -20.474 -13.912 -0 -1.2 0
-17.728 -20.87 -13.704 -0 -1.2 0
-17.17 -21.645 -13.276 -0 -1.2 0
-16.883 -22.024 -13.055 -0 -1.2 0
-16.591 -22.396 -12.831 -0 -1.2 0
-23.229 -9.993 -16.511 -0 -1.2 0
-23.097 -10.492 -16.422 -0 -1.2 0
-22.958 -10.988 -16.326 -0 -1.2 0
-22.812 -11.48 -16.226 -0 -1.2 0
-20.538 -17.105 -14.638 -0 -1.2 0
-20.306 -17.546 -14.475 -0 -1.2 0
-20.069 -17.98 -14.307 -0 -1.2 0
-18.238 -20.877 -13.012 -0 -1.2 0
-17.369 -22.03 -12.394 -0 -1.2 0
-17.068 -22.402 -12.18 -0 -1.2 0
-23.82 -10.001 -15.648 -0 -1.2 0
-23.685 -10.5 -15.563 -0 -1.2 0
-23.542 -10.996 -15.472 -0 -1.2 0
-23.393 -11.488 -15.377 -0 -1.2 0
-23.236 -11.978 -15.277 -0 -1.2 0
-22.902 -12.946 -15.064 -0 -1.2 0
-22.724 -13.426 -14.95 -0 -1.2 0
-22.541 -13.901 -14.831 -0 -1.2 0
-22.349 -14.373 -14.707 -0 -1.2 0
-22.151 -14.84 -14.579 -0 -1.2 0
-21.735 -15.763 -14.309 -0 -1.2 0
-21.292 -16.667 -14.021 -0 -1.2 0
-18.412 -21.273 -12.136 -0 -1.2 0
-18.115 -21.658 -11.941 -0 -1.2 0
-17.812 -22.036 -11.742 -0 -1.2 0
-17.505 -22.408 -11.54 -0 -1.2 0
-24.377 -10.012 -14.764 -0 -1.2 0
-24.239 -10.51 -14.683 -0 -1.2 0
-24.093 -11.007 -14.598 -0 -1.2 0
-23.941 -11.499 -14.508 -0 -1.2 0
-23.781 -11.989 -14.414 -0 -1.2 0
-23.613 -12.475 -14.314 -0 -1.2 0
-23.439 -12.957 -14.211 -0 -1.2 0
-22.873 -14.383 -13.875 -0 -1.2 0
-22.67 -14.85 -13.754 -0 -1.2 0
-22.46 -15.314 -13.628 -0 -1.2 0
-22.244 -15.773 -13.499 -0 -1.2 0
-22.022 -16.227 -13.365 -0 -1.2 0
-21.791 -16.677 -13.227 -0 -1.2 0
-21.555 -17.122 -13.085 -0 -1.2 0
-21.312 -17.562 -12.939 -0 -1.2 0
-21.063 -17.997 -12.788 -0 -1.2 0
-20.806 -18.427 -12.634 -0 -1.2 0
-20.545 -18.852 -12.476 -0 -1.2 0
-20.277 -19.271 -12.314 -0 -1.2 0
-20.002 -19.685 -12.148 -0 -1.2 0
-19.722 -20.093 -11.978 -0 -1.2 0
-19.435 -20.495 -11.804 -0 -1.2 0
-18.844 -21.282 -11.445 -0 -1.2 0
-18.54 -21.666 -11.261 -0 -1.2 0
-18.23 -22.044 -11.073 -0 -1.2 0
-17.915 -22.416 -10.881 -0 -1.2 0
-24.777 -9.426 -13.688 -0 -1.2 0
-24.943 -10.029 -13.788 -0 -1.2 0
-24.801 -10.527 -13.713 -0 -1.2 0
-24.652 -11.023 -13.632 -0 -1.2 0
-24.496 -11.515 -13.549 -0 -1.2 0
-24.332 -12.005 -13.46 -0 -1.2 0
-24.161 -12.491 -13.368 -0 -1.2 0
-23.982 -12.973 -13.271 -0 -1.2 0
-23.797 -13.453 -13.171 -0 -1.2 0
-23.603 -13.927 -13.066 -0 -1.2 0
-23.403 -14.399 -12.957 -0 -1.2 0
-23.196 -14.866 -12.843 -0 -1.2 0
-22.981 -15.33 -12.726 -0 -1.2 0
-22.76 -15.788 -12.605 -0 -1.2 0
-22.532 -16.243 -12.479 -0 -1.2 0
-22.296 -16.692 -12.35 -0 -1.2 0
-22.055 -17.137 -12.217 -0 -1.2 0
-21.806 -17.577 -12.08 -0 -1.2 0
-21.55 -18.011 -11.94 -0 -1.2 0
-21.289 -18.442 -11.795 -0 -1.2 0
-21.02 -18.866 -11.647 -0 -1.2 0
-20.746 -19.285 -11.495 -0 -1.2 0
-20.465 -19.698 -11.339 -0 -1.2 0
-20.178 -20.107 -11.18 -0 -1.2 0
-19.885 -20.509 -11.018 -0 -1.2 0
-19.586 -20.905 -10.851 -0 -1.2 0
-19.28 -21.295 -10.682 -0 -1.2 0
-18.969 -21.679 -10.509 -0 -1.2 0
-18.652 -22.057 -10.333 -0 -1.2 0
-18.33 -22.429 -10.153 -0 -1.2 0
-25.402 -8.949 -12.853 -0 -1.2 0
-25.564 -9.543 -12.943 -0 -1.2 0
-25.427 -10.045 -12.877 -0 -1.2 0
-25.282 -10.543 -12.807 -0 -1.2 0
-25.131 -11.038 -12.732 -0 -1.2 0
-24.971 -11.53 -12.653 -0 -1.2 0
-24.804 -12.02 -12.57 -0 -1.2 0
-24.63 -12.506 -12.484 -0 -1.2 0
-24.448 -12.988 -12.393 -0 -1.2 0
-24.258 -13.468 -12.298 -0 -1.2 0
-24.061 -13.942 -12.2 -0 -1.2 0
-23.857 -14.414 -12.098 -0 -1.2 0
-23.645 -14.88 -11.993 -0 -1.2 0
-23.426 -15.344 -11.883 -0 -1.2 0
-23.201 -15.802 -11.769 -0 -1.2 0
-22.968 -16.257 -11.652 -0 -1.2 0
-22.728 -16.706 -11.531 -0 -1.2 0
-22.482 -17.15 -11.406 -0 -1.2 0
-22.228 -17.591 -11.278 -0 -1.2 0
-21.967 -18.025 -11.147 -0 -1.2 0
-21.701 -18.455 -11.011 -0 -1.2 0
-21.428 -18.879 -10.873 -0 -1.2 0
-21.148 -19.298 -10.73 -0 -1.2 0
-20.861 -19.711 -10.585 -0 -1.2 0
-20.568 -20.119 -10.436 -0 -1.2 0
-20.269 -20.521 -10.283 -0 -1.2 0
-19.965 -20.917 -10.128 -0 -1.2 0
-19.653 -21.307 -9.969 -0 -1.2 0
-19.336 -21.691 -9.808 -0 -1.2 0
-19.013 -22.068 -9.642 -0 -1.2 0
-18.684 -22.44 -9.474 -0 -1.2 0
-25.843 -8.43 -11.942 -0 -1.2 0
-26.139 -9.055 -12.089 -0 -1.2 0
-26.009 -9.559 -12.031 -0 -1.2 0
-25.87 -10.06 -11.969 -0 -1.2 0
-25.722 -10.558 -11.903 -0 -1.2 0
-25.568 -11.054 -11.833 -0 -1.2 0
-25.406 -11.545 -11.761 -0 -1.2 0
-25.236 -12.035 -11.684 -0 -1.2 0
-25.058 -12.521 -11.603 -0 -1.2 0
-24.873 -13.002 -11.518 -0 -1.2 0
-24.68 -13.482 -11.43 -0 -1.2 0
-24.48 -13.957 -11.339 -0 -1.2 0
-24.271 -14.428 -11.244 -0 -1.2 0
-24.057 -14.895 -11.145 -0 -1.2 0
-23.834 -15.358 -11.043 -0 -1.2 0
-23.604 -15.816 -10.937 -0 -1.2 0
-23.367 -16.27 -10.828 -0 -1.2 0
-23.123 -16.72 -10.715 -0 -1.2 0
-22.872 -17.164 -10.599 -0 -1.2 0
-22.615 -17.604 -10.479 -0 -1.2 0
-22.349 -18.038 -10.357 -0 -1.2 0
-22.078 -18.468 -10.231 -0 -1.2 0
