# .PCD v.7 - Point Cloud Data file format
FIELDS x y z vp_x vp_y vp_z
SIZE 4 4 4 4 4 4
TYPE F F F F F F
COUNT 1 1 1 1 1 1
WIDTH 1667
HEIGHT 1
VIEWPOINT 0 -1.20013 0 1 0 0 0
POINTS 1667
DATA ascii
2.715 -4.69 3.714 -0 -1.2 0
2.712 -4.809 3.702 -0 -1.2 0
2.712 -4.936 3.694 -0 -1.2 0
2.721 -5.077 3.694 -0 -1.2 0
2.717 -5.205 3.681 -0 -1.2 0
0.747 0.016 1.298 -0 -1.2 0
0.772 0.017 1.33 -0 -1.2 0
0.793 0.012 1.356 -0 -1.2 0
0.814 0.004 1.383 -0 -1.2 0
0.848 0.017 1.428 -0 -1.2 0
0.869 0.007 1.455 -0 -1.2 0
0.896 0.004 1.488 -0 -1.2 0
0.931 0.012 1.534 -0 -1.2 0
0.962 0.012 1.574 -0 -1.2 0
0.99 0.005 1.608 -0 -1.2 0
1.027 0.008 1.655 -0 -1.2 0
1.063 0.009 1.702 -0 -1.2 0
1.101 0.009 1.75 -0 -1.2 0
1.134 0.002 1.791 -0 -1.2 0
1.177 0.003 1.846 -0 -1.2 0
1.226 0.007 1.909 -0 -1.2 0
1.26 -0.005 1.95 -0 -1.2 0
1.273 -0.038 1.964 -0 -1.2 0
1.311 -0.049 2.013 -0 -1.2 0
1.334 -0.075 2.041 -0 -1.2 0
1.4 -0.068 2.126 -0 -1.2 0
1.445 -0.08 2.183 -0 -1.2 0
1.535 -0.062 2.297 -0 -1.2 0
1.597 -0.069 2.376 -0 -1.2 0
1.677 -0.068 2.478 -0 -1.2 0
1.751 -0.074 2.573 -0 -1.2 0
1.843 -0.074 2.691 -0 -1.2 0
1.987 -0.05 2.876 -0 -1.2 0
2.065 -0.071 2.972 -0 -1.2 0
2.123 -0.105 3.045 -0 -1.2 0
2.288 -0.092 3.256 -0 -1.2 0
2.383 -0.119 3.375 -0 -1.2 0
2.383 -0.189 3.371 -0 -1.2 0
2.395 -0.254 3.382 -0 -1.2 0
2.394 -0.324 3.376 -0 -1.2 0
2.404 -0.389 3.384 -0 -1.2 0
2.425 -0.451 3.408 -0 -1.2 0
2.433 -0.517 3.414 -0 -1.2 0
2.442 -0.584 3.421 -0 -1.2 0
2.449 -0.65 3.425 -0 -1.2 0
2.45 -0.718 3.422 -0 -1.2 0
2.455 -0.784 3.425 -0 -1.2 0
2.461 -0.851 3.427 -0 -1.2 0
2.465 -0.917 3.429 -0 -1.2 0
2.469 -0.984 3.429 -0 -1.2 0
2.483 -1.05 3.444 -0 -1.2 0
2.505 -1.117 3.466 -0 -1.2 0
2.505 -1.185 3.464 -0 -1.2 0
2.488 -1.251 3.437 -0 -1.2 0
2.476 -1.317 3.418 -0 -1.2 0
2.488 -1.385 3.428 -0 -1.2 0
2.492 -1.453 3.429 -0 -1.2 0
2.478 -1.517 3.408 -0 -1.2 0
2.494 -1.588 3.423 -0 -1.2 0
2.515 -1.66 3.445 -0 -1.2 0
2.534 -1.734 3.466 -0 -1.2 0
2.567 -1.813 3.501 -0 -1.2 0
2.603 -1.896 3.543 -0 -1.2 0
2.627 -1.976 3.568 -0 -1.2 0
2.631 -2.05 3.569 -0 -1.2 0
2.641 -2.128 3.577 -0 -1.2 0
2.644 -2.204 3.575 -0 -1.2 0
2.67 -2.291 3.603 -0 -1.2 0
2.677 -2.371 3.607 -0 -1.2 0
2.694 -2.458 3.624 -0 -1.2 0
2.699 -2.54 3.625 -0 -1.2 0
2.703 -2.621 3.625 -0 -1.2 0
2.707 -2.704 3.623 -0 -1.2 0
2.709 -2.787 3.621 -0 -1.2 0
2.709 -2.871 3.617 -0 -1.2 0
2.716 -2.959 3.619 -0 -1.2 0
2.72 -3.048 3.618 -0 -1.2 0
2.729 -3.142 3.624 -0 -1.2 0
2.726 -3.228 3.615 -0 -1.2 0
2.727 -3.318 3.61 -0 -1.2 0
2.727 -3.41 3.605 -0 -1.2 0
2.731 -3.506 3.605 -0 -1.2 0
2.74 -3.609 3.608 -0 -1.2 0
2.731 -3.697 3.591 -0 -1.2 0
2.731 -3.796 3.586 -0 -1.2 0
2.741 -3.907 3.591 -0 -1.2 0
2.765 -4.035 3.613 -0 -1.2 0
2.776 -4.155 3.62 -0 -1.2 0
2.785 -4.276 3.625 -0 -1.2 0
2.789 -4.391 3.621 -0 -1.2 0
2.79 -4.508 3.615 -0 -1.2 0
2.795 -4.631 3.613 -0 -1.2 0
2.802 -4.763 3.614 -0 -1.2 0
2.802 -4.889 3.607 -0 -1.2 0
2.791 -5.003 3.586 -0 -1.2 0
2.741 -5.061 3.519 -0 -1.2 0
0.781 0.018 1.289 -0 -1.2 0
0.806 0.02 1.32 -0 -1.2 0
0.832 0.021 1.352 -0 -1.2 0
0.86 0.021 1.383 -0 -1.2 0
0.882 0.013 1.409 -0 -1.2 0
0.909 0.01 1.441 -0 -1.2 0
0.937 0.007 1.473 -0 -1.2 0
0.968 0.009 1.512 -0 -1.2 0
1.001 0.01 1.551 -0 -1.2 0
1.04 0.015 1.596 -0 -1.2 0
1.067 0.006 1.629 -0 -1.2 0
1.111 0.013 1.681 -0 -1.2 0
1.146 0.007 1.722 -0 -1.2 0
1.185 0.006 1.768 -0 -1.2 0
1.236 0.012 1.828 -0 -1.2 0
1.259 -0.008 1.856 -0 -1.2 0
1.295 -0.019 1.896 -0 -1.2 0
1.329 -0.034 1.936 -0 -1.2 0
1.381 -0.034 1.998 -0 -1.2 0
1.445 -0.03 2.074 -0 -1.2 0
1.491 -0.041 2.128 -0 -1.2 0
1.521 -0.066 2.162 -0 -1.2 0
1.62 -0.045 2.281 -0 -1.2 0
1.675 -0.059 2.344 -0 -1.2 0
1.716 -0.083 2.393 -0 -1.2 0
1.829 -0.068 2.528 -0 -1.2 0
1.925 -0.068 2.642 -0 -1.2 0
1.993 -0.088 2.72 -0 -1.2 0
2.06 -0.112 2.798 -0 -1.2 0
2.151 -0.128 2.905 -0 -1.2 0
2.328 -0.111 3.117 -0 -1.2 0
2.459 -0.123 3.27 -0 -1.2 0
2.464 -0.19 3.274 -0 -1.2 0
2.471 -0.257 3.276 -0 -1.2 0
2.456 -0.329 3.255 -0 -1.2 0
2.46 -0.395 3.256 -0 -1.2 0
2.457 -0.463 3.248 -0 -1.2 0
2.459 -0.528 3.247 -0 -1.2 0
2.468 -0.592 3.253 -0 -1.2 0
2.475 -0.657 3.257 -0 -1.2 0
2.488 -0.719 3.269 -0 -1.2 0
2.493 -0.784 3.272 -0 -1.2 0
2.498 -0.849 3.275 -0 -1.2 0
2.503 -0.914 3.276 -0 -1.2 0
2.513 -0.978 3.284 -0 -1.2 0
2.509 -1.043 3.275 -0 -1.2 0
2.511 -1.107 3.275 -0 -1.2 0
2.513 -1.172 3.273 -0 -1.2 0
2.513 -1.237 3.27 -0 -1.2 0
2.513 -1.302 3.266 -0 -1.2 0
2.525 -1.367 3.276 -0 -1.2 0
2.549 -1.437 3.301 -0 -1.2 0
2.561 -1.505 3.309 -0 -1.2 0
2.57 -1.572 3.317 -0 -1.2 0
2.586 -1.643 3.332 -0 -1.2 0
2.601 -1.714 3.344 -0 -1.2 0
2.602 -1.783 3.341 -0 -1.2 0
2.601 -1.851 3.337 -0 -1.2 0
2.62 -1.926 3.355 -0 -1.2 0
2.632 -2 3.365 -0 -1.2 0
2.635 -2.072 3.365 -0 -1.2 0
2.645 -2.148 3.372 -0 -1.2 0
2.685 -2.237 3.414 -0 -1.2 0
2.724 -2.329 3.455 -0 -1.2 0
2.749 -2.417 3.479 -0 -1.2 0
2.779 -2.51 3.509 -0 -1.2 0
2.815 -2.609 3.545 -0 -1.2 0
2.824 -2.694 3.551 -0 -1.2 0
2.832 -2.781 3.555 -0 -1.2 0
2.838 -2.869 3.558 -0 -1.2 0
2.832 -2.949 3.546 -0 -1.2 0
2.843 -3.042 3.553 -0 -1.2 0
2.846 -3.132 3.552 -0 -1.2 0
2.855 -3.227 3.556 -0 -1.2 0
2.855 -3.318 3.552 -0 -1.2 0
2.867 -3.419 3.56 -0 -1.2 0
2.882 -3.526 3.572 -0 -1.2 0
2.891 -3.63 3.576 -0 -1.2 0
2.892 -3.729 3.571 -0 -1.2 0
2.903 -3.841 3.577 -0 -1.2 0
5.756 -6.85 6.782 -0 -1.2 0
9.523 -11.774 10.956 -0 -1.2 0
9.282 -11.87 10.666 -0 -1.2 0
7.269 -9.801 8.401 -0 -1.2 0
2.86 -4.558 3.485 -0 -1.2 0
2.848 -4.661 3.465 -0 -1.2 0
2.845 -4.779 3.453 -0 -1.2 0
2.84 -4.897 3.44 -0 -1.2 0
6.315 -10.032 7.257 -0 -1.2 0
0.81 0.021 1.279 -0 -1.2 0
0.833 0.015 1.304 -0 -1.2 0
0.86 0.017 1.334 -0 -1.2 0
0.888 0.017 1.365 -0 -1.2 0
0.911 0.009 1.39 -0 -1.2 0
0.948 0.02 1.433 -0 -1.2 0
0.972 0.01 1.459 -0 -1.2 0
1.006 0.012 1.496 -0 -1.2 0
1.045 0.019 1.539 -0 -1.2 0
1.079 0.018 1.577 -0 -1.2 0
1.114 0.015 1.616 -0 -1.2 0
1.155 0.017 1.661 -0 -1.2 0
1.195 0.017 1.706 -0 -1.2 0
1.241 0.02 1.758 -0 -1.2 0
1.277 0.011 1.797 -0 -1.2 0
1.303 -0.009 1.823 -0 -1.2 0
1.321 -0.036 1.843 -0 -1.2 0
1.358 -0.049 1.883 -0 -1.2 0
1.41 -0.05 1.942 -0 -1.2 0
1.465 -0.052 2.001 -0 -1.2 0
1.536 -0.044 2.082 -0 -1.2 0
1.598 -0.049 2.149 -0 -1.2 0
1.653 -0.059 2.209 -0 -1.2 0
1.702 -0.077 2.263 -0 -1.2 0
1.813 -0.059 2.387 -0 -1.2 0
1.856 -0.087 2.434 -0 -1.2 0
1.931 -0.099 2.517 -0 -1.2 0
2.037 -0.098 2.635 -0 -1.2 0
2.163 -0.093 2.775 -0 -1.2 0
2.366 -0.06 3.001 -0 -1.2 0
2.449 -0.089 3.092 -0 -1.2 0
2.488 -0.14 3.132 -0 -1.2 0
2.494 -0.205 3.136 -0 -1.2 0
2.513 -0.266 3.152 -0 -1.2 0
2.517 -0.332 3.154 -0 -1.2 0
2.522 -0.397 3.155 -0 -1.2 0
2.531 -0.459 3.161 -0 -1.2 0
2.546 -0.522 3.175 -0 -1.2 0
2.554 -0.586 3.181 -0 -1.2 0
2.568 -0.648 3.193 -0 -1.2 0
2.575 -0.712 3.196 -0 -1.2 0
2.581 -0.777 3.2 -0 -1.2 0
2.586 -0.841 3.202 -0 -1.2 0
2.591 -0.906 3.204 -0 -1.2 0
2.594 -0.971 3.204 -0 -1.2 0
2.598 -1.035 3.203 -0 -1.2 0
2.606 -1.099 3.21 -0 -1.2 0
2.614 -1.164 3.215 -0 -1.2 0
2.629 -1.23 3.227 -0 -1.2 0
2.648 -1.297 3.246 -0 -1.2 0
2.654 -1.363 3.248 -0 -1.2 0
2.652 -1.429 3.243 -0 -1.2 0
2.657 -1.496 3.244 -0 -1.2 0
2.661 -1.563 3.245 -0 -1.2 0
2.663 -1.63 3.244 -0 -1.2 0
2.672 -1.699 3.249 -0 -1.2 0
2.672 -1.767 3.246 -0 -1.2 0
2.685 -1.839 3.257 -0 -1.2 0
2.685 -1.908 3.253 -0 -1.2 0
2.69 -1.978 3.254 -0 -1.2 0
2.701 -2.051 3.263 -0 -1.2 0
2.724 -2.131 3.284 -0 -1.2 0
2.739 -2.209 3.297 -0 -1.2 0
2.761 -2.291 3.315 -0 -1.2 0
2.793 -2.381 3.347 -0 -1.2 0
2.805 -2.463 3.356 -0 -1.2 0
2.957 -2.62 3.515 -0 -1.2 0
9.238 -6.245 10.284 -0 -1.2 0
11.537 -7.875 12.745 -0 -1.2 0
12.286 -8.677 13.531 -0 -1.2 0
12.789 -9.37 14.052 -0 -1.2 0
13.293 -10.098 14.571 -0 -1.2 0
10.028 -8.173 11.054 -0 -1.2 0
6.906 -6.157 7.701 -0 -1.2 0
6.754 -6.255 7.527 -0 -1.2 0
4.547 -4.685 5.165 -0 -1.2 0
6.502 -6.475 7.235 -0 -1.2 0
8.371 -8.325 9.207 -0 -1.2 0
6.294 -6.717 6.991 -0 -1.2 0
7.822 -8.376 8.595 -0 -1.2 0
8.877 -9.682 9.693 -0 -1.2 0
2.944 -4.077 3.42 -0 -1.2 0
2.943 -4.184 3.413 -0 -1.2 0
2.931 -4.28 3.394 -0 -1.2 0
2.928 -4.388 3.385 -0 -1.2 0
2.927 -4.504 3.378 -0 -1.2 0
6.874 -9.859 7.462 -0 -1.2 0
8.113 -11.819 8.727 -0 -1.2 0
8.246 -12.372 8.845 -0 -1.2 0
0.84 0.023 1.27 -0 -1.2 0
0.868 0.025 1.299 -0 -1.2 0
0.886 0.012 1.318 -0 -1.2 0
0.92 0.019 1.353 -0 -1.2 0
0.949 0.018 1.383 -0 -1.2 0
0.983 0.023 1.419 -0 -1.2 0
1.013 0.02 1.449 -0 -1.2 0
1.048 0.021 1.486 -0 -1.2 0
1.072 0.01 1.511 -0 -1.2 0
1.113 0.015 1.554 -0 -1.2 0
1.149 0.013 1.591 -0 -1.2 0
1.196 0.02 1.64 -0 -1.2 0
1.238 0.02 1.684 -0 -1.2 0
1.287 0.024 1.734 -0 -1.2 0
1.307 0 1.754 -0 -1.2 0
1.32 -0.031 1.766 -0 -1.2 0
1.369 -0.032 1.817 -0 -1.2 0
1.437 -0.02 1.887 -0 -1.2 0
1.486 -0.026 1.938 -0 -1.2 0
1.506 -0.057 1.958 -0 -1.2 0
1.574 -0.053 2.028 -0 -1.2 0
1.631 -0.061 2.087 -0 -1.2 0
1.718 -0.05 2.179 -0 -1.2 0
1.763 -0.072 2.224 -0 -1.2 0
1.885 -0.05 2.351 -0 -1.2 0
1.981 -0.049 2.452 -0 -1.2 0
2.052 -0.066 2.525 -0 -1.2 0
2.15 -0.072 2.626 -0 -1.2 0
2.255 -0.081 2.735 -0 -1.2 0
2.413 -0.07 2.898 -0 -1.2 0
2.472 -0.11 2.958 -0 -1.2 0
2.558 -0.14 3.047 -0 -1.2 0
2.591 -0.195 3.078 -0 -1.2 0
2.603 -0.258 3.087 -0 -1.2 0
2.628 -0.317 3.11 -0 -1.2 0
2.652 -0.377 3.133 -0 -1.2 0
2.683 -0.436 3.161 -0 -1.2 0
2.699 -0.5 3.174 -0 -1.2 0
2.707 -0.565 3.18 -0 -1.2 0
2.722 -0.629 3.192 -0 -1.2 0
2.729 -0.695 3.195 -0 -1.2 0
2.748 -0.759 3.213 -0 -1.2 0
2.761 -0.825 3.223 -0 -1.2 0
2.766 -0.892 3.224 -0 -1.2 0
2.784 -0.957 3.238 -0 -1.2 0
2.8 -1.024 3.252 -0 -1.2 0
2.81 -1.091 3.259 -0 -1.2 0
2.811 -1.159 3.256 -0 -1.2 0
2.819 -1.226 3.261 -0 -1.2 0
2.819 -1.294 3.257 -0 -1.2 0
2.824 -1.362 3.26 -0 -1.2 0
2.843 -1.433 3.276 -0 -1.2 0
2.847 -1.503 3.277 -0 -1.2 0
2.851 -1.572 3.277 -0 -1.2 0
2.854 -1.641 3.276 -0 -1.2 0
2.855 -1.711 3.274 -0 -1.2 0
2.849 -1.78 3.264 -0 -1.2 0
2.849 -1.85 3.261 -0 -1.2 0
2.848 -1.92 3.256 -0 -1.2 0
2.86 -1.994 3.265 -0 -1.2 0
2.844 -2.06 3.244 -0 -1.2 0
2.82 -2.123 3.216 -0 -1.2 0
2.822 -2.196 3.214 -0 -1.2 0
2.831 -2.271 3.219 -0 -1.2 0
2.844 -2.351 3.23 -0 -1.2 0
2.904 -2.454 3.286 -0 -1.2 0
2.974 -2.567 3.353 -0 -1.2 0
2.991 -2.656 3.366 -0 -1.2 0
3.038 -2.764 3.411 -0 -1.2 0
3.04 -2.848 3.407 -0 -1.2 0
3.045 -2.935 3.409 -0 -1.2 0
3.044 -3.02 3.403 -0 -1.2 0
3.035 -3.101 3.389 -0 -1.2 0
3.012 -3.172 3.362 -0 -1.2 0
2.994 -3.249 3.34 -0 -1.2 0
2.988 -3.334 3.329 -0 -1.2 0
2.981 -3.419 3.317 -0 -1.2 0
2.978 -3.509 3.309 -0 -1.2 0
2.975 -3.601 3.301 -0 -1.2 0
2.97 -3.692 3.291 -0 -1.2 0
2.97 -3.79 3.286 -0 -1.2 0
2.98 -3.9 3.29 -0 -1.2 0
2.987 -4.01 3.292 -0 -1.2 0
2.999 -4.128 3.298 -0 -1.2 0
8.568 -10.302 8.765 -0 -1.2 0
5.897 -7.616 6.129 -0 -1.2 0
7.406 -9.608 7.595 -0 -1.2 0
7.221 -9.679 7.398 -0 -1.2 0
9.617 -12.973 9.718 -0 -1.2 0
9.562 -13.312 9.643 -0 -1.2 0
9.506 -13.657 9.567 -0 -1.2 0
0.875 0.033 1.263 -0 -1.2 0
0.894 0.02 1.281 -0 -1.2 0
0.923 0.022 1.309 -0 -1.2 0
0.953 0.022 1.338 -0 -1.2 0
0.982 0.021 1.367 -0 -1.2 0
1.018 0.026 1.402 -0 -1.2 0
1.049 0.023 1.431 -0 -1.2 0
1.079 0.018 1.461 -0 -1.2 0
1.122 0.025 1.502 -0 -1.2 0
1.153 0.018 1.532 -0 -1.2 0
1.195 0.021 1.573 -0 -1.2 0
1.238 0.024 1.615 -0 -1.2 0
1.293 0.035 1.669 -0 -1.2 0
1.326 0.022 1.7 -0 -1.2 0
1.353 0.003 1.724 -0 -1.2 0
1.368 -0.028 1.737 -0 -1.2 0
1.399 -0.043 1.767 -0 -1.2 0
1.475 -0.026 1.842 -0 -1.2 0
1.526 -0.031 1.891 -0 -1.2 0
1.565 -0.048 1.928 -0 -1.2 0
1.611 -0.061 1.972 -0 -1.2 0
1.708 -0.043 2.066 -0 -1.2 0
1.786 -0.041 2.142 -0 -1.2 0
1.846 -0.055 2.199 -0 -1.2 0
1.919 -0.064 2.269 -0 -1.2 0
2.025 -0.057 2.372 -0 -1.2 0
2.126 -0.059 2.47 -0 -1.2 0
2.206 -0.075 2.548 -0 -1.2 0
2.315 -0.083 2.652 -0 -1.2 0
2.363 -0.122 2.696 -0 -1.2 0
2.594 -0.088 2.922 -0 -1.2 0
2.738 -0.099 3.061 -0 -1.2 0
2.828 -0.136 3.147 -0 -1.2 0
2.897 -0.184 3.211 -0 -1.2 0
3.703 -0.01 4.001 -0 -1.2 0
4.09 0.004 4.376 -0 -1.2 0
4.549 0.019 4.82 -0 -1.2 0
5.086 0.03 5.341 -0 -1.2 0
5.739 0.038 5.974 -0 -1.2 0
6.53 0.038 6.739 -0 -1.2 0
7.457 0.021 7.637 -0 -1.2 0
8.658 -0.006 8.799 -0 -1.2 0
11.04 0.031 11.108 -0 -1.2 0
11.939 -0.164 11.97 -0 -1.2 0
11.95 -0.453 11.965 -0 -1.2 0
11.97 -0.739 11.971 -0 -1.2 0
11.987 -1.027 11.974 -0 -1.2 0
11.993 -1.315 11.966 -0 -1.2 0
12.095 -1.607 12.052 -0 -1.2 0
12.173 -1.902 12.113 -0 -1.2 0
12.175 -2.195 12.101 -0 -1.2 0
12.175 -2.489 12.086 -0 -1.2 0
12.069 -2.767 11.97 -0 -1.2 0
12.067 -3.058 11.954 -0 -1.2 0
12.062 -3.349 11.936 -0 -1.2 0
12.082 -3.647 11.941 -0 -1.2 0
12.09 -3.944 11.935 -0 -1.2 0
3.033 -1.864 3.263 -0 -1.2 0
2.983 -1.921 3.211 -0 -1.2 0
2.952 -1.984 3.179 -0 -1.2 0
2.943 -2.051 3.165 -0 -1.2 0
2.931 -2.12 3.152 -0 -1.2 0
2.927 -2.19 3.145 -0 -1.2 0
2.928 -2.263 3.142 -0 -1.2 0
2.922 -2.333 3.133 -0 -1.2 0
2.907 -2.401 3.116 -0 -1.2 0
2.899 -2.47 3.104 -0 -1.2 0
2.911 -2.551 3.111 -0 -1.2 0
3.048 -2.702 3.238 -0 -1.2 0
3.09 -2.807 3.273 -0 -1.2 0
3.11 -2.903 3.288 -0 -1.2 0
3.122 -2.994 3.294 -0 -1.2 0
3.119 -3.079 3.288 -0 -1.2 0
3.154 -3.191 3.316 -0 -1.2 0
3.208 -3.319 3.361 -0 -1.2 0
3.226 -3.426 3.374 -0 -1.2 0
3.236 -3.529 3.379 -0 -1.2 0
3.244 -3.634 3.382 -0 -1.2 0
3.251 -3.74 3.384 -0 -1.2 0
3.268 -3.856 3.396 -0 -1.2 0
3.284 -3.976 3.405 -0 -1.2 0
3.303 -4.101 3.417 -0 -1.2 0
3.322 -4.229 3.429 -0 -1.2 0
3.324 -4.347 3.426 -0 -1.2 0
3.332 -4.47 3.427 -0 -1.2 0
3.337 -4.596 3.427 -0 -1.2 0
3.345 -4.729 3.428 -0 -1.2 0
3.346 -4.857 3.422 -0 -1.2 0
3.355 -4.999 3.425 -0 -1.2 0
3.357 -5.136 3.419 -0 -1.2 0
3.36 -5.28 3.417 -0 -1.2 0
0.897 0.027 1.246 -0 -1.2 0
0.927 0.029 1.274 -0 -1.2 0
0.952 0.024 1.296 -0 -1.2 0
0.983 0.024 1.324 -0 -1.2 0
1.009 0.017 1.347 -0 -1.2 0
1.051 0.028 1.385 -0 -1.2 0
1.082 0.025 1.413 -0 -1.2 0
1.113 0.02 1.443 -0 -1.2 0
1.151 0.022 1.476 -0 -1.2 0
1.195 0.027 1.517 -0 -1.2 0
1.233 0.024 1.551 -0 -1.2 0
1.278 0.027 1.592 -0 -1.2 0
1.323 0.027 1.632 -0 -1.2 0
1.368 0.026 1.673 -0 -1.2 0
1.389 0 1.692 -0 -1.2 0
1.423 -0.014 1.721 -0 -1.2 0
1.437 -0.044 1.733 -0 -1.2 0
1.483 -0.052 1.774 -0 -1.2 0
1.561 -0.037 1.846 -0 -1.2 0
1.614 -0.044 1.894 -0 -1.2 0
1.687 -0.039 1.96 -0 -1.2 0
1.734 -0.056 2.002 -0 -1.2 0
1.788 -0.07 2.051 -0 -1.2 0
1.883 -0.062 2.137 -0 -1.2 0
1.972 -0.062 2.218 -0 -1.2 0
2.067 -0.063 2.305 -0 -1.2 0
2.136 -0.082 2.367 -0 -1.2 0
2.274 -0.069 2.492 -0 -1.2 0
2.435 -0.055 2.639 -0 -1.2 0
2.52 -0.08 2.714 -0 -1.2 0
2.625 -0.101 2.81 -0 -1.2 0
2.724 -0.129 2.898 -0 -1.2 0
3.008 -0.096 3.157 -0 -1.2 0
3.236 -0.095 3.365 -0 -1.2 0
3.754 -0.02 3.838 -0 -1.2 0
4.187 0.007 4.233 -0 -1.2 0
4.63 0.018 4.636 -0 -1.2 0
5.206 0.035 5.159 -0 -1.2 0
5.886 0.047 5.777 -0 -1.2 0
6.657 0.043 6.476 -0 -1.2 0
7.628 0.032 7.357 -0 -1.2 0
8.725 -0.007 8.352 -0 -1.2 0
11.365 0.059 10.751 -0 -1.2 0
12.144 -0.145 11.449 -0 -1.2 0
12.146 -0.43 11.439 -0 -1.2 0
12.159 -0.712 11.438 -0 -1.2 0
12.184 -0.996 11.448 -0 -1.2 0
12.197 -1.279 11.447 -0 -1.2 0
12.206 -1.564 11.443 -0 -1.2 0
12.219 -1.85 11.443 -0 -1.2 0
12.229 -2.135 11.438 -0 -1.2 0
12.235 -2.422 11.431 -0 -1.2 0
12.252 -2.709 11.433 -0 -1.2 0
12.258 -2.998 11.426 -0 -1.2 0
12.266 -3.288 11.422 -0 -1.2 0
12.28 -3.58 11.421 -0 -1.2 0
12.289 -3.873 11.416 -0 -1.2 0
12.294 -4.167 11.407 -0 -1.2 0
12.303 -4.463 11.401 -0 -1.2 0
12.307 -4.761 11.392 -0 -1.2 0
3.111 -2.07 3.163 -0 -1.2 0
3.056 -2.125 3.111 -0 -1.2 0
3.023 -2.185 3.077 -0 -1.2 0
3.009 -2.253 3.063 -0 -1.2 0
2.996 -2.32 3.047 -0 -1.2 0
2.988 -2.389 3.038 -0 -1.2 0
2.98 -2.46 3.026 -0 -1.2 0
2.97 -2.529 3.015 -0 -1.2 0
2.945 -2.592 2.989 -0 -1.2 0
2.969 -2.68 3.007 -0 -1.2 0
2.977 -2.762 3.011 -0 -1.2 0
2.984 -2.845 3.013 -0 -1.2 0
2.982 -2.924 3.008 -0 -1.2 0
2.993 -3.012 3.014 -0 -1.2 0
3.009 -3.107 3.025 -0 -1.2 0
3.018 -3.198 3.029 -0 -1.2 0
3.024 -3.289 3.03 -0 -1.2 0
3.03 -3.381 3.03 -0 -1.2 0
3.026 -3.469 3.024 -0 -1.2 0
3.035 -3.568 3.028 -0 -1.2 0
3.036 -3.662 3.024 -0 -1.2 0
3.023 -3.747 3.008 -0 -1.2 0
3.032 -3.854 3.012 -0 -1.2 0
3.04 -3.962 3.015 -0 -1.2 0
3.047 -4.071 3.015 -0 -1.2 0
3.044 -4.175 3.009 -0 -1.2 0
3.029 -4.268 2.99 -0 -1.2 0
3.018 -4.367 2.976 -0 -1.2 0
3.073 -4.546 3.019 -0 -1.2 0
3.074 -4.667 3.014 -0 -1.2 0
3.073 -4.79 3.008 -0 -1.2 0
0.923 0.029 1.234 -0 -1.2 0
0.948 0.024 1.255 -0 -1.2 0
0.979 0.026 1.281 -0 -1.2 0
1.006 0.019 1.303 -0 -1.2 0
1.043 0.025 1.335 -0 -1.2 0
1.081 0.031 1.367 -0 -1.2 0
1.107 0.021 1.39 -0 -1.2 0
1.145 0.023 1.422 -0 -1.2 0
1.184 0.024 1.455 -0 -1.2 0
1.224 0.024 1.488 -0 -1.2 0
1.262 0.022 1.522 -0 -1.2 0
1.308 0.023 1.561 -0 -1.2 0
1.361 0.03 1.606 -0 -1.2 0
1.401 0.024 1.64 -0 -1.2 0
1.435 0.01 1.669 -0 -1.2 0
1.451 -0.021 1.681 -0 -1.2 0
1.472 -0.046 1.697 -0 -1.2 0
1.532 -0.043 1.749 -0 -1.2 0
1.599 -0.038 1.806 -0 -1.2 0
1.661 -0.04 1.858 -0 -1.2 0
1.729 -0.04 1.916 -0 -1.2 0
1.785 -0.052 1.963 -0 -1.2 0
1.86 -0.053 2.027 -0 -1.2 0
1.93 -0.062 2.087 -0 -1.2 0
2.07 -0.035 2.207 -0 -1.2 0
2.155 -0.043 2.278 -0 -1.2 0
2.211 -0.069 2.326 -0 -1.2 0
2.283 -0.091 2.386 -0 -1.2 0
2.405 -0.094 2.489 -0 -1.2 0
2.599 -0.071 2.655 -0 -1.2 0
2.743 -0.077 2.778 -0 -1.2 0
2.824 -0.113 2.845 -0 -1.2 0
3.013 -0.116 3.006 -0 -1.2 0
3.255 -0.111 3.213 -0 -1.2 0
3.794 -0.03 3.675 -0 -1.2 0
4.263 0.006 4.075 -0 -1.2 0
4.741 0.023 4.481 -0 -1.2 0
5.303 0.037 4.96 -0 -1.2 0
5.995 0.051 5.55 -0 -1.2 0
6.78 0.048 6.218 -0 -1.2 0
7.786 0.042 7.073 -0 -1.2 0
8.711 -0.018 7.858 -0 -1.2 0
11.539 0.073 10.268 -0 -1.2 0
12.34 -0.126 10.941 -0 -1.2 0
12.334 -0.407 10.924 -0 -1.2 0
12.347 -0.687 10.924 -0 -1.2 0
12.387 -0.966 10.946 -0 -1.2 0
12.4 -1.247 10.946 -0 -1.2 0
12.402 -1.528 10.936 -0 -1.2 0
12.407 -1.809 10.929 -0 -1.2 0
12.418 -2.091 10.926 -0 -1.2 0
12.423 -2.374 10.92 -0 -1.2 0
12.448 -2.659 10.929 -0 -1.2 0
12.453 -2.944 10.922 -0 -1.2 0
12.464 -3.23 10.918 -0 -1.2 0
12.469 -3.517 10.911 -0 -1.2 0
12.479 -3.807 10.907 -0 -1.2 0
12.477 -4.095 10.894 -0 -1.2 0
12.486 -4.388 10.89 -0 -1.2 0
12.505 -4.687 10.894 -0 -1.2 0
8.855 -3.837 7.823 -0 -1.2 0
8.888 -4.058 7.842 -0 -1.2 0
3.181 -2.204 3.062 -0 -1.2 0
3.13 -2.259 3.018 -0 -1.2 0
3.108 -2.325 2.996 -0 -1.2 0
3.071 -2.382 2.962 -0 -1.2 0
3.055 -2.449 2.946 -0 -1.2 0
3.053 -2.522 2.94 -0 -1.2 0
3.049 -2.596 2.934 -0 -1.2 0
3.058 -2.677 2.939 -0 -1.2 0
3.06 -2.755 2.936 -0 -1.2 0
3.067 -2.838 2.939 -0 -1.2 0
3.052 -2.908 2.923 -0 -1.2 0
3.042 -2.984 2.912 -0 -1.2 0
3.031 -3.058 2.9 -0 -1.2 0
3.04 -3.148 2.903 -0 -1.2 0
3.054 -3.242 2.912 -0 -1.2 0
3.067 -3.338 2.919 -0 -1.2 0
3.07 -3.431 2.918 -0 -1.2 0
3.066 -3.518 2.912 -0 -1.2 0
3.067 -3.611 2.908 -0 -1.2 0
3.067 -3.705 2.904 -0 -1.2 0
3.065 -3.8 2.899 -0 -1.2 0
3.08 -3.914 2.907 -0 -1.2 0
3.074 -4.01 2.897 -0 -1.2 0
3.091 -4.132 2.907 -0 -1.2 0
3.088 -4.236 2.9 -0 -1.2 0
3.076 -4.334 2.886 -0 -1.2 0
3.105 -4.479 2.904 -0 -1.2 0
3.113 -4.606 2.905 -0 -1.2 0
3.112 -4.727 2.9 -0 -1.2 0
0.944 0.023 1.215 -0 -1.2 0
0.976 0.025 1.241 -0 -1.2 0
0.998 0.013 1.257 -0 -1.2 0
1.035 0.02 1.287 -0 -1.2 0
1.068 0.021 1.313 -0 -1.2 0
1.1 0.019 1.339 -0 -1.2 0
1.145 0.029 1.375 -0 -1.2 0
1.185 0.031 1.406 -0 -1.2 0
1.212 0.02 1.428 -0 -1.2 0
1.258 0.025 1.464 -0 -1.2 0
1.299 0.024 1.497 -0 -1.2 0
1.34 0.02 1.529 -0 -1.2 0
1.393 0.026 1.572 -0 -1.2 0
1.441 0.026 1.61 -0 -1.2 0
1.471 0.006 1.632 -0 -1.2 0
1.486 -0.024 1.643 -0 -1.2 0
1.508 -0.049 1.659 -0 -1.2 0
1.576 -0.04 1.714 -0 -1.2 0
1.652 -0.031 1.775 -0 -1.2 0
1.694 -0.046 1.808 -0 -1.2 0
1.772 -0.042 1.868 -0 -1.2 0
1.829 -0.053 1.914 -0 -1.2 0
1.886 -0.067 1.959 -0 -1.2 0
1.943 -0.082 2.003 -0 -1.2 0
2.072 -0.061 2.106 -0 -1.2 0
2.173 -0.061 2.186 -0 -1.2 0
2.29 -0.058 2.279 -0 -1.2 0
2.4 -0.063 2.366 -0 -1.2 0
2.518 -0.069 2.459 -0 -1.2 0
2.629 -0.084 2.547 -0 -1.2 0
2.697 -0.12 2.598 -0 -1.2 0
2.883 -0.116 2.747 -0 -1.2 0
3.092 -0.112 2.913 -0 -1.2 0
3.517 -0.052 3.251 -0 -1.2 0
3.911 -0.019 3.566 -0 -1.2 0
4.34 0.003 3.907 -0 -1.2 0
4.824 0.021 4.291 -0 -1.2 0
5.372 0.031 4.726 -0 -1.2 0
6.076 0.047 5.284 -0 -1.2 0
6.875 0.047 5.917 -0 -1.2 0
7.894 0.044 6.726 -0 -1.2 0
8.729 -0.027 7.384 -0 -1.2 0
11.428 0.056 9.527 -0 -1.2 0
12.555 -0.106 10.415 -0 -1.2 0
12.549 -0.385 10.399 -0 -1.2 0
12.554 -0.662 10.393 -0 -1.2 0
12.571 -0.938 10.396 -0 -1.2 0
12.584 -1.215 10.396 -0 -1.2 0
12.602 -1.493 10.399 -0 -1.2 0
12.6 -1.77 10.387 -0 -1.2 0
12.609 -2.049 10.384 -0 -1.2 0
12.623 -2.328 10.385 -0 -1.2 0
12.641 -2.609 10.388 -0 -1.2 0
12.639 -2.889 10.376 -0 -1.2 0
12.648 -3.172 10.373 -0 -1.2 0
12.663 -3.457 10.374 -0 -1.2 0
12.657 -3.739 10.358 -0 -1.2 0
12.67 -4.028 10.358 -0 -1.2 0
12.68 -4.316 10.354 -0 -1.2 0
12.693 -4.609 10.353 -0 -1.2 0
8.961 -3.772 7.427 -0 -1.2 0
12.714 -5.201 10.348 -0 -1.2 0
8.433 -4.001 7 -0 -1.2 0
12.733 -5.803 10.341 -0 -1.2 0
3.264 -2.345 2.965 -0 -1.2 0
3.188 -2.389 2.903 -0 -1.2 0
3.171 -2.457 2.887 -0 -1.2 0
3.19 -2.541 2.899 -0 -1.2 0
3.193 -2.619 2.898 -0 -1.2 0
3.21 -2.705 2.908 -0 -1.2 0
3.197 -2.777 2.894 -0 -1.2 0
3.196 -2.857 2.891 -0 -1.2 0
3.201 -2.941 2.892 -0 -1.2 0
3.149 -2.991 2.848 -0 -1.2 0
3.095 -3.039 2.804 -0 -1.2 0
3.125 -3.142 2.825 -0 -1.2 0
3.208 -3.285 2.885 -0 -1.2 0
3.125 -3.312 2.817 -0 -1.2 0
2.892 -3.221 2.637 -0 -1.2 0
2.964 -3.361 2.688 -0 -1.2 0
3.173 -3.621 2.844 -0 -1.2 0
3.172 -3.716 2.84 -0 -1.2 0
3.196 -3.834 2.854 -0 -1.2 0
3.204 -3.943 2.857 -0 -1.2 0
3.216 -4.058 2.862 -0 -1.2 0
3.233 -4.181 2.871 -0 -1.2 0
3.229 -4.287 2.863 -0 -1.2 0
3.222 -4.393 2.854 -0 -1.2 0
3.214 -4.499 2.843 -0 -1.2 0
3.222 -4.627 2.845 -0 -1.2 0
3.22 -4.748 2.84 -0 -1.2 0
0.963 0.017 1.195 -0 -1.2 0
0.989 0.013 1.214 -0 -1.2 0
1.028 0.022 1.243 -0 -1.2 0
1.055 0.015 1.263 -0 -1.2 0
1.089 0.015 1.288 -0 -1.2 0
1.128 0.021 1.317 -0 -1.2 0
1.161 0.018 1.342 -0 -1.2 0
1.202 0.02 1.372 -0 -1.2 0
1.243 0.022 1.402 -0 -1.2 0
1.283 0.021 1.432 -0 -1.2 0
1.325 0.02 1.462 -0 -1.2 0
1.367 0.016 1.494 -0 -1.2 0
1.423 0.023 1.535 -0 -1.2 0
1.471 0.022 1.571 -0 -1.2 0
1.507 0.008 1.597 -0 -1.2 0
1.523 -0.021 1.608 -0 -1.2 0
1.559 -0.036 1.634 -0 -1.2 0
1.603 -0.048 1.665 -0 -1.2 0
1.666 -0.047 1.712 -0 -1.2 0
1.724 -0.053 1.754 -0 -1.2 0
1.781 -0.061 1.797 -0 -1.2 0
1.824 -0.08 1.828 -0 -1.2 0
1.869 -0.101 1.86 -0 -1.2 0
1.941 -0.106 1.914 -0 -1.2 0
2.074 -0.084 2.012 -0 -1.2 0
2.192 -0.076 2.1 -0 -1.2 0
2.312 -0.071 2.188 -0 -1.2 0
2.431 -0.072 2.277 -0 -1.2 0
2.529 -0.088 2.349 -0 -1.2 0
2.697 -0.08 2.472 -0 -1.2 0
2.796 -0.104 2.545 -0 -1.2 0
2.996 -0.098 2.693 -0 -1.2 0
3.25 -0.081 2.881 -0 -1.2 0
3.591 -0.05 3.134 -0 -1.2 0
3.959 -0.028 3.406 -0 -1.2 0
4.414 0.002 3.743 -0 -1.2 0
4.887 0.015 4.094 -0 -1.2 0
5.433 0.024 4.497 -0 -1.2 0
6.124 0.037 5.008 -0 -1.2 0
6.904 0.034 5.584 -0 -1.2 0
7.902 0.029 6.32 -0 -1.2 0
8.734 -0.038 6.933 -0 -1.2 0
10.935 -0.003 8.56 -0 -1.2 0
12.99 -0.075 10.075 -0 -1.2 0
12.983 -0.356 10.06 -0 -1.2 0
12.988 -0.635 10.054 -0 -1.2 0
13.013 -0.913 10.063 -0 -1.2 0
13.019 -1.193 10.058 -0 -1.2 0
13.019 -1.472 10.048 -0 -1.2 0
13.018 -1.752 10.037 -0 -1.2 0
13.019 -2.032 10.028 -0 -1.2 0
13.025 -2.312 10.022 -0 -1.2 0
13.034 -2.593 10.019 -0 -1.2 0
13.04 -2.876 10.014 -0 -1.2 0
13.035 -3.158 9.999 -0 -1.2 0
13.048 -3.444 10 -0 -1.2 0
13.05 -3.729 9.991 -0 -1.2 0
13.055 -4.017 9.985 -0 -1.2 0
13.057 -4.306 9.975 -0 -1.2 0
9.068 -3.517 7.056 -0 -1.2 0
9.036 -3.709 7.026 -0 -1.2 0
9.095 -3.931 7.062 -0 -1.2 0
8.713 -4.008 6.778 -0 -1.2 0
8.597 -4.164 6.686 -0 -1.2 0
8.834 -4.453 6.851 -0 -1.2 0
13.11 -6.407 9.94 -0 -1.2 0
3.182 -2.42 2.748 -0 -1.2 0
3.096 -2.455 2.683 -0 -1.2 0
3.047 -2.504 2.646 -0 -1.2 0
8.777 -5.476 6.772 -0 -1.2 0
8.687 -5.645 6.7 -0 -1.2 0
8.958 -6.013 6.888 -0 -1.2 0
6.798 -4.984 5.329 -0 -1.2 0
3.278 -3.016 2.798 -0 -1.2 0
3.157 -3.024 2.709 -0 -1.2 0
5.737 -4.815 4.552 -0 -1.2 0
5.928 -5.101 4.682 -0 -1.2 0
2.984 -3.15 2.577 -0 -1.2 0
2.97 -3.222 2.564 -0 -1.2 0
2.941 -3.282 2.54 -0 -1.2 0
2.924 -3.352 2.525 -0 -1.2 0
2.894 -3.412 2.5 -0 -1.2 0
4.32 -4.737 3.507 -0 -1.2 0
4.296 -4.85 3.485 -0 -1.2 0
3.445 -4.192 2.88 -0 -1.2 0
3.415 -4.275 2.855 -0 -1.2 0
6.049 -7.024 4.703 -0 -1.2 0
5.86 -7.039 4.563 -0 -1.2 0
6.916 -8.382 5.296 -0 -1.2 0
9.755 -11.79 7.272 -0 -1.2 0
0.99 0.026 1.183 -0 -1.2 0
1.011 0.014 1.198 -0 -1.2 0
1.039 0.009 1.217 -0 -1.2 0
1.085 0.024 1.249 -0 -1.2 0
1.113 0.017 1.268 -0 -1.2 0
1.154 0.022 1.296 -0 -1.2 0
1.183 0.014 1.315 -0 -1.2 0
1.223 0.016 1.344 -0 -1.2 0
1.278 0.03 1.381 -0 -1.2 0
1.307 0.017 1.402 -0 -1.2 0
1.35 0.016 1.43 -0 -1.2 0
1.399 0.019 1.464 -0 -1.2 0
1.455 0.026 1.503 -0 -1.2 0
1.499 0.019 1.534 -0 -1.2 0
1.543 0.011 1.564 -0 -1.2 0
1.566 -0.013 1.578 -0 -1.2 0
1.616 -0.018 1.613 -0 -1.2 0
1.654 -0.035 1.638 -0 -1.2 0
1.683 -0.058 1.658 -0 -1.2 0
1.735 -0.068 1.693 -0 -1.2 0
1.816 -0.062 1.749 -0 -1.2 0
1.838 -0.094 1.763 -0 -1.2 0
1.868 -0.122 1.783 -0 -1.2 0
1.964 -0.116 1.85 -0 -1.2 0
2.123 -0.081 1.959 -0 -1.2 0
2.244 -0.072 2.043 -0 -1.2 0
2.343 -0.079 2.111 -0 -1.2 0
2.427 -0.095 2.169 -0 -1.2 0
2.544 -0.102 2.248 -0 -1.2 0
2.698 -0.099 2.355 -0 -1.2 0
2.894 -0.087 2.489 -0 -1.2 0
3.145 -0.065 2.663 -0 -1.2 0
3.374 -0.06 2.822 -0 -1.2 0
3.677 -0.044 3.03 -0 -1.2 0
4.021 -0.029 3.267 -0 -1.2 0
4.471 -0.003 3.577 -0 -1.2 0
4.956 0.012 3.911 -0 -1.2 0
5.49 0.018 4.279 -0 -1.2 0
6.205 0.035 4.772 -0 -1.2 0
6.98 0.031 5.305 -0 -1.2 0
7.993 0.029 6.003 -0 -1.2 0
9.099 -0.004 6.762 -0 -1.2 0
10.773 -0.027 7.913 -0 -1.2 0
14.288 0.024 10.332 -0 -1.2 0
15.145 -0.226 10.914 -0 -1.2 0
15.152 -0.544 10.908 -0 -1.2 0
15.245 -0.861 10.961 -0 -1.2 0
15.251 -1.181 10.955 -0 -1.2 0
15.253 -1.501 10.945 -0 -1.2 0
15.249 -1.821 10.933 -0 -1.2 0
15.242 -2.141 10.917 -0 -1.2 0
15.246 -2.462 10.91 -0 -1.2 0
15.262 -2.784 10.909 -0 -1.2 0
15.273 -3.108 10.906 -0 -1.2 0
15.28 -3.433 10.9 -0 -1.2 0
15.265 -3.756 10.879 -0 -1.2 0
9.055 -2.859 6.637 -0 -1.2 0
9.064 -3.053 6.636 -0 -1.2 0
9.037 -3.241 6.612 -0 -1.2 0
9.008 -3.43 6.586 -0 -1.2 0
8.968 -3.614 6.552 -0 -1.2 0
8.949 -3.805 6.533 -0 -1.2 0
8.952 -4.003 6.529 -0 -1.2 0
8.943 -4.2 6.516 -0 -1.2 0
8.861 -4.371 6.454 -0 -1.2 0
8.918 -4.594 6.485 -0 -1.2 0
8.384 -4.575 6.118 -0 -1.2 0
8.164 -4.671 5.964 -0 -1.2 0
7.828 -4.705 5.731 -0 -1.2 0
7.723 -4.84 5.656 -0 -1.2 0
8.602 -5.481 6.239 -0 -1.2 0
5.245 -3.872 3.983 -0 -1.2 0
5.146 -3.945 3.912 -0 -1.2 0
5.047 -4.014 3.841 -0 -1.2 0
5.005 -4.117 3.809 -0 -1.2 0
4.941 -4.205 3.762 -0 -1.2 0
4.889 -4.3 3.724 -0 -1.2 0
4.815 -4.379 3.67 -0 -1.2 0
4.691 -4.419 3.583 -0 -1.2 0
4.602 -4.483 3.519 -0 -1.2 0
6.375 -6.006 4.689 -0 -1.2 0
6.063 -5.939 4.477 -0 -1.2 0
6.363 -6.374 4.669 -0 -1.2 0
6.41 -6.609 4.693 -0 -1.2 0
3.477 -4.144 2.758 -0 -1.2 0
5.962 -6.596 4.386 -0 -1.2 0
5.858 -6.692 4.311 -0 -1.2 0
5.74 -6.771 4.228 -0 -1.2 0
6.038 -7.283 4.415 -0 -1.2 0
8.585 -10.262 6.07 -0 -1.2 0
8.473 -10.457 5.986 -0 -1.2 0
1 0.013 1.158 -0 -1.2 0
1.04 0.023 1.184 -0 -1.2 0
1.074 0.025 1.206 -0 -1.2 0
1.098 0.012 1.22 -0 -1.2 0
1.145 0.026 1.25 -0 -1.2 0
1.174 0.017 1.268 -0 -1.2 0
1.216 0.022 1.295 -0 -1.2 0
1.251 0.018 1.318 -0 -1.2 0
1.3 0.026 1.349 -0 -1.2 0
1.337 0.019 1.372 -0 -1.2 0
1.387 0.024 1.404 -0 -1.2 0
1.431 0.021 1.432 -0 -1.2 0
1.488 0.028 1.469 -0 -1.2 0
1.519 0.01 1.487 -0 -1.2 0
1.578 0.013 1.526 -0 -1.2 0
1.616 0 1.549 -0 -1.2 0
1.668 -0.005 1.582 -0 -1.2 0
1.692 -0.032 1.596 -0 -1.2 0
1.73 -0.051 1.62 -0 -1.2 0
1.79 -0.057 1.658 -0 -1.2 0
1.858 -0.059 1.701 -0 -1.2 0
1.896 -0.083 1.725 -0 -1.2 0
1.942 -0.103 1.753 -0 -1.2 0
1.972 -0.132 1.772 -0 -1.2 0
2.025 -0.151 1.805 -0 -1.2 0
2.249 -0.09 1.949 -0 -1.2 0
2.429 -0.06 2.064 -0 -1.2 0
2.532 -0.071 2.129 -0 -1.2 0
2.642 -0.082 2.199 -0 -1.2 0
2.81 -0.076 2.306 -0 -1.2 0
2.994 -0.071 2.423 -0 -1.2 0
3.219 -0.059 2.567 -0 -1.2 0
3.471 -0.05 2.727 -0 -1.2 0
3.788 -0.031 2.93 -0 -1.2 0
4.108 -0.025 3.133 -0 -1.2 0
4.561 0 3.422 -0 -1.2 0
5.04 0.014 3.727 -0 -1.2 0
5.604 0.024 4.086 -0 -1.2 0
6.304 0.037 4.531 -0 -1.2 0
7.114 0.037 5.047 -0 -1.2 0
8.143 0.036 5.701 -0 -1.2 0
9.116 -0.013 6.319 -0 -1.2 0
9.285 -0.184 6.421 -0 -1.2 0
9.266 -0.376 6.403 -0 -1.2 0
9.269 -0.566 6.399 -0 -1.2 0
9.27 -0.755 6.394 -0 -1.2 0
9.234 -0.944 6.365 -0 -1.2 0
9.247 -1.132 6.367 -0 -1.2 0
9.247 -1.321 6.361 -0 -1.2 0
9.236 -1.508 6.349 -0 -1.2 0
9.223 -1.696 6.335 -0 -1.2 0
9.199 -1.882 6.314 -0 -1.2 0
9.18 -2.069 6.297 -0 -1.2 0
9.175 -2.256 6.288 -0 -1.2 0
9.194 -2.448 6.293 -0 -1.2 0
9.192 -2.637 6.286 -0 -1.2 0
9.17 -2.824 6.267 -0 -1.2 0
9.137 -3.008 6.241 -0 -1.2 0
9.094 -3.19 6.208 -0 -1.2 0
9.114 -3.386 6.214 -0 -1.2 0
9.222 -3.61 6.276 -0 -1.2 0
9.277 -3.824 6.304 -0 -1.2 0
9.32 -4.038 6.325 -0 -1.2 0
10.922 -4.789 7.321 -0 -1.2 0
17.546 -7.442 11.452 -0 -1.2 0
12.418 -5.851 8.239 -0 -1.2 0
9.27 -4.843 6.269 -0 -1.2 0
12.372 -6.394 8.194 -0 -1.2 0
3.53 -2.65 2.685 -0 -1.2 0
12.224 -6.898 8.084 -0 -1.2 0
12.124 -7.138 8.014 -0 -1.2 0
7.291 -4.879 5.008 -0 -1.2 0
7.182 -4.995 4.936 -0 -1.2 0
8.531 -5.95 5.765 -0 -1.2 0
3.441 -3.095 2.615 -0 -1.2 0
6.286 -4.971 4.367 -0 -1.2 0
7.39 -5.855 5.042 -0 -1.2 0
4.807 -4.417 3.443 -0 -1.2 0
7.226 -6.332 4.923 -0 -1.2 0
7.407 -6.673 5.028 -0 -1.2 0
6.401 -6.086 4.407 -0 -1.2 0
7.271 -6.991 4.932 -0 -1.2 0
9.846 -9.413 6.495 -0 -1.2 0
9.99 -9.846 6.574 -0 -1.2 0
5.891 -6.395 4.073 -0 -1.2 0
6.053 -6.739 4.165 -0 -1.2 0
10.305 -11.134 6.734 -0 -1.2 0
5.673 -6.76 3.924 -0 -1.2 0
10.707 -12.281 6.955 -0 -1.2 0
1.031 0.029 1.149 -0 -1.2 0
1.06 0.024 1.166 -0 -1.2 0
1.089 0.02 1.183 -0 -1.2 0
1.125 0.02 1.204 -0 -1.2 0
1.161 0.02 1.225 -0 -1.2 0
1.197 0.019 1.246 -0 -1.2 0
1.239 0.023 1.271 -0 -1.2 0
1.282 0.026 1.296 -0 -1.2 0
1.32 0.021 1.319 -0 -1.2 0
1.37 0.027 1.348 -0 -1.2 0
1.414 0.026 1.375 -0 -1.2 0
1.466 0.029 1.405 -0 -1.2 0
1.519 0.03 1.436 -0 -1.2 0
1.564 0.024 1.462 -0 -1.2 0
1.617 0.022 1.494 -0 -1.2 0
1.663 0.012 1.521 -0 -1.2 0
1.672 -0.023 1.525 -0 -1.2 0
1.711 -0.04 1.547 -0 -1.2 0
1.771 -0.043 1.584 -0 -1.2 0
1.811 -0.063 1.606 -0 -1.2 0
1.895 -0.056 1.655 -0 -1.2 0
1.95 -0.071 1.687 -0 -1.2 0
1.981 -0.1 1.705 -0 -1.2 0
2.011 -0.129 1.722 -0 -1.2 0
2.034 -0.164 1.734 -0 -1.2 0
2.167 -0.147 1.813 -0 -1.2 0
2.398 -0.092 1.952 -0 -1.2 0
2.591 -0.064 2.066 -0 -1.2 0
2.672 -0.087 2.113 -0 -1.2 0
2.793 -0.1 2.184 -0 -1.2 0
3.104 -0.05 2.369 -0 -1.2 0
3.31 -0.047 2.49 -0 -1.2 0
3.583 -0.032 2.652 -0 -1.2 0
3.891 -0.018 2.834 -0 -1.2 0
4.251 -0.003 3.046 -0 -1.2 0
4.663 0.009 3.29 -0 -1.2 0
5.186 0.031 3.599 -0 -1.2 0
5.762 0.041 3.939 -0 -1.2 0
6.468 0.052 4.355 -0 -1.2 0
7.303 0.055 4.848 -0 -1.2 0
8.354 0.055 5.468 -0 -1.2 0
9.305 0 6.027 -0 -1.2 0
9.399 -0.178 6.078 -0 -1.2 0
9.405 -0.367 6.076 -0 -1.2 0
9.4 -0.555 6.068 -0 -1.2 0
9.409 -0.743 6.067 -0 -1.2 0
9.399 -0.93 6.056 -0 -1.2 0
9.393 -1.119 6.047 -0 -1.2 0
9.411 -1.306 6.053 -0 -1.2 0
9.418 -1.494 6.051 -0 -1.2 0
9.421 -1.683 6.048 -0 -1.2 0
9.43 -1.872 6.049 -0 -1.2 0
9.446 -2.063 6.052 -0 -1.2 0
9.423 -2.25 6.033 -0 -1.2 0
9.45 -2.444 6.044 -0 -1.2 0
9.661 -2.67 6.162 -0 -1.2 0
9.792 -2.891 6.233 -0 -1.2 0
22.332 -5.675 13.549 -0 -1.2 0
22.35 -6.142 13.547 -0 -1.2 0
22.344 -6.608 13.53 -0 -1.2 0
21.708 -6.905 13.147 -0 -1.2 0
12.559 -4.708 7.813 -0 -1.2 0
20.329 -7.398 12.319 -0 -1.2 0
19.356 -7.511 11.742 -0 -1.2 0
12.998 -6.535 8.02 -0 -1.2 0
7.206 -4.414 4.664 -0 -1.2 0
7.34 -4.646 4.737 -0 -1.2 0
11.98 -7.21 7.401 -0 -1.2 0
7.562 -5.111 4.855 -0 -1.2 0
11.624 -7.586 7.18 -0 -1.2 0
7.627 -5.517 4.881 -0 -1.2 0
11.213 -7.913 6.928 -0 -1.2 0
4.952 -4.187 3.341 -0 -1.2 0
4.882 -4.269 3.298 -0 -1.2 0
12.097 -10.409 7.379 -0 -1.2 0
10.648 -9.589 6.548 -0 -1.2 0
11.583 -10.688 7.068 -0 -1.2 0
6.024 -6.214 3.916 -0 -1.2 0
12.02 -11.795 7.295 -0 -1.2 0
12.458 -12.999 7.519 -0 -1.2 0
5.681 -6.647 3.702 -0 -1.2 0
11.878 -13.258 7.169 -0 -1.2 0
11.889 -13.696 7.163 -0 -1.2 0
1.045 0.022 1.127 -0 -1.2 0
1.08 0.026 1.147 -0 -1.2 0
1.116 0.028 1.166 -0 -1.2 0
1.146 0.021 1.183 -0 -1.2 0
1.188 0.029 1.205 -0 -1.2 0
1.219 0.02 1.222 -0 -1.2 0
1.255 0.019 1.242 -0 -1.2 0
1.306 0.028 1.27 -0 -1.2 0
1.35 0.029 1.294 -0 -1.2 0
1.395 0.029 1.319 -0 -1.2 0
1.44 0.028 1.344 -0 -1.2 0
1.493 0.031 1.372 -0 -1.2 0
1.546 0.032 1.401 -0 -1.2 0
1.586 0.021 1.422 -0 -1.2 0
1.647 0.024 1.456 -0 -1.2 0
1.686 0.009 1.477 -0 -1.2 0
1.718 -0.011 1.494 -0 -1.2 0
1.787 -0.007 1.532 -0 -1.2 0
1.813 -0.036 1.544 -0 -1.2 0
1.867 -0.046 1.574 -0 -1.2 0
1.915 -0.063 1.6 -0 -1.2 0
1.993 -0.064 1.643 -0 -1.2 0
2.017 -0.097 1.655 -0 -1.2 0
2.033 -0.135 1.662 -0 -1.2 0
2.064 -0.165 1.679 -0 -1.2 0
2.111 -0.189 1.704 -0 -1.2 0
2.304 -0.149 1.811 -0 -1.2 0
2.598 -0.077 1.972 -0 -1.2 0
2.705 -0.09 2.03 -0 -1.2 0
3.02 -0.031 2.204 -0 -1.2 0
3.212 -0.028 2.309 -0 -1.2 0
3.414 -0.029 2.42 -0 -1.2 0
3.693 -0.014 2.572 -0 -1.2 0
3.989 -0.006 2.734 -0 -1.2 0
4.365 0.011 2.939 -0 -1.2 0
4.785 0.023 3.168 -0 -1.2 0
5.318 0.045 3.46 -0 -1.2 0
5.888 0.053 3.772 -0 -1.2 0
6.625 0.068 4.174 -0 -1.2 0
7.536 0.08 4.673 -0 -1.2 0
8.572 0.075 5.238 -0 -1.2 0
9.594 0.026 5.794 -0 -1.2 0
9.743 -0.148 5.871 -0 -1.2 0
15.471 0.112 9.005 -0 -1.2 0
18.924 -2.606 10.818 -0 -1.2 0
18.438 -2.932 10.545 -0 -1.2 0
9.81 -2.456 5.847 -0 -1.2 0
9.799 -2.65 5.836 -0 -1.2 0
9.837 -2.853 5.852 -0 -1.2 0
9.88 -3.059 5.87 -0 -1.2 0
9.894 -3.261 5.872 -0 -1.2 0
9.913 -3.467 5.877 -0 -1.2 0
9.955 -3.681 5.894 -0 -1.2 0
9.992 -3.896 5.909 -0 -1.2 0
10.069 -4.127 5.945 -0 -1.2 0
10.125 -4.357 5.969 -0 -1.2 0
13.37 -5.699 7.706 -0 -1.2 0
13.393 -6.286 7.704 -0 -1.2 0
13.29 -6.537 7.64 -0 -1.2 0
12.426 -6.456 7.17 -0 -1.2 0
13.231 -8.023 7.568 -0 -1.2 0
10.633 -6.904 6.181 -0 -1.2 0
5.108 -3.971 3.24 -0 -1.2 0
12.038 -8.269 6.911 -0 -1.2 0
11.936 -8.507 6.849 -0 -1.2 0
11.877 -8.774 6.81 -0 -1.2 0
12.449 -9.474 7.105 -0 -1.2 0
13.095 -10.261 7.435 -0 -1.2 0
12.814 -10.412 7.278 -0 -1.2 0
12.236 -10.677 6.957 -0 -1.2 0
12.703 -12.186 7.171 -0 -1.2 0
12.602 -12.494 7.108 -0 -1.2 0
12.041 -12.371 6.806 -0 -1.2 0
12.11 -12.84 6.831 -0 -1.2 0
12.076 -13.222 6.803 -0 -1.2 0
12.268 -13.849 6.891 -0 -1.2 0
1.062 0.024 1.108 -0 -1.2 0
1.099 0.027 1.126 -0 -1.2 0
1.135 0.03 1.144 -0 -1.2 0
1.172 0.03 1.163 -0 -1.2 0
1.208 0.031 1.181 -0 -1.2 0
1.24 0.022 1.196 -0 -1.2 0
1.291 0.033 1.222 -0 -1.2 0
1.335 0.036 1.245 -0 -1.2 0
1.368 0.025 1.26 -0 -1.2 0
1.419 0.031 1.287 -0 -1.2 0
1.466 0.03 1.31 -0 -1.2 0
1.512 0.027 1.333 -0 -1.2 0
1.566 0.028 1.36 -0 -1.2 0
1.621 0.028 1.387 -0 -1.2 0
1.676 0.026 1.415 -0 -1.2 0
1.724 0.016 1.438 -0 -1.2 0
1.756 -0.004 1.454 -0 -1.2 0
1.82 -0.005 1.486 -0 -1.2 0
1.853 -0.029 1.502 -0 -1.2 0
1.9 -0.044 1.525 -0 -1.2 0
1.957 -0.056 1.554 -0 -1.2 0
2.021 -0.066 1.585 -0 -1.2 0
2.038 -0.102 1.592 -0 -1.2 0
2.069 -0.132 1.608 -0 -1.2 0
2.092 -0.166 1.619 -0 -1.2 0
2.148 -0.186 1.646 -0 -1.2 0
2.205 -0.208 1.674 -0 -1.2 0
2.495 -0.135 1.821 -0 -1.2 0
2.821 -0.061 1.986 -0 -1.2 0
3.101 -0.018 2.127 -0 -1.2 0
3.288 -0.017 2.221 -0 -1.2 0
3.502 -0.016 2.327 -0 -1.2 0
3.786 -0.002 2.47 -0 -1.2 0
4.098 0.009 2.626 -0 -1.2 0
4.471 0.024 2.813 -0 -1.2 0
4.943 0.047 3.05 -0 -1.2 0
5.434 0.056 3.297 -0 -1.2 0
6.05 0.071 3.605 -0 -1.2 0
6.809 0.087 3.985 -0 -1.2 0
7.703 0.095 4.433 -0 -1.2 0
8.821 0.1 4.992 -0 -1.2 0
9.942 0.06 5.552 -0 -1.2 0
12.176 0.088 6.67 -0 -1.2 0
15.859 0.142 8.516 -0 -1.2 0
22.349 0.22 11.765 -0 -1.2 0
23.533 -1.993 12.304 -0 -1.2 0
17.39 -2.095 9.228 -0 -1.2 0
18.464 -2.516 9.755 -0 -1.2 0
17.693 -2.801 9.363 -0 -1.2 0
17.392 -3.111 9.205 -0 -1.2 0
22.329 -4.123 11.651 -0 -1.2 0
21.121 -4.374 11.04 -0 -1.2 0
21.814 -4.913 11.374 -0 -1.2 0
10.165 -3.266 5.584 -0 -1.2 0
10.149 -3.465 5.572 -0 -1.2 0
10.252 -3.696 5.617 -0 -1.2 0
10.177 -3.882 5.575 -0 -1.2 0
10.186 -4.093 5.575 -0 -1.2 0
10.148 -4.291 5.551 -0 -1.2 0
10.202 -4.52 5.572 -0 -1.2 0
10.234 -4.747 5.583 -0 -1.2 0
10.22 -4.959 5.571 -0 -1.2 0
10.253 -5.191 5.582 -0 -1.2 0
10.34 -5.452 5.62 -0 -1.2 0
10.339 -5.679 5.613 -0 -1.2 0
10.268 -5.877 5.574 -0 -1.2 0
10.235 -6.093 5.551 -0 -1.2 0
10.043 -6.23 5.452 -0 -1.2 0
5.163 -3.823 3.067 -0 -1.2 0
6.963 -4.962 3.942 -0 -1.2 0
8.198 -5.858 4.538 -0 -1.2 0
6.77 -5.18 3.84 -0 -1.2 0
11.551 -8.706 6.147 -0 -1.2 0
12.482 -9.987 6.583 -0 -1.2 0
5.208 -4.893 3.065 -0 -1.2 0
5.163 -5.002 3.04 -0 -1.2 0
5.103 -5.098 3.007 -0 -1.2 0
12.606 -11.886 6.6 -0 -1.2 0
12.362 -12.057 6.473 -0 -1.2 0
5.707 -6.843 3.268 -0 -1.2 0
1.078 0.025 1.089 -0 -1.2 0
1.121 0.036 1.109 -0 -1.2 0
1.146 0.024 1.12 -0 -1.2 0
1.19 0.031 1.141 -0 -1.2 0
1.227 0.032 1.158 -0 -1.2 0
1.259 0.023 1.172 -0 -1.2 0
1.31 0.034 1.196 -0 -1.2 0
1.349 0.031 1.214 -0 -1.2 0
1.388 0.026 1.232 -0 -1.2 0
1.441 0.033 1.257 -0 -1.2 0
1.488 0.032 1.278 -0 -1.2 0
1.535 0.028 1.3 -0 -1.2 0
1.597 0.036 1.328 -0 -1.2 0
1.646 0.03 1.351 -0 -1.2 0
1.701 0.028 1.376 -0 -1.2 0
1.75 0.018 1.398 -0 -1.2 0
1.784 -0.002 1.413 -0 -1.2 0
1.832 -0.014 1.435 -0 -1.2 0
1.873 -0.032 1.454 -0 -1.2 0
1.93 -0.042 1.48 -0 -1.2 0
1.962 -0.067 1.493 -0 -1.2 0
2.036 -0.072 1.528 -0 -1.2 0
2.085 -0.092 1.55 -0 -1.2 0
2.101 -0.13 1.556 -0 -1.2 0
2.142 -0.156 1.574 -0 -1.2 0
2.173 -0.187 1.588 -0 -1.2 0
2.213 -0.216 1.606 -0 -1.2 0
2.296 -0.229 1.643 -0 -1.2 0
2.711 -0.116 1.837 -0 -1.2 0
3.183 -0.002 2.057 -0 -1.2 0
3.383 0 2.148 -0 -1.2 0
3.609 0.004 2.252 -0 -1.2 0
3.89 0.016 2.381 -0 -1.2 0
4.197 0.023 2.523 -0 -1.2 0
4.595 0.042 2.706 -0 -1.2 0
5.056 0.061 2.919 -0 -1.2 0
5.573 0.074 3.157 -0 -1.2 0
6.208 0.091 3.449 -0 -1.2 0
6.961 0.103 3.796 -0 -1.2 0
7.879 0.113 4.217 -0 -1.2 0
9.015 0.117 4.74 -0 -1.2 0
10.289 0.094 5.324 -0 -1.2 0
12.415 0.106 6.302 -0 -1.2 0
16.129 0.162 8.011 -0 -1.2 0
22.997 0.264 11.17 -0 -1.2 0
19.245 -0.694 9.424 -0 -1.2 0
22.732 -1.053 11.02 -0 -1.2 0
22.788 -1.488 11.036 -0 -1.2 0
19.493 -1.804 9.514 -0 -1.2 0
19.11 -2.155 9.33 -0 -1.2 0
18.449 -2.471 9.02 -0 -1.2 0
19.171 -2.892 9.342 -0 -1.2 0
18.835 -3.222 9.18 -0 -1.2 0
18.738 -3.572 9.128 -0 -1.2 0
22.556 -4.516 10.862 -0 -1.2 0
10.779 -3.991 5.46 -0 -1.2 0
10.222 -4.045 5.204 -0 -1.2 0
10.325 -4.284 5.246 -0 -1.2 0
13.195 -5.453 6.539 -0 -1.2 0
14.219 -6.089 6.996 -0 -1.2 0
10.742 -5.082 5.42 -0 -1.2 0
10.242 -5.111 5.189 -0 -1.2 0
11.856 -6.007 5.912 -0 -1.2 0
11.618 -6.159 5.798 -0 -1.2 0
12.831 -6.977 6.339 -0 -1.2 0
10.72 -6.239 5.384 -0 -1.2 0
10.697 -6.47 5.368 -0 -1.2 0
7.764 -5.338 4.045 -0 -1.2 0
6.591 -4.843 3.517 -0 -1.2 0
9.618 -6.83 4.864 -0 -1.2 0
9.471 -6.975 4.794 -0 -1.2 0
10.492 -7.881 5.244 -0 -1.2 0
11.074 -8.548 5.497 -0 -1.2 0
11.133 -8.881 5.516 -0 -1.2 0
11.199 -9.229 5.54 -0 -1.2 0
11.243 -9.57 5.552 -0 -1.2 0
5.152 -5.069 2.85 -0 -1.2 0
11.418 -10.356 5.614 -0 -1.2 0
5.024 -5.258 2.788 -0 -1.2 0
4.922 -5.319 2.739 -0 -1.2 0
4.813 -5.371 2.688 -0 -1.2 0
4.697 -5.414 2.634 -0 -1.2 0
5.734 -6.582 3.085 -0 -1.2 0
4.117 -5.136 2.372 -0 -1.2 0
1.099 0.034 1.076 -0 -1.2 0
1.124 0.022 1.086 -0 -1.2 0
1.168 0.031 1.104 -0 -1.2 0
1.212 0.039 1.123 -0 -1.2 0
1.243 0.033 1.137 -0 -1.2 0
1.282 0.031 1.153 -0 -1.2 0
1.321 0.029 1.17 -0 -1.2 0
1.367 0.032 1.189 -0 -1.2 0
1.414 0.034 1.209 -0 -1.2 0
1.461 0.034 1.228 -0 -1.2 0
1.501 0.026 1.246 -0 -1.2 0
1.556 0.029 1.269 -0 -1.2 0
1.619 0.037 1.295 -0 -1.2 0
1.675 0.036 1.319 -0 -1.2 0
1.732 0.035 1.343 -0 -1.2 0
1.789 0.03 1.368 -0 -1.2 0
1.815 0.004 1.378 -0 -1.2 0
1.849 -0.017 1.392 -0 -1.2 0
1.898 -0.03 1.412 -0 -1.2 0
1.939 -0.05 1.43 -0 -1.2 0
2.006 -0.057 1.457 -0 -1.2 0
2.08 -0.062 1.488 -0 -1.2 0
2.155 -0.069 1.52 -0 -1.2 0
2.18 -0.103 1.53 -0 -1.2 0
2.188 -0.147 1.532 -0 -1.2 0
2.203 -0.185 1.537 -0 -1.2 0
2.235 -0.218 1.551 -0 -1.2 0
2.309 -0.234 1.582 -0 -1.2 0
2.453 -0.226 1.643 -0 -1.2 0
2.816 -0.145 1.798 -0 -1.2 0
3.455 0.013 2.072 -0 -1.2 0
3.703 0.022 2.176 -0 -1.2 0
3.969 0.027 2.289 -0 -1.2 0
4.29 0.037 2.425 -0 -1.2 0
4.702 0.059 2.6 -0 -1.2 0
5.152 0.073 2.791 -0 -1.2 0
5.685 0.089 3.017 -0 -1.2 0
6.337 0.107 3.294 -0 -1.2 0
7.138 0.126 3.633 -0 -1.2 0
8.059 0.134 4.022 -0 -1.2 0
9.228 0.142 4.517 -0 -1.2 0
10.602 0.128 5.098 -0 -1.2 0
12.904 0.154 6.073 -0 -1.2 0
16.11 0.165 7.429 -0 -1.2 0
19.43 0.061 8.831 -0 -1.2 0
19.599 -0.666 8.888 -0 -1.2 0
19.624 -1.035 8.891 -0 -1.2 0
23.265 -1.899 10.415 -0 -1.2 0
18.946 -2.107 8.583 -0 -1.2 0
19.325 -2.492 8.736 -0 -1.2 0
19.459 -2.869 8.784 -0 -1.2 0
19.861 -3.282 8.947 -0 -1.2 0
19.972 -3.674 8.986 -0 -1.2 0
11.211 -3.833 5.276 -0 -1.2 0
10.163 -4.179 4.826 -0 -1.2 0
13.294 -5.409 6.126 -0 -1.2 0
11.159 -4.938 5.232 -0 -1.2 0
10.993 -5.107 5.159 -0 -1.2 0
13.648 -6.373 6.256 -0 -1.2 0
10.204 -5.245 4.822 -0 -1.2 0
13.105 -6.72 6.02 -0 -1.2 0
6.909 -4.336 3.445 -0 -1.2 0
7.235 -4.652 3.577 -0 -1.2 0
7.369 -4.886 3.629 -0 -1.2 0
7.39 -5.067 3.634 -0 -1.2 0
7.416 -5.255 3.641 -0 -1.2 0
6.62 -4.958 3.311 -0 -1.2 0
9.311 -6.784 4.413 -0 -1.2 0
9.236 -6.967 4.378 -0 -1.2 0
9.291 -7.238 4.395 -0 -1.2 0
9.199 -7.415 4.353 -0 -1.2 0
10.459 -8.57 4.863 -0 -1.2 0
5.276 -4.961 2.742 -0 -1.2 0
8.526 -7.637 4.064 -0 -1.2 0
10.371 -9.37 4.809 -0 -1.2 0
4.822 -5.025 2.549 -0 -1.2 0
4.7 -5.063 2.497 -0 -1.2 0
4.552 -5.071 2.433 -0 -1.2 0
4.551 -5.212 2.43 -0 -1.2 0
4.256 -5.075 2.309 -0 -1.2 0
4.172 -5.132 2.272 -0 -1.2 0
1.112 0.034 1.059 -0 -1.2 0
1.144 0.03 1.071 -0 -1.2 0
1.182 0.032 1.086 -0 -1.2 0
1.22 0.033 1.1 -0 -1.2 0
1.252 0.026 1.112 -0 -1.2 0
1.291 0.025 1.128 -0 -1.2 0
1.338 0.03 1.145 -0 -1.2 0
1.377 0.026 1.161 -0 -1.2 0
1.424 0.028 1.18 -0 -1.2 0
1.479 0.035 1.201 -0 -1.2 0
1.534 0.04 1.222 -0 -1.2 0
1.59 0.042 1.244 -0 -1.2 0
1.632 0.032 1.26 -0 -1.2 0
1.681 0.027 1.279 -0 -1.2 0
1.754 0.036 1.307 -0 -1.2 0
1.811 0.032 1.329 -0 -1.2 0
1.837 0.006 1.339 -0 -1.2 0
1.848 -0.031 1.342 -0 -1.2 0
1.882 -0.053 1.355 -0 -1.2 0
1.98 -0.038 1.393 -0 -1.2 0
2.039 -0.05 1.416 -0 -1.2 0
2.115 -0.056 1.445 -0 -1.2 0
2.207 -0.054 1.481 -0 -1.2 0
2.224 -0.093 1.487 -0 -1.2 0
2.232 -0.136 1.488 -0 -1.2 0
2.238 -0.18 1.491 -0 -1.2 0
2.288 -0.205 1.509 -0 -1.2 0
2.346 -0.228 1.532 -0 -1.2 0
2.423 -0.246 1.561 -0 -1.2 0
3.32 0.022 1.913 -0 -1.2 0
3.516 0.022 1.989 -0 -1.2 0
3.785 0.037 2.093 -0 -1.2 0
4.037 0.036 2.19 -0 -1.2 0
4.398 0.056 2.33 -0 -1.2 0
4.788 0.07 2.482 -0 -1.2 0
5.254 0.086 2.661 -0 -1.2 0
5.784 0.099 2.867 -0 -1.2 0
6.454 0.119 3.127 -0 -1.2 0
7.246 0.136 3.434 -0 -1.2 0
8.225 0.151 3.813 -0 -1.2 0
9.429 0.16 4.279 -0 -1.2 0
11.043 0.174 4.903 -0 -1.2 0
13.365 0.194 5.801 -0 -1.2 0
14.705 0.051 6.318 -0 -1.2 0
14.705 -0.221 6.313 -0 -1.2 0
14.71 -0.494 6.31 -0 -1.2 0
14.738 -0.766 6.316 -0 -1.2 0
14.743 -1.039 6.313 -0 -1.2 0
14.734 -1.313 6.304 -0 -1.2 0
14.73 -1.585 6.297 -0 -1.2 0
14.749 -1.86 6.3 -0 -1.2 0
14.764 -2.135 6.301 -0 -1.2 0
14.766 -2.411 6.296 -0 -1.2 0
14.772 -2.687 6.294 -0 -1.2 0
14.708 -2.955 6.264 -0 -1.2 0
14.696 -3.23 6.254 -0 -1.2 0
12.078 -3.766 5.232 -0 -1.2 0
11.688 -3.904 5.078 -0 -1.2 0
10.075 -3.906 4.455 -0 -1.2 0
11.306 -4.477 4.92 -0 -1.2 0
11.232 -4.68 4.888 -0 -1.2 0
11.236 -4.907 4.885 -0 -1.2 0
14.439 -6.903 6.088 -0 -1.2 0
10.22 -5.408 4.483 -0 -1.2 0
11.086 -6.256 4.803 -0 -1.2 0
7.256 -4.612 3.351 -0 -1.2 0
7.577 -4.94 3.469 -0 -1.2 0
7.122 -4.867 3.294 -0 -1.2 0
6.481 -4.671 3.05 -0 -1.2 0
6.283 -4.706 2.973 -0 -1.2 0
11.238 -7.883 4.832 -0 -1.2 0
13.645 -9.691 5.73 -0 -1.2 0
12.685 -9.398 5.364 -0 -1.2 0
11.431 -8.863 4.888 -0 -1.2 0
4.491 -4.208 2.289 -0 -1.2 0
9.004 -7.67 3.971 -0 -1.2 0
5.224 -5.012 2.558 -0 -1.2 0
5.123 -5.076 2.517 -0 -1.2 0
4.991 -5.113 2.465 -0 -1.2 0
5.993 -6.117 2.835 -0 -1.2 0
4.433 -4.914 2.253 -0 -1.2 0
4.236 -4.87 2.178 -0 -1.2 0
4.21 -4.978 2.166 -0 -1.2 0
5.434 -6.323 2.615 -0 -1.2 0
1.124 0.035 1.044 -0 -1.2 0
1.15 0.023 1.052 -0 -1.2 0
1.194 0.033 1.069 -0 -1.2 0
1.24 0.041 1.085 -0 -1.2 0
1.272 0.034 1.096 -0 -1.2 0
1.318 0.039 1.113 -0 -1.2 0
1.358 0.037 1.127 -0 -1.2 0
1.398 0.033 1.141 -0 -1.2 0
1.447 0.035 1.158 -0 -1.2 0
1.502 0.042 1.178 -0 -1.2 0
1.551 0.041 1.195 -0 -1.2 0
1.592 0.031 1.209 -0 -1.2 0
1.649 0.033 1.23 -0 -1.2 0
1.722 0.045 1.255 -0 -1.2 0
1.773 0.037 1.273 -0 -1.2 0
1.831 0.032 1.294 -0 -1.2 0
1.857 0.006 1.303 -0 -1.2 0
1.884 -0.02 1.312 -0 -1.2 0
1.934 -0.033 1.33 -0 -1.2 0
1.977 -0.052 1.345 -0 -1.2 0
2.06 -0.049 1.374 -0 -1.2 0
2.196 -0.024 1.422 -0 -1.2 0
2.213 -0.062 1.428 -0 -1.2 0
2.282 -0.076 1.452 -0 -1.2 0
2.307 -0.112 1.46 -0 -1.2 0
2.306 -0.16 1.459 -0 -1.2 0
2.339 -0.193 1.47 -0 -1.2 0
2.381 -0.224 1.484 -0 -1.2 0
2.501 -0.226 1.527 -0 -1.2 0
3.365 0.027 1.837 -0 -1.2 0
3.572 0.029 1.911 -0 -1.2 0
3.852 0.046 2.01 -0 -1.2 0
4.125 0.051 2.107 -0 -1.2 0
4.472 0.065 2.23 -0 -1.2 0
4.867 0.079 2.37 -0 -1.2 0
5.364 0.101 2.546 -0 -1.2 0
5.883 0.11 2.73 -0 -1.2 0
6.579 0.133 2.977 -0 -1.2 0
7.38 0.148 3.26 -0 -1.2 0
8.379 0.165 3.615 -0 -1.2 0
9.689 0.185 4.079 -0 -1.2 0
11.62 0.231 4.763 -0 -1.2 0
13.827 0.23 5.544 -0 -1.2 0
14.609 0.037 5.818 -0 -1.2 0
14.599 -0.232 5.81 -0 -1.2 0
19.586 -1.372 7.556 -0 -1.2 0
20.532 -1.763 7.885 -0 -1.2 0
20.237 -2.126 7.774 -0 -1.2 0
20.614 -2.526 7.902 -0 -1.2 0
20.581 -2.903 7.883 -0 -1.2 0
20.813 -3.696 7.952 -0 -1.2 0
11.958 -3.254 4.824 -0 -1.2 0
13.952 -3.881 5.52 -0 -1.2 0
12.058 -3.729 4.852 -0 -1.2 0
10.274 -3.532 4.223 -0 -1.2 0
10.132 -3.693 4.171 -0 -1.2 0
10.235 -3.918 4.203 -0 -1.2 0
11.422 -4.699 4.611 -0 -1.2 0
14.742 -6.351 5.759 -0 -1.2 0
10.51 -5.261 4.278 -0 -1.2 0
9.177 -4.918 3.812 -0 -1.2 0
9.287 -5.162 3.847 -0 -1.2 0
9.065 -5.257 3.767 -0 -1.2 0
7.623 -4.752 3.264 -0 -1.2 0
7.57 -4.894 3.243 -0 -1.2 0
13.197 -8.065 5.183 -0 -1.2 0
6.74 -4.776 2.952 -0 -1.2 0
11.362 -7.614 4.541 -0 -1.2 0
11.485 -7.959 4.579 -0 -1.2 0
4.617 -3.918 2.215 -0 -1.2 0
4.562 -3.996 2.194 -0 -1.2 0
5.612 -4.824 2.552 -0 -1.2 0
5.519 -4.902 2.517 -0 -1.2 0
4.633 -4.396 2.213 -0 -1.2 0
4.462 -4.391 2.152 -0 -1.2 0
4.423 -4.482 2.137 -0 -1.2 0
4.502 -4.671 2.161 -0 -1.2 0
4.355 -4.676 2.109 -0 -1.2 0
4.266 -4.727 2.077 -0 -1.2 0
4.221 -4.815 2.06 -0 -1.2 0
5.63 -6.275 2.534 -0 -1.2 0
5.628 -6.457 2.53 -0 -1.2 0
1.134 0.035 1.028 -0 -1.2 0
1.167 0.031 1.038 -0 -1.2 0
1.212 0.04 1.053 -0 -1.2 0
1.251 0.041 1.066 -0 -1.2 0
1.283 0.034 1.076 -0 -1.2 0
1.323 0.033 1.089 -0 -1.2 0
1.371 0.037 1.104 -0 -1.2 0
1.411 0.034 1.117 -0 -1.2 0
1.46 0.036 1.133 -0 -1.2 0
1.508 0.036 1.149 -0 -1.2 0
1.557 0.035 1.164 -0 -1.2 0
1.615 0.038 1.183 -0 -1.2 0
1.679 0.045 1.204 -0 -1.2 0
1.73 0.039 1.22 -0 -1.2 0
1.789 0.037 1.239 -0 -1.2 0
1.855 0.038 1.26 -0 -1.2 0
1.883 0.012 1.269 -0 -1.2 0
1.925 -0.004 1.282 -0 -1.2 0
1.969 -0.022 1.296 -0 -1.2 0
2.028 -0.033 1.315 -0 -1.2 0
2.138 -0.017 1.35 -0 -1.2 0
2.182 -0.04 1.365 -0 -1.2 0
2.268 -0.044 1.392 -0 -1.2 0
2.329 -0.063 1.411 -0 -1.2 0
2.355 -0.099 1.419 -0 -1.2 0
2.363 -0.144 1.42 -0 -1.2 0
2.405 -0.174 1.433 -0 -1.2 0
2.572 -0.157 1.487 -0 -1.2 0
3.251 0.041 1.71 -0 -1.2 0
3.423 0.037 1.765 -0 -1.2 0
3.651 0.045 1.838 -0 -1.2 0
3.916 0.056 1.924 -0 -1.2 0
4.201 0.063 2.016 -0 -1.2 0
4.561 0.078 2.132 -0 -1.2 0
4.969 0.094 2.263 -0 -1.2 0
5.462 0.114 2.422 -0 -1.2 0
6.024 0.129 2.603 -0 -1.2 0
6.746 0.154 2.835 -0 -1.2 0
7.583 0.173 3.105 -0 -1.2 0
8.648 0.195 3.448 -0 -1.2 0
10.16 0.239 3.936 -0 -1.2 0
12.263 0.295 4.613 -0 -1.2 0
20.452 -2.121 7.213 -0 -1.2 0
19.978 -2.462 7.055 -0 -1.2 0
19.612 -2.796 6.932 -0 -1.2 0
13.058 -3.918 4.807 -0 -1.2 0
10.12 -3.469 3.867 -0 -1.2 0
11.978 -4.138 4.455 -0 -1.2 0
11.604 -4.266 4.333 -0 -1.2 0
14.141 -5.519 5.131 -0 -1.2 0
14.158 -5.804 5.131 -0 -1.2 0
14.069 -6.057 5.1 -0 -1.2 0
13.771 -6.231 5 -0 -1.2 0
13.89 -6.561 5.033 -0 -1.2 0
8.89 -4.76 3.452 -0 -1.2 0
7.272 -4.236 2.939 -0 -1.2 0
7.394 -4.446 2.975 -0 -1.2 0
7.659 -4.733 3.055 -0 -1.2 0
7.348 -4.744 2.956 -0 -1.2 0
6.919 -4.839 2.817 -0 -1.2 0
13.778 -8.938 4.962 -0 -1.2 0
4.63 -3.79 2.095 -0 -1.2 0
4.609 -3.887 2.087 -0 -1.2 0
13.445 -9.722 4.843 -0 -1.2 0
5.639 -4.805 2.405 -0 -1.2 0
14.431 -11.098 5.14 -0 -1.2 0
4.823 -4.503 2.146 -0 -1.2 0
4.379 -4.296 2.007 -0 -1.2 0
5.09 -4.971 2.226 -0 -1.2 0
4.339 -4.504 1.991 -0 -1.2 0
7.427 -7.221 2.943 -0 -1.2 0
4.385 -4.796 2.001 -0 -1.2 0
4.679 -5.193 2.09 -0 -1.2 0
5.351 -5.967 2.295 -0 -1.2 0
5.165 -5.96 2.235 -0 -1.2 0
1.152 0.043 1.014 -0 -1.2 0
1.178 0.031 1.021 -0 -1.2 0
1.223 0.041 1.034 -0 -1.2 0
1.256 0.034 1.044 -0 -1.2 0
1.303 0.041 1.058 -0 -1.2 0
1.329 0.026 1.064 -0 -1.2 0
1.385 0.037 1.08 -0 -1.2 0
1.418 0.028 1.09 -0 -1.2 0
1.474 0.036 1.107 -0 -1.2 0
1.522 0.036 1.121 -0 -1.2 0
1.58 0.042 1.137 -0 -1.2 0
1.63 0.039 1.151 -0 -1.2 0
1.696 0.045 1.17 -0 -1.2 0
1.747 0.039 1.185 -0 -1.2 0
1.814 0.043 1.205 -0 -1.2 0
1.857 0.028 1.217 -0 -1.2 0
1.941 0.038 1.241 -0 -1.2 0
1.977 0.016 1.252 -0 -1.2 0
2.013 -0.008 1.261 -0 -1.2 0
2.09 -0.008 1.283 -0 -1.2 0
2.151 -0.021 1.301 -0 -1.2 0
2.194 -0.044 1.313 -0 -1.2 0
2.238 -0.069 1.326 -0 -1.2 0
