# .PCD v.7 - Point Cloud Data file format
FIELDS x y z vp_x vp_y vp_z
SIZE 4 4 4 4 4 4
TYPE F F F F F F
COUNT 1 1 1 1 1 1
WIDTH 1565
HEIGHT 1
VIEWPOINT 0 -1.20013 0 1 0 0 0
POINTS 1565
DATA ascii
-1.793 -0.049 -1.241 -0 -1.2 0
-1.867 -0.055 -1.309 -0 -1.2 0
-1.949 -0.061 -1.384 -0 -1.2 0
-2.044 -0.063 -1.472 -0 -1.2 0
-2.141 -0.069 -1.561 -0 -1.2 0
-2.244 -0.077 -1.656 -0 -1.2 0
-2.362 -0.082 -1.764 -0 -1.2 0
-2.508 -0.082 -1.899 -0 -1.2 0
-2.649 -0.09 -2.027 -0 -1.2 0
-2.818 -0.095 -2.182 -0 -1.2 0
-2.995 -0.105 -2.345 -0 -1.2 0
-3.194 -0.117 -2.528 -0 -1.2 0
-3.422 -0.129 -2.738 -0 -1.2 0
-3.658 -0.149 -2.954 -0 -1.2 0
-3.843 -0.194 -3.125 -0 -1.2 0
-3.833 -0.288 -3.115 -0 -1.2 0
-3.827 -0.38 -3.112 -0 -1.2 0
-3.828 -0.471 -3.113 -0 -1.2 0
-3.821 -0.563 -3.108 -0 -1.2 0
-3.834 -0.652 -3.121 -0 -1.2 0
-3.824 -0.743 -3.112 -0 -1.2 0
-3.82 -0.833 -3.11 -0 -1.2 0
-3.816 -0.923 -3.106 -0 -1.2 0
-3.824 -1.011 -3.115 -0 -1.2 0
-3.817 -1.101 -3.109 -0 -1.2 0
-3.809 -1.19 -3.103 -0 -1.2 0
-3.806 -1.279 -3.101 -0 -1.2 0
-3.811 -1.368 -3.106 -0 -1.2 0
-3.806 -1.457 -3.103 -0 -1.2 0
-3.801 -1.547 -3.098 -0 -1.2 0
-3.808 -1.637 -3.107 -0 -1.2 0
-3.801 -1.727 -3.1 -0 -1.2 0
-3.777 -1.813 -3.08 -0 -1.2 0
-3.716 -1.89 -3.024 -0 -1.2 0
-3.756 -1.989 -3.062 -0 -1.2 0
-3.873 -2.112 -3.171 -0 -1.2 0
-3.881 -2.209 -3.178 -0 -1.2 0
-3.873 -2.302 -3.173 -0 -1.2 0
-3.878 -2.399 -3.178 -0 -1.2 0
-3.874 -2.495 -3.175 -0 -1.2 0
-3.877 -2.594 -3.179 -0 -1.2 0
-3.871 -2.691 -3.174 -0 -1.2 0
-3.87 -2.791 -3.174 -0 -1.2 0
-3.875 -2.894 -3.18 -0 -1.2 0
-3.872 -2.995 -3.178 -0 -1.2 0
-3.874 -3.1 -3.181 -0 -1.2 0
-3.868 -3.202 -3.176 -0 -1.2 0
-3.866 -3.308 -3.176 -0 -1.2 0
-3.864 -3.415 -3.175 -0 -1.2 0
-3.866 -3.526 -3.178 -0 -1.2 0
-3.86 -3.634 -3.174 -0 -1.2 0
-3.86 -3.747 -3.174 -0 -1.2 0
-3.863 -3.866 -3.179 -0 -1.2 0
-3.865 -3.985 -3.182 -0 -1.2 0
-3.866 -4.105 -3.183 -0 -1.2 0
-3.864 -4.227 -3.182 -0 -1.2 0
-3.866 -4.354 -3.186 -0 -1.2 0
-3.867 -4.482 -3.188 -0 -1.2 0
-3.864 -4.612 -3.187 -0 -1.2 0
-3.867 -4.748 -3.19 -0 -1.2 0
-3.86 -4.88 -3.185 -0 -1.2 0
-3.857 -5.018 -3.184 -0 -1.2 0
-3.864 -5.169 -3.191 -0 -1.2 0
-3.856 -5.31 -3.186 -0 -1.2 0
-3.852 -5.458 -3.184 -0 -1.2 0
-3.85 -5.614 -3.183 -0 -1.2 0
-3.845 -5.771 -3.181 -0 -1.2 0
-3.848 -5.942 -3.185 -0 -1.2 0
-3.843 -6.109 -3.182 -0 -1.2 0
-3.845 -6.29 -3.185 -0 -1.2 0
-3.849 -6.481 -3.19 -0 -1.2 0
-0.902 -0.021 -0.354 -0 -1.2 0
-0.933 -0.021 -0.38 -0 -1.2 0
-0.953 -0.034 -0.396 -0 -1.2 0
-0.995 -0.022 -0.434 -0 -1.2 0
-1.021 -0.032 -0.455 -0 -1.2 0
-1.059 -0.029 -0.488 -0 -1.2 0
-1.091 -0.034 -0.515 -0 -1.2 0
-1.129 -0.035 -0.548 -0 -1.2 0
-1.174 -0.03 -0.586 -0 -1.2 0
-1.207 -0.038 -0.614 -0 -1.2 0
-1.258 -0.032 -0.659 -0 -1.2 0
-1.298 -0.038 -0.693 -0 -1.2 0
-1.344 -0.041 -0.732 -0 -1.2 0
-1.39 -0.045 -0.772 -0 -1.2 0
-1.444 -0.046 -0.818 -0 -1.2 0
-1.497 -0.049 -0.864 -0 -1.2 0
-1.565 -0.045 -0.922 -0 -1.2 0
-1.626 -0.049 -0.974 -0 -1.2 0
-1.694 -0.049 -1.033 -0 -1.2 0
-1.77 -0.05 -1.098 -0 -1.2 0
-1.846 -0.053 -1.163 -0 -1.2 0
-1.922 -0.059 -1.229 -0 -1.2 0
-2.006 -0.065 -1.301 -0 -1.2 0
-2.098 -0.071 -1.379 -0 -1.2 0
-2.197 -0.077 -1.464 -0 -1.2 0
-2.311 -0.081 -1.562 -0 -1.2 0
-2.432 -0.087 -1.666 -0 -1.2 0
-2.576 -0.09 -1.789 -0 -1.2 0
-2.72 -0.098 -1.913 -0 -1.2 0
-2.895 -0.103 -2.063 -0 -1.2 0
-3.069 -0.116 -2.213 -0 -1.2 0
-3.274 -0.128 -2.388 -0 -1.2 0
-3.488 -0.146 -2.571 -0 -1.2 0
-3.746 -0.162 -2.793 -0 -1.2 0
-3.788 -0.24 -2.829 -0 -1.2 0
-3.79 -0.328 -2.832 -0 -1.2 0
-3.785 -0.417 -2.828 -0 -1.2 0
-3.785 -0.504 -2.829 -0 -1.2 0
-3.778 -0.592 -2.823 -0 -1.2 0
-3.783 -0.678 -2.829 -0 -1.2 0
-3.781 -0.765 -2.827 -0 -1.2 0
-3.776 -0.851 -2.824 -0 -1.2 0
-3.772 -0.938 -2.82 -0 -1.2 0
-3.78 -1.023 -2.829 -0 -1.2 0
-3.766 -1.109 -2.816 -0 -1.2 0
-3.764 -1.194 -2.816 -0 -1.2 0
-3.763 -1.279 -2.815 -0 -1.2 0
-3.759 -1.365 -2.813 -0 -1.2 0
-3.763 -1.45 -2.816 -0 -1.2 0
-3.764 -1.537 -2.819 -0 -1.2 0
-3.758 -1.622 -2.813 -0 -1.2 0
-3.758 -1.709 -2.813 -0 -1.2 0
-3.757 -1.796 -2.814 -0 -1.2 0
-3.686 -1.868 -2.754 -0 -1.2 0
-3.683 -1.953 -2.751 -0 -1.2 0
-3.842 -2.081 -2.888 -0 -1.2 0
-3.835 -2.171 -2.883 -0 -1.2 0
-3.843 -2.264 -2.891 -0 -1.2 0
-3.841 -2.356 -2.89 -0 -1.2 0
-3.846 -2.451 -2.894 -0 -1.2 0
-3.842 -2.544 -2.891 -0 -1.2 0
-3.851 -2.643 -2.9 -0 -1.2 0
-3.837 -2.733 -2.888 -0 -1.2 0
-3.836 -2.83 -2.888 -0 -1.2 0
-3.84 -2.931 -2.892 -0 -1.2 0
-3.837 -3.029 -2.89 -0 -1.2 0
-3.839 -3.131 -2.893 -0 -1.2 0
-3.839 -3.233 -2.893 -0 -1.2 0
-3.83 -3.333 -2.887 -0 -1.2 0
-3.834 -3.441 -2.891 -0 -1.2 0
-3.837 -3.549 -2.893 -0 -1.2 0
-3.83 -3.655 -2.888 -0 -1.2 0
-3.829 -3.765 -2.888 -0 -1.2 0
-3.833 -3.881 -2.893 -0 -1.2 0
-3.834 -3.998 -2.895 -0 -1.2 0
-3.834 -4.116 -2.895 -0 -1.2 0
-3.838 -4.239 -2.9 -0 -1.2 0
-3.839 -4.364 -2.902 -0 -1.2 0
-3.827 -4.48 -2.892 -0 -1.2 0
-3.831 -4.612 -2.896 -0 -1.2 0
-3.827 -4.74 -2.893 -0 -1.2 0
-3.831 -4.881 -2.898 -0 -1.2 0
-3.828 -5.017 -2.896 -0 -1.2 0
-3.829 -5.16 -2.897 -0 -1.2 0
-3.826 -5.305 -2.896 -0 -1.2 0
-3.827 -5.457 -2.898 -0 -1.2 0
-3.824 -5.611 -2.896 -0 -1.2 0
-3.819 -5.766 -2.893 -0 -1.2 0
-3.81 -5.922 -2.887 -0 -1.2 0
-3.815 -6.1 -2.893 -0 -1.2 0
-3.816 -6.28 -2.894 -0 -1.2 0
-0.927 -0.023 -0.305 -0 -1.2 0
-0.959 -0.023 -0.331 -0 -1.2 0
-0.991 -0.023 -0.355 -0 -1.2 0
-1.023 -0.024 -0.381 -0 -1.2 0
-1.056 -0.027 -0.407 -0 -1.2 0
-1.089 -0.031 -0.434 -0 -1.2 0
-1.122 -0.036 -0.46 -0 -1.2 0
-1.161 -0.037 -0.492 -0 -1.2 0
-1.207 -0.032 -0.528 -0 -1.2 0
-1.247 -0.035 -0.561 -0 -1.2 0
-1.287 -0.04 -0.593 -0 -1.2 0
-1.341 -0.035 -0.636 -0 -1.2 0
-1.388 -0.037 -0.674 -0 -1.2 0
-1.436 -0.042 -0.712 -0 -1.2 0
-1.484 -0.049 -0.751 -0 -1.2 0
-1.54 -0.052 -0.795 -0 -1.2 0
-1.609 -0.048 -0.851 -0 -1.2 0
-1.672 -0.051 -0.901 -0 -1.2 0
-1.742 -0.052 -0.958 -0 -1.2 0
-1.82 -0.053 -1.02 -0 -1.2 0
-1.906 -0.052 -1.088 -0 -1.2 0
-1.977 -0.062 -1.146 -0 -1.2 0
-2.056 -0.072 -1.208 -0 -1.2 0
-2.164 -0.071 -1.295 -0 -1.2 0
-2.266 -0.077 -1.377 -0 -1.2 0
-2.376 -0.085 -1.465 -0 -1.2 0
-2.501 -0.091 -1.565 -0 -1.2 0
-2.648 -0.094 -1.684 -0 -1.2 0
-2.789 -0.105 -1.797 -0 -1.2 0
-2.984 -0.105 -1.953 -0 -1.2 0
-3.171 -0.116 -2.102 -0 -1.2 0
-3.367 -0.133 -2.259 -0 -1.2 0
-3.601 -0.146 -2.447 -0 -1.2 0
-3.767 -0.189 -2.58 -0 -1.2 0
-3.771 -0.274 -2.584 -0 -1.2 0
-3.759 -0.361 -2.574 -0 -1.2 0
-3.752 -0.447 -2.57 -0 -1.2 0
-3.753 -0.531 -2.57 -0 -1.2 0
-3.752 -0.615 -2.57 -0 -1.2 0
-3.75 -0.699 -2.569 -0 -1.2 0
-3.747 -0.783 -2.567 -0 -1.2 0
-3.743 -0.866 -2.564 -0 -1.2 0
-3.737 -0.949 -2.56 -0 -1.2 0
-3.755 -1.031 -2.574 -0 -1.2 0
-3.74 -1.114 -2.562 -0 -1.2 0
-3.738 -1.196 -2.562 -0 -1.2 0
-3.737 -1.278 -2.56 -0 -1.2 0
-3.733 -1.361 -2.558 -0 -1.2 0
-3.729 -1.443 -2.555 -0 -1.2 0
-3.731 -1.526 -2.558 -0 -1.2 0
-3.733 -1.609 -2.559 -0 -1.2 0
-3.732 -1.693 -2.559 -0 -1.2 0
-3.739 -1.778 -2.565 -0 -1.2 0
-3.66 -1.846 -2.502 -0 -1.2 0
-3.657 -1.929 -2.5 -0 -1.2 0
-3.76 -2.039 -2.583 -0 -1.2 0
-3.792 -2.134 -2.609 -0 -1.2 0
-3.792 -2.223 -2.61 -0 -1.2 0
-3.799 -2.313 -2.615 -0 -1.2 0
-3.804 -2.405 -2.62 -0 -1.2 0
-3.801 -2.494 -2.617 -0 -1.2 0
-3.796 -2.584 -2.615 -0 -1.2 0
-3.798 -2.677 -2.616 -0 -1.2 0
-3.805 -2.773 -2.622 -0 -1.2 0
-3.811 -2.871 -2.627 -0 -1.2 0
-3.808 -2.966 -2.625 -0 -1.2 0
-3.803 -3.061 -2.622 -0 -1.2 0
-3.804 -3.16 -2.623 -0 -1.2 0
-3.804 -3.261 -2.623 -0 -1.2 0
-3.796 -3.357 -2.617 -0 -1.2 0
-3.799 -3.463 -2.62 -0 -1.2 0
-3.801 -3.569 -2.622 -0 -1.2 0
-3.8 -3.676 -2.622 -0 -1.2 0
-3.799 -3.784 -2.621 -0 -1.2 0
-3.802 -3.898 -2.625 -0 -1.2 0
-3.797 -4.008 -2.621 -0 -1.2 0
-3.796 -4.123 -2.621 -0 -1.2 0
-3.806 -4.25 -2.63 -0 -1.2 0
-3.801 -4.367 -2.626 -0 -1.2 0
-3.801 -4.491 -2.626 -0 -1.2 0
-3.804 -4.623 -2.629 -0 -1.2 0
-3.799 -4.748 -2.626 -0 -1.2 0
-3.803 -4.888 -2.631 -0 -1.2 0
-3.8 -5.022 -2.627 -0 -1.2 0
-3.8 -5.163 -2.628 -0 -1.2 0
-3.802 -5.312 -2.631 -0 -1.2 0
-3.79 -5.449 -2.621 -0 -1.2 0
-3.793 -5.607 -2.625 -0 -1.2 0
-3.786 -5.76 -2.62 -0 -1.2 0
-3.782 -5.921 -2.618 -0 -1.2 0
-3.78 -6.091 -2.617 -0 -1.2 0
-0.954 -0.024 -0.253 -0 -1.2 0
-0.993 -0.017 -0.282 -0 -1.2 0
-1.013 -0.03 -0.298 -0 -1.2 0
-1.053 -0.025 -0.327 -0 -1.2 0
-1.087 -0.028 -0.352 -0 -1.2 0
-1.126 -0.026 -0.382 -0 -1.2 0
-1.16 -0.031 -0.407 -0 -1.2 0
-1.194 -0.038 -0.432 -0 -1.2 0
-1.242 -0.033 -0.468 -0 -1.2 0
-1.283 -0.036 -0.498 -0 -1.2 0
-1.331 -0.035 -0.534 -0 -1.2 0
-1.379 -0.037 -0.57 -0 -1.2 0
-1.422 -0.045 -0.602 -0 -1.2 0
-1.477 -0.044 -0.643 -0 -1.2 0
-1.527 -0.05 -0.68 -0 -1.2 0
-1.584 -0.054 -0.723 -0 -1.2 0
-1.662 -0.045 -0.781 -0 -1.2 0
-1.719 -0.053 -0.824 -0 -1.2 0
-1.792 -0.054 -0.878 -0 -1.2 0
-1.879 -0.05 -0.943 -0 -1.2 0
-1.959 -0.054 -1.002 -0 -1.2 0
-2.04 -0.06 -1.062 -0 -1.2 0
-2.136 -0.063 -1.134 -0 -1.2 0
-2.233 -0.069 -1.206 -0 -1.2 0
-2.338 -0.077 -1.284 -0 -1.2 0
-2.451 -0.085 -1.368 -0 -1.2 0
-2.594 -0.084 -1.475 -0 -1.2 0
-2.731 -0.094 -1.577 -0 -1.2 0
-2.899 -0.098 -1.701 -0 -1.2 0
-3.083 -0.104 -1.839 -0 -1.2 0
-3.284 -0.112 -1.988 -0 -1.2 0
-3.477 -0.132 -2.132 -0 -1.2 0
-3.71 -0.148 -2.305 -0 -1.2 0
-3.738 -0.224 -2.327 -0 -1.2 0
-3.734 -0.308 -2.324 -0 -1.2 0
-3.728 -0.392 -2.32 -0 -1.2 0
-3.73 -0.473 -2.321 -0 -1.2 0
-3.73 -0.555 -2.322 -0 -1.2 0
-3.737 -0.634 -2.327 -0 -1.2 0
-3.72 -0.718 -2.314 -0 -1.2 0
-3.724 -0.797 -2.317 -0 -1.2 0
-3.72 -0.878 -2.315 -0 -1.2 0
-3.714 -0.958 -2.311 -0 -1.2 0
-3.724 -1.038 -2.318 -0 -1.2 0
-3.716 -1.118 -2.312 -0 -1.2 0
-3.707 -1.197 -2.306 -0 -1.2 0
-3.705 -1.276 -2.304 -0 -1.2 0
-3.711 -1.356 -2.309 -0 -1.2 0
-3.714 -1.436 -2.312 -0 -1.2 0
-3.709 -1.516 -2.308 -0 -1.2 0
-3.71 -1.597 -2.309 -0 -1.2 0
-3.711 -1.677 -2.31 -0 -1.2 0
-3.718 -1.76 -2.315 -0 -1.2 0
-3.66 -1.83 -2.273 -0 -1.2 0
-3.634 -1.905 -2.253 -0 -1.2 0
-3.693 -1.999 -2.298 -0 -1.2 0
-3.774 -2.105 -2.358 -0 -1.2 0
-3.775 -2.19 -2.359 -0 -1.2 0
-3.775 -2.276 -2.359 -0 -1.2 0
-3.773 -2.362 -2.358 -0 -1.2 0
-3.77 -2.449 -2.356 -0 -1.2 0
-3.781 -2.541 -2.364 -0 -1.2 0
-3.776 -2.628 -2.36 -0 -1.2 0
-3.776 -2.719 -2.361 -0 -1.2 0
-3.768 -2.807 -2.355 -0 -1.2 0
-3.774 -2.902 -2.359 -0 -1.2 0
-3.77 -2.994 -2.357 -0 -1.2 0
-3.773 -3.09 -2.359 -0 -1.2 0
-3.781 -3.191 -2.365 -0 -1.2 0
-3.787 -3.293 -2.37 -0 -1.2 0
-3.784 -3.392 -2.369 -0 -1.2 0
-3.781 -3.491 -2.366 -0 -1.2 0
-3.782 -3.596 -2.367 -0 -1.2 0
-3.781 -3.701 -2.367 -0 -1.2 0
-3.778 -3.807 -2.366 -0 -1.2 0
-3.788 -3.924 -2.372 -0 -1.2 0
-3.782 -4.031 -2.368 -0 -1.2 0
-3.78 -4.145 -2.367 -0 -1.2 0
-3.783 -4.265 -2.37 -0 -1.2 0
-3.778 -4.38 -2.367 -0 -1.2 0
-3.79 -4.515 -2.375 -0 -1.2 0
-3.786 -4.637 -2.373 -0 -1.2 0
-3.78 -4.761 -2.369 -0 -1.2 0
-3.784 -4.899 -2.372 -0 -1.2 0
-3.779 -5.031 -2.369 -0 -1.2 0
-3.777 -5.171 -2.368 -0 -1.2 0
-3.774 -5.312 -2.366 -0 -1.2 0
-3.772 -5.461 -2.365 -0 -1.2 0
-3.774 -5.618 -2.366 -0 -1.2 0
-3.767 -5.769 -2.361 -0 -1.2 0
-3.767 -5.936 -2.362 -0 -1.2 0
-0.976 -0.025 -0.205 -0 -1.2 0
-1.01 -0.025 -0.229 -0 -1.2 0
-1.05 -0.019 -0.256 -0 -1.2 0
-1.078 -0.027 -0.276 -0 -1.2 0
-1.118 -0.024 -0.304 -0 -1.2 0
-1.159 -0.021 -0.332 -0 -1.2 0
-1.187 -0.032 -0.352 -0 -1.2 0
-1.229 -0.033 -0.381 -0 -1.2 0
-1.271 -0.035 -0.41 -0 -1.2 0
-1.32 -0.032 -0.444 -0 -1.2 0
-1.355 -0.043 -0.469 -0 -1.2 0
-1.412 -0.038 -0.508 -0 -1.2 0
-1.455 -0.046 -0.538 -0 -1.2 0
-1.512 -0.046 -0.578 -0 -1.2 0
-1.57 -0.046 -0.618 -0 -1.2 0
-1.628 -0.051 -0.657 -0 -1.2 0
-1.694 -0.051 -0.703 -0 -1.2 0
-1.767 -0.05 -0.754 -0 -1.2 0
-1.834 -0.056 -0.801 -0 -1.2 0
-1.916 -0.057 -0.858 -0 -1.2 0
-2.005 -0.056 -0.92 -0 -1.2 0
-2.088 -0.062 -0.978 -0 -1.2 0
-2.187 -0.065 -1.046 -0 -1.2 0
-2.278 -0.075 -1.11 -0 -1.2 0
-2.393 -0.079 -1.19 -0 -1.2 0
-2.532 -0.077 -1.286 -0 -1.2 0
-2.664 -0.084 -1.377 -0 -1.2 0
-2.804 -0.094 -1.474 -0 -1.2 0
-2.968 -0.101 -1.588 -0 -1.2 0
-3.172 -0.101 -1.731 -0 -1.2 0
-3.378 -0.11 -1.873 -0 -1.2 0
-3.584 -0.129 -2.016 -0 -1.2 0
-3.718 -0.173 -2.109 -0 -1.2 0
-3.723 -0.253 -2.113 -0 -1.2 0
-3.702 -0.338 -2.098 -0 -1.2 0
-3.696 -0.418 -2.094 -0 -1.2 0
-3.698 -0.497 -2.095 -0 -1.2 0
-3.697 -0.576 -2.095 -0 -1.2 0
-3.712 -0.653 -2.105 -0 -1.2 0
-3.694 -0.732 -2.092 -0 -1.2 0
-3.69 -0.811 -2.09 -0 -1.2 0
-3.686 -0.888 -2.087 -0 -1.2 0
-3.689 -0.966 -2.088 -0 -1.2 0
-3.69 -1.043 -2.09 -0 -1.2 0
-3.69 -1.12 -2.091 -0 -1.2 0
-3.682 -1.197 -2.084 -0 -1.2 0
-3.679 -1.274 -2.083 -0 -1.2 0
-3.685 -1.351 -2.086 -0 -1.2 0
-3.681 -1.428 -2.083 -0 -1.2 0
-3.675 -1.506 -2.08 -0 -1.2 0
-3.677 -1.583 -2.081 -0 -1.2 0
-3.678 -1.662 -2.081 -0 -1.2 0
-3.685 -1.741 -2.087 -0 -1.2 0
-3.643 -1.812 -2.058 -0 -1.2 0
-3.609 -1.884 -2.034 -0 -1.2 0
-3.621 -1.965 -2.042 -0 -1.2 0
-3.752 -2.078 -2.133 -0 -1.2 0
-3.746 -2.159 -2.13 -0 -1.2 0
-3.754 -2.245 -2.135 -0 -1.2 0
-3.753 -2.328 -2.135 -0 -1.2 0
-3.743 -2.41 -2.128 -0 -1.2 0
-3.747 -2.497 -2.131 -0 -1.2 0
-3.742 -2.581 -2.127 -0 -1.2 0
-3.743 -2.669 -2.128 -0 -1.2 0
-3.751 -2.761 -2.134 -0 -1.2 0
-3.742 -2.847 -2.128 -0 -1.2 0
-3.747 -2.94 -2.13 -0 -1.2 0
-3.743 -3.03 -2.127 -0 -1.2 0
-3.745 -3.125 -2.129 -0 -1.2 0
-3.738 -3.216 -2.124 -0 -1.2 0
-3.736 -3.312 -2.123 -0 -1.2 0
-3.74 -3.412 -2.126 -0 -1.2 0
-3.75 -3.519 -2.133 -0 -1.2 0
-3.744 -3.616 -2.129 -0 -1.2 0
-3.75 -3.725 -2.132 -0 -1.2 0
-3.754 -3.835 -2.135 -0 -1.2 0
-3.756 -3.945 -2.137 -0 -1.2 0
-3.749 -4.05 -2.133 -0 -1.2 0
-3.76 -4.173 -2.14 -0 -1.2 0
-3.756 -4.286 -2.137 -0 -1.2 0
-3.756 -4.406 -2.137 -0 -1.2 0
-3.754 -4.526 -2.136 -0 -1.2 0
-3.75 -4.648 -2.133 -0 -1.2 0
-3.749 -4.776 -2.133 -0 -1.2 0
-3.752 -4.912 -2.135 -0 -1.2 0
-3.747 -5.043 -2.131 -0 -1.2 0
-3.75 -5.188 -2.133 -0 -1.2 0
-3.745 -5.328 -2.131 -0 -1.2 0
-3.743 -5.476 -2.129 -0 -1.2 0
-3.744 -5.631 -2.129 -0 -1.2 0
-3.74 -5.789 -2.127 -0 -1.2 0
-0.998 -0.026 -0.155 -0 -1.2 0
-1.033 -0.026 -0.177 -0 -1.2 0
-1.073 -0.02 -0.203 -0 -1.2 0
-1.102 -0.028 -0.222 -0 -1.2 0
-1.137 -0.031 -0.244 -0 -1.2 0
-1.191 -0.016 -0.28 -0 -1.2 0
-1.221 -0.028 -0.299 -0 -1.2 0
-1.263 -0.028 -0.326 -0 -1.2 0
-1.299 -0.036 -0.349 -0 -1.2 0
-1.349 -0.033 -0.382 -0 -1.2 0
-1.393 -0.038 -0.41 -0 -1.2 0
-1.436 -0.044 -0.438 -0 -1.2 0
-1.495 -0.042 -0.475 -0 -1.2 0
-1.553 -0.041 -0.513 -0 -1.2 0
-1.605 -0.048 -0.546 -0 -1.2 0
-1.665 -0.052 -0.585 -0 -1.2 0
-1.732 -0.053 -0.628 -0 -1.2 0
-1.807 -0.052 -0.677 -0 -1.2 0
-1.875 -0.058 -0.721 -0 -1.2 0
-1.966 -0.054 -0.78 -0 -1.2 0
-2.058 -0.053 -0.84 -0 -1.2 0
-2.135 -0.064 -0.89 -0 -1.2 0
-2.228 -0.071 -0.95 -0 -1.2 0
-2.337 -0.074 -1.02 -0 -1.2 0
-2.455 -0.078 -1.096 -0 -1.2 0
-2.589 -0.079 -1.182 -0 -1.2 0
-2.723 -0.087 -1.27 -0 -1.2 0
-2.875 -0.093 -1.368 -0 -1.2 0
-3.052 -0.098 -1.482 -0 -1.2 0
-3.269 -0.097 -1.621 -0 -1.2 0
-3.471 -0.109 -1.752 -0 -1.2 0
-3.664 -0.132 -1.878 -0 -1.2 0
-3.678 -0.206 -1.887 -0 -1.2 0
-3.683 -0.284 -1.889 -0 -1.2 0
-3.677 -0.363 -1.886 -0 -1.2 0
-3.68 -0.44 -1.887 -0 -1.2 0
-3.673 -0.518 -1.882 -0 -1.2 0
-3.672 -0.594 -1.882 -0 -1.2 0
-3.679 -0.67 -1.886 -0 -1.2 0
-3.669 -0.747 -1.879 -0 -1.2 0
-3.665 -0.823 -1.877 -0 -1.2 0
-3.66 -0.899 -1.874 -0 -1.2 0
-3.663 -0.973 -1.875 -0 -1.2 0
-3.664 -1.048 -1.876 -0 -1.2 0
-3.656 -1.124 -1.871 -0 -1.2 0
-3.655 -1.198 -1.87 -0 -1.2 0
-3.654 -1.272 -1.869 -0 -1.2 0
-3.65 -1.347 -1.866 -0 -1.2 0
-3.655 -1.423 -1.869 -0 -1.2 0
-3.65 -1.497 -1.866 -0 -1.2 0
-3.652 -1.573 -1.867 -0 -1.2 0
-3.644 -1.648 -1.862 -0 -1.2 0
-3.661 -1.726 -1.872 -0 -1.2 0
-3.643 -1.8 -1.861 -0 -1.2 0
-3.583 -1.863 -1.822 -0 -1.2 0
-3.588 -1.94 -1.825 -0 -1.2 0
-3.731 -2.054 -1.917 -0 -1.2 0
-3.725 -2.133 -1.913 -0 -1.2 0
-3.733 -2.216 -1.919 -0 -1.2 0
-3.725 -2.295 -1.913 -0 -1.2 0
-3.723 -2.377 -1.912 -0 -1.2 0
-3.72 -2.459 -1.91 -0 -1.2 0
-3.723 -2.544 -1.912 -0 -1.2 0
-3.718 -2.627 -1.908 -0 -1.2 0
-3.718 -2.713 -1.909 -0 -1.2 0
-3.71 -2.796 -1.903 -0 -1.2 0
-3.715 -2.887 -1.907 -0 -1.2 0
-3.713 -2.975 -1.904 -0 -1.2 0
-3.715 -3.067 -1.906 -0 -1.2 0
-3.717 -3.16 -1.906 -0 -1.2 0
-3.716 -3.253 -1.906 -0 -1.2 0
-3.713 -3.348 -1.905 -0 -1.2 0
-3.71 -3.442 -1.902 -0 -1.2 0
-3.712 -3.542 -1.903 -0 -1.2 0
-3.704 -3.637 -1.898 -0 -1.2 0
-3.724 -3.755 -1.91 -0 -1.2 0
-3.727 -3.862 -1.913 -0 -1.2 0
-3.728 -3.971 -1.914 -0 -1.2 0
-3.729 -4.081 -1.913 -0 -1.2 0
-3.725 -4.191 -1.911 -0 -1.2 0
-3.727 -4.308 -1.911 -0 -1.2 0
-3.727 -4.426 -1.911 -0 -1.2 0
-3.729 -4.552 -1.913 -0 -1.2 0
-3.724 -4.672 -1.91 -0 -1.2 0
-3.729 -4.806 -1.912 -0 -1.2 0
-3.725 -4.934 -1.909 -0 -1.2 0
-3.73 -5.077 -1.913 -0 -1.2 0
-3.721 -5.208 -1.907 -0 -1.2 0
-3.72 -5.353 -1.906 -0 -1.2 0
-3.717 -5.499 -1.903 -0 -1.2 0
-3.722 -5.661 -1.906 -0 -1.2 0
-1.021 -0.027 -0.101 -0 -1.2 0
-1.056 -0.027 -0.122 -0 -1.2 0
-1.098 -0.021 -0.147 -0 -1.2 0
-1.133 -0.023 -0.168 -0 -1.2 0
-1.163 -0.032 -0.186 -0 -1.2 0
-1.205 -0.03 -0.211 -0 -1.2 0
-1.248 -0.029 -0.237 -0 -1.2 0
-1.292 -0.029 -0.263 -0 -1.2 0
-1.336 -0.031 -0.289 -0 -1.2 0
-1.38 -0.034 -0.315 -0 -1.2 0
-1.431 -0.034 -0.345 -0 -1.2 0
-1.476 -0.041 -0.372 -0 -1.2 0
-1.528 -0.043 -0.403 -0 -1.2 0
-1.581 -0.049 -0.435 -0 -1.2 0
-1.641 -0.049 -0.471 -0 -1.2 0
-1.71 -0.049 -0.512 -0 -1.2 0
-1.78 -0.05 -0.553 -0 -1.2 0
-1.849 -0.053 -0.594 -0 -1.2 0
-1.918 -0.059 -0.636 -0 -1.2 0
-2.004 -0.06 -0.687 -0 -1.2 0
-2.106 -0.055 -0.748 -0 -1.2 0
-2.193 -0.062 -0.799 -0 -1.2 0
-2.28 -0.073 -0.851 -0 -1.2 0
-2.391 -0.075 -0.917 -0 -1.2 0
-2.519 -0.076 -0.994 -0 -1.2 0
-2.656 -0.078 -1.076 -0 -1.2 0
-2.794 -0.086 -1.158 -0 -1.2 0
-2.957 -0.09 -1.255 -0 -1.2 0
-3.112 -0.103 -1.348 -0 -1.2 0
-3.343 -0.099 -1.485 -0 -1.2 0
-3.549 -0.111 -1.609 -0 -1.2 0
-3.672 -0.153 -1.682 -0 -1.2 0
-3.661 -0.233 -1.675 -0 -1.2 0
-3.666 -0.309 -1.677 -0 -1.2 0
-3.66 -0.386 -1.674 -0 -1.2 0
-3.653 -0.462 -1.669 -0 -1.2 0
-3.663 -0.535 -1.675 -0 -1.2 0
-3.662 -0.61 -1.674 -0 -1.2 0
-3.661 -0.684 -1.673 -0 -1.2 0
-3.65 -0.759 -1.666 -0 -1.2 0
-3.654 -0.832 -1.669 -0 -1.2 0
-3.649 -0.906 -1.666 -0 -1.2 0
-3.652 -0.979 -1.666 -0 -1.2 0
-3.645 -1.053 -1.661 -0 -1.2 0
-3.645 -1.126 -1.661 -0 -1.2 0
-3.636 -1.198 -1.656 -0 -1.2 0
-3.634 -1.27 -1.655 -0 -1.2 0
-3.639 -1.343 -1.657 -0 -1.2 0
-3.644 -1.417 -1.66 -0 -1.2 0
-3.639 -1.49 -1.657 -0 -1.2 0
-3.642 -1.564 -1.658 -0 -1.2 0
-3.642 -1.638 -1.658 -0 -1.2 0
-3.643 -1.712 -1.658 -0 -1.2 0
-3.633 -1.785 -1.652 -0 -1.2 0
-3.572 -1.846 -1.616 -0 -1.2 0
-3.568 -1.92 -1.614 -0 -1.2 0
-3.691 -2.025 -1.686 -0 -1.2 0
-3.709 -2.108 -1.697 -0 -1.2 0
-3.711 -2.187 -1.698 -0 -1.2 0
-3.71 -2.266 -1.698 -0 -1.2 0
-3.709 -2.346 -1.697 -0 -1.2 0
-3.699 -2.423 -1.69 -0 -1.2 0
-3.703 -2.506 -1.691 -0 -1.2 0
-3.698 -2.587 -1.688 -0 -1.2 0
-3.707 -2.674 -1.694 -0 -1.2 0
-3.707 -2.759 -1.694 -0 -1.2 0
-3.697 -2.841 -1.688 -0 -1.2 0
-3.711 -2.934 -1.696 -0 -1.2 0
-3.698 -3.016 -1.687 -0 -1.2 0
-3.693 -3.103 -1.684 -0 -1.2 0
-3.693 -3.194 -1.684 -0 -1.2 0
-3.693 -3.286 -1.683 -0 -1.2 0
-3.689 -3.378 -1.68 -0 -1.2 0
-3.692 -3.476 -1.682 -0 -1.2 0
-3.693 -3.575 -1.683 -0 -1.2 0
-3.693 -3.675 -1.682 -0 -1.2 0
-3.69 -3.775 -1.68 -0 -1.2 0
-3.7 -3.886 -1.685 -0 -1.2 0
-3.715 -4.004 -1.694 -0 -1.2 0
-3.706 -4.107 -1.688 -0 -1.2 0
-3.709 -4.222 -1.69 -0 -1.2 0
-3.71 -4.338 -1.69 -0 -1.2 0
-3.708 -4.455 -1.689 -0 -1.2 0
-3.711 -4.579 -1.69 -0 -1.2 0
-3.711 -4.705 -1.689 -0 -1.2 0
-3.707 -4.831 -1.687 -0 -1.2 0
-3.702 -4.959 -1.684 -0 -1.2 0
-3.707 -5.101 -1.686 -0 -1.2 0
-3.702 -5.237 -1.683 -0 -1.2 0
-3.707 -5.388 -1.685 -0 -1.2 0
-3.701 -5.534 -1.681 -0 -1.2 0
-1.054 -0.014 -0.056 -0 -1.2 0
-1.083 -0.021 -0.073 -0 -1.2 0
-1.119 -0.022 -0.093 -0 -1.2 0
-1.155 -0.024 -0.113 -0 -1.2 0
-1.192 -0.027 -0.133 -0 -1.2 0
-1.236 -0.024 -0.157 -0 -1.2 0
-1.273 -0.03 -0.178 -0 -1.2 0
-1.317 -0.03 -0.201 -0 -1.2 0
-1.355 -0.038 -0.222 -0 -1.2 0
-1.407 -0.035 -0.251 -0 -1.2 0
-1.459 -0.035 -0.28 -0 -1.2 0
-1.512 -0.036 -0.309 -0 -1.2 0
-1.558 -0.044 -0.334 -0 -1.2 0
-1.627 -0.039 -0.372 -0 -1.2 0
-1.681 -0.045 -0.402 -0 -1.2 0
-1.751 -0.045 -0.441 -0 -1.2 0
-1.813 -0.051 -0.475 -0 -1.2 0
-1.884 -0.055 -0.515 -0 -1.2 0
-1.955 -0.061 -0.553 -0 -1.2 0
-2.042 -0.062 -0.601 -0 -1.2 0
-2.138 -0.061 -0.654 -0 -1.2 0
-2.234 -0.064 -0.707 -0 -1.2 0
-2.331 -0.07 -0.761 -0 -1.2 0
-2.437 -0.077 -0.819 -0 -1.2 0
-2.559 -0.081 -0.887 -0 -1.2 0
-2.707 -0.08 -0.968 -0 -1.2 0
-2.856 -0.085 -1.05 -0 -1.2 0
-3.022 -0.089 -1.142 -0 -1.2 0
-3.189 -0.099 -1.234 -0 -1.2 0
-3.415 -0.098 -1.359 -0 -1.2 0
-3.617 -0.113 -1.47 -0 -1.2 0
-3.641 -0.182 -1.483 -0 -1.2 0
-3.655 -0.254 -1.49 -0 -1.2 0
-3.641 -0.332 -1.483 -0 -1.2 0
-3.644 -0.405 -1.484 -0 -1.2 0
-3.638 -0.48 -1.48 -0 -1.2 0
-3.629 -0.554 -1.475 -0 -1.2 0
-3.646 -0.624 -1.483 -0 -1.2 0
-3.627 -0.699 -1.472 -0 -1.2 0
-3.633 -0.77 -1.475 -0 -1.2 0
-3.628 -0.842 -1.473 -0 -1.2 0
-3.632 -0.913 -1.474 -0 -1.2 0
-3.635 -0.984 -1.475 -0 -1.2 0
-3.628 -1.056 -1.471 -0 -1.2 0
-3.619 -1.127 -1.466 -0 -1.2 0
-3.618 -1.198 -1.465 -0 -1.2 0
-3.617 -1.269 -1.464 -0 -1.2 0
-3.623 -1.34 -1.467 -0 -1.2 0
-3.627 -1.412 -1.469 -0 -1.2 0
-3.622 -1.483 -1.466 -0 -1.2 0
-3.616 -1.554 -1.463 -0 -1.2 0
-3.618 -1.626 -1.463 -0 -1.2 0
-3.618 -1.698 -1.463 -0 -1.2 0
-3.617 -1.771 -1.461 -0 -1.2 0
-3.546 -1.829 -1.423 -0 -1.2 0
-3.544 -1.901 -1.421 -0 -1.2 0
-3.616 -1.991 -1.46 -0 -1.2 0
-3.688 -2.085 -1.499 -0 -1.2 0
-3.689 -2.162 -1.5 -0 -1.2 0
-3.69 -2.24 -1.499 -0 -1.2 0
-3.681 -2.314 -1.494 -0 -1.2 0
-3.695 -2.399 -1.501 -0 -1.2 0
-3.683 -2.473 -1.495 -0 -1.2 0
-3.686 -2.556 -1.496 -0 -1.2 0
-3.672 -2.631 -1.488 -0 -1.2 0
-3.682 -2.717 -1.492 -0 -1.2 0
-3.681 -2.8 -1.491 -0 -1.2 0
-3.679 -2.884 -1.49 -0 -1.2 0
-3.675 -2.969 -1.488 -0 -1.2 0
-3.678 -3.057 -1.488 -0 -1.2 0
-3.679 -3.148 -1.489 -0 -1.2 0
-3.67 -3.233 -1.484 -0 -1.2 0
-3.669 -3.323 -1.482 -0 -1.2 0
-3.672 -3.419 -1.484 -0 -1.2 0
-3.668 -3.511 -1.481 -0 -1.2 0
-3.668 -3.609 -1.48 -0 -1.2 0
-3.673 -3.712 -1.483 -0 -1.2 0
-3.669 -3.811 -1.48 -0 -1.2 0
-3.671 -3.916 -1.481 -0 -1.2 0
-3.679 -4.029 -1.484 -0 -1.2 0
-3.689 -4.148 -1.489 -0 -1.2 0
-3.685 -4.256 -1.487 -0 -1.2 0
-3.685 -4.371 -1.486 -0 -1.2 0
-3.681 -4.487 -1.483 -0 -1.2 0
-3.683 -4.61 -1.483 -0 -1.2 0
-3.688 -4.741 -1.485 -0 -1.2 0
-3.685 -4.867 -1.483 -0 -1.2 0
-3.684 -5 -1.483 -0 -1.2 0
-3.681 -5.135 -1.48 -0 -1.2 0
-3.681 -5.277 -1.479 -0 -1.2 0
-3.683 -5.428 -1.479 -0 -1.2 0
-1.066 -0.022 0.001 -0 -1.2 0
-1.103 -0.022 -0.018 -0 -1.2 0
-1.133 -0.03 -0.033 -0 -1.2 0
-1.176 -0.025 -0.055 -0 -1.2 0
-1.214 -0.028 -0.073 -0 -1.2 0
-1.251 -0.032 -0.093 -0 -1.2 0
-1.303 -0.025 -0.119 -0 -1.2 0
-1.341 -0.031 -0.138 -0 -1.2 0
-1.386 -0.033 -0.162 -0 -1.2 0
-1.439 -0.032 -0.189 -0 -1.2 0
-1.478 -0.042 -0.208 -0 -1.2 0
-1.54 -0.037 -0.24 -0 -1.2 0
-1.586 -0.045 -0.264 -0 -1.2 0
-1.649 -0.045 -0.295 -0 -1.2 0
-1.719 -0.042 -0.331 -0 -1.2 0
-1.775 -0.051 -0.359 -0 -1.2 0
-1.854 -0.047 -0.399 -0 -1.2 0
-1.926 -0.051 -0.436 -0 -1.2 0
-1.998 -0.058 -0.473 -0 -1.2 0
-2.095 -0.054 -0.522 -0 -1.2 0
-2.184 -0.058 -0.568 -0 -1.2 0
-2.275 -0.065 -0.614 -0 -1.2 0
-2.39 -0.065 -0.672 -0 -1.2 0
-2.489 -0.076 -0.722 -0 -1.2 0
-2.622 -0.076 -0.79 -0 -1.2 0
-2.748 -0.084 -0.854 -0 -1.2 0
-2.907 -0.086 -0.935 -0 -1.2 0
-3.059 -0.096 -1.012 -0 -1.2 0
-3.255 -0.098 -1.112 -0 -1.2 0
-3.468 -0.103 -1.221 -0 -1.2 0
-3.622 -0.132 -1.298 -0 -1.2 0
-3.62 -0.207 -1.297 -0 -1.2 0
-3.625 -0.278 -1.299 -0 -1.2 0
-3.62 -0.352 -1.296 -0 -1.2 0
-3.614 -0.426 -1.292 -0 -1.2 0
-3.615 -0.497 -1.292 -0 -1.2 0
-3.624 -0.567 -1.296 -0 -1.2 0
-3.632 -0.636 -1.3 -0 -1.2 0
-3.622 -0.709 -1.294 -0 -1.2 0
-3.61 -0.78 -1.288 -0 -1.2 0
-3.614 -0.85 -1.29 -0 -1.2 0
-3.609 -0.92 -1.287 -0 -1.2 0
-3.612 -0.99 -1.287 -0 -1.2 0
-3.613 -1.059 -1.288 -0 -1.2 0
-3.614 -1.129 -1.287 -0 -1.2 0
-3.613 -1.198 -1.286 -0 -1.2 0
-3.611 -1.267 -1.285 -0 -1.2 0
-3.608 -1.337 -1.283 -0 -1.2 0
-3.605 -1.406 -1.28 -0 -1.2 0
-3.59 -1.474 -1.273 -0 -1.2 0
-3.602 -1.546 -1.279 -0 -1.2 0
-3.604 -1.617 -1.279 -0 -1.2 0
-3.596 -1.685 -1.274 -0 -1.2 0
-3.603 -1.758 -1.277 -0 -1.2 0
-3.531 -1.815 -1.241 -0 -1.2 0
-3.529 -1.885 -1.238 -0 -1.2 0
-3.569 -1.965 -1.258 -0 -1.2 0
-3.677 -2.066 -1.312 -0 -1.2 0
-3.67 -2.139 -1.309 -0 -1.2 0
-3.662 -2.212 -1.304 -0 -1.2 0
-3.67 -2.291 -1.308 -0 -1.2 0
-3.669 -2.367 -1.307 -0 -1.2 0
-3.665 -2.444 -1.304 -0 -1.2 0
-3.67 -2.524 -1.306 -0 -1.2 0
-3.656 -2.598 -1.298 -0 -1.2 0
-3.665 -2.683 -1.303 -0 -1.2 0
-3.657 -2.761 -1.297 -0 -1.2 0
-3.663 -2.847 -1.301 -0 -1.2 0
-3.661 -2.929 -1.299 -0 -1.2 0
-3.656 -3.013 -1.295 -0 -1.2 0
-3.658 -3.1 -1.296 -0 -1.2 0
-3.658 -3.189 -1.296 -0 -1.2 0
-3.657 -3.278 -1.294 -0 -1.2 0
-3.654 -3.367 -1.292 -0 -1.2 0
-3.657 -3.463 -1.293 -0 -1.2 0
-3.651 -3.554 -1.289 -0 -1.2 0
-3.65 -3.65 -1.288 -0 -1.2 0
-3.655 -3.753 -1.29 -0 -1.2 0
-3.651 -3.851 -1.287 -0 -1.2 0
-3.651 -3.955 -1.286 -0 -1.2 0
-3.657 -4.066 -1.289 -0 -1.2 0
-3.66 -4.179 -1.29 -0 -1.2 0
-3.668 -4.299 -1.293 -0 -1.2 0
-3.667 -4.413 -1.291 -0 -1.2 0
-3.662 -4.529 -1.288 -0 -1.2 0
-3.669 -4.658 -1.291 -0 -1.2 0
-3.659 -4.775 -1.285 -0 -1.2 0
-3.661 -4.906 -1.285 -0 -1.2 0
-3.659 -5.039 -1.283 -0 -1.2 0
-3.66 -5.18 -1.283 -0 -1.2 0
-3.659 -5.322 -1.281 -0 -1.2 0
-1.079 -0.028 0.06 -0 -1.2 0
-1.122 -0.021 0.039 -0 -1.2 0
-1.153 -0.029 0.025 -0 -1.2 0
-1.204 -0.017 0.002 -0 -1.2 0
-1.235 -0.027 -0.013 -0 -1.2 0
-1.28 -0.024 -0.034 -0 -1.2 0
-1.319 -0.03 -0.052 -0 -1.2 0
-1.365 -0.03 -0.073 -0 -1.2 0
-1.404 -0.038 -0.092 -0 -1.2 0
-1.458 -0.036 -0.117 -0 -1.2 0
-1.505 -0.041 -0.138 -0 -1.2 0
-1.567 -0.036 -0.167 -0 -1.2 0
-1.622 -0.04 -0.193 -0 -1.2 0
-1.678 -0.044 -0.219 -0 -1.2 0
-1.742 -0.046 -0.248 -0 -1.2 0
-1.814 -0.046 -0.281 -0 -1.2 0
-1.887 -0.046 -0.315 -0 -1.2 0
-1.952 -0.055 -0.346 -0 -1.2 0
-2.034 -0.057 -0.384 -0 -1.2 0
-2.132 -0.054 -0.43 -0 -1.2 0
-2.215 -0.062 -0.468 -0 -1.2 0
-2.307 -0.068 -0.51 -0 -1.2 0
-2.415 -0.071 -0.56 -0 -1.2 0
-2.525 -0.078 -0.611 -0 -1.2 0
-2.652 -0.082 -0.67 -0 -1.2 0
-2.796 -0.083 -0.738 -0 -1.2 0
-2.933 -0.094 -0.8 -0 -1.2 0
-3.105 -0.098 -0.88 -0 -1.2 0
-3.322 -0.095 -0.981 -0 -1.2 0
-3.557 -0.095 -1.09 -0 -1.2 0
-3.617 -0.15 -1.118 -0 -1.2 0
-3.614 -0.223 -1.115 -0 -1.2 0
-3.609 -0.296 -1.112 -0 -1.2 0
-3.613 -0.366 -1.114 -0 -1.2 0
-3.616 -0.436 -1.114 -0 -1.2 0
-3.599 -0.51 -1.106 -0 -1.2 0
-3.608 -0.578 -1.11 -0 -1.2 0
-3.607 -0.647 -1.108 -0 -1.2 0
-3.605 -0.717 -1.107 -0 -1.2 0
-3.602 -0.786 -1.105 -0 -1.2 0
-3.597 -0.855 -1.102 -0 -1.2 0
-3.601 -0.923 -1.104 -0 -1.2 0
-3.604 -0.991 -1.105 -0 -1.2 0
-3.587 -1.06 -1.096 -0 -1.2 0
-3.597 -1.127 -1.1 -0 -1.2 0
-3.586 -1.195 -1.095 -0 -1.2 0
-3.594 -1.263 -1.097 -0 -1.2 0
-3.591 -1.331 -1.096 -0 -1.2 0
-3.597 -1.399 -1.098 -0 -1.2 0
-3.583 -1.467 -1.091 -0 -1.2 0
-3.594 -1.536 -1.096 -0 -1.2 0
-3.596 -1.605 -1.096 -0 -1.2 0
-3.588 -1.673 -1.092 -0 -1.2 0
-3.579 -1.74 -1.087 -0 -1.2 0
-3.533 -1.801 -1.065 -0 -1.2 0
-3.512 -1.866 -1.055 -0 -1.2 0
-3.509 -1.935 -1.052 -0 -1.2 0
-3.663 -2.045 -1.123 -0 -1.2 0
-3.657 -2.116 -1.119 -0 -1.2 0
-3.658 -2.191 -1.12 -0 -1.2 0
-3.65 -2.262 -1.115 -0 -1.2 0
-3.656 -2.34 -1.118 -0 -1.2 0
-3.663 -2.419 -1.12 -0 -1.2 0
-3.651 -2.49 -1.113 -0 -1.2 0
-3.653 -2.569 -1.115 -0 -1.2 0
-3.655 -2.65 -1.115 -0 -1.2 0
-3.647 -2.726 -1.11 -0 -1.2 0
-3.646 -2.806 -1.109 -0 -1.2 0
-3.652 -2.892 -1.112 -0 -1.2 0
-3.648 -2.973 -1.108 -0 -1.2 0
-3.643 -3.055 -1.106 -0 -1.2 0
-3.644 -3.142 -1.106 -0 -1.2 0
-3.651 -3.235 -1.108 -0 -1.2 0
-3.641 -3.318 -1.103 -0 -1.2 0
-3.637 -3.406 -1.1 -0 -1.2 0
-3.639 -3.501 -1.101 -0 -1.2 0
-3.639 -3.596 -1.099 -0 -1.2 0
-3.637 -3.691 -1.098 -0 -1.2 0
-3.642 -3.793 -1.099 -0 -1.2 0
-3.636 -3.891 -1.095 -0 -1.2 0
-3.635 -3.995 -1.095 -0 -1.2 0
-3.639 -4.105 -1.096 -0 -1.2 0
-3.634 -4.211 -1.092 -0 -1.2 0
-3.648 -4.336 -1.098 -0 -1.2 0
-3.645 -4.45 -1.095 -0 -1.2 0
-3.647 -4.571 -1.095 -0 -1.2 0
-3.646 -4.693 -1.093 -0 -1.2 0
-3.647 -4.823 -1.093 -0 -1.2 0
-3.647 -4.954 -1.092 -0 -1.2 0
-3.644 -5.087 -1.09 -0 -1.2 0
-3.636 -5.219 -1.085 -0 -1.2 0
-1.1 -0.021 0.109 -0 -1.2 0
-1.138 -0.021 0.094 -0 -1.2 0
-1.176 -0.022 0.077 -0 -1.2 0
-1.207 -0.029 0.064 -0 -1.2 0
-1.252 -0.026 0.045 -0 -1.2 0
-1.298 -0.024 0.025 -0 -1.2 0
-1.337 -0.03 0.008 -0 -1.2 0
-1.384 -0.03 -0.011 -0 -1.2 0
-1.431 -0.032 -0.031 -0 -1.2 0
-1.486 -0.03 -0.055 -0 -1.2 0
-1.533 -0.034 -0.075 -0 -1.2 0
-1.581 -0.042 -0.096 -0 -1.2 0
-1.637 -0.044 -0.12 -0 -1.2 0
-1.702 -0.044 -0.146 -0 -1.2 0
-1.758 -0.05 -0.17 -0 -1.2 0
-1.84 -0.045 -0.205 -0 -1.2 0
-1.913 -0.046 -0.236 -0 -1.2 0
-1.98 -0.054 -0.264 -0 -1.2 0
-2.054 -0.06 -0.296 -0 -1.2 0
-2.162 -0.053 -0.343 -0 -1.2 0
-2.247 -0.061 -0.378 -0 -1.2 0
-2.331 -0.071 -0.413 -0 -1.2 0
-2.441 -0.074 -0.46 -0 -1.2 0
-2.561 -0.077 -0.511 -0 -1.2 0
-2.681 -0.085 -0.563 -0 -1.2 0
-2.81 -0.093 -0.617 -0 -1.2 0
-2.967 -0.097 -0.683 -0 -1.2 0
-3.141 -0.1 -0.758 -0 -1.2 0
-3.352 -0.099 -0.848 -0 -1.2 0
-3.635 -0.085 -0.967 -0 -1.2 0
-3.624 -0.161 -0.962 -0 -1.2 0
-3.63 -0.231 -0.964 -0 -1.2 0
-3.616 -0.305 -0.958 -0 -1.2 0
-3.62 -0.374 -0.959 -0 -1.2 0
-3.623 -0.444 -0.959 -0 -1.2 0
-3.614 -0.515 -0.956 -0 -1.2 0
-3.614 -0.583 -0.954 -0 -1.2 0
-3.604 -0.653 -0.949 -0 -1.2 0
-3.584 -0.723 -0.94 -0 -1.2 0
-3.59 -0.79 -0.942 -0 -1.2 0
-3.585 -0.858 -0.94 -0 -1.2 0
-3.579 -0.925 -0.937 -0 -1.2 0
-3.591 -0.992 -0.941 -0 -1.2 0
-3.575 -1.059 -0.934 -0 -1.2 0
-3.575 -1.126 -0.933 -0 -1.2 0
-3.583 -1.192 -0.936 -0 -1.2 0
-3.572 -1.258 -0.931 -0 -1.2 0
-3.579 -1.325 -0.933 -0 -1.2 0
-3.584 -1.392 -0.934 -0 -1.2 0
-3.57 -1.459 -0.928 -0 -1.2 0
-3.574 -1.526 -0.929 -0 -1.2 0
-3.575 -1.594 -0.929 -0 -1.2 0
-3.567 -1.661 -0.925 -0 -1.2 0
-3.576 -1.73 -0.928 -0 -1.2 0
-3.539 -1.791 -0.912 -0 -1.2 0
-3.491 -1.849 -0.891 -0 -1.2 0
-3.497 -1.918 -0.893 -0 -1.2 0
-3.797 -2.063 -1.019 -0 -1.2 0
-3.871 -2.159 -1.05 -0 -1.2 0
-3.871 -2.236 -1.049 -0 -1.2 0
-3.862 -2.311 -1.044 -0 -1.2 0
-3.868 -2.392 -1.047 -0 -1.2 0
-3.873 -2.473 -1.049 -0 -1.2 0
-3.869 -2.552 -1.045 -0 -1.2 0
-3.871 -2.634 -1.046 -0 -1.2 0
-3.863 -2.714 -1.042 -0 -1.2 0
-3.853 -2.793 -1.037 -0 -1.2 0
-3.86 -2.88 -1.039 -0 -1.2 0
-3.865 -2.969 -1.041 -0 -1.2 0
-3.86 -3.053 -1.037 -0 -1.2 0
-3.853 -3.138 -1.034 -0 -1.2 0
-3.86 -3.233 -1.036 -0 -1.2 0
-3.851 -3.319 -1.031 -0 -1.2 0
-3.838 -3.405 -1.026 -0 -1.2 0
-3.85 -3.506 -1.029 -0 -1.2 0
-3.842 -3.599 -1.025 -0 -1.2 0
-3.84 -3.696 -1.024 -0 -1.2 0
-3.844 -3.8 -1.024 -0 -1.2 0
-3.839 -3.9 -1.021 -0 -1.2 0
-3.832 -4 -1.017 -0 -1.2 0
-3.822 -4.1 -1.012 -0 -1.2 0
-3.7 -4.11 -0.96 -0 -1.2 0
-3.615 -4.147 -0.924 -0 -1.2 0
-3.616 -4.258 -0.923 -0 -1.2 0
-3.614 -4.371 -0.922 -0 -1.2 0
-3.631 -4.504 -0.928 -0 -1.2 0
-3.624 -4.618 -0.923 -0 -1.2 0
-3.621 -4.739 -0.921 -0 -1.2 0
-3.621 -4.868 -0.92 -0 -1.2 0
-3.626 -5.007 -0.921 -0 -1.2 0
-3.626 -5.146 -0.921 -0 -1.2 0
-1.122 -0.013 0.16 -0 -1.2 0
-1.146 -0.027 0.152 -0 -1.2 0
-1.199 -0.014 0.131 -0 -1.2 0
-1.238 -0.016 0.116 -0 -1.2 0
-1.269 -0.026 0.104 -0 -1.2 0
-1.324 -0.017 0.083 -0 -1.2 0
-1.362 -0.023 0.068 -0 -1.2 0
-1.402 -0.029 0.052 -0 -1.2 0
-1.442 -0.037 0.037 -0 -1.2 0
-1.505 -0.03 0.012 -0 -1.2 0
-1.554 -0.034 -0.007 -0 -1.2 0
-1.603 -0.041 -0.025 -0 -1.2 0
-1.659 -0.043 -0.047 -0 -1.2 0
-1.724 -0.043 -0.072 -0 -1.2 0
-1.782 -0.049 -0.094 -0 -1.2 0
-1.856 -0.049 -0.123 -0 -1.2 0
-1.931 -0.05 -0.152 -0 -1.2 0
-1.998 -0.058 -0.178 -0 -1.2 0
-2.09 -0.056 -0.214 -0 -1.2 0
-2.184 -0.056 -0.25 -0 -1.2 0
-2.278 -0.06 -0.286 -0 -1.2 0
-2.371 -0.066 -0.322 -0 -1.2 0
-2.474 -0.073 -0.362 -0 -1.2 0
-2.586 -0.08 -0.406 -0 -1.2 0
-2.708 -0.086 -0.452 -0 -1.2 0
-2.848 -0.092 -0.507 -0 -1.2 0
-2.997 -0.098 -0.565 -0 -1.2 0
-3.165 -0.104 -0.63 -0 -1.2 0
-3.397 -0.098 -0.719 -0 -1.2 0
-3.792 -0.053 -0.872 -0 -1.2 0
-3.827 -0.119 -0.884 -0 -1.2 0
-3.888 -0.179 -0.908 -0 -1.2 0
-3.893 -0.253 -0.909 -0 -1.2 0
-3.888 -0.328 -0.907 -0 -1.2 0
-3.892 -0.402 -0.908 -0 -1.2 0
-3.838 -0.485 -0.886 -0 -1.2 0
-3.894 -0.548 -0.908 -0 -1.2 0
-3.606 -0.657 -0.795 -0 -1.2 0
-3.558 -0.73 -0.775 -0 -1.2 0
-3.554 -0.796 -0.773 -0 -1.2 0
-3.549 -0.863 -0.771 -0 -1.2 0
-3.544 -0.929 -0.768 -0 -1.2 0
-3.556 -0.993 -0.772 -0 -1.2 0
-3.539 -1.059 -0.765 -0 -1.2 0
-3.539 -1.124 -0.765 -0 -1.2 0
-3.538 -1.189 -0.764 -0 -1.2 0
-3.536 -1.254 -0.763 -0 -1.2 0
-3.534 -1.318 -0.761 -0 -1.2 0
-3.549 -1.385 -0.766 -0 -1.2 0
-3.535 -1.448 -0.76 -0 -1.2 0
-3.538 -1.515 -0.761 -0 -1.2 0
-3.54 -1.582 -0.76 -0 -1.2 0
-3.541 -1.648 -0.76 -0 -1.2 0
-3.56 -1.717 -0.767 -0 -1.2 0
-3.55 -1.783 -0.762 -0 -1.2 0
-3.465 -1.832 -0.73 -0 -1.2 0
-3.471 -1.9 -0.731 -0 -1.2 0
-3.603 -2 -0.782 -0 -1.2 0
-3.896 -2.15 -0.893 -0 -1.2 0
-4.967 -2.541 -1.304 -0 -1.2 0
-4.962 -2.638 -1.302 -0 -1.2 0
-4.963 -2.739 -1.301 -0 -1.2 0
-4.954 -2.836 -1.297 -0 -1.2 0
-3.929 -2.554 -0.902 -0 -1.2 0
-4.948 -3.039 -1.292 -0 -1.2 0
-4.942 -3.14 -1.289 -0 -1.2 0
-4.952 -3.251 -1.292 -0 -1.2 0
-4.933 -3.349 -1.284 -0 -1.2 0
-3.993 -3.005 -0.923 -0 -1.2 0
-4.934 -3.568 -1.282 -0 -1.2 0
-4.935 -3.681 -1.281 -0 -1.2 0
-4.917 -3.786 -1.274 -0 -1.2 0
-3.894 -3.312 -0.882 -0 -1.2 0
-3.842 -3.374 -0.862 -0 -1.2 0
-3.942 -3.53 -0.899 -0 -1.2 0
-4.9 -4.252 -1.263 -0 -1.2 0
-4.896 -4.374 -1.26 -0 -1.2 0
-3.92 -3.815 -0.887 -0 -1.2 0
-4.865 -4.608 -1.246 -0 -1.2 0
-4.875 -4.749 -1.249 -0 -1.2 0
-3.843 -4.075 -0.855 -0 -1.2 0
-3.758 -4.115 -0.822 -0 -1.2 0
-3.627 -4.115 -0.772 -0 -1.2 0
-3.593 -4.194 -0.758 -0 -1.2 0
-3.592 -4.305 -0.756 -0 -1.2 0
-3.596 -4.423 -0.757 -0 -1.2 0
-3.604 -4.55 -0.759 -0 -1.2 0
-3.608 -4.677 -0.759 -0 -1.2 0
-3.61 -4.805 -0.759 -0 -1.2 0
-3.609 -4.935 -0.757 -0 -1.2 0
-3.605 -5.065 -0.755 -0 -1.2 0
-1.137 -0.013 0.218 -0 -1.2 0
-1.169 -0.02 0.207 -0 -1.2 0
-1.208 -0.021 0.193 -0 -1.2 0
-1.254 -0.016 0.177 -0 -1.2 0
-1.294 -0.019 0.163 -0 -1.2 0
-1.334 -0.023 0.149 -0 -1.2 0
-1.381 -0.023 0.133 -0 -1.2 0
-1.422 -0.029 0.119 -0 -1.2 0
-1.47 -0.031 0.102 -0 -1.2 0
-1.526 -0.029 0.082 -0 -1.2 0
-1.566 -0.039 0.069 -0 -1.2 0
-1.616 -0.045 0.052 -0 -1.2 0
-1.681 -0.043 0.029 -0 -1.2 0
-1.739 -0.048 0.009 -0 -1.2 0
-1.805 -0.049 -0.014 -0 -1.2 0
-1.872 -0.053 -0.038 -0 -1.2 0
-1.948 -0.054 -0.064 -0 -1.2 0
-2.024 -0.058 -0.091 -0 -1.2 0
-2.11 -0.059 -0.119 -0 -1.2 0
-2.204 -0.06 -0.152 -0 -1.2 0
-2.299 -0.063 -0.185 -0 -1.2 0
-2.384 -0.074 -0.215 -0 -1.2 0
-2.498 -0.076 -0.255 -0 -1.2 0
-2.611 -0.082 -0.293 -0 -1.2 0
-2.753 -0.083 -0.343 -0 -1.2 0
-2.876 -0.094 -0.386 -0 -1.2 0
-3.019 -0.103 -0.435 -0 -1.2 0
-3.207 -0.103 -0.5 -0 -1.2 0
-3.423 -0.102 -0.575 -0 -1.2 0
-3.805 -0.062 -0.708 -0 -1.2 0
-3.757 -0.148 -0.691 -0 -1.2 0
-3.773 -0.217 -0.696 -0 -1.2 0
-3.74 -0.296 -0.684 -0 -1.2 0
-3.744 -0.366 -0.684 -0 -1.2 0
-3.775 -0.431 -0.694 -0 -1.2 0
-3.748 -0.506 -0.684 -0 -1.2 0
-3.758 -0.574 -0.687 -0 -1.2 0
-3.56 -0.668 -0.617 -0 -1.2 0
-3.538 -0.736 -0.609 -0 -1.2 0
-3.534 -0.801 -0.608 -0 -1.2 0
-3.539 -0.865 -0.609 -0 -1.2 0
-3.534 -0.93 -0.606 -0 -1.2 0
-3.546 -0.993 -0.61 -0 -1.2 0
-3.529 -1.058 -0.603 -0 -1.2 0
-3.529 -1.122 -0.602 -0 -1.2 0
-3.528 -1.186 -0.602 -0 -1.2 0
-3.526 -1.25 -0.6 -0 -1.2 0
-3.524 -1.314 -0.599 -0 -1.2 0
-3.539 -1.379 -0.604 -0 -1.2 0
-3.525 -1.442 -0.598 -0 -1.2 0
-3.519 -1.506 -0.595 -0 -1.2 0
-3.521 -1.571 -0.596 -0 -1.2 0
-3.522 -1.636 -0.595 -0 -1.2 0
-3.522 -1.702 -0.595 -0 -1.2 0
-3.522 -1.767 -0.594 -0 -1.2 0
-3.445 -1.817 -0.567 -0 -1.2 0
-3.452 -1.884 -0.568 -0 -1.2 0
-3.53 -1.969 -0.595 -0 -1.2 0
-3.837 -2.119 -0.7 -0 -1.2 0
-5.407 -2.647 -1.239 -0 -1.2 0
-5.408 -2.754 -1.24 -0 -1.2 0
-5.408 -2.861 -1.238 -0 -1.2 0
-5.405 -2.969 -1.236 -0 -1.2 0
-3.892 -2.52 -0.715 -0 -1.2 0
-5.394 -3.186 -1.23 -0 -1.2 0
-5.386 -3.294 -1.226 -0 -1.2 0
-5.384 -3.407 -1.224 -0 -1.2 0
-5.38 -3.521 -1.223 -0 -1.2 0
-3.883 -2.924 -0.708 -0 -1.2 0
-5.366 -3.75 -1.215 -0 -1.2 0
-5.356 -3.866 -1.21 -0 -1.2 0
-5.361 -3.99 -1.211 -0 -1.2 0
-3.904 -3.287 -0.712 -0 -1.2 0
-3.834 -3.338 -0.688 -0 -1.2 0
-3.814 -3.418 -0.679 -0 -1.2 0
-3.888 -3.56 -0.704 -0 -1.2 0
-3.911 -3.672 -0.711 -0 -1.2 0
-3.853 -3.732 -0.69 -0 -1.2 0
-3.896 -3.863 -0.703 -0 -1.2 0
-3.888 -3.963 -0.7 -0 -1.2 0
-3.856 -4.044 -0.688 -0 -1.2 0
-3.807 -4.114 -0.67 -0 -1.2 0
-3.668 -4.108 -0.623 -0 -1.2 0
-3.582 -4.143 -0.592 -0 -1.2 0
-3.582 -4.252 -0.59 -0 -1.2 0
-3.58 -4.363 -0.589 -0 -1.2 0
-3.575 -4.473 -0.586 -0 -1.2 0
-3.594 -4.613 -0.592 -0 -1.2 0
-3.597 -4.741 -0.592 -0 -1.2 0
-3.59 -4.862 -0.588 -0 -1.2 0
-3.593 -4.999 -0.588 -0 -1.2 0
-1.143 -0.018 0.275 -0 -1.2 0
-1.189 -0.011 0.26 -0 -1.2 0
-1.221 -0.019 0.25 -0 -1.2 0
-1.261 -0.021 0.238 -0 -1.2 0
-1.308 -0.017 0.223 -0 -1.2 0
-1.348 -0.021 0.21 -0 -1.2 0
-1.396 -0.021 0.195 -0 -1.2 0
-1.43 -0.033 0.185 -0 -1.2 0
-1.478 -0.035 0.17 -0 -1.2 0
-1.535 -0.032 0.153 -0 -1.2 0
-1.584 -0.037 0.138 -0 -1.2 0
-1.634 -0.044 0.122 -0 -1.2 0
-1.692 -0.047 0.104 -0 -1.2 0
-1.759 -0.046 0.083 -0 -1.2 0
-1.818 -0.053 0.065 -0 -1.2 0
-1.894 -0.051 0.041 -0 -1.2 0
-1.962 -0.057 0.02 -0 -1.2 0
-2.038 -0.06 -0.003 -0 -1.2 0
-2.115 -0.066 -0.027 -0 -1.2 0
-2.201 -0.07 -0.054 -0 -1.2 0
-2.306 -0.069 -0.087 -0 -1.2 0
-2.402 -0.076 -0.117 -0 -1.2 0
-2.517 -0.078 -0.152 -0 -1.2 0
-2.622 -0.087 -0.185 -0 -1.2 0
-2.738 -0.098 -0.221 -0 -1.2 0
-2.89 -0.098 -0.269 -0 -1.2 0
-3.024 -0.11 -0.31 -0 -1.2 0
-3.214 -0.11 -0.369 -0 -1.2 0
-3.442 -0.106 -0.44 -0 -1.2 0
-3.846 -0.06 -0.566 -0 -1.2 0
-3.798 -0.146 -0.55 -0 -1.2 0
-3.86 -0.203 -0.569 -0 -1.2 0
-3.865 -0.275 -0.57 -0 -1.2 0
-3.86 -0.348 -0.567 -0 -1.2 0
-3.863 -0.42 -0.567 -0 -1.2 0
-3.827 -0.497 -0.555 -0 -1.2 0
-3.874 -0.561 -0.57 -0 -1.2 0
-3.542 -0.673 -0.465 -0 -1.2 0
-3.529 -0.739 -0.461 -0 -1.2 0
-3.516 -0.803 -0.456 -0 -1.2 0
-3.511 -0.867 -0.454 -0 -1.2 0
-3.515 -0.93 -0.454 -0 -1.2 0
-3.518 -0.994 -0.455 -0 -1.2 0
-3.51 -1.057 -0.451 -0 -1.2 0
-3.52 -1.12 -0.454 -0 -1.2 0
-3.518 -1.183 -0.453 -0 -1.2 0
-3.517 -1.246 -0.452 -0 -1.2 0
-3.505 -1.307 -0.447 -0 -1.2 0
-3.511 -1.371 -0.449 -0 -1.2 0
-3.506 -1.434 -0.446 -0 -1.2 0
-3.5 -1.497 -0.444 -0 -1.2 0
-3.503 -1.561 -0.444 -0 -1.2 0
-3.505 -1.625 -0.444 -0 -1.2 0
-3.504 -1.689 -0.443 -0 -1.2 0
-3.513 -1.756 -0.445 -0 -1.2 0
-3.455 -1.809 -0.427 -0 -1.2 0
-3.434 -1.869 -0.419 -0 -1.2 0
-3.43 -1.933 -0.417 -0 -1.2 0
-3.823 -2.103 -0.538 -0 -1.2 0
-3.862 -2.186 -0.55 -0 -1.2 0
-3.861 -2.261 -0.549 -0 -1.2 0
-3.86 -2.336 -0.548 -0 -1.2 0
-3.867 -2.416 -0.548 -0 -1.2 0
-3.862 -2.491 -0.547 -0 -1.2 0
-3.866 -2.571 -0.547 -0 -1.2 0
-3.876 -2.654 -0.55 -0 -1.2 0
-3.868 -2.731 -0.546 -0 -1.2 0
-3.867 -2.813 -0.545 -0 -1.2 0
-3.873 -2.898 -0.546 -0 -1.2 0
-3.894 -2.992 -0.551 -0 -1.2 0
-3.906 -3.085 -0.554 -0 -1.2 0
-3.906 -3.173 -0.553 -0 -1.2 0
-3.913 -3.266 -0.555 -0 -1.2 0
-3.836 -3.312 -0.53 -0 -1.2 0
-3.798 -3.38 -0.517 -0 -1.2 0
-3.801 -3.474 -0.518 -0 -1.2 0
-5.686 -4.811 -1.091 -0 -1.2 0
-5.464 -4.803 -1.022 -0 -1.2 0
-3.844 -3.793 -0.528 -0 -1.2 0
-5.065 -4.796 -0.898 -0 -1.2 0
-4.879 -4.793 -0.84 -0 -1.2 0
-3.811 -4.081 -0.515 -0 -1.2 0
-3.731 -4.124 -0.49 -0 -1.2 0
-3.591 -4.115 -0.446 -0 -1.2 0
-3.556 -4.192 -0.434 -0 -1.2 0
-3.562 -4.307 -0.435 -0 -1.2 0
-3.558 -4.418 -0.433 -0 -1.2 0
-3.557 -4.536 -0.432 -0 -1.2 0
-3.568 -4.669 -0.434 -0 -1.2 0
-3.57 -4.796 -0.433 -0 -1.2 0
-3.573 -4.931 -0.433 -0 -1.2 0
-1.146 -0.025 0.333 -0 -1.2 0
-1.193 -0.018 0.32 -0 -1.2 0
-1.232 -0.019 0.31 -0 -1.2 0
-1.272 -0.021 0.299 -0 -1.2 0
-1.313 -0.023 0.288 -0 -1.2 0
-1.361 -0.021 0.275 -0 -1.2 0
-1.402 -0.026 0.263 -0 -1.2 0
-1.443 -0.032 0.252 -0 -1.2 0
-1.5 -0.029 0.236 -0 -1.2 0
-1.534 -0.043 0.228 -0 -1.2 0
-1.591 -0.043 0.212 -0 -1.2 0
-1.649 -0.043 0.196 -0 -1.2 0
-1.699 -0.051 0.182 -0 -1.2 0
-1.758 -0.055 0.166 -0 -1.2 0
-1.825 -0.057 0.147 -0 -1.2 0
-1.894 -0.06 0.129 -0 -1.2 0
-1.962 -0.065 0.11 -0 -1.2 0
-2.048 -0.064 0.087 -0 -1.2 0
-2.126 -0.07 0.065 -0 -1.2 0
-2.222 -0.07 0.039 -0 -1.2 0
-2.337 -0.064 0.007 -0 -1.2 0
-2.425 -0.075 -0.017 -0 -1.2 0
-2.522 -0.084 -0.043 -0 -1.2 0
-2.638 -0.09 -0.075 -0 -1.2 0
-2.755 -0.099 -0.108 -0 -1.2 0
-2.899 -0.104 -0.147 -0 -1.2 0
-3.053 -0.109 -0.189 -0 -1.2 0
-3.226 -0.115 -0.237 -0 -1.2 0
-3.437 -0.115 -0.294 -0 -1.2 0
-3.826 -0.074 -0.402 -0 -1.2 0
-3.797 -0.155 -0.393 -0 -1.2 0
-3.869 -0.209 -0.412 -0 -1.2 0
-3.865 -0.282 -0.41 -0 -1.2 0
-3.878 -0.351 -0.413 -0 -1.2 0
-3.871 -0.423 -0.411 -0 -1.2 0
-3.788 -0.508 -0.387 -0 -1.2 0
-3.864 -0.566 -0.407 -0 -1.2 0
-3.518 -0.678 -0.311 -0 -1.2 0
-3.496 -0.744 -0.305 -0 -1.2 0
-3.512 -0.805 -0.308 -0 -1.2 0
-3.497 -0.869 -0.303 -0 -1.2 0
-3.491 -0.932 -0.301 -0 -1.2 0
-3.504 -0.994 -0.304 -0 -1.2 0
-3.486 -1.057 -0.298 -0 -1.2 0
-3.495 -1.118 -0.3 -0 -1.2 0
-3.485 -1.18 -0.297 -0 -1.2 0
-3.483 -1.241 -0.295 -0 -1.2 0
-3.491 -1.304 -0.297 -0 -1.2 0
-3.497 -1.366 -0.298 -0 -1.2 0
-3.482 -1.428 -0.293 -0 -1.2 0
-3.486 -1.491 -0.293 -0 -1.2 0
-3.489 -1.554 -0.293 -0 -1.2 0
-3.481 -1.616 -0.291 -0 -1.2 0
-3.481 -1.679 -0.29 -0 -1.2 0
-3.499 -1.746 -0.294 -0 -1.2 0
-3.45 -1.8 -0.281 -0 -1.2 0
-3.42 -1.857 -0.272 -0 -1.2 0
-3.425 -1.923 -0.273 -0 -1.2 0
-3.664 -2.05 -0.337 -0 -1.2 0
-3.862 -2.175 -0.389 -0 -1.2 0
-6.484 -3.039 -1.101 -0 -1.2 0
-6.488 -3.167 -1.1 -0 -1.2 0
-6.48 -3.292 -1.098 -0 -1.2 0
-3.955 -2.509 -0.412 -0 -1.2 0
-3.849 -2.548 -0.383 -0 -1.2 0
-6.443 -3.67 -1.083 -0 -1.2 0
-3.852 -2.707 -0.381 -0 -1.2 0
-6.433 -3.934 -1.078 -0 -1.2 0
-6.419 -4.066 -1.073 -0 -1.2 0
-3.836 -2.945 -0.375 -0 -1.2 0
-6.404 -4.338 -1.066 -0 -1.2 0
-6.391 -4.475 -1.061 -0 -1.2 0
-6.393 -4.622 -1.06 -0 -1.2 0
-3.856 -3.3 -0.376 -0 -1.2 0
-3.794 -3.354 -0.358 -0 -1.2 0
-3.837 -3.473 -0.369 -0 -1.2 0
-5.742 -4.809 -0.879 -0 -1.2 0
-5.526 -4.807 -0.82 -0 -1.2 0
-3.825 -3.753 -0.363 -0 -1.2 0
-5.129 -4.807 -0.711 -0 -1.2 0
-4.926 -4.791 -0.655 -0 -1.2 0
-3.825 -4.062 -0.36 -0 -1.2 0
-3.768 -4.122 -0.344 -0 -1.2 0
-3.634 -4.119 -0.307 -0 -1.2 0
-3.538 -4.145 -0.281 -0 -1.2 0
-3.53 -4.247 -0.277 -0 -1.2 0
-3.534 -4.362 -0.277 -0 -1.2 0
-3.536 -4.479 -0.276 -0 -1.2 0
-3.534 -4.597 -0.275 -0 -1.2 0
-3.55 -4.738 -0.277 -0 -1.2 0
-3.548 -4.866 -0.276 -0 -1.2 0
-1.164 -0.017 0.389 -0 -1.2 0
-1.204 -0.017 0.379 -0 -1.2 0
-1.244 -0.018 0.37 -0 -1.2 0
-1.284 -0.02 0.36 -0 -1.2 0
-1.332 -0.016 0.349 -0 -1.2 0
-1.373 -0.02 0.339 -0 -1.2 0
-1.415 -0.026 0.329 -0 -1.2 0
-1.456 -0.032 0.32 -0 -1.2 0
-1.506 -0.034 0.31 -0 -1.2 0
-1.548 -0.043 0.3 -0 -1.2 0
-1.606 -0.042 0.286 -0 -1.2 0
-1.665 -0.042 0.272 -0 -1.2 0
-1.724 -0.046 0.258 -0 -1.2 0
-1.783 -0.05 0.244 -0 -1.2 0
-1.852 -0.051 0.227 -0 -1.2 0
-1.912 -0.06 0.214 -0 -1.2 0
-1.998 -0.055 0.193 -0 -1.2 0
-2.077 -0.058 0.175 -0 -1.2 0
-2.147 -0.069 0.158 -0 -1.2 0
-2.244 -0.069 0.135 -0 -1.2 0
-2.341 -0.072 0.112 -0 -1.2 0
-2.439 -0.078 0.089 -0 -1.2 0
-2.547 -0.083 0.064 -0 -1.2 0
-2.664 -0.089 0.036 -0 -1.2 0
-2.771 -0.102 0.011 -0 -1.2 0
-2.917 -0.105 -0.023 -0 -1.2 0
-3.063 -0.114 -0.058 -0 -1.2 0
-3.238 -0.119 -0.1 -0 -1.2 0
-3.48 -0.11 -0.156 -0 -1.2 0
-3.815 -0.086 -0.236 -0 -1.2 0
-3.776 -0.167 -0.226 -0 -1.2 0
-3.829 -0.225 -0.238 -0 -1.2 0
-3.796 -0.303 -0.229 -0 -1.2 0
-3.838 -0.364 -0.239 -0 -1.2 0
-3.812 -0.439 -0.232 -0 -1.2 0
-3.764 -0.516 -0.22 -0 -1.2 0
-3.832 -0.574 -0.235 -0 -1.2 0
-3.503 -0.683 -0.156 -0 -1.2 0
-3.5 -0.746 -0.155 -0 -1.2 0
-3.506 -0.807 -0.155 -0 -1.2 0
-3.501 -0.87 -0.154 -0 -1.2 0
-3.495 -0.932 -0.151 -0 -1.2 0
-3.488 -0.994 -0.149 -0 -1.2 0
-3.489 -1.056 -0.148 -0 -1.2 0
-3.489 -1.117 -0.148 -0 -1.2 0
-3.488 -1.178 -0.147 -0 -1.2 0
-3.487 -1.239 -0.146 -0 -1.2 0
-3.484 -1.3 -0.144 -0 -1.2 0
-3.481 -1.362 -0.143 -0 -1.2 0
-3.476 -1.422 -0.141 -0 -1.2 0
-3.48 -1.485 -0.142 -0 -1.2 0
-3.493 -1.549 -0.144 -0 -1.2 0
-3.485 -1.61 -0.142 -0 -1.2 0
-3.475 -1.671 -0.139 -0 -1.2 0
-3.475 -1.733 -0.138 -0 -1.2 0
-3.454 -1.793 -0.132 -0 -1.2 0
-3.404 -1.845 -0.12 -0 -1.2 0
-3.41 -1.909 -0.12 -0 -1.2 0
-3.529 -2.004 -0.148 -0 -1.2 0
-3.813 -2.15 -0.213 -0 -1.2 0
-3.879 -2.241 -0.228 -0 -1.2 0
-4.017 -2.36 -0.26 -0 -1.2 0
-4.024 -2.44 -0.26 -0 -1.2 0
-3.982 -2.504 -0.249 -0 -1.2 0
-3.82 -2.523 -0.211 -0 -1.2 0
-3.923 -2.64 -0.234 -0 -1.2 0
-3.87 -2.698 -0.221 -0 -1.2 0
-7.102 -4.2 -0.968 -0 -1.2 0
-7.084 -4.342 -0.963 -0 -1.2 0
-3.801 -2.909 -0.203 -0 -1.2 0
-6.778 -4.494 -0.889 -0 -1.2 0
-6.26 -4.372 -0.768 -0 -1.2 0
-6.823 -4.822 -0.896 -0 -1.2 0
-6.538 -4.816 -0.829 -0 -1.2 0
-3.795 -3.332 -0.196 -0 -1.2 0
-3.765 -3.404 -0.188 -0 -1.2 0
-3.841 -3.544 -0.205 -0 -1.2 0
-3.823 -3.627 -0.2 -0 -1.2 0
-3.813 -3.717 -0.196 -0 -1.2 0
-3.8 -3.807 -0.192 -0 -1.2 0
-3.8 -3.909 -0.191 -0 -1.2 0
-3.806 -4.018 -0.192 -0 -1.2 0
-3.765 -4.09 -0.181 -0 -1.2 0
-3.669 -4.118 -0.157 -0 -1.2 0
-3.549 -4.124 -0.13 -0 -1.2 0
-3.52 -4.206 -0.121 -0 -1.2 0
-3.517 -4.314 -0.12 -0 -1.2 0
-3.527 -4.437 -0.121 -0 -1.2 0
-3.519 -4.548 -0.118 -0 -1.2 0
-3.521 -4.673 -0.117 -0 -1.2 0
-3.535 -4.813 -0.119 -0 -1.2 0
-1.166 -0.023 0.447 -0 -1.2 0
-1.213 -0.016 0.437 -0 -1.2 0
-1.253 -0.017 0.429 -0 -1.2 0
-1.286 -0.024 0.422 -0 -1.2 0
-1.342 -0.014 0.411 -0 -1.2 0
-1.383 -0.018 0.402 -0 -1.2 0
-1.417 -0.03 0.396 -0 -1.2 0
-1.467 -0.03 0.386 -0 -1.2 0
-1.517 -0.032 0.376 -0 -1.2 0
-1.559 -0.041 0.368 -0 -1.2 0
-1.61 -0.046 0.357 -0 -1.2 0
-1.685 -0.036 0.342 -0 -1.2 0
-1.745 -0.038 0.33 -0 -1.2 0
-1.797 -0.048 0.32 -0 -1.2 0
-1.857 -0.054 0.309 -0 -1.2 0
-1.926 -0.058 0.295 -0 -1.2 0
-2.005 -0.058 0.279 -0 -1.2 0
-2.075 -0.066 0.265 -0 -1.2 0
-2.172 -0.062 0.245 -0 -1.2 0
-2.251 -0.071 0.229 -0 -1.2 0
-2.358 -0.07 0.208 -0 -1.2 0
-2.457 -0.076 0.188 -0 -1.2 0
-2.556 -0.085 0.168 -0 -1.2 0
-2.674 -0.09 0.144 -0 -1.2 0
-2.801 -0.096 0.119 -0 -1.2 0
-2.929 -0.107 0.093 -0 -1.2 0
-3.095 -0.108 0.06 -0 -1.2 0
-3.271 -0.114 0.025 -0 -1.2 0
-3.496 -0.111 -0.021 -0 -1.2 0
-3.493 -0.178 -0.019 -0 -1.2 0
-3.499 -0.241 -0.02 -0 -1.2 0
-3.494 -0.307 -0.018 -0 -1.2 0
-3.489 -0.372 -0.016 -0 -1.2 0
-3.482 -0.437 -0.014 -0 -1.2 0
-3.493 -0.498 -0.015 -0 -1.2 0
-3.483 -0.563 -0.013 -0 -1.2 0
-3.491 -0.623 -0.015 -0 -1.2 0
-3.48 -0.687 -0.012 -0 -1.2 0
-3.487 -0.748 -0.012 -0 -1.2 0
-3.493 -0.809 -0.013 -0 -1.2 0
-3.488 -0.87 -0.011 -0 -1.2 0
-3.482 -0.932 -0.009 -0 -1.2 0
-3.484 -0.993 -0.008 -0 -1.2 0
-3.476 -1.053 -0.006 -0 -1.2 0
-3.476 -1.114 -0.005 -0 -1.2 0
-3.475 -1.174 -0.004 -0 -1.2 0
-3.474 -1.234 -0.003 -0 -1.2 0
-3.471 -1.295 -0.003 -0 -1.2 0
-3.477 -1.357 -0.003 -0 -1.2 0
-3.463 -1.416 0 -0 -1.2 0
-3.477 -1.48 -0.002 -0 -1.2 0
-3.48 -1.541 -0.002 -0 -1.2 0
-3.462 -1.6 0.003 -0 -1.2 0
-3.463 -1.662 0.003 -0 -1.2 0
-3.462 -1.724 0.004 -0 -1.2 0
-3.441 -1.783 0.009 -0 -1.2 0
-3.391 -1.835 0.019 -0 -1.2 0
-3.397 -1.898 0.019 -0 -1.2 0
-3.488 -1.984 0.002 -0 -1.2 0
-3.766 -2.126 -0.053 -0 -1.2 0
-3.917 -2.242 -0.082 -0 -1.2 0
-3.907 -2.314 -0.079 -0 -1.2 0
-3.905 -2.388 -0.078 -0 -1.2 0
-3.947 -2.479 -0.085 -0 -1.2 0
-3.83 -2.513 -0.061 -0 -1.2 0
-7.978 -4.228 -0.877 -0 -1.2 0
-7.969 -4.386 -0.874 -0 -1.2 0
-7.957 -4.546 -0.869 -0 -1.2 0
-7.862 -4.67 -0.849 -0 -1.2 0
-3.83 -2.906 -0.057 -0 -1.2 0
-7.489 -4.821 -0.772 -0 -1.2 0
-6.255 -4.341 -0.529 -0 -1.2 0
-6.873 -4.818 -0.648 -0 -1.2 0
-6.577 -4.807 -0.589 -0 -1.2 0
-3.789 -3.309 -0.044 -0 -1.2 0
-3.76 -3.381 -0.037 -0 -1.2 0
-3.762 -3.472 -0.037 -0 -1.2 0
-5.627 -4.807 -0.397 -0 -1.2 0
-5.417 -4.805 -0.355 -0 -1.2 0
-3.812 -3.793 -0.043 -0 -1.2 0
-5.018 -4.791 -0.275 -0 -1.2 0
-4.845 -4.795 -0.24 -0 -1.2 0
-3.769 -4.069 -0.032 -0 -1.2 0
-3.703 -4.122 -0.017 -0 -1.2 0
-3.576 -4.122 0.008 -0 -1.2 0
-3.509 -4.171 0.022 -0 -1.2 0
-3.507 -4.278 0.024 -0 -1.2 0
-3.51 -4.394 0.025 -0 -1.2 0
-3.509 -4.51 0.025 -0 -1.2 0
-3.513 -4.635 0.026 -0 -1.2 0
-3.507 -4.753 0.029 -0 -1.2 0
-1.172 -0.022 0.503 -0 -1.2 0
-1.219 -0.015 0.495 -0 -1.2 0
-1.26 -0.016 0.489 -0 -1.2 0
-1.301 -0.018 0.482 -0 -1.2 0
-1.342 -0.021 0.475 -0 -1.2 0
-1.383 -0.024 0.468 -0 -1.2 0
-1.425 -0.029 0.461 -0 -1.2 0
-1.475 -0.029 0.453 -0 -1.2 0
-1.517 -0.037 0.446 -0 -1.2 0
-1.568 -0.04 0.438 -0 -1.2 0
-1.635 -0.034 0.426 -0 -1.2 0
-1.695 -0.035 0.416 -0 -1.2 0
-1.746 -0.043 0.407 -0 -1.2 0
-1.807 -0.047 0.397 -0 -1.2 0
-1.868 -0.053 0.387 -0 -1.2 0
-1.946 -0.052 0.375 -0 -1.2 0
-2.016 -0.057 0.363 -0 -1.2 0
-2.095 -0.06 0.35 -0 -1.2 0
-2.184 -0.061 0.335 -0 -1.2 0
-2.264 -0.07 0.321 -0 -1.2 0
-2.372 -0.069 0.304 -0 -1.2 0
-2.471 -0.075 0.288 -0 -1.2 0
-2.571 -0.084 0.271 -0 -1.2 0
-2.689 -0.089 0.251 -0 -1.2 0
-2.817 -0.095 0.23 -0 -1.2 0
-2.956 -0.102 0.207 -0 -1.2 0
-3.104 -0.111 0.182 -0 -1.2 0
-3.29 -0.113 0.151 -0 -1.2 0
-3.487 -0.118 0.118 -0 -1.2 0
-3.476 -0.186 0.121 -0 -1.2 0
-3.491 -0.247 0.12 -0 -1.2 0
-3.477 -0.314 0.123 -0 -1.2 0
-3.48 -0.376 0.122 -0 -1.2 0
-3.472 -0.441 0.124 -0 -1.2 0
-3.474 -0.503 0.125 -0 -1.2 0
-3.474 -0.565 0.125 -0 -1.2 0
-3.493 -0.624 0.123 -0 -1.2 0
-3.471 -0.688 0.127 -0 -1.2 0
