# .PCD v.7 - Point Cloud Data file format
FIELDS x y z vp_x vp_y vp_z
SIZE 4 4 4 4 4 4
TYPE F F F F F F
COUNT 1 1 1 1 1 1
WIDTH 1683
HEIGHT 1
VIEWPOINT 0 -1.20008 0 1 0 0 0
POINTS 1683
DATA ascii
4.353 -6.579 9.359 -0 -1.2 0
4.377 -6.836 9.404 -0 -1.2 0
4.223 -6.852 9.07 -0 -1.2 0
4.108 -7.366 8.804 -0 -1.2 0
4.077 -7.552 8.732 -0 -1.2 0
4.024 -7.701 8.613 -0 -1.2 0
3.984 -7.871 8.521 -0 -1.2 0
0.538 0.057 1.289 -0 -1.2 0
0.556 0.06 1.325 -0 -1.2 0
0.578 0.07 1.367 -0 -1.2 0
0.593 0.065 1.397 -0 -1.2 0
0.615 0.073 1.441 -0 -1.2 0
0.635 0.072 1.479 -0 -1.2 0
0.654 0.07 1.517 -0 -1.2 0
0.677 0.073 1.562 -0 -1.2 0
0.7 0.076 1.607 -0 -1.2 0
0.72 0.071 1.646 -0 -1.2 0
0.75 0.083 1.705 -0 -1.2 0
0.77 0.074 1.745 -0 -1.2 0
0.797 0.077 1.798 -0 -1.2 0
0.826 0.078 1.853 -0 -1.2 0
0.861 0.088 1.923 -0 -1.2 0
0.893 0.09 1.986 -0 -1.2 0
0.922 0.085 2.042 -0 -1.2 0
0.958 0.089 2.114 -0 -1.2 0
0.994 0.09 2.185 -0 -1.2 0
1.036 0.093 2.266 -0 -1.2 0
1.081 0.099 2.355 -0 -1.2 0
1.127 0.1 2.445 -0 -1.2 0
1.172 0.099 2.535 -0 -1.2 0
1.223 0.1 2.633 -0 -1.2 0
1.286 0.109 2.757 -0 -1.2 0
1.358 0.121 2.898 -0 -1.2 0
1.414 0.113 3.007 -0 -1.2 0
1.495 0.123 3.168 -0 -1.2 0
1.585 0.134 3.345 -0 -1.2 0
1.672 0.135 3.515 -0 -1.2 0
1.768 0.136 3.703 -0 -1.2 0
1.872 0.136 3.908 -0 -1.2 0
1.996 0.14 4.15 -0 -1.2 0
2.127 0.139 4.409 -0 -1.2 0
2.282 0.141 4.712 -0 -1.2 0
2.491 0.159 5.122 -0 -1.2 0
2.74 0.181 5.611 -0 -1.2 0
2.999 0.188 6.119 -0 -1.2 0
3.197 0.151 6.506 -0 -1.2 0
3.431 0.11 6.964 -0 -1.2 0
3.817 0.102 7.723 -0 -1.2 0
4.314 0.096 8.694 -0 -1.2 0
4.82 0.053 9.685 -0 -1.2 0
5.543 0.017 11.103 -0 -1.2 0
7.177 0.075 14.309 -0 -1.2 0
7.885 -0.108 15.693 -0 -1.2 0
7.877 -0.41 15.669 -0 -1.2 0
7.907 -0.708 15.72 -0 -1.2 0
12.93 -2.925 25.512 -0 -1.2 0
4.332 -1.867 8.679 -0 -1.2 0
4.228 -2.008 8.47 -0 -1.2 0
4.358 -2.201 8.718 -0 -1.2 0
3.921 -2.238 7.861 -0 -1.2 0
5.914 -3.056 11.748 -0 -1.2 0
9.109 -4.483 17.978 -0 -1.2 0
5.346 -3.279 10.629 -0 -1.2 0
4.977 -3.32 9.903 -0 -1.2 0
3.49 -2.781 7.003 -0 -1.2 0
4.668 -3.546 9.29 -0 -1.2 0
3.973 -3.332 7.934 -0 -1.2 0
4.515 -3.824 8.984 -0 -1.2 0
5.358 -4.558 10.617 -0 -1.2 0
5.394 -4.802 10.68 -0 -1.2 0
3.426 -3.571 6.856 -0 -1.2 0
3.153 -3.5 6.321 -0 -1.2 0
4.494 -4.736 8.918 -0 -1.2 0
3.316 -3.905 6.631 -0 -1.2 0
4.044 -4.711 8.036 -0 -1.2 0
5.286 -6.075 10.434 -0 -1.2 0
5.924 -6.949 11.662 -0 -1.2 0
4.757 -5.995 9.4 -0 -1.2 0
5.458 -6.981 10.748 -0 -1.2 0
5.446 -7.221 10.717 -0 -1.2 0
4.615 -6.491 9.109 -0 -1.2 0
4.962 -7.143 9.771 -0 -1.2 0
4.868 -7.266 9.583 -0 -1.2 0
4.471 -6.979 8.812 -0 -1.2 0
4.806 -7.674 9.45 -0 -1.2 0
4.713 -7.79 9.265 -0 -1.2 0
4.646 -7.942 9.129 -0 -1.2 0
4.593 -8.113 9.02 -0 -1.2 0
4.568 -8.33 8.966 -0 -1.2 0
0.583 0.064 1.29 -0 -1.2 0
0.6 0.06 1.319 -0 -1.2 0
0.623 0.069 1.362 -0 -1.2 0
0.643 0.072 1.398 -0 -1.2 0
0.664 0.072 1.434 -0 -1.2 0
0.685 0.072 1.471 -0 -1.2 0
0.705 0.07 1.508 -0 -1.2 0
0.73 0.073 1.552 -0 -1.2 0
0.758 0.082 1.603 -0 -1.2 0
0.787 0.09 1.655 -0 -1.2 0
0.805 0.076 1.687 -0 -1.2 0
0.838 0.086 1.745 -0 -1.2 0
0.868 0.088 1.799 -0 -1.2 0
0.898 0.088 1.852 -0 -1.2 0
0.932 0.093 1.914 -0 -1.2 0
0.966 0.094 1.975 -0 -1.2 0
1.002 0.095 2.038 -0 -1.2 0
1.036 0.093 2.1 -0 -1.2 0
1.076 0.093 2.171 -0 -1.2 0
1.121 0.097 2.249 -0 -1.2 0
1.173 0.107 2.344 -0 -1.2 0
1.213 0.099 2.416 -0 -1.2 0
1.276 0.112 2.529 -0 -1.2 0
1.326 0.108 2.618 -0 -1.2 0
1.399 0.12 2.747 -0 -1.2 0
1.467 0.124 2.87 -0 -1.2 0
1.532 0.12 2.985 -0 -1.2 0
1.62 0.129 3.141 -0 -1.2 0
1.721 0.143 3.323 -0 -1.2 0
1.815 0.144 3.49 -0 -1.2 0
1.922 0.147 3.682 -0 -1.2 0
2.03 0.143 3.876 -0 -1.2 0
2.158 0.143 4.103 -0 -1.2 0
2.314 0.15 4.383 -0 -1.2 0
2.491 0.157 4.698 -0 -1.2 0
2.734 0.182 5.132 -0 -1.2 0
2.964 0.185 5.543 -0 -1.2 0
3.156 0.156 5.887 -0 -1.2 0
3.383 0.126 6.291 -0 -1.2 0
3.655 0.095 6.773 -0 -1.2 0
4.123 0.104 7.612 -0 -1.2 0
4.676 0.1 8.598 -0 -1.2 0
5.298 0.074 9.707 -0 -1.2 0
5.716 -0.035 10.454 -0 -1.2 0
5.735 -0.235 10.485 -0 -1.2 0
5.744 -0.436 10.495 -0 -1.2 0
5.75 -0.638 10.503 -0 -1.2 0
5.75 -0.841 10.498 -0 -1.2 0
5.763 -1.044 10.518 -0 -1.2 0
5.769 -1.246 10.525 -0 -1.2 0
5.764 -1.449 10.511 -0 -1.2 0
5.766 -1.652 10.512 -0 -1.2 0
5.743 -1.852 10.466 -0 -1.2 0
5.727 -2.052 10.436 -0 -1.2 0
5.257 -2.159 9.594 -0 -1.2 0
5.696 -2.45 10.373 -0 -1.2 0
4.235 -2.248 7.767 -0 -1.2 0
5.596 -2.826 10.186 -0 -1.2 0
5.302 -2.923 9.658 -0 -1.2 0
6.813 -3.699 12.344 -0 -1.2 0
4.33 -2.895 7.923 -0 -1.2 0
3.707 -2.766 6.815 -0 -1.2 0
3.122 -2.61 5.772 -0 -1.2 0
3.128 -2.728 5.781 -0 -1.2 0
3.582 -3.105 6.585 -0 -1.2 0
3.692 -3.306 6.778 -0 -1.2 0
6.144 -5.041 11.124 -0 -1.2 0
3.361 -3.359 6.187 -0 -1.2 0
3.37 -3.496 6.2 -0 -1.2 0
5.732 -5.444 10.381 -0 -1.2 0
6.834 -6.566 12.326 -0 -1.2 0
6.053 -6.179 10.939 -0 -1.2 0
5.533 -5.963 10.015 -0 -1.2 0
5.568 -6.227 10.073 -0 -1.2 0
6.772 -7.64 12.195 -0 -1.2 0
5.731 -6.869 10.352 -0 -1.2 0
3.619 -4.867 6.618 -0 -1.2 0
3.929 -5.371 7.162 -0 -1.2 0
3.983 -5.611 7.254 -0 -1.2 0
3.75 -5.69 6.837 -0 -1.2 0
3.654 -5.743 6.664 -0 -1.2 0
5.139 -7.928 9.274 -0 -1.2 0
0.625 0.072 1.292 -0 -1.2 0
0.639 0.06 1.314 -0 -1.2 0
0.664 0.07 1.355 -0 -1.2 0
0.681 0.065 1.384 -0 -1.2 0
0.703 0.065 1.42 -0 -1.2 0
0.732 0.078 1.469 -0 -1.2 0
0.75 0.07 1.499 -0 -1.2 0
0.781 0.081 1.547 -0 -1.2 0
0.807 0.082 1.591 -0 -1.2 0
0.838 0.09 1.642 -0 -1.2 0
0.865 0.089 1.686 -0 -1.2 0
0.896 0.092 1.738 -0 -1.2 0
0.927 0.095 1.79 -0 -1.2 0
0.96 0.094 1.843 -0 -1.2 0
0.997 0.099 1.903 -0 -1.2 0
1.029 0.095 1.956 -0 -1.2 0
1.066 0.095 2.017 -0 -1.2 0
1.112 0.104 2.093 -0 -1.2 0
1.154 0.104 2.162 -0 -1.2 0
1.193 0.097 2.224 -0 -1.2 0
1.254 0.111 2.324 -0 -1.2 0
1.306 0.113 2.411 -0 -1.2 0
1.368 0.12 2.513 -0 -1.2 0
1.44 0.132 2.631 -0 -1.2 0
1.498 0.128 2.728 -0 -1.2 0
1.571 0.132 2.848 -0 -1.2 0
1.635 0.123 2.952 -0 -1.2 0
1.738 0.139 3.121 -0 -1.2 0
1.841 0.149 3.292 -0 -1.2 0
1.951 0.156 3.472 -0 -1.2 0
2.056 0.152 3.644 -0 -1.2 0
2.181 0.154 3.85 -0 -1.2 0
2.317 0.153 4.073 -0 -1.2 0
2.493 0.165 4.362 -0 -1.2 0
2.706 0.182 4.712 -0 -1.2 0
2.924 0.187 5.072 -0 -1.2 0
3.053 0.141 5.282 -0 -1.2 0
3.232 0.105 5.576 -0 -1.2 0
3.545 0.104 6.089 -0 -1.2 0
3.965 0.116 6.78 -0 -1.2 0
4.424 0.11 7.533 -0 -1.2 0
5.007 0.104 8.49 -0 -1.2 0
5.704 0.083 9.637 -0 -1.2 0
6.569 0.045 11.057 -0 -1.2 0
8.455 0.095 14.156 -0 -1.2 0
10.091 -2.361 16.815 -0 -1.2 0
6.165 -2.07 10.368 -0 -1.2 0
5.209 -2.09 8.797 -0 -1.2 0
5.898 -2.42 9.925 -0 -1.2 0
10.612 -3.851 17.652 -0 -1.2 0
10.875 -4.289 18.08 -0 -1.2 0
4.594 -2.586 7.781 -0 -1.2 0
4.315 -2.64 7.321 -0 -1.2 0
3.388 -2.416 5.8 -0 -1.2 0
4.051 -2.82 6.887 -0 -1.2 0
5.333 -3.561 8.982 -0 -1.2 0
3.899 -3.024 6.633 -0 -1.2 0
5.101 -3.811 8.598 -0 -1.2 0
3.359 -2.987 5.745 -0 -1.2 0
3.326 -3.086 5.692 -0 -1.2 0
3.595 -3.381 6.13 -0 -1.2 0
3.791 -3.647 6.447 -0 -1.2 0
3.748 -3.756 6.376 -0 -1.2 0
5.974 -5.598 10.011 -0 -1.2 0
5.538 -5.477 9.297 -0 -1.2 0
5.532 -5.686 9.284 -0 -1.2 0
5.595 -5.96 9.384 -0 -1.2 0
5.594 -6.182 9.378 -0 -1.2 0
3.867 -4.745 6.561 -0 -1.2 0
5.13 -6.174 8.617 -0 -1.2 0
5.061 -6.318 8.502 -0 -1.2 0
3.861 -5.222 6.543 -0 -1.2 0
3.877 -5.408 6.569 -0 -1.2 0
4.856 -6.74 8.162 -0 -1.2 0
5.815 -8.41 9.716 -0 -1.2 0
5.461 -8.218 9.136 -0 -1.2 0
5.439 -8.455 9.098 -0 -1.2 0
5.394 -8.661 9.02 -0 -1.2 0
5.378 -8.917 8.993 -0 -1.2 0
0.662 0.072 1.284 -0 -1.2 0
0.678 0.06 1.306 -0 -1.2 0
0.704 0.07 1.347 -0 -1.2 0
0.726 0.072 1.381 -0 -1.2 0
0.75 0.073 1.416 -0 -1.2 0
0.781 0.086 1.463 -0 -1.2 0
0.804 0.083 1.498 -0 -1.2 0
0.832 0.087 1.541 -0 -1.2 0
0.86 0.089 1.583 -0 -1.2 0
0.893 0.095 1.633 -0 -1.2 0
0.921 0.095 1.676 -0 -1.2 0
0.955 0.099 1.727 -0 -1.2 0
0.984 0.094 1.771 -0 -1.2 0
1.022 0.1 1.829 -0 -1.2 0
1.061 0.104 1.888 -0 -1.2 0
1.104 0.111 1.955 -0 -1.2 0
1.139 0.105 2.007 -0 -1.2 0
1.183 0.108 2.074 -0 -1.2 0
1.229 0.108 2.142 -0 -1.2 0
1.288 0.12 2.233 -0 -1.2 0
1.334 0.116 2.301 -0 -1.2 0
1.398 0.127 2.401 -0 -1.2 0
1.459 0.129 2.493 -0 -1.2 0
1.536 0.141 2.608 -0 -1.2 0
1.608 0.143 2.717 -0 -1.2 0
1.676 0.138 2.82 -0 -1.2 0
1.753 0.137 2.938 -0 -1.2 0
1.852 0.146 3.087 -0 -1.2 0
1.957 0.151 3.246 -0 -1.2 0
2.083 0.164 3.438 -0 -1.2 0
2.194 0.16 3.606 -0 -1.2 0
2.321 0.158 3.8 -0 -1.2 0
2.482 0.166 4.042 -0 -1.2 0
2.689 0.186 4.358 -0 -1.2 0
2.878 0.184 4.644 -0 -1.2 0
3.034 0.158 4.881 -0 -1.2 0
3.186 0.119 5.11 -0 -1.2 0
3.402 0.094 5.439 -0 -1.2 0
3.733 0.094 5.94 -0 -1.2 0
4.092 0.08 6.483 -0 -1.2 0
4.702 0.11 7.409 -0 -1.2 0
5.314 0.101 8.337 -0 -1.2 0
5.982 0.065 9.349 -0 -1.2 0
7.006 0.046 10.902 -0 -1.2 0
9.086 0.103 14.056 -0 -1.2 0
10.427 -2.342 16.074 -0 -1.2 0
10.859 -2.737 16.727 -0 -1.2 0
4.179 -1.851 6.602 -0 -1.2 0
6.036 -2.383 9.416 -0 -1.2 0
4.806 -2.269 7.552 -0 -1.2 0
7.529 -3.186 11.674 -0 -1.2 0
4.635 -2.521 7.291 -0 -1.2 0
3.609 -2.314 5.736 -0 -1.2 0
4.266 -2.679 6.73 -0 -1.2 0
4.046 -2.727 6.396 -0 -1.2 0
4.394 -3.014 6.923 -0 -1.2 0
3.619 -2.787 5.748 -0 -1.2 0
6.558 -4.415 10.194 -0 -1.2 0
5.28 -3.938 8.259 -0 -1.2 0
3.881 -3.304 6.143 -0 -1.2 0
4.001 -3.51 6.323 -0 -1.2 0
3.754 -3.488 5.949 -0 -1.2 0
3.778 -3.636 5.983 -0 -1.2 0
3.778 -3.77 5.984 -0 -1.2 0
7.334 -6.614 11.357 -0 -1.2 0
7.351 -6.899 11.381 -0 -1.2 0
6.262 -6.263 9.734 -0 -1.2 0
4.215 -4.708 6.64 -0 -1.2 0
6.003 -6.507 9.34 -0 -1.2 0
4.158 -4.982 6.552 -0 -1.2 0
4.14 -5.129 6.524 -0 -1.2 0
3.789 -4.933 5.993 -0 -1.2 0
5.735 -7.19 8.93 -0 -1.2 0
5.653 -7.34 8.804 -0 -1.2 0
3.475 -5.045 5.516 -0 -1.2 0
4.498 -6.437 7.058 -0 -1.2 0
5.549 -7.962 8.642 -0 -1.2 0
5.438 -8.074 8.473 -0 -1.2 0
0.7 0.072 1.277 -0 -1.2 0
0.723 0.075 1.31 -0 -1.2 0
0.739 0.064 1.332 -0 -1.2 0
0.767 0.072 1.371 -0 -1.2 0
0.796 0.079 1.411 -0 -1.2 0
0.82 0.078 1.446 -0 -1.2 0
0.849 0.083 1.487 -0 -1.2 0
0.883 0.093 1.533 -0 -1.2 0
0.912 0.095 1.575 -0 -1.2 0
0.947 0.101 1.623 -0 -1.2 0
0.973 0.095 1.66 -0 -1.2 0
1.008 0.098 1.709 -0 -1.2 0
1.048 0.106 1.765 -0 -1.2 0
1.084 0.105 1.816 -0 -1.2 0
1.12 0.104 1.866 -0 -1.2 0
1.161 0.105 1.924 -0 -1.2 0
1.208 0.11 1.989 -0 -1.2 0
1.255 0.112 2.054 -0 -1.2 0
1.302 0.113 2.121 -0 -1.2 0
1.364 0.125 2.209 -0 -1.2 0
1.423 0.129 2.291 -0 -1.2 0
1.487 0.135 2.38 -0 -1.2 0
1.562 0.145 2.484 -0 -1.2 0
1.632 0.147 2.583 -0 -1.2 0
1.718 0.159 2.704 -0 -1.2 0
1.785 0.149 2.797 -0 -1.2 0
1.862 0.143 2.904 -0 -1.2 0
1.961 0.147 3.044 -0 -1.2 0
2.076 0.156 3.206 -0 -1.2 0
2.204 0.166 3.385 -0 -1.2 0
2.333 0.167 3.565 -0 -1.2 0
2.49 0.177 3.784 -0 -1.2 0
2.669 0.188 4.036 -0 -1.2 0
2.838 0.183 4.274 -0 -1.2 0
2.975 0.154 4.466 -0 -1.2 0
3.14 0.128 4.696 -0 -1.2 0
3.317 0.098 4.944 -0 -1.2 0
3.574 0.084 5.304 -0 -1.2 0
3.877 0.069 5.728 -0 -1.2 0
4.266 0.06 6.274 -0 -1.2 0
4.962 0.104 7.248 -0 -1.2 0
5.654 0.104 8.217 -0 -1.2 0
6.457 0.083 9.342 -0 -1.2 0
7.457 0.046 10.744 -0 -1.2 0
9.461 0.074 13.551 -0 -1.2 0
9.488 -2.183 13.587 -0 -1.2 0
9.881 -2.525 14.138 -0 -1.2 0
4.421 -1.859 6.489 -0 -1.2 0
4.95 -2.1 7.228 -0 -1.2 0
6.17 -2.537 8.938 -0 -1.2 0
4.662 -2.32 6.825 -0 -1.2 0
3.871 -2.224 5.716 -0 -1.2 0
7.506 -3.54 10.807 -0 -1.2 0
4.511 -2.691 6.613 -0 -1.2 0
3.916 -2.597 5.78 -0 -1.2 0
4.148 -2.817 6.105 -0 -1.2 0
3.939 -2.851 5.812 -0 -1.2 0
6.946 -4.444 10.022 -0 -1.2 0
4.057 -3.162 5.977 -0 -1.2 0
4.163 -3.351 6.125 -0 -1.2 0
4.222 -3.522 6.208 -0 -1.2 0
6.701 -5.2 9.678 -0 -1.2 0
5.865 -4.879 8.508 -0 -1.2 0
6.57 -5.565 9.496 -0 -1.2 0
6.525 -5.759 9.43 -0 -1.2 0
5.763 -5.41 8.365 -0 -1.2 0
5.941 -5.756 8.613 -0 -1.2 0
4.412 -4.697 6.473 -0 -1.2 0
4.375 -4.827 6.421 -0 -1.2 0
4.131 -4.768 6.079 -0 -1.2 0
4.312 -5.096 6.333 -0 -1.2 0
4.392 -5.341 6.444 -0 -1.2 0
4.528 -5.654 6.634 -0 -1.2 0
3.623 -4.869 5.366 -0 -1.2 0
5.991 -7.648 8.682 -0 -1.2 0
3.512 -5.193 5.212 -0 -1.2 0
6.001 -8.439 8.695 -0 -1.2 0
4.439 -6.906 6.509 -0 -1.2 0
4.407 -7.073 6.463 -0 -1.2 0
0.738 0.078 1.275 -0 -1.2 0
0.759 0.074 1.302 -0 -1.2 0
0.784 0.076 1.334 -0 -1.2 0
0.817 0.092 1.378 -0 -1.2 0
0.839 0.085 1.406 -0 -1.2 0
0.869 0.091 1.446 -0 -1.2 0
0.895 0.088 1.48 -0 -1.2 0
0.921 0.086 1.514 -0 -1.2 0
0.966 0.107 1.572 -0 -1.2 0
0.994 0.1 1.608 -0 -1.2 0
1.034 0.112 1.662 -0 -1.2 0
1.067 0.109 1.703 -0 -1.2 0
1.104 0.11 1.752 -0 -1.2 0
1.142 0.109 1.801 -0 -1.2 0
1.179 0.108 1.85 -0 -1.2 0
1.228 0.114 1.913 -0 -1.2 0
1.276 0.119 1.976 -0 -1.2 0
1.331 0.126 2.048 -0 -1.2 0
1.381 0.125 2.113 -0 -1.2 0
1.442 0.133 2.191 -0 -1.2 0
1.507 0.141 2.278 -0 -1.2 0
1.575 0.146 2.366 -0 -1.2 0
1.648 0.151 2.462 -0 -1.2 0
1.727 0.157 2.565 -0 -1.2 0
1.812 0.164 2.676 -0 -1.2 0
1.893 0.161 2.78 -0 -1.2 0
1.973 0.155 2.886 -0 -1.2 0
2.066 0.151 3.007 -0 -1.2 0
2.187 0.16 3.165 -0 -1.2 0
2.321 0.168 3.34 -0 -1.2 0
2.421 0.151 3.47 -0 -1.2 0
2.649 0.193 3.767 -0 -1.2 0
2.802 0.186 3.967 -0 -1.2 0
2.916 0.152 4.115 -0 -1.2 0
3.065 0.127 4.309 -0 -1.2 0
3.243 0.106 4.542 -0 -1.2 0
3.457 0.086 4.822 -0 -1.2 0
3.726 0.073 5.173 -0 -1.2 0
4.037 0.056 5.579 -0 -1.2 0
4.547 0.074 6.244 -0 -1.2 0
5.18 0.091 7.068 -0 -1.2 0
5.994 0.11 8.131 -0 -1.2 0
6.818 0.083 9.204 -0 -1.2 0
7.896 0.047 10.611 -0 -1.2 0
9.902 0.058 13.229 -0 -1.2 0
11.177 -0.11 14.893 -0 -1.2 0
11.203 -0.426 14.928 -0 -1.2 0
11.227 -0.744 14.959 -0 -1.2 0
11.265 -1.063 15.01 -0 -1.2 0
11.239 -1.704 14.979 -0 -1.2 0
7.81 -1.738 10.506 -0 -1.2 0
11.206 -2.341 14.938 -0 -1.2 0
6.47 -1.995 8.758 -0 -1.2 0
7.07 -2.281 9.542 -0 -1.2 0
4.647 -2.002 6.38 -0 -1.2 0
4.961 -2.206 6.792 -0 -1.2 0
4.726 -2.288 6.485 -0 -1.2 0
4.156 -2.262 5.74 -0 -1.2 0
7.075 -3.307 9.552 -0 -1.2 0
4.39 -2.585 6.048 -0 -1.2 0
4.326 -2.69 5.964 -0 -1.2 0
4.303 -2.809 5.933 -0 -1.2 0
4.365 -2.965 6.016 -0 -1.2 0
10.175 -5.819 13.603 -0 -1.2 0
4.16 -3.128 5.748 -0 -1.2 0
4.369 -3.368 6.022 -0 -1.2 0
4.333 -3.483 5.975 -0 -1.2 0
6.416 -4.861 8.697 -0 -1.2 0
5.983 -4.795 8.131 -0 -1.2 0
9.077 -7.038 12.176 -0 -1.2 0
6.012 -5.209 8.172 -0 -1.2 0
4.722 -4.471 6.487 -0 -1.2 0
4.592 -4.531 6.317 -0 -1.2 0
5.085 -5.084 6.962 -0 -1.2 0
5.064 -5.245 6.934 -0 -1.2 0
6.699 -6.851 9.073 -0 -1.2 0
4.291 -4.909 5.925 -0 -1.2 0
4.724 -5.478 6.491 -0 -1.2 0
3.78 -4.727 5.257 -0 -1.2 0
3.693 -5.078 5.146 -0 -1.2 0
4.478 -6.131 6.172 -0 -1.2 0
4.62 -6.49 6.36 -0 -1.2 0
3.649 -5.491 5.089 -0 -1.2 0
3.626 -5.624 5.06 -0 -1.2 0
3.638 -5.806 5.077 -0 -1.2 0
4.687 -7.421 6.45 -0 -1.2 0
4.692 -7.656 6.457 -0 -1.2 0
0.762 0.063 1.256 -0 -1.2 0
0.793 0.074 1.292 -0 -1.2 0
0.823 0.083 1.329 -0 -1.2 0
0.849 0.085 1.361 -0 -1.2 0
0.871 0.078 1.389 -0 -1.2 0
0.908 0.091 1.432 -0 -1.2 0
0.94 0.095 1.471 -0 -1.2 0
0.971 0.098 1.51 -0 -1.2 0
1.004 0.1 1.55 -0 -1.2 0
1.037 0.099 1.59 -0 -1.2 0
1.076 0.105 1.637 -0 -1.2 0
1.109 0.101 1.677 -0 -1.2 0
1.152 0.109 1.73 -0 -1.2 0
1.192 0.108 1.778 -0 -1.2 0
1.237 0.112 1.832 -0 -1.2 0
1.288 0.118 1.894 -0 -1.2 0
1.344 0.128 1.962 -0 -1.2 0
1.395 0.13 2.025 -0 -1.2 0
1.442 0.124 2.082 -0 -1.2 0
1.51 0.136 2.165 -0 -1.2 0
1.569 0.135 2.236 -0 -1.2 0
1.639 0.14 2.321 -0 -1.2 0
1.721 0.15 2.42 -0 -1.2 0
1.804 0.155 2.522 -0 -1.2 0
1.892 0.162 2.63 -0 -1.2 0
1.982 0.163 2.738 -0 -1.2 0
2.072 0.16 2.848 -0 -1.2 0
2.169 0.156 2.966 -0 -1.2 0
2.29 0.161 3.113 -0 -1.2 0
2.447 0.178 3.305 -0 -1.2 0
2.607 0.189 3.498 -0 -1.2 0
2.766 0.19 3.692 -0 -1.2 0
2.847 0.147 3.79 -0 -1.2 0
2.995 0.128 3.971 -0 -1.2 0
3.137 0.099 4.144 -0 -1.2 0
3.361 0.092 4.416 -0 -1.2 0
3.597 0.077 4.703 -0 -1.2 0
3.827 0.048 4.983 -0 -1.2 0
4.159 0.034 5.387 -0 -1.2 0
4.622 0.036 5.951 -0 -1.2 0
5.402 0.082 6.897 -0 -1.2 0
6.157 0.081 7.817 -0 -1.2 0
7.022 0.056 8.869 -0 -1.2 0
8.223 0.031 10.33 -0 -1.2 0
10.249 0.032 12.794 -0 -1.2 0
17.376 0.348 21.46 -0 -1.2 0
10.337 -1.929 12.913 -0 -1.2 0
6.91 -1.838 8.747 -0 -1.2 0
7.223 -2.069 9.129 -0 -1.2 0
6.958 -2.224 8.807 -0 -1.2 0
8.55 -2.721 10.747 -0 -1.2 0
4.897 -2.153 6.301 -0 -1.2 0
5.01 -2.316 6.439 -0 -1.2 0
6.264 -2.802 7.967 -0 -1.2 0
4.462 -2.427 5.773 -0 -1.2 0
4.111 -2.436 5.347 -0 -1.2 0
5.82 -3.172 7.43 -0 -1.2 0
4.392 -2.779 5.69 -0 -1.2 0
6.517 -3.8 8.281 -0 -1.2 0
4.248 -2.968 5.516 -0 -1.2 0
4.263 -3.099 5.534 -0 -1.2 0
7.761 -5.014 9.804 -0 -1.2 0
8.154 -5.461 10.284 -0 -1.2 0
7.031 -5.069 8.916 -0 -1.2 0
9.228 -6.614 11.598 -0 -1.2 0
4.922 -4.165 6.344 -0 -1.2 0
4.67 -4.153 6.038 -0 -1.2 0
4.751 -4.36 6.137 -0 -1.2 0
5.196 -4.842 6.682 -0 -1.2 0
6.942 -6.357 8.815 -0 -1.2 0
4.098 -4.31 5.343 -0 -1.2 0
4.949 -5.337 6.385 -0 -1.2 0
4.023 -4.671 5.255 -0 -1.2 0
3.961 -4.758 5.18 -0 -1.2 0
3.908 -4.853 5.117 -0 -1.2 0
3.867 -4.958 5.066 -0 -1.2 0
3.864 -5.106 5.065 -0 -1.2 0
4.479 -6.121 5.82 -0 -1.2 0
4.382 -6.193 5.701 -0 -1.2 0
4.374 -6.372 5.694 -0 -1.2 0
4.89 -7.226 6.326 -0 -1.2 0
0.8 0.071 1.251 -0 -1.2 0
0.823 0.066 1.276 -0 -1.2 0
0.859 0.083 1.316 -0 -1.2 0
0.891 0.092 1.353 -0 -1.2 0
0.909 0.077 1.374 -0 -1.2 0
0.943 0.084 1.411 -0 -1.2 0
0.976 0.087 1.448 -0 -1.2 0
1.014 0.097 1.492 -0 -1.2 0
1.049 0.099 1.53 -0 -1.2 0
1.088 0.105 1.575 -0 -1.2 0
1.118 0.097 1.609 -0 -1.2 0
1.157 0.101 1.654 -0 -1.2 0
1.198 0.103 1.699 -0 -1.2 0
1.245 0.107 1.751 -0 -1.2 0
1.292 0.111 1.804 -0 -1.2 0
1.344 0.117 1.863 -0 -1.2 0
1.398 0.122 1.924 -0 -1.2 0
1.456 0.129 1.991 -0 -1.2 0
1.511 0.128 2.052 -0 -1.2 0
1.577 0.134 2.126 -0 -1.2 0
1.644 0.138 2.202 -0 -1.2 0
1.716 0.142 2.285 -0 -1.2 0
1.797 0.148 2.374 -0 -1.2 0
1.883 0.153 2.472 -0 -1.2 0
1.976 0.16 2.577 -0 -1.2 0
2.082 0.169 2.696 -0 -1.2 0
2.17 0.161 2.795 -0 -1.2 0
2.264 0.153 2.902 -0 -1.2 0
2.403 0.164 3.059 -0 -1.2 0
2.574 0.186 3.252 -0 -1.2 0
2.714 0.182 3.411 -0 -1.2 0
2.837 0.162 3.549 -0 -1.2 0
2.934 0.126 3.658 -0 -1.2 0
3.069 0.1 3.811 -0 -1.2 0
3.25 0.086 4.016 -0 -1.2 0
3.483 0.079 4.279 -0 -1.2 0
3.722 0.062 4.55 -0 -1.2 0
4.067 0.064 4.939 -0 -1.2 0
4.38 0.039 5.293 -0 -1.2 0
4.812 0.026 5.78 -0 -1.2 0
5.618 0.07 6.691 -0 -1.2 0
6.323 0.052 7.486 -0 -1.2 0
7.007 -0.005 8.259 -0 -1.2 0
8.452 0.001 9.891 -0 -1.2 0
10.48 -0.007 12.182 -0 -1.2 0
18.597 0.356 21.344 -0 -1.2 0
5.052 -1.883 6.071 -0 -1.2 0
5.054 -2.016 6.075 -0 -1.2 0
4.76 -2.086 5.744 -0 -1.2 0
4.741 -2.208 5.723 -0 -1.2 0
6.455 -2.791 7.665 -0 -1.2 0
9.604 -3.891 11.232 -0 -1.2 0
5.205 -2.738 6.254 -0 -1.2 0
5.907 -3.124 7.05 -0 -1.2 0
12.205 -5.664 14.188 -0 -1.2 0
4.475 -2.869 5.43 -0 -1.2 0
11.669 -6.117 13.588 -0 -1.2 0
4.898 -3.315 5.912 -0 -1.2 0
6.751 -4.367 8.016 -0 -1.2 0
4.229 -3.249 5.157 -0 -1.2 0
4.129 -3.316 5.044 -0 -1.2 0
4.04 -3.387 4.944 -0 -1.2 0
9.349 -6.756 10.974 -0 -1.2 0
4.014 -3.613 4.918 -0 -1.2 0
3.996 -3.723 4.899 -0 -1.2 0
3.869 -3.758 4.754 -0 -1.2 0
4.407 -4.279 5.368 -0 -1.2 0
4.351 -4.379 5.306 -0 -1.2 0
3.833 -4.106 4.719 -0 -1.2 0
3.711 -4.131 4.58 -0 -1.2 0
5.081 -5.457 6.142 -0 -1.2 0
4.125 -4.911 5.056 -0 -1.2 0
4.777 -5.704 5.8 -0 -1.2 0
4.836 -5.945 5.871 -0 -1.2 0
5.07 -6.38 6.139 -0 -1.2 0
5.44 -6.986 6.563 -0 -1.2 0
5.075 -7.001 6.151 -0 -1.2 0
5.118 -7.271 6.202 -0 -1.2 0
5.454 -7.923 6.589 -0 -1.2 0
4.991 -7.559 6.062 -0 -1.2 0
4.997 -7.802 6.073 -0 -1.2 0
0.835 0.078 1.245 -0 -1.2 0
0.854 0.066 1.265 -0 -1.2 0
0.887 0.076 1.299 -0 -1.2 0
0.925 0.091 1.34 -0 -1.2 0
0.945 0.077 1.36 -0 -1.2 0
0.978 0.083 1.396 -0 -1.2 0
1.013 0.087 1.432 -0 -1.2 0
1.053 0.097 1.475 -0 -1.2 0
1.078 0.086 1.5 -0 -1.2 0
1.124 0.098 1.549 -0 -1.2 0
1.165 0.104 1.593 -0 -1.2 0
1.202 0.1 1.631 -0 -1.2 0
1.244 0.102 1.676 -0 -1.2 0
1.291 0.107 1.726 -0 -1.2 0
1.34 0.111 1.777 -0 -1.2 0
1.4 0.122 1.841 -0 -1.2 0
1.456 0.126 1.899 -0 -1.2 0
1.512 0.129 1.958 -0 -1.2 0
1.567 0.128 2.018 -0 -1.2 0
1.643 0.139 2.096 -0 -1.2 0
1.706 0.137 2.163 -0 -1.2 0
1.781 0.142 2.243 -0 -1.2 0
1.87 0.152 2.337 -0 -1.2 0
1.966 0.162 2.438 -0 -1.2 0
2.063 0.167 2.539 -0 -1.2 0
2.16 0.169 2.642 -0 -1.2 0
2.264 0.168 2.752 -0 -1.2 0
2.343 0.149 2.836 -0 -1.2 0
2.513 0.174 3.015 -0 -1.2 0
2.671 0.185 3.182 -0 -1.2 0
2.79 0.169 3.308 -0 -1.2 0
2.878 0.133 3.4 -0 -1.2 0
2.971 0.096 3.498 -0 -1.2 0
3.164 0.092 3.703 -0 -1.2 0
3.358 0.08 3.908 -0 -1.2 0
3.579 0.066 4.142 -0 -1.2 0
3.848 0.057 4.426 -0 -1.2 0
4.152 0.044 4.747 -0 -1.2 0
4.489 0.024 5.104 -0 -1.2 0
4.991 0.025 5.633 -0 -1.2 0
5.099 -0.079 5.748 -0 -1.2 0
5.048 -0.216 5.696 -0 -1.2 0
7.214 -0.015 7.98 -0 -1.2 0
8.61 -0.02 9.453 -0 -1.2 0
10.693 -0.027 11.652 -0 -1.2 0
5.105 -1.607 5.774 -0 -1.2 0
5.056 -1.729 5.724 -0 -1.2 0
5.006 -1.849 5.673 -0 -1.2 0
4.256 -1.947 4.881 -0 -1.2 0
11.236 -3.671 12.272 -0 -1.2 0
5.719 -2.541 6.433 -0 -1.2 0
11.838 -4.427 12.917 -0 -1.2 0
5.934 -2.906 6.665 -0 -1.2 0
5.202 -2.815 5.891 -0 -1.2 0
3.815 -2.447 4.422 -0 -1.2 0
4.58 -2.847 5.234 -0 -1.2 0
5.104 -3.19 5.793 -0 -1.2 0
10.801 -5.873 11.841 -0 -1.2 0
9.457 -5.535 10.416 -0 -1.2 0
5.149 -3.634 5.845 -0 -1.2 0
8.62 -5.625 9.535 -0 -1.2 0
5.012 -3.85 5.705 -0 -1.2 0
4.914 -3.937 5.602 -0 -1.2 0
5.307 -4.325 6.022 -0 -1.2 0
5.061 -4.324 5.761 -0 -1.2 0
5.083 -4.491 5.786 -0 -1.2 0
5.225 -4.75 5.94 -0 -1.2 0
5.246 -4.93 5.965 -0 -1.2 0
5.26 -5.107 5.981 -0 -1.2 0
3.756 -4.059 4.38 -0 -1.2 0
5.217 -5.418 5.94 -0 -1.2 0
5.1 -5.491 5.816 -0 -1.2 0
4.998 -5.575 5.711 -0 -1.2 0
4.244 -5.035 4.908 -0 -1.2 0
5.328 -6.259 6.068 -0 -1.2 0
5.214 -6.341 5.949 -0 -1.2 0
5.194 -6.517 5.93 -0 -1.2 0
5.199 -6.725 5.937 -0 -1.2 0
5.15 -6.879 5.888 -0 -1.2 0
5.027 -6.944 5.758 -0 -1.2 0
5.033 -7.166 5.768 -0 -1.2 0
4.958 -7.291 5.691 -0 -1.2 0
5.318 -7.99 6.08 -0 -1.2 0
0.859 0.071 1.228 -0 -1.2 0
0.888 0.074 1.256 -0 -1.2 0
0.917 0.076 1.285 -0 -1.2 0
0.947 0.077 1.314 -0 -1.2 0
0.981 0.085 1.348 -0 -1.2 0
1.017 0.091 1.383 -0 -1.2 0
1.048 0.088 1.414 -0 -1.2 0
1.084 0.091 1.45 -0 -1.2 0
1.121 0.093 1.485 -0 -1.2 0
1.157 0.093 1.521 -0 -1.2 0
1.194 0.092 1.558 -0 -1.2 0
1.243 0.101 1.606 -0 -1.2 0
1.286 0.103 1.648 -0 -1.2 0
1.336 0.108 1.698 -0 -1.2 0
1.386 0.111 1.748 -0 -1.2 0
1.449 0.123 1.81 -0 -1.2 0
1.506 0.127 1.866 -0 -1.2 0
1.564 0.129 1.922 -0 -1.2 0
1.616 0.123 1.974 -0 -1.2 0
1.699 0.139 2.056 -0 -1.2 0
1.764 0.138 2.121 -0 -1.2 0
1.843 0.142 2.198 -0 -1.2 0
1.928 0.148 2.282 -0 -1.2 0
2.028 0.158 2.38 -0 -1.2 0
2.134 0.168 2.485 -0 -1.2 0
2.222 0.161 2.572 -0 -1.2 0
2.329 0.161 2.677 -0 -1.2 0
2.458 0.167 2.804 -0 -1.2 0
2.6 0.174 2.944 -0 -1.2 0
2.737 0.171 3.079 -0 -1.2 0
2.833 0.144 3.175 -0 -1.2 0
2.956 0.124 3.298 -0 -1.2 0
3.074 0.096 3.414 -0 -1.2 0
3.273 0.092 3.611 -0 -1.2 0
3.46 0.075 3.796 -0 -1.2 0
3.683 0.06 4.015 -0 -1.2 0
3.968 0.053 4.297 -0 -1.2 0
4.296 0.043 4.621 -0 -1.2 0
4.716 0.041 5.035 -0 -1.2 0
5.045 -0.001 5.361 -0 -1.2 0
5.897 0.041 6.202 -0 -1.2 0
6.624 0.022 6.919 -0 -1.2 0
7.337 -0.034 7.624 -0 -1.2 0
8.817 -0.033 9.085 -0 -1.2 0
10.993 -0.036 11.234 -0 -1.2 0
5.217 -1.601 5.554 -0 -1.2 0
5.336 -1.743 5.674 -0 -1.2 0
5.143 -1.844 5.484 -0 -1.2 0
6.056 -2.128 6.39 -0 -1.2 0
5.886 -2.243 6.224 -0 -1.2 0
5.519 -2.307 5.863 -0 -1.2 0
5.201 -2.364 5.55 -0 -1.2 0
4.375 -2.267 4.733 -0 -1.2 0
5.262 -2.644 5.614 -0 -1.2 0
4.038 -2.377 4.402 -0 -1.2 0
5.17 -2.878 5.527 -0 -1.2 0
5.249 -3.042 5.607 -0 -1.2 0
5.353 -3.22 5.713 -0 -1.2 0
7.814 -4.425 8.159 -0 -1.2 0
6.043 -3.822 6.403 -0 -1.2 0
5.605 -3.772 5.97 -0 -1.2 0
13.236 -7.851 13.563 -0 -1.2 0
4.7 -3.588 5.073 -0 -1.2 0
3.341 -2.943 3.722 -0 -1.2 0
5.612 -4.401 5.986 -0 -1.2 0
5.42 -4.442 5.796 -0 -1.2 0
5.084 -4.531 5.466 -0 -1.2 0
4.988 -4.617 5.373 -0 -1.2 0
3.925 -3.971 4.314 -0 -1.2 0
5.41 -5.258 5.799 -0 -1.2 0
5.595 -5.584 5.986 -0 -1.2 0
5.602 -6.153 6.001 -0 -1.2 0
5.525 -6.276 5.927 -0 -1.2 0
5.979 -6.927 6.385 -0 -1.2 0
5.717 -6.877 6.125 -0 -1.2 0
0.888 0.072 1.214 -0 -1.2 0
0.913 0.067 1.237 -0 -1.2 0
0.938 0.063 1.261 -0 -1.2 0
0.98 0.078 1.297 -0 -1.2 0
1.016 0.086 1.331 -0 -1.2 0
1.047 0.085 1.359 -0 -1.2 0
1.084 0.088 1.393 -0 -1.2 0
1.115 0.085 1.423 -0 -1.2 0
1.153 0.087 1.457 -0 -1.2 0
1.191 0.088 1.492 -0 -1.2 0
1.236 0.093 1.532 -0 -1.2 0
1.28 0.096 1.573 -0 -1.2 0
1.331 0.104 1.62 -0 -1.2 0
1.376 0.103 1.661 -0 -1.2 0
1.428 0.106 1.709 -0 -1.2 0
1.486 0.112 1.763 -0 -1.2 0
1.546 0.117 1.817 -0 -1.2 0
1.612 0.124 1.878 -0 -1.2 0
1.672 0.123 1.932 -0 -1.2 0
1.752 0.135 2.006 -0 -1.2 0
1.819 0.134 2.068 -0 -1.2 0
1.888 0.129 2.13 -0 -1.2 0
1.982 0.139 2.217 -0 -1.2 0
2.085 0.15 2.311 -0 -1.2 0
2.195 0.16 2.413 -0 -1.2 0
2.278 0.15 2.49 -0 -1.2 0
2.424 0.169 2.623 -0 -1.2 0
2.536 0.164 2.725 -0 -1.2 0
2.663 0.16 2.842 -0 -1.2 0
2.797 0.156 2.965 -0 -1.2 0
2.875 0.119 3.038 -0 -1.2 0
2.996 0.098 3.149 -0 -1.2 0
3.166 0.089 3.306 -0 -1.2 0
3.324 0.068 3.45 -0 -1.2 0
3.56 0.067 3.668 -0 -1.2 0
3.775 0.048 3.865 -0 -1.2 0
4.034 0.032 4.103 -0 -1.2 0
4.402 0.031 4.441 -0 -1.2 0
4.866 0.037 4.867 -0 -1.2 0
5.243 0.001 5.214 -0 -1.2 0
5.913 0.004 5.829 -0 -1.2 0
6.686 -0.006 6.54 -0 -1.2 0
7.41 -0.062 7.204 -0 -1.2 0
8.977 -0.053 8.645 -0 -1.2 0
11.084 -0.067 10.579 -0 -1.2 0
15.097 -0.047 14.264 -0 -1.2 0
16.011 -0.36 15.109 -0 -1.2 0
16.015 -0.737 15.118 -0 -1.2 0
16.065 -1.115 15.171 -0 -1.2 0
16.059 -1.492 15.172 -0 -1.2 0
16.07 -1.872 15.189 -0 -1.2 0
16.069 -2.251 15.195 -0 -1.2 0
12.547 -2.291 11.96 -0 -1.2 0
5.308 -1.719 5.303 -0 -1.2 0
6.901 -2.073 6.771 -0 -1.2 0
5.805 -2.052 5.765 -0 -1.2 0
5.019 -2.038 5.043 -0 -1.2 0
8.171 -2.841 7.95 -0 -1.2 0
4.505 -2.154 4.572 -0 -1.2 0
8.508 -3.327 8.267 -0 -1.2 0
4.222 -2.29 4.314 -0 -1.2 0
11.947 -4.831 11.453 -0 -1.2 0
13.598 -5.692 12.983 -0 -1.2 0
5.664 -3.129 5.653 -0 -1.2 0
5.276 -3.12 5.297 -0 -1.2 0
3.634 -2.568 3.779 -0 -1.2 0
3.586 -2.639 3.737 -0 -1.2 0
3.586 -2.731 3.738 -0 -1.2 0
4.831 -3.445 4.893 -0 -1.2 0
13.716 -8.238 13.134 -0 -1.2 0
5.466 -4.055 5.487 -0 -1.2 0
4.603 -3.704 4.688 -0 -1.2 0
4.19 -3.82 4.312 -0 -1.2 0
5.57 -4.904 5.596 -0 -1.2 0
6.281 -5.588 6.26 -0 -1.2 0
5.766 -5.39 5.785 -0 -1.2 0
4.798 -4.803 4.885 -0 -1.2 0
5.287 -5.358 5.344 -0 -1.2 0
4.803 -5.115 4.895 -0 -1.2 0
4.596 -5.09 4.705 -0 -1.2 0
4.525 -5.18 4.641 -0 -1.2 0
4.166 -4.992 4.308 -0 -1.2 0
4.398 -5.371 4.528 -0 -1.2 0
4.388 -5.521 4.521 -0 -1.2 0
5.307 -6.671 5.384 -0 -1.2 0
5.607 -7.21 5.669 -0 -1.2 0
5.655 -7.489 5.718 -0 -1.2 0
5.653 -7.72 5.72 -0 -1.2 0
5.733 -8.058 5.8 -0 -1.2 0
0.915 0.071 1.201 -0 -1.2 0
0.94 0.067 1.223 -0 -1.2 0
0.971 0.069 1.25 -0 -1.2 0
1.009 0.078 1.281 -0 -1.2 0
1.041 0.078 1.309 -0 -1.2 0
1.073 0.077 1.336 -0 -1.2 0
1.105 0.075 1.364 -0 -1.2 0
1.148 0.085 1.401 -0 -1.2 0
1.187 0.087 1.435 -0 -1.2 0
1.226 0.087 1.469 -0 -1.2 0
1.266 0.086 1.502 -0 -1.2 0
1.312 0.089 1.541 -0 -1.2 0
1.358 0.091 1.581 -0 -1.2 0
1.411 0.097 1.626 -0 -1.2 0
1.471 0.106 1.677 -0 -1.2 0
1.525 0.106 1.723 -0 -1.2 0
1.592 0.117 1.781 -0 -1.2 0
1.653 0.118 1.835 -0 -1.2 0
1.722 0.122 1.893 -0 -1.2 0
1.798 0.13 1.958 -0 -1.2 0
1.873 0.133 2.023 -0 -1.2 0
1.938 0.124 2.078 -0 -1.2 0
2.035 0.134 2.162 -0 -1.2 0
2.14 0.145 2.252 -0 -1.2 0
2.232 0.143 2.332 -0 -1.2 0
2.374 0.163 2.452 -0 -1.2 0
2.475 0.156 2.539 -0 -1.2 0
2.605 0.159 2.651 -0 -1.2 0
2.721 0.15 2.75 -0 -1.2 0
2.809 0.122 2.826 -0 -1.2 0
2.961 0.118 2.958 -0 -1.2 0
3.021 0.07 3.009 -0 -1.2 0
3.203 0.066 3.166 -0 -1.2 0
3.386 0.054 3.324 -0 -1.2 0
3.607 0.046 3.513 -0 -1.2 0
3.806 0.022 3.684 -0 -1.2 0
4.177 0.035 4.003 -0 -1.2 0
4.474 0.014 4.258 -0 -1.2 0
4.96 0.022 4.674 -0 -1.2 0
5.318 -0.017 4.983 -0 -1.2 0
6.068 -0.001 5.626 -0 -1.2 0
6.782 -0.026 6.24 -0 -1.2 0
7.601 -0.069 6.944 -0 -1.2 0
9.338 -0.047 8.435 -0 -1.2 0
10.985 -0.111 9.85 -0 -1.2 0
15.847 -0.034 14.023 -0 -1.2 0
15.9 -0.394 14.076 -0 -1.2 0
15.896 -0.757 14.079 -0 -1.2 0
15.948 -1.12 14.13 -0 -1.2 0
15.949 -1.485 14.138 -0 -1.2 0
15.946 -1.85 14.142 -0 -1.2 0
15.953 -2.215 14.155 -0 -1.2 0
15.955 -2.582 14.163 -0 -1.2 0
5.428 -1.716 5.109 -0 -1.2 0
5.509 -1.851 5.18 -0 -1.2 0
6.226 -2.095 5.801 -0 -1.2 0
13.957 -3.687 12.469 -0 -1.2 0
5.011 -2.127 4.759 -0 -1.2 0
4.877 -2.212 4.645 -0 -1.2 0
4.801 -2.306 4.581 -0 -1.2 0
4.576 -2.356 4.389 -0 -1.2 0
5.501 -2.748 5.191 -0 -1.2 0
4.054 -2.4 3.942 -0 -1.2 0
6.007 -3.193 5.633 -0 -1.2 0
12.558 -5.839 11.307 -0 -1.2 0
13.04 -6.349 11.73 -0 -1.2 0
5.365 -3.364 5.086 -0 -1.2 0
14.709 -7.775 13.189 -0 -1.2 0
4.952 -3.436 4.732 -0 -1.2 0
4.792 -3.483 4.596 -0 -1.2 0
4.857 -3.644 4.654 -0 -1.2 0
5.846 -4.49 5.519 -0 -1.2 0
4.507 -3.822 4.357 -0 -1.2 0
3.737 -3.448 3.69 -0 -1.2 0
6.166 -5.563 5.813 -0 -1.2 0
6.626 -6.104 6.218 -0 -1.2 0
6.783 -6.434 6.36 -0 -1.2 0
4.272 -4.56 4.169 -0 -1.2 0
4.301 -4.721 4.197 -0 -1.2 0
5.28 -5.743 5.056 -0 -1.2 0
5.99 -7.006 5.69 -0 -1.2 0
5.383 -6.593 5.161 -0 -1.2 0
5.197 -6.796 5.005 -0 -1.2 0
5.556 -7.419 5.324 -0 -1.2 0
0.935 0.064 1.184 -0 -1.2 0
0.972 0.075 1.213 -0 -1.2 0
0.993 0.063 1.23 -0 -1.2 0
1.031 0.072 1.26 -0 -1.2 0
1.069 0.078 1.291 -0 -1.2 0
1.102 0.077 1.317 -0 -1.2 0
1.135 0.075 1.344 -0 -1.2 0
1.175 0.079 1.375 -0 -1.2 0
1.215 0.081 1.407 -0 -1.2 0
1.26 0.088 1.444 -0 -1.2 0
1.301 0.086 1.477 -0 -1.2 0
1.348 0.089 1.515 -0 -1.2 0
1.396 0.091 1.553 -0 -1.2 0
1.45 0.097 1.596 -0 -1.2 0
1.505 0.1 1.64 -0 -1.2 0
1.56 0.101 1.684 -0 -1.2 0
1.622 0.106 1.734 -0 -1.2 0
1.693 0.114 1.79 -0 -1.2 0
1.769 0.123 1.852 -0 -1.2 0
1.84 0.124 1.909 -0 -1.2 0
1.919 0.128 1.972 -0 -1.2 0
1.998 0.128 2.035 -0 -1.2 0
2.085 0.13 2.105 -0 -1.2 0
2.193 0.14 2.192 -0 -1.2 0
2.323 0.159 2.295 -0 -1.2 0
2.441 0.163 2.39 -0 -1.2 0
2.559 0.164 2.484 -0 -1.2 0
2.656 0.148 2.563 -0 -1.2 0
2.76 0.132 2.647 -0 -1.2 0
2.842 0.102 2.713 -0 -1.2 0
3.007 0.102 2.845 -0 -1.2 0
3.126 0.078 2.942 -0 -1.2 0
3.262 0.054 3.051 -0 -1.2 0
3.451 0.043 3.202 -0 -1.2 0
3.662 0.03 3.373 -0 -1.2 0
3.928 0.025 3.586 -0 -1.2 0
4.263 0.026 3.855 -0 -1.2 0
4.645 0.024 4.162 -0 -1.2 0
5.005 0 4.45 -0 -1.2 0
5.52 -0.008 4.864 -0 -1.2 0
6.09 -0.03 5.322 -0 -1.2 0
6.816 -0.053 5.905 -0 -1.2 0
7.666 -0.092 6.589 -0 -1.2 0
9.754 -0.033 8.262 -0 -1.2 0
11.128 -0.13 9.367 -0 -1.2 0
15.751 -0.076 13.075 -0 -1.2 0
15.798 -0.424 13.121 -0 -1.2 0
15.786 -0.775 13.117 -0 -1.2 0
15.823 -1.126 13.155 -0 -1.2 0
15.825 -1.478 13.163 -0 -1.2 0
16.008 -1.838 13.318 -0 -1.2 0
16.047 -2.198 13.356 -0 -1.2 0
16.057 -2.558 13.371 -0 -1.2 0
5.555 -1.715 4.926 -0 -1.2 0
6.474 -1.964 5.669 -0 -1.2 0
6.792 -2.161 5.928 -0 -1.2 0
6.798 -2.314 5.937 -0 -1.2 0
16.071 -4.376 13.419 -0 -1.2 0
13.438 -4.142 11.301 -0 -1.2 0
4.895 -2.298 4.409 -0 -1.2 0
4.77 -2.376 4.31 -0 -1.2 0
5.697 -2.764 5.062 -0 -1.2 0
5.62 -2.872 5.003 -0 -1.2 0
12.857 -5.517 10.864 -0 -1.2 0
6.305 -3.393 5.563 -0 -1.2 0
12.189 -5.874 10.334 -0 -1.2 0
15.744 -7.671 13.223 -0 -1.2 0
5.531 -3.509 4.943 -0 -1.2 0
5.452 -3.61 4.882 -0 -1.2 0
5.655 -3.848 5.05 -0 -1.2 0
6.398 -4.382 5.658 -0 -1.2 0
5.737 -4.186 5.123 -0 -1.2 0
3.923 -3.292 3.65 -0 -1.2 0
3.913 -3.39 3.643 -0 -1.2 0
3.866 -3.466 3.607 -0 -1.2 0
3.846 -3.561 3.593 -0 -1.2 0
4.495 -4.115 4.125 -0 -1.2 0
4.438 -4.203 4.081 -0 -1.2 0
4.394 -4.3 4.048 -0 -1.2 0
4.309 -4.366 3.981 -0 -1.2 0
4.23 -4.433 3.919 -0 -1.2 0
4.218 -4.828 3.918 -0 -1.2 0
5.409 -6.092 4.898 -0 -1.2 0
5.369 -6.242 4.869 -0 -1.2 0
4.173 -5.219 3.889 -0 -1.2 0
4.152 -5.348 3.874 -0 -1.2 0
4.121 -5.471 3.852 -0 -1.2 0
0.967 0.072 1.171 -0 -1.2 0
0.988 0.06 1.188 -0 -1.2 0
1.032 0.077 1.22 -0 -1.2 0
1.065 0.078 1.245 -0 -1.2 0
1.093 0.072 1.266 -0 -1.2 0
1.132 0.078 1.296 -0 -1.2 0
1.173 0.082 1.325 -0 -1.2 0
1.207 0.079 1.351 -0 -1.2 0
1.248 0.081 1.381 -0 -1.2 0
1.289 0.081 1.412 -0 -1.2 0
1.338 0.086 1.447 -0 -1.2 0
1.385 0.089 1.483 -0 -1.2 0
1.434 0.091 1.519 -0 -1.2 0
1.483 0.09 1.557 -0 -1.2 0
1.54 0.095 1.599 -0 -1.2 0
1.604 0.101 1.646 -0 -1.2 0
1.668 0.106 1.694 -0 -1.2 0
1.732 0.108 1.742 -0 -1.2 0
1.812 0.118 1.801 -0 -1.2 0
1.892 0.124 1.86 -0 -1.2 0
1.966 0.123 1.914 -0 -1.2 0
2.053 0.128 1.981 -0 -1.2 0
2.142 0.13 2.047 -0 -1.2 0
2.247 0.135 2.124 -0 -1.2 0
2.403 0.166 2.24 -0 -1.2 0
2.509 0.163 2.319 -0 -1.2 0
2.623 0.159 2.404 -0 -1.2 0
2.715 0.141 2.473 -0 -1.2 0
2.776 0.104 2.52 -0 -1.2 0
2.861 0.076 2.583 -0 -1.2 0
2.991 0.062 2.681 -0 -1.2 0
3.144 0.051 2.796 -0 -1.2 0
3.338 0.048 2.94 -0 -1.2 0
3.547 0.041 3.095 -0 -1.2 0
3.726 0.018 3.229 -0 -1.2 0
3.982 0.008 3.42 -0 -1.2 0
4.327 0.01 3.678 -0 -1.2 0
4.688 0.002 3.947 -0 -1.2 0
5.106 -0.01 4.258 -0 -1.2 0
5.595 -0.025 4.623 -0 -1.2 0
6.285 -0.028 5.137 -0 -1.2 0
6.967 -0.063 5.647 -0 -1.2 0
7.849 -0.1 6.304 -0 -1.2 0
9.699 -0.073 7.683 -0 -1.2 0
11.256 -0.152 8.844 -0 -1.2 0
15.647 -0.119 12.117 -0 -1.2 0
15.703 -0.455 12.166 -0 -1.2 0
15.706 -0.794 12.175 -0 -1.2 0
15.744 -1.133 12.211 -0 -1.2 0
15.746 -1.473 12.22 -0 -1.2 0
15.75 -1.815 12.231 -0 -1.2 0
15.766 -2.157 12.251 -0 -1.2 0
7.924 -1.794 6.398 -0 -1.2 0
7.52 -1.92 6.1 -0 -1.2 0
5.842 -1.859 4.848 -0 -1.2 0
7.028 -2.171 5.739 -0 -1.2 0
13.586 -3.494 10.655 -0 -1.2 0
15.791 -4.239 12.314 -0 -1.2 0
4.952 -2.172 4.192 -0 -1.2 0
6.128 -2.57 5.076 -0 -1.2 0
6.863 -2.905 5.632 -0 -1.2 0
5.785 -2.746 4.825 -0 -1.2 0
4.69 -2.532 4.003 -0 -1.2 0
4.922 -2.719 4.182 -0 -1.2 0
5.488 -3.037 4.61 -0 -1.2 0
6.795 -3.67 5.598 -0 -1.2 0
15.815 -7.53 12.405 -0 -1.2 0
4.356 -2.935 3.764 -0 -1.2 0
4.298 -3.014 3.722 -0 -1.2 0
5.601 -3.75 4.71 -0 -1.2 0
5.331 -3.887 4.511 -0 -1.2 0
5.326 -4.021 4.511 -0 -1.2 0
5.722 -4.393 4.815 -0 -1.2 0
6.446 -5.167 5.371 -0 -1.2 0
6.38 -5.3 5.325 -0 -1.2 0
6.68 -6.078 5.565 -0 -1.2 0
4.353 -4.847 3.803 -0 -1.2 0
5.508 -6.238 4.695 -0 -1.2 0
5.518 -6.636 4.712 -0 -1.2 0
5.447 -6.97 4.666 -0 -1.2 0
0.99 0.072 1.155 -0 -1.2 0
1.018 0.067 1.174 -0 -1.2 0
1.057 0.077 1.202 -0 -1.2 0
1.091 0.078 1.225 -0 -1.2 0
1.126 0.078 1.249 -0 -1.2 0
1.16 0.077 1.273 -0 -1.2 0
1.195 0.075 1.298 -0 -1.2 0
1.237 0.078 1.327 -0 -1.2 0
1.279 0.08 1.356 -0 -1.2 0
1.321 0.081 1.385 -0 -1.2 0
1.364 0.079 1.414 -0 -1.2 0
1.407 0.077 1.444 -0 -1.2 0
1.463 0.084 1.483 -0 -1.2 0
1.52 0.09 1.523 -0 -1.2 0
1.571 0.088 1.559 -0 -1.2 0
1.636 0.095 1.604 -0 -1.2 0
1.702 0.1 1.649 -0 -1.2 0
1.768 0.102 1.695 -0 -1.2 0
1.849 0.111 1.751 -0 -1.2 0
1.931 0.118 1.808 -0 -1.2 0
2.013 0.121 1.865 -0 -1.2 0
2.096 0.122 1.922 -0 -1.2 0
2.203 0.132 1.996 -0 -1.2 0
2.301 0.134 2.064 -0 -1.2 0
2.462 0.165 2.176 -0 -1.2 0
2.556 0.153 2.241 -0 -1.2 0
2.649 0.139 2.306 -0 -1.2 0
2.758 0.127 2.382 -0 -1.2 0
2.767 0.068 2.389 -0 -1.2 0
2.868 0.047 2.461 -0 -1.2 0
3.016 0.041 2.564 -0 -1.2 0
3.166 0.029 2.667 -0 -1.2 0
3.34 0.018 2.789 -0 -1.2 0
3.562 0.017 2.943 -0 -1.2 0
3.816 0.015 3.12 -0 -1.2 0
4.095 0.01 3.314 -0 -1.2 0
4.384 -0.003 3.515 -0 -1.2 0
4.81 0 3.811 -0 -1.2 0
5.262 -0.006 4.125 -0 -1.2 0
5.714 -0.032 4.44 -0 -1.2 0
6.421 -0.035 4.93 -0 -1.2 0
7.053 -0.079 5.372 -0 -1.2 0
8.088 -0.099 6.091 -0 -1.2 0
9.705 -0.103 7.214 -0 -1.2 0
11.462 -0.164 8.437 -0 -1.2 0
15.92 -0.135 11.534 -0 -1.2 0
15.927 -0.471 11.546 -0 -1.2 0
15.593 -0.812 11.323 -0 -1.2 0
15.632 -1.142 11.358 -0 -1.2 0
15.634 -1.472 11.366 -0 -1.2 0
15.729 -1.806 11.44 -0 -1.2 0
15.983 -2.156 11.625 -0 -1.2 0
15.986 -2.496 11.635 -0 -1.2 0
6.051 -1.743 4.714 -0 -1.2 0
8.094 -2.14 6.143 -0 -1.2 0
15.966 -3.518 11.646 -0 -1.2 0
5.735 -2.074 4.502 -0 -1.2 0
15.96 -4.206 11.657 -0 -1.2 0
5.023 -2.164 4.01 -0 -1.2 0
5.962 -2.499 4.67 -0 -1.2 0
6.243 -2.703 4.87 -0 -1.2 0
15.936 -5.607 11.673 -0 -1.2 0
5.929 -2.883 4.656 -0 -1.2 0
4.654 -2.593 3.763 -0 -1.2 0
4.629 -2.691 3.749 -0 -1.2 0
15.694 -6.97 11.537 -0 -1.2 0
7.058 -3.875 5.463 -0 -1.2 0
15.616 -7.678 11.5 -0 -1.2 0
15.179 -7.856 11.2 -0 -1.2 0
16.241 -8.729 11.959 -0 -1.2 0
5.808 -3.93 4.597 -0 -1.2 0
5.675 -4.004 4.506 -0 -1.2 0
5.969 -4.46 4.722 -0 -1.2 0
5.112 -4.235 4.12 -0 -1.2 0
5.108 -4.369 4.12 -0 -1.2 0
5.024 -4.451 4.064 -0 -1.2 0
4.967 -4.551 4.027 -0 -1.2 0
4.937 -4.962 4.016 -0 -1.2 0
1.013 0.072 1.137 -0 -1.2 0
1.041 0.068 1.156 -0 -1.2 0
1.081 0.077 1.182 -0 -1.2 0
1.111 0.072 1.2 -0 -1.2 0
1.151 0.078 1.227 -0 -1.2 0
1.193 0.085 1.254 -0 -1.2 0
1.229 0.082 1.277 -0 -1.2 0
1.265 0.079 1.301 -0 -1.2 0
1.308 0.08 1.328 -0 -1.2 0
1.351 0.081 1.356 -0 -1.2 0
1.401 0.086 1.388 -0 -1.2 0
1.438 0.077 1.412 -0 -1.2 0
1.489 0.079 1.445 -0 -1.2 0
1.548 0.084 1.482 -0 -1.2 0
1.607 0.088 1.52 -0 -1.2 0
1.674 0.095 1.563 -0 -1.2 0
1.734 0.094 1.602 -0 -1.2 0
1.808 0.102 1.65 -0 -1.2 0
1.884 0.107 1.699 -0 -1.2 0
1.975 0.119 1.757 -0 -1.2 0
2.06 0.121 1.812 -0 -1.2 0
2.145 0.122 1.866 -0 -1.2 0
2.23 0.119 1.922 -0 -1.2 0
2.362 0.138 2.006 -0 -1.2 0
2.48 0.144 2.082 -0 -1.2 0
2.606 0.149 2.164 -0 -1.2 0
2.702 0.135 2.226 -0 -1.2 0
2.743 0.092 2.253 -0 -1.2 0
2.791 0.051 2.285 -0 -1.2 0
2.894 0.031 2.353 -0 -1.2 0
3.078 0.038 2.471 -0 -1.2 0
3.296 0.049 2.611 -0 -1.2 0
3.441 0.026 2.706 -0 -1.2 0
3.644 0.016 2.836 -0 -1.2 0
3.905 0.014 3.004 -0 -1.2 0
4.157 0 3.168 -0 -1.2 0
4.46 -0.011 3.363 -0 -1.2 0
4.922 0 3.66 -0 -1.2 0
5.325 -0.019 3.922 -0 -1.2 0
5.797 -0.044 4.227 -0 -1.2 0
6.503 -0.048 4.682 -0 -1.2 0
7.109 -0.097 5.074 -0 -1.2 0
8.134 -0.119 5.735 -0 -1.2 0
9.713 -0.128 6.754 -0 -1.2 0
11.687 -0.172 8.028 -0 -1.2 0
15.517 -0.187 10.499 -0 -1.2 0
15.508 -0.507 10.501 -0 -1.2 0
15.519 -0.827 10.516 -0 -1.2 0
15.542 -1.146 10.538 -0 -1.2 0
15.552 -1.468 10.553 -0 -1.2 0
15.549 -1.788 10.558 -0 -1.2 0
15.559 -2.111 10.573 -0 -1.2 0
15.554 -2.433 10.578 -0 -1.2 0
15.57 -2.758 10.596 -0 -1.2 0
15.581 -3.085 10.611 -0 -1.2 0
7.614 -2.215 5.451 -0 -1.2 0
15.581 -3.739 10.627 -0 -1.2 0
7.482 -2.509 5.373 -0 -1.2 0
5.222 -2.183 3.907 -0 -1.2 0
6.24 -2.534 4.572 -0 -1.2 0
15.587 -5.074 10.663 -0 -1.2 0
15.694 -5.443 10.74 -0 -1.2 0
6.18 -2.919 4.542 -0 -1.2 0
6.087 -3.024 4.485 -0 -1.2 0
4.793 -2.71 3.643 -0 -1.2 0
15.595 -6.806 10.709 -0 -1.2 0
4.645 -2.867 3.552 -0 -1.2 0
4.459 -2.896 3.432 -0 -1.2 0
15.311 -7.766 10.55 -0 -1.2 0
15.371 -8.158 10.598 -0 -1.2 0
16.616 -9.136 11.425 -0 -1.2 0
17.406 -9.947 11.953 -0 -1.2 0
5.853 -4.173 4.362 -0 -1.2 0
6.085 -4.449 4.518 -0 -1.2 0
6.086 -4.604 4.523 -0 -1.2 0
5.05 -4.671 3.857 -0 -1.2 0
6.711 -6.265 4.966 -0 -1.2 0
1.03 0.065 1.114 -0 -1.2 0
1.065 0.068 1.134 -0 -1.2 0
1.107 0.078 1.159 -0 -1.2 0
1.136 0.072 1.176 -0 -1.2 0
1.178 0.079 1.201 -0 -1.2 0
1.215 0.078 1.223 -0 -1.2 0
1.264 0.089 1.252 -0 -1.2 0
1.3 0.086 1.274 -0 -1.2 0
1.339 0.081 1.296 -0 -1.2 0
1.383 0.081 1.323 -0 -1.2 0
1.433 0.086 1.352 -0 -1.2 0
1.485 0.089 1.383 -0 -1.2 0
1.524 0.079 1.407 -0 -1.2 0
1.584 0.085 1.442 -0 -1.2 0
1.645 0.088 1.478 -0 -1.2 0
1.712 0.095 1.518 -0 -1.2 0
1.773 0.095 1.555 -0 -1.2 0
1.85 0.102 1.6 -0 -1.2 0
1.928 0.107 1.645 -0 -1.2 0
2.021 0.119 1.7 -0 -1.2 0
2.108 0.122 1.751 -0 -1.2 0
2.195 0.122 1.803 -0 -1.2 0
2.305 0.132 1.869 -0 -1.2 0
2.433 0.147 1.944 -0 -1.2 0
2.537 0.144 2.006 -0 -1.2 0
2.627 0.13 2.06 -0 -1.2 0
2.733 0.12 2.122 -0 -1.2 0
2.742 0.063 2.129 -0 -1.2 0
2.847 0.047 2.192 -0 -1.2 0
2.954 0.027 2.256 -0 -1.2 0
3.159 0.04 2.377 -0 -1.2 0
3.389 0.054 2.514 -0 -1.2 0
3.538 0.031 2.602 -0 -1.2 0
3.687 0.002 2.691 -0 -1.2 0
3.953 0.001 2.849 -0 -1.2 0
4.254 0 3.028 -0 -1.2 0
4.64 0.005 3.257 -0 -1.2 0
4.867 -0.039 3.393 -0 -1.2 0
5.451 -0.021 3.738 -0 -1.2 0
5.984 -0.036 4.055 -0 -1.2 0
6.603 -0.059 4.423 -0 -1.2 0
7.403 -0.081 4.897 -0 -1.2 0
8.529 -0.098 5.566 -0 -1.2 0
10.017 -0.125 6.449 -0 -1.2 0
12.253 -0.154 7.775 -0 -1.2 0
15.451 -0.219 9.674 -0 -1.2 0
15.442 -0.531 9.676 -0 -1.2 0
15.445 -0.841 9.685 -0 -1.2 0
15.485 -1.152 9.717 -0 -1.2 0
15.496 -1.464 9.731 -0 -1.2 0
15.493 -1.777 9.737 -0 -1.2 0
15.512 -2.091 9.756 -0 -1.2 0
15.507 -2.405 9.761 -0 -1.2 0
15.508 -2.72 9.769 -0 -1.2 0
15.512 -3.037 9.78 -0 -1.2 0
15.528 -3.357 9.797 -0 -1.2 0
15.522 -3.675 9.801 -0 -1.2 0
7.987 -2.574 5.305 -0 -1.2 0
5.319 -2.179 3.713 -0 -1.2 0
15.534 -4.648 9.832 -0 -1.2 0
15.533 -4.975 9.841 -0 -1.2 0
5.993 -2.696 4.126 -0 -1.2 0
6.151 -2.869 4.223 -0 -1.2 0
6.237 -3.028 4.278 -0 -1.2 0
6.279 -3.178 4.308 -0 -1.2 0
15.551 -6.666 9.893 -0 -1.2 0
15.559 -7.016 9.907 -0 -1.2 0
15.554 -7.367 9.912 -0 -1.2 0
4.671 -3.046 3.351 -0 -1.2 0
4.624 -3.132 3.325 -0 -1.2 0
4.521 -3.189 3.265 -0 -1.2 0
4.464 -3.267 3.233 -0 -1.2 0
4.36 -3.318 3.172 -0 -1.2 0
4.75 -3.639 3.412 -0 -1.2 0
6.129 -4.549 4.252 -0 -1.2 0
5.86 -4.693 4.096 -0 -1.2 0
5.856 -4.845 4.098 -0 -1.2 0
5.798 -4.961 4.066 -0 -1.2 0
5.737 -5.076 4.033 -0 -1.2 0
5.155 -4.807 3.681 -0 -1.2 0
5.061 -5.181 3.635 -0 -1.2 0
5.053 -5.328 3.633 -0 -1.2 0
1.056 0.073 1.097 -0 -1.2 0
1.086 0.069 1.114 -0 -1.2 0
1.122 0.071 1.133 -0 -1.2 0
1.165 0.079 1.157 -0 -1.2 0
1.201 0.079 1.177 -0 -1.2 0
1.245 0.086 1.201 -0 -1.2 0
1.282 0.083 1.221 -0 -1.2 0
1.327 0.086 1.245 -0 -1.2 0
1.365 0.081 1.266 -0 -1.2 0
1.41 0.082 1.291 -0 -1.2 0
1.455 0.08 1.315 -0 -1.2 0
1.515 0.09 1.348 -0 -1.2 0
1.561 0.085 1.373 -0 -1.2 0
1.615 0.085 1.403 -0 -1.2 0
1.677 0.089 1.437 -0 -1.2 0
1.746 0.095 1.475 -0 -1.2 0
1.809 0.095 1.509 -0 -1.2 0
1.88 0.098 1.547 -0 -1.2 0
1.966 0.108 1.595 -0 -1.2 0
2.061 0.119 1.646 -0 -1.2 0
2.149 0.122 1.694 -0 -1.2 0
2.238 0.123 1.743 -0 -1.2 0
2.359 0.136 1.809 -0 -1.2 0
2.465 0.138 1.867 -0 -1.2 0
2.588 0.144 1.934 -0 -1.2 0
2.68 0.13 1.984 -0 -1.2 0
2.73 0.094 2.012 -0 -1.2 0
2.746 0.042 2.023 -0 -1.2 0
2.871 0.033 2.092 -0 -1.2 0
3.029 0.033 2.178 -0 -1.2 0
3.255 0.051 2.3 -0 -1.2 0
3.397 0.033 2.379 -0 -1.2 0
3.625 0.036 2.503 -0 -1.2 0
3.794 0.012 2.597 -0 -1.2 0
4.05 0.005 2.736 -0 -1.2 0
4.382 0.01 2.918 -0 -1.2 0
4.69 -0.005 3.087 -0 -1.2 0
5.128 -0.004 3.327 -0 -1.2 0
5.55 -0.024 3.558 -0 -1.2 0
6.086 -0.041 3.851 -0 -1.2 0
6.718 -0.064 4.198 -0 -1.2 0
7.386 -0.106 4.564 -0 -1.2 0
8.552 -0.118 5.202 -0 -1.2 0
10.384 -0.113 6.204 -0 -1.2 0
12.778 -0.138 7.514 -0 -1.2 0
15.533 -0.238 9.023 -0 -1.2 0
15.532 -0.544 9.03 -0 -1.2 0
15.393 -0.853 8.963 -0 -1.2 0
15.418 -1.157 8.984 -0 -1.2 0
15.421 -1.462 8.993 -0 -1.2 0
15.48 -1.769 9.032 -0 -1.2 0
15.83 -2.098 9.233 -0 -1.2 0
15.809 -2.411 9.23 -0 -1.2 0
15.853 -2.73 9.261 -0 -1.2 0
15.657 -3.022 9.162 -0 -1.2 0
15.839 -3.363 9.269 -0 -1.2 0
15.911 -3.694 9.318 -0 -1.2 0
15.882 -4.012 9.31 -0 -1.2 0
5.563 -2.209 3.62 -0 -1.2 0
15.656 -4.611 9.201 -0 -1.2 0
15.819 -4.975 9.299 -0 -1.2 0
15.865 -5.318 9.333 -0 -1.2 0
15.905 -5.662 9.364 -0 -1.2 0
6.311 -3.015 4.05 -0 -1.2 0
6.59 -3.242 4.208 -0 -1.2 0
15.487 -6.539 9.158 -0 -1.2 0
15.473 -6.873 9.158 -0 -1.2 0
15.486 -7.221 9.174 -0 -1.2 0
15.469 -7.562 9.173 -0 -1.2 0
15.087 -7.744 8.969 -0 -1.2 0
15.375 -8.228 9.139 -0 -1.2 0
4.634 -3.308 3.14 -0 -1.2 0
17.297 -9.945 10.234 -0 -1.2 0
18.117 -10.807 10.705 -0 -1.2 0
18.885 -11.687 11.147 -0 -1.2 0
6.63 -4.93 4.273 -0 -1.2 0
6.478 -5.341 4.2 -0 -1.2 0
6.523 -5.545 4.23 -0 -1.2 0
6.658 -5.822 4.311 -0 -1.2 0
5.884 -5.426 3.878 -0 -1.2 0
5.945 -5.642 3.916 -0 -1.2 0
1.076 0.073 1.077 -0 -1.2 0
1.113 0.076 1.096 -0 -1.2 0
1.155 0.085 1.117 -0 -1.2 0
1.187 0.079 1.133 -0 -1.2 0
1.224 0.079 1.152 -0 -1.2 0
1.262 0.078 1.171 -0 -1.2 0
1.312 0.089 1.197 -0 -1.2 0
1.352 0.086 1.216 -0 -1.2 0
1.397 0.087 1.239 -0 -1.2 0
1.443 0.088 1.262 -0 -1.2 0
1.49 0.086 1.285 -0 -1.2 0
1.536 0.084 1.309 -0 -1.2 0
1.59 0.085 1.336 -0 -1.2 0
1.653 0.09 1.367 -0 -1.2 0
1.716 0.094 1.398 -0 -1.2 0
1.771 0.089 1.427 -0 -1.2 0
1.842 0.094 1.462 -0 -1.2 0
1.914 0.097 1.498 -0 -1.2 0
2.003 0.107 1.542 -0 -1.2 0
2.108 0.122 1.594 -0 -1.2 0
2.19 0.121 1.635 -0 -1.2 0
2.296 0.13 1.689 -0 -1.2 0
2.411 0.14 1.746 -0 -1.2 0
2.527 0.146 1.805 -0 -1.2 0
2.628 0.139 1.855 -0 -1.2 0
2.712 0.121 1.898 -0 -1.2 0
2.722 0.066 1.905 -0 -1.2 0
2.789 0.037 1.94 -0 -1.2 0
2.925 0.032 2.007 -0 -1.2 0
3.026 0.009 2.059 -0 -1.2 0
3.298 0.044 2.194 -0 -1.2 0
3.453 0.028 2.272 -0 -1.2 0
3.727 0.045 2.41 -0 -1.2 0
3.908 0.023 2.502 -0 -1.2 0
4.099 -0.003 2.598 -0 -1.2 0
4.464 0.008 2.781 -0 -1.2 0
4.829 0.004 2.965 -0 -1.2 0
5.188 -0.015 3.146 -0 -1.2 0
5.688 -0.021 3.397 -0 -1.2 0
6.243 -0.036 3.677 -0 -1.2 0
6.798 -0.073 3.956 -0 -1.2 0
7.603 -0.099 4.361 -0 -1.2 0
8.764 -0.116 4.945 -0 -1.2 0
10.942 -0.084 6.039 -0 -1.2 0
13.238 -0.128 7.194 -0 -1.2 0
15.301 -0.273 8.235 -0 -1.2 0
15.309 -0.569 8.245 -0 -1.2 0
15.312 -0.866 8.255 -0 -1.2 0
15.354 -1.163 8.283 -0 -1.2 0
15.366 -1.46 8.297 -0 -1.2 0
15.408 -1.76 8.326 -0 -1.2 0
15.482 -2.065 8.37 -0 -1.2 0
15.532 -2.371 8.404 -0 -1.2 0
15.56 -2.677 8.426 -0 -1.2 0
15.539 -2.98 8.423 -0 -1.2 0
15.557 -3.289 8.44 -0 -1.2 0
15.57 -3.599 8.455 -0 -1.2 0
15.604 -3.915 8.481 -0 -1.2 0
15.59 -4.224 8.482 -0 -1.2 0
5.664 -2.324 3.444 -0 -1.2 0
15.607 -4.86 8.506 -0 -1.2 0
15.595 -5.176 8.508 -0 -1.2 0
15.741 -5.541 8.591 -0 -1.2 0
15.451 -5.779 8.452 -0 -1.2 0
15.398 -6.087 8.433 -0 -1.2 0
15.408 -6.419 8.447 -0 -1.2 0
6.756 -3.546 4.025 -0 -1.2 0
15.42 -7.09 8.47 -0 -1.2 0
15.421 -7.431 8.479 -0 -1.2 0
15.242 -7.697 8.396 -0 -1.2 0
5.01 -3.336 3.142 -0 -1.2 0
16.106 -8.811 8.859 -0 -1.2 0
16.863 -9.572 9.259 -0 -1.2 0
4.693 -3.514 2.988 -0 -1.2 0
4.631 -3.591 2.958 -0 -1.2 0
4.581 -3.674 2.937 -0 -1.2 0
6.062 -5.65 3.732 -0 -1.2 0
1.1 0.081 1.058 -0 -1.2 0
1.132 0.076 1.072 -0 -1.2 0
1.175 0.086 1.092 -0 -1.2 0
1.207 0.079 1.107 -0 -1.2 0
1.245 0.079 1.124 -0 -1.2 0
1.291 0.086 1.144 -0 -1.2 0
1.329 0.083 1.163 -0 -1.2 0
1.375 0.086 1.183 -0 -1.2 0
1.422 0.088 1.204 -0 -1.2 0
1.468 0.088 1.226 -0 -1.2 0
1.516 0.087 1.247 -0 -1.2 0
1.563 0.084 1.269 -0 -1.2 0
1.618 0.085 1.294 -0 -1.2 0
1.682 0.09 1.323 -0 -1.2 0
1.738 0.088 1.349 -0 -1.2 0
1.81 0.095 1.382 -0 -1.2 0
1.875 0.094 1.411 -0 -1.2 0
1.948 0.097 1.444 -0 -1.2 0
2.038 0.107 1.486 -0 -1.2 0
2.153 0.128 1.538 -0 -1.2 0
2.228 0.121 1.572 -0 -1.2 0
2.353 0.139 1.628 -0 -1.2 0
2.437 0.131 1.667 -0 -1.2 0
2.564 0.141 1.725 -0 -1.2 0
2.658 0.13 1.768 -0 -1.2 0
2.71 0.098 1.792 -0 -1.2 0
2.72 0.044 1.799 -0 -1.2 0
2.822 0.03 1.846 -0 -1.2 0
2.993 0.039 1.924 -0 -1.2 0
3.14 0.031 1.991 -0 -1.2 0
3.287 0.02 2.058 -0 -1.2 0
3.557 0.042 2.181 -0 -1.2 0
3.741 0.028 2.265 -0 -1.2 0
3.934 0.01 2.354 -0 -1.2 0
4.26 0.02 2.503 -0 -1.2 0
4.543 0.006 2.632 -0 -1.2 0
4.844 -0.013 2.771 -0 -1.2 0
5.316 -0.008 2.986 -0 -1.2 0
5.727 -0.034 3.175 -0 -1.2 0
6.237 -0.058 3.408 -0 -1.2 0
6.964 -0.069 3.741 -0 -1.2 0
7.747 -0.101 4.099 -0 -1.2 0
8.938 -0.117 4.644 -0 -1.2 0
11.119 -0.091 5.639 -0 -1.2 0
13.392 -0.14 6.68 -0 -1.2 0
15.257 -0.297 7.535 -0 -1.2 0
15.265 -0.587 7.547 -0 -1.2 0
15.267 -0.877 7.556 -0 -1.2 0
15.302 -1.168 7.579 -0 -1.2 0
15.296 -1.459 7.584 -0 -1.2 0
15.302 -1.751 7.595 -0 -1.2 0
15.314 -2.043 7.608 -0 -1.2 0
15.312 -2.337 7.615 -0 -1.2 0
15.313 -2.631 7.624 -0 -1.2 0
15.32 -2.926 7.634 -0 -1.2 0
15.321 -3.223 7.643 -0 -1.2 0
15.318 -3.521 7.649 -0 -1.2 0
15.319 -3.821 7.658 -0 -1.2 0
15.324 -4.123 7.668 -0 -1.2 0
15.324 -4.427 7.676 -0 -1.2 0
15.328 -4.733 7.686 -0 -1.2 0
15.344 -5.045 7.702 -0 -1.2 0
15.346 -5.357 7.711 -0 -1.2 0
15.343 -5.67 7.718 -0 -1.2 0
15.344 -5.988 7.726 -0 -1.2 0
6.986 -3.441 3.841 -0 -1.2 0
15.353 -6.637 7.748 -0 -1.2 0
15.362 -6.968 7.761 -0 -1.2 0
6.911 -3.854 3.817 -0 -1.2 0
15.338 -7.628 7.767 -0 -1.2 0
14.902 -7.772 7.572 -0 -1.2 0
15.531 -8.408 7.876 -0 -1.2 0
16.498 -9.246 8.341 -0 -1.2 0
17.255 -10.026 8.706 -0 -1.2 0
18.047 -10.869 9.091 -0 -1.2 0
4.777 -3.74 2.838 -0 -1.2 0
19.662 -12.71 9.878 -0 -1.2 0
1.11 0.074 1.034 -0 -1.2 0
1.136 0.062 1.046 -0 -1.2 0
1.18 0.072 1.063 -0 -1.2 0
1.224 0.08 1.082 -0 -1.2 0
1.257 0.074 1.095 -0 -1.2 0
1.302 0.079 1.115 -0 -1.2 0
1.342 0.077 1.131 -0 -1.2 0
1.388 0.08 1.15 -0 -1.2 0
1.435 0.082 1.169 -0 -1.2 0
1.49 0.088 1.192 -0 -1.2 0
1.538 0.087 1.212 -0 -1.2 0
1.594 0.09 1.236 -0 -1.2 0
1.642 0.085 1.256 -0 -1.2 0
1.699 0.085 1.28 -0 -1.2 0
1.755 0.083 1.302 -0 -1.2 0
1.829 0.09 1.333 -0 -1.2 0
1.895 0.089 1.361 -0 -1.2 0
1.977 0.097 1.394 -0 -1.2 0
2.06 0.102 1.429 -0 -1.2 0
2.16 0.113 1.47 -0 -1.2 0
2.261 0.121 1.512 -0 -1.2 0
2.379 0.135 1.561 -0 -1.2 0
2.473 0.131 1.6 -0 -1.2 0
2.585 0.132 1.647 -0 -1.2 0
2.671 0.119 1.683 -0 -1.2 0
2.69 0.071 1.692 -0 -1.2 0
2.716 0.025 1.704 -0 -1.2 0
2.855 0.026 1.762 -0 -1.2 0
3.003 0.025 1.823 -0 -1.2 0
3.178 0.028 1.896 -0 -1.2 0
3.283 0.001 1.941 -0 -1.2 0
3.539 0.019 2.046 -0 -1.2 0
3.788 0.024 2.15 -0 -1.2 0
3.965 0.001 2.224 -0 -1.2 0
4.117 -0.035 2.289 -0 -1.2 0
3.419 -0.284 2.005 -0 -1.2 0
3.413 -0.351 2.004 -0 -1.2 0
3.424 -0.412 2.011 -0 -1.2 0
3.415 -0.479 2.008 -0 -1.2 0
6.349 -0.057 3.218 -0 -1.2 0
4.348 -0.469 2.396 -0 -1.2 0
4.402 -0.542 2.421 -0 -1.2 0
8.723 -0.158 4.208 -0 -1.2 0
11.037 -0.116 5.17 -0 -1.2 0
13.419 -0.157 6.162 -0 -1.2 0
3.316 -0.923 1.98 -0 -1.2 0
15.218 -0.602 6.922 -0 -1.2 0
15.211 -0.887 6.927 -0 -1.2 0
15.237 -1.172 6.946 -0 -1.2 0
15.24 -1.458 6.954 -0 -1.2 0
15.219 -1.743 6.954 -0 -1.2 0
15.259 -2.032 6.978 -0 -1.2 0
15.257 -2.319 6.985 -0 -1.2 0
15.268 -2.609 6.998 -0 -1.2 0
15.275 -2.9 7.009 -0 -1.2 0
15.269 -3.19 7.014 -0 -1.2 0
15.266 -3.482 7.021 -0 -1.2 0
