# .PCD v.7 - Point Cloud Data file format
FIELDS x y z vp_x vp_y vp_z
SIZE 4 4 4 4 4 4
TYPE F F F F F F
COUNT 1 1 1 1 1 1
WIDTH 1470
HEIGHT 1
VIEWPOINT 0 -1.20014 0 1 0 0 0
POINTS 1470
DATA ascii
24.704 -17.675 -5.23 -0 -1.2 0
24.417 -18.109 -5.17 -0 -1.2 0
24.123 -18.537 -5.108 -0 -1.2 0
23.821 -18.96 -5.045 -0 -1.2 0
23.512 -19.378 -4.98 -0 -1.2 0
23.197 -19.791 -4.914 -0 -1.2 0
22.874 -20.197 -4.848 -0 -1.2 0
22.543 -20.598 -4.779 -0 -1.2 0
22.207 -20.993 -4.709 -0 -1.2 0
21.864 -21.382 -4.639 -0 -1.2 0
21.513 -21.765 -4.566 -0 -1.2 0
29.371 -0.876 -7.306 -0 -1.2 0
29.371 -1.399 -7.3 -0 -1.2 0
29.363 -1.924 -7.292 -0 -1.2 0
29.346 -2.446 -7.282 -0 -1.2 0
29.285 -3.491 -7.254 -0 -1.2 0
24.813 -17.249 -6.068 -0 -1.2 0
24.535 -17.689 -5.999 -0 -1.2 0
24.251 -18.122 -5.929 -0 -1.2 0
23.958 -18.551 -5.857 -0 -1.2 0
23.659 -18.973 -5.783 -0 -1.2 0
23.352 -19.391 -5.708 -0 -1.2 0
23.039 -19.803 -5.633 -0 -1.2 0
22.718 -20.21 -5.554 -0 -1.2 0
22.39 -20.61 -5.474 -0 -1.2 0
22.055 -21.005 -5.394 -0 -1.2 0
21.715 -21.394 -5.311 -0 -1.2 0
21.367 -21.777 -5.228 -0 -1.2 0
29.126 -0.366 -8.254 -0 -1.2 0
29.135 -0.889 -8.25 -0 -1.2 0
29.136 -1.412 -8.244 -0 -1.2 0
29.129 -1.936 -8.235 -0 -1.2 0
29.112 -2.459 -8.224 -0 -1.2 0
29.086 -2.981 -8.21 -0 -1.2 0
29.052 -3.503 -8.194 -0 -1.2 0
28.895 -5.066 -8.133 -0 -1.2 0
27.652 -10.666 -7.733 -0 -1.2 0
23.473 -18.983 -6.527 -0 -1.2 0
23.169 -19.401 -6.441 -0 -1.2 0
22.857 -19.813 -6.355 -0 -1.2 0
22.54 -20.219 -6.266 -0 -1.2 0
22.214 -20.619 -6.175 -0 -1.2 0
21.883 -21.014 -6.083 -0 -1.2 0
21.545 -21.402 -5.989 -0 -1.2 0
21.2 -21.785 -5.894 -0 -1.2 0
28.835 -0.376 -9.268 -0 -1.2 0
28.845 -0.899 -9.263 -0 -1.2 0
28.846 -1.422 -9.256 -0 -1.2 0
28.838 -1.946 -9.247 -0 -1.2 0
28.822 -2.469 -9.235 -0 -1.2 0
28.796 -2.992 -9.22 -0 -1.2 0
28.762 -3.514 -9.202 -0 -1.2 0
28.065 -8.162 -8.928 -0 -1.2 0
27.816 -9.175 -8.839 -0 -1.2 0
23.539 -18.569 -7.421 -0 -1.2 0
23.245 -18.991 -7.326 -0 -1.2 0
22.944 -19.409 -7.23 -0 -1.2 0
22.636 -19.821 -7.131 -0 -1.2 0
22.321 -20.227 -7.031 -0 -1.2 0
22 -20.627 -6.929 -0 -1.2 0
21.671 -21.021 -6.825 -0 -1.2 0
21.336 -21.41 -6.718 -0 -1.2 0
20.995 -21.793 -6.611 -0 -1.2 0
23.586 -18.148 -8.254 -0 -1.2 0
23.303 -18.576 -8.152 -0 -1.2 0
22.714 -19.416 -7.942 -0 -1.2 0
22.409 -19.828 -7.833 -0 -1.2 0
22.098 -20.234 -7.722 -0 -1.2 0
21.78 -20.634 -7.609 -0 -1.2 0
21.455 -21.028 -7.494 -0 -1.2 0
21.124 -21.417 -7.377 -0 -1.2 0
20.786 -21.799 -7.257 -0 -1.2 0
22.469 -19.424 -8.622 -0 -1.2 0
22.168 -19.836 -8.505 -0 -1.2 0
21.86 -20.241 -8.383 -0 -1.2 0
21.546 -20.641 -8.261 -0 -1.2 0
21.225 -21.036 -8.135 -0 -1.2 0
20.897 -21.424 -8.008 -0 -1.2 0
20.563 -21.806 -7.877 -0 -1.2 0
21.58 -20.25 -9.089 -0 -1.2 0
21.271 -20.65 -8.955 -0 -1.2 0
20.954 -21.044 -8.818 -0 -1.2 0
20.631 -21.432 -8.679 -0 -1.2 0
20.301 -21.814 -8.538 -0 -1.2 0
21.3 -20.258 -9.733 -0 -1.2 0
20.993 -20.657 -9.59 -0 -1.2 0
20.682 -21.051 -9.442 -0 -1.2 0
20.363 -21.439 -9.293 -0 -1.2 0
20.038 -21.821 -9.141 -0 -1.2 0
24.081 -15.051 -11.989 -0 -1.2 0
21.572 -19.449 -10.686 -0 -1.2 0
21.283 -19.861 -10.538 -0 -1.2 0
20.989 -20.266 -10.386 -0 -1.2 0
20.687 -20.666 -10.233 -0 -1.2 0
20.381 -21.059 -10.075 -0 -1.2 0
20.067 -21.447 -9.916 -0 -1.2 0
19.747 -21.829 -9.753 -0 -1.2 0
21.199 -19.455 -11.413 -0 -1.2 0
20.916 -19.866 -11.255 -0 -1.2 0
20.628 -20.271 -11.092 -0 -1.2 0
20.331 -20.671 -10.927 -0 -1.2 0
20.03 -21.065 -10.759 -0 -1.2 0
19.724 -21.452 -10.588 -0 -1.2 0
19.41 -21.834 -10.414 -0 -1.2 0
20.275 -20.272 -11.735 -0 -1.2 0
19.985 -20.672 -11.559 -0 -1.2 0
19.69 -21.065 -11.38 -0 -1.2 0
19.389 -21.453 -11.198 -0 -1.2 0
19.081 -21.835 -11.013 -0 -1.2 0
20.176 -19.869 -12.546 -0 -1.2 0
19.9 -20.274 -12.364 -0 -1.2 0
19.616 -20.674 -12.179 -0 -1.2 0
19.328 -21.067 -11.99 -0 -1.2 0
19.033 -21.455 -11.798 -0 -1.2 0
18.732 -21.837 -11.602 -0 -1.2 0
20.247 -19.046 -13.617 -0 -1.2 0
19.989 -19.462 -13.433 -0 -1.2 0
19.726 -19.874 -13.245 -0 -1.2 0
19.456 -20.279 -13.052 -0 -1.2 0
19.18 -20.678 -12.856 -0 -1.2 0
18.898 -21.072 -12.656 -0 -1.2 0
18.611 -21.459 -12.452 -0 -1.2 0
18.317 -21.841 -12.245 -0 -1.2 0
19.784 -19.052 -14.276 -0 -1.2 0
19.534 -19.468 -14.083 -0 -1.2 0
19.277 -19.879 -13.884 -0 -1.2 0
19.014 -20.285 -13.682 -0 -1.2 0
18.746 -20.684 -13.476 -0 -1.2 0
18.472 -21.077 -13.266 -0 -1.2 0
18.192 -21.465 -13.051 -0 -1.2 0
17.907 -21.846 -12.834 -0 -1.2 0
20.431 -16.898 -15.866 -0 -1.2 0
19.77 -18.21 -15.31 -0 -1.2 0
19.538 -18.638 -15.117 -0 -1.2 0
19.3 -19.059 -14.918 -0 -1.2 0
19.056 -19.476 -14.714 -0 -1.2 0
18.806 -19.887 -14.507 -0 -1.2 0
18.551 -20.292 -14.296 -0 -1.2 0
18.29 -20.691 -14.079 -0 -1.2 0
18.024 -21.084 -13.859 -0 -1.2 0
17.752 -21.472 -13.635 -0 -1.2 0
17.474 -21.853 -13.407 -0 -1.2 0
21.121 -13.685 -17.764 -0 -1.2 0
20.958 -14.158 -17.61 -0 -1.2 0
20.788 -14.628 -17.452 -0 -1.2 0
19.426 -17.789 -16.199 -0 -1.2 0
19.208 -18.221 -16.001 -0 -1.2 0
18.984 -18.648 -15.797 -0 -1.2 0
18.753 -19.069 -15.589 -0 -1.2 0
18.517 -19.486 -15.376 -0 -1.2 0
18.276 -19.897 -15.159 -0 -1.2 0
18.029 -20.301 -14.937 -0 -1.2 0
17.777 -20.7 -14.711 -0 -1.2 0
17.519 -21.093 -14.48 -0 -1.2 0
17.256 -21.481 -14.245 -0 -1.2 0
16.987 -21.862 -14.006 -0 -1.2 0
20.662 -13.223 -18.607 -0 -1.2 0
20.511 -13.701 -18.453 -0 -1.2 0
20.352 -14.173 -18.294 -0 -1.2 0
20.188 -14.643 -18.129 -0 -1.2 0
20.018 -15.107 -17.958 -0 -1.2 0
19.842 -15.568 -17.783 -0 -1.2 0
19.077 -17.365 -17.027 -0 -1.2 0
18.872 -17.802 -16.825 -0 -1.2 0
18.66 -18.234 -16.619 -0 -1.2 0
18.443 -18.661 -16.407 -0 -1.2 0
18.22 -19.083 -16.191 -0 -1.2 0
17.992 -19.499 -15.97 -0 -1.2 0
17.758 -19.909 -15.744 -0 -1.2 0
17.519 -20.314 -15.513 -0 -1.2 0
17.275 -20.713 -15.279 -0 -1.2 0
17.025 -21.106 -15.039 -0 -1.2 0
16.77 -21.493 -14.795 -0 -1.2 0
16.511 -21.874 -14.546 -0 -1.2 0
20.167 -12.767 -19.424 -0 -1.2 0
20.026 -13.247 -19.271 -0 -1.2 0
19.879 -13.724 -19.112 -0 -1.2 0
19.725 -14.196 -18.947 -0 -1.2 0
19.567 -14.666 -18.777 -0 -1.2 0
19.402 -15.13 -18.6 -0 -1.2 0
19.231 -15.591 -18.419 -0 -1.2 0
19.055 -16.047 -18.231 -0 -1.2 0
18.872 -16.498 -18.039 -0 -1.2 0
18.684 -16.945 -17.841 -0 -1.2 0
18.491 -17.386 -17.638 -0 -1.2 0
18.292 -17.824 -17.429 -0 -1.2 0
18.086 -18.256 -17.216 -0 -1.2 0
17.876 -18.682 -16.997 -0 -1.2 0
17.661 -19.103 -16.773 -0 -1.2 0
17.439 -19.519 -16.545 -0 -1.2 0
17.213 -19.929 -16.31 -0 -1.2 0
16.981 -20.334 -16.072 -0 -1.2 0
16.744 -20.732 -15.828 -0 -1.2 0
16.503 -21.125 -15.581 -0 -1.2 0
16.256 -21.512 -15.328 -0 -1.2 0
16.005 -21.893 -15.071 -0 -1.2 0
19.451 -12.791 -20.122 -0 -1.2 0
19.315 -13.27 -19.963 -0 -1.2 0
19.174 -13.747 -19.799 -0 -1.2 0
19.026 -14.219 -19.629 -0 -1.2 0
18.873 -14.689 -19.452 -0 -1.2 0
18.714 -15.153 -19.27 -0 -1.2 0
18.549 -15.614 -19.082 -0 -1.2 0
18.38 -16.069 -18.889 -0 -1.2 0
18.204 -16.52 -18.69 -0 -1.2 0
18.023 -16.967 -18.485 -0 -1.2 0
17.836 -17.408 -18.275 -0 -1.2 0
17.644 -17.845 -18.059 -0 -1.2 0
17.447 -18.277 -17.839 -0 -1.2 0
17.244 -18.703 -17.612 -0 -1.2 0
17.036 -19.124 -17.38 -0 -1.2 0
16.823 -19.54 -17.143 -0 -1.2 0
16.605 -19.95 -16.901 -0 -1.2 0
16.382 -20.354 -16.654 -0 -1.2 0
16.153 -20.752 -16.403 -0 -1.2 0
15.92 -21.144 -16.146 -0 -1.2 0
15.682 -21.531 -15.884 -0 -1.2 0
15.44 -21.911 -15.619 -0 -1.2 0
18.767 -12.811 -20.743 -0 -1.2 0
18.636 -13.29 -20.58 -0 -1.2 0
18.5 -13.767 -20.41 -0 -1.2 0
18.358 -14.239 -20.236 -0 -1.2 0
18.211 -14.708 -20.054 -0 -1.2 0
18.057 -15.172 -19.867 -0 -1.2 0
17.899 -15.633 -19.673 -0 -1.2 0
17.735 -16.088 -19.474 -0 -1.2 0
17.565 -16.539 -19.269 -0 -1.2 0
17.39 -16.986 -19.058 -0 -1.2 0
17.211 -17.427 -18.842 -0 -1.2 0
17.026 -17.864 -18.62 -0 -1.2 0
16.835 -18.295 -18.392 -0 -1.2 0
16.64 -18.721 -18.16 -0 -1.2 0
16.44 -19.141 -17.92 -0 -1.2 0
16.234 -19.557 -17.677 -0 -1.2 0
16.024 -19.967 -17.428 -0 -1.2 0
15.809 -20.371 -17.173 -0 -1.2 0
15.589 -20.768 -16.914 -0 -1.2 0
15.363 -21.161 -16.65 -0 -1.2 0
15.135 -21.547 -16.381 -0 -1.2 0
14.901 -21.927 -16.106 -0 -1.2 0
18.075 -12.829 -21.329 -0 -1.2 0
17.949 -13.308 -21.162 -0 -1.2 0
17.819 -13.785 -20.988 -0 -1.2 0
17.681 -14.257 -20.808 -0 -1.2 0
17.54 -14.726 -20.623 -0 -1.2 0
17.392 -15.19 -20.431 -0 -1.2 0
17.24 -15.65 -20.232 -0 -1.2 0
17.083 -16.105 -20.028 -0 -1.2 0
16.919 -16.556 -19.817 -0 -1.2 0
16.751 -17.002 -19.6 -0 -1.2 0
16.579 -17.443 -19.378 -0 -1.2 0
16.4 -17.88 -19.15 -0 -1.2 0
16.218 -18.311 -18.917 -0 -1.2 0
16.03 -18.737 -18.677 -0 -1.2 0
15.837 -19.157 -18.432 -0 -1.2 0
15.639 -19.573 -18.181 -0 -1.2 0
15.436 -19.982 -17.925 -0 -1.2 0
15.23 -20.386 -17.665 -0 -1.2 0
15.018 -20.783 -17.398 -0 -1.2 0
14.801 -21.175 -17.126 -0 -1.2 0
14.581 -21.561 -16.85 -0 -1.2 0
14.356 -21.941 -16.567 -0 -1.2 0
17.309 -12.847 -21.938 -0 -1.2 0
17.189 -13.326 -21.766 -0 -1.2 0
17.064 -13.803 -21.588 -0 -1.2 0
16.933 -14.274 -21.404 -0 -1.2 0
16.798 -14.743 -21.212 -0 -1.2 0
16.656 -15.207 -21.015 -0 -1.2 0
16.511 -15.667 -20.81 -0 -1.2 0
16.359 -16.122 -20.601 -0 -1.2 0
16.204 -16.572 -20.385 -0 -1.2 0
16.043 -17.019 -20.162 -0 -1.2 0
15.878 -17.459 -19.934 -0 -1.2 0
15.708 -17.896 -19.7 -0 -1.2 0
15.533 -18.327 -19.46 -0 -1.2 0
15.352 -18.753 -19.213 -0 -1.2 0
15.169 -19.173 -18.962 -0 -1.2 0
14.979 -19.588 -18.705 -0 -1.2 0
14.786 -19.997 -18.442 -0 -1.2 0
14.588 -20.401 -18.173 -0 -1.2 0
14.386 -20.798 -17.899 -0 -1.2 0
14.178 -21.19 -17.62 -0 -1.2 0
13.967 -21.576 -17.336 -0 -1.2 0
13.752 -21.955 -17.046 -0 -1.2 0
16.578 -12.861 -22.478 -0 -1.2 0
16.462 -13.341 -22.302 -0 -1.2 0
16.343 -13.817 -22.12 -0 -1.2 0
16.219 -14.289 -21.931 -0 -1.2 0
16.089 -14.757 -21.736 -0 -1.2 0
15.954 -15.221 -21.534 -0 -1.2 0
15.814 -15.681 -21.325 -0 -1.2 0
15.67 -16.136 -21.11 -0 -1.2 0
15.521 -16.586 -20.889 -0 -1.2 0
15.368 -17.032 -20.662 -0 -1.2 0
15.209 -17.473 -20.428 -0 -1.2 0
15.047 -17.909 -20.188 -0 -1.2 0
14.879 -18.34 -19.942 -0 -1.2 0
14.707 -18.766 -19.69 -0 -1.2 0
14.531 -19.186 -19.433 -0 -1.2 0
14.35 -19.601 -19.169 -0 -1.2 0
14.165 -20.01 -18.9 -0 -1.2 0
13.975 -20.413 -18.625 -0 -1.2 0
13.781 -20.81 -18.345 -0 -1.2 0
13.584 -21.202 -18.059 -0 -1.2 0
13.382 -21.587 -17.767 -0 -1.2 0
13.176 -21.967 -17.471 -0 -1.2 0
15.935 -12.39 -23.165 -0 -1.2 0
15.832 -12.874 -22.992 -0 -1.2 0
15.722 -13.354 -22.813 -0 -1.2 0
15.608 -13.83 -22.627 -0 -1.2 0
15.489 -14.301 -22.433 -0 -1.2 0
15.365 -14.77 -22.234 -0 -1.2 0
15.237 -15.234 -22.027 -0 -1.2 0
15.104 -15.693 -21.815 -0 -1.2 0
14.966 -16.148 -21.595 -0 -1.2 0
14.825 -16.598 -21.369 -0 -1.2 0
14.679 -17.044 -21.137 -0 -1.2 0
14.528 -17.485 -20.898 -0 -1.2 0
14.372 -17.921 -20.653 -0 -1.2 0
14.212 -18.352 -20.402 -0 -1.2 0
14.049 -18.777 -20.145 -0 -1.2 0
13.88 -19.197 -19.882 -0 -1.2 0
13.708 -19.612 -19.612 -0 -1.2 0
13.531 -20.021 -19.337 -0 -1.2 0
13.351 -20.424 -19.056 -0 -1.2 0
13.166 -20.821 -18.769 -0 -1.2 0
12.977 -21.212 -18.476 -0 -1.2 0
12.785 -21.598 -18.179 -0 -1.2 0
12.588 -21.977 -17.876 -0 -1.2 0
15.092 -12.441 -23.685 -0 -1.2 0
14.994 -12.924 -23.508 -0 -1.2 0
14.891 -13.403 -23.325 -0 -1.2 0
14.783 -13.879 -23.134 -0 -1.2 0
14.671 -14.35 -22.936 -0 -1.2 0
14.554 -14.818 -22.731 -0 -1.2 0
14.433 -15.281 -22.519 -0 -1.2 0
14.307 -15.741 -22.301 -0 -1.2 0
14.178 -16.195 -22.076 -0 -1.2 0
14.044 -16.645 -21.844 -0 -1.2 0
13.906 -17.09 -21.605 -0 -1.2 0
13.764 -17.53 -21.361 -0 -1.2 0
13.616 -17.966 -21.11 -0 -1.2 0
13.466 -18.396 -20.852 -0 -1.2 0
13.311 -18.821 -20.589 -0 -1.2 0
13.153 -19.24 -20.318 -0 -1.2 0
12.99 -19.654 -20.043 -0 -1.2 0
12.823 -20.063 -19.76 -0 -1.2 0
12.652 -20.465 -19.472 -0 -1.2 0
12.477 -20.862 -19.179 -0 -1.2 0
12.3 -21.253 -18.879 -0 -1.2 0
12.118 -21.637 -18.574 -0 -1.2 0
11.932 -22.016 -18.263 -0 -1.2 0
14.291 -12.487 -24.142 -0 -1.2 0
14.198 -12.971 -23.96 -0 -1.2 0
14.101 -13.449 -23.772 -0 -1.2 0
14 -13.925 -23.577 -0 -1.2 0
13.894 -14.395 -23.375 -0 -1.2 0
13.783 -14.863 -23.166 -0 -1.2 0
13.67 -15.326 -22.95 -0 -1.2 0
13.552 -15.785 -22.725 -0 -1.2 0
13.429 -16.239 -22.496 -0 -1.2 0
13.303 -16.688 -22.259 -0 -1.2 0
13.173 -17.133 -22.015 -0 -1.2 0
13.038 -17.572 -21.765 -0 -1.2 0
12.899 -18.008 -21.509 -0 -1.2 0
12.757 -18.437 -21.245 -0 -1.2 0
12.611 -18.862 -20.976 -0 -1.2 0
12.461 -19.28 -20.7 -0 -1.2 0
12.308 -19.694 -20.418 -0 -1.2 0
12.15 -20.102 -20.13 -0 -1.2 0
11.989 -20.504 -19.836 -0 -1.2 0
11.824 -20.9 -19.536 -0 -1.2 0
11.655 -21.29 -19.23 -0 -1.2 0
11.484 -21.674 -18.918 -0 -1.2 0
11.309 -22.052 -18.601 -0 -1.2 0
13.475 -12.534 -24.571 -0 -1.2 0
13.388 -13.017 -24.386 -0 -1.2 0
13.296 -13.495 -24.195 -0 -1.2 0
13.202 -13.971 -23.995 -0 -1.2 0
13.102 -14.441 -23.789 -0 -1.2 0
12.999 -14.908 -23.575 -0 -1.2 0
12.893 -15.371 -23.355 -0 -1.2 0
12.781 -15.829 -23.126 -0 -1.2 0
12.666 -16.283 -22.892 -0 -1.2 0
12.547 -16.731 -22.65 -0 -1.2 0
12.426 -17.176 -22.402 -0 -1.2 0
12.299 -17.615 -22.146 -0 -1.2 0
12.169 -18.05 -21.885 -0 -1.2 0
12.035 -18.479 -21.617 -0 -1.2 0
11.898 -18.903 -21.341 -0 -1.2 0
11.758 -19.321 -21.06 -0 -1.2 0
11.613 -19.734 -20.773 -0 -1.2 0
11.465 -20.141 -20.479 -0 -1.2 0
11.313 -20.543 -20.178 -0 -1.2 0
11.159 -20.938 -19.872 -0 -1.2 0
11.001 -21.327 -19.56 -0 -1.2 0
10.839 -21.711 -19.243 -0 -1.2 0
10.673 -22.089 -18.919 -0 -1.2 0
12.659 -12.1 -25.181 -0 -1.2 0
12.582 -12.585 -25 -0 -1.2 0
12.501 -13.067 -24.812 -0 -1.2 0
12.417 -13.545 -24.616 -0 -1.2 0
12.328 -14.02 -24.412 -0 -1.2 0
12.237 -14.49 -24.203 -0 -1.2 0
12.141 -14.957 -23.985 -0 -1.2 0
12.041 -15.419 -23.759 -0 -1.2 0
11.939 -15.877 -23.527 -0 -1.2 0
11.832 -16.33 -23.287 -0 -1.2 0
11.722 -16.778 -23.04 -0 -1.2 0
11.608 -17.222 -22.787 -0 -1.2 0
11.491 -17.66 -22.527 -0 -1.2 0
11.369 -18.095 -22.26 -0 -1.2 0
11.246 -18.523 -21.986 -0 -1.2 0
11.118 -18.947 -21.706 -0 -1.2 0
10.988 -19.364 -21.419 -0 -1.2 0
10.853 -19.777 -21.125 -0 -1.2 0
10.716 -20.183 -20.826 -0 -1.2 0
10.574 -20.584 -20.52 -0 -1.2 0
10.431 -20.979 -20.208 -0 -1.2 0
10.283 -21.368 -19.889 -0 -1.2 0
10.133 -21.751 -19.566 -0 -1.2 0
9.98 -22.128 -19.235 -0 -1.2 0
11.811 -12.147 -25.554 -0 -1.2 0
11.74 -12.632 -25.371 -0 -1.2 0
11.666 -13.114 -25.178 -0 -1.2 0
11.588 -13.591 -24.979 -0 -1.2 0
11.505 -14.066 -24.772 -0 -1.2 0
11.421 -14.535 -24.557 -0 -1.2 0
11.332 -15.001 -24.336 -0 -1.2 0
11.239 -15.463 -24.107 -0 -1.2 0
11.144 -15.921 -23.871 -0 -1.2 0
11.045 -16.373 -23.627 -0 -1.2 0
10.943 -16.821 -23.376 -0 -1.2 0
10.837 -17.265 -23.118 -0 -1.2 0
10.729 -17.703 -22.853 -0 -1.2 0
10.617 -18.136 -22.582 -0 -1.2 0
10.501 -18.564 -22.303 -0 -1.2 0
10.382 -18.987 -22.018 -0 -1.2 0
10.261 -19.404 -21.727 -0 -1.2 0
10.136 -19.816 -21.428 -0 -1.2 0
10.009 -20.222 -21.123 -0 -1.2 0
9.878 -20.623 -20.812 -0 -1.2 0
9.744 -21.017 -20.495 -0 -1.2 0
9.607 -21.405 -20.171 -0 -1.2 0
9.468 -21.787 -19.842 -0 -1.2 0
9.325 -22.164 -19.507 -0 -1.2 0
11.015 -11.706 -26.079 -0 -1.2 0
10.952 -12.194 -25.899 -0 -1.2 0
10.887 -12.678 -25.712 -0 -1.2 0
10.819 -13.16 -25.516 -0 -1.2 0
10.747 -13.637 -25.315 -0 -1.2 0
10.671 -14.111 -25.104 -0 -1.2 0
10.594 -14.58 -24.886 -0 -1.2 0
10.512 -15.046 -24.661 -0 -1.2 0
10.427 -15.507 -24.428 -0 -1.2 0
10.34 -15.964 -24.188 -0 -1.2 0
10.248 -16.417 -23.94 -0 -1.2 0
10.154 -16.864 -23.686 -0 -1.2 0
10.056 -17.307 -23.424 -0 -1.2 0
9.957 -17.745 -23.155 -0 -1.2 0
9.853 -18.178 -22.879 -0 -1.2 0
9.747 -18.605 -22.597 -0 -1.2 0
9.638 -19.028 -22.306 -0 -1.2 0
9.525 -19.444 -22.01 -0 -1.2 0
9.411 -19.856 -21.708 -0 -1.2 0
9.292 -20.261 -21.399 -0 -1.2 0
9.173 -20.661 -21.082 -0 -1.2 0
9.049 -21.055 -20.76 -0 -1.2 0
8.923 -21.442 -20.432 -0 -1.2 0
8.793 -21.824 -20.097 -0 -1.2 0
8.662 -22.2 -19.756 -0 -1.2 0
10.068 -11.757 -26.42 -0 -1.2 0
10.013 -12.244 -26.238 -0 -1.2 0
9.954 -12.728 -26.048 -0 -1.2 0
9.891 -13.209 -25.85 -0 -1.2 0
9.827 -13.686 -25.643 -0 -1.2 0
9.76 -14.159 -25.43 -0 -1.2 0
9.688 -14.628 -25.208 -0 -1.2 0
9.614 -15.094 -24.98 -0 -1.2 0
9.538 -15.555 -24.743 -0 -1.2 0
9.458 -16.011 -24.499 -0 -1.2 0
9.376 -16.463 -24.248 -0 -1.2 0
9.29 -16.91 -23.99 -0 -1.2 0
9.202 -17.353 -23.724 -0 -1.2 0
9.111 -17.789 -23.451 -0 -1.2 0
9.018 -18.222 -23.171 -0 -1.2 0
8.922 -18.649 -22.883 -0 -1.2 0
8.823 -19.071 -22.59 -0 -1.2 0
8.721 -19.487 -22.289 -0 -1.2 0
8.616 -19.898 -21.981 -0 -1.2 0
8.509 -20.303 -21.668 -0 -1.2 0
8.399 -20.702 -21.347 -0 -1.2 0
8.288 -21.095 -21.019 -0 -1.2 0
8.173 -21.482 -20.686 -0 -1.2 0
8.056 -21.863 -20.346 -0 -1.2 0
7.937 -22.238 -20.001 -0 -1.2 0
9.215 -11.297 -26.894 -0 -1.2 0
9.167 -11.788 -26.718 -0 -1.2 0
9.118 -12.275 -26.533 -0 -1.2 0
9.065 -12.758 -26.34 -0 -1.2 0
9.009 -13.24 -26.14 -0 -1.2 0
8.951 -13.716 -25.932 -0 -1.2 0
8.89 -14.19 -25.715 -0 -1.2 0
8.827 -14.658 -25.491 -0 -1.2 0
8.761 -15.123 -25.259 -0 -1.2 0
8.693 -15.584 -25.02 -0 -1.2 0
8.621 -16.04 -24.773 -0 -1.2 0
8.546 -16.492 -24.519 -0 -1.2 0
8.471 -16.938 -24.256 -0 -1.2 0
8.391 -17.381 -23.987 -0 -1.2 0
8.31 -17.817 -23.711 -0 -1.2 0
8.225 -18.25 -23.427 -0 -1.2 0
8.138 -18.676 -23.138 -0 -1.2 0
8.049 -19.098 -22.84 -0 -1.2 0
7.957 -19.513 -22.535 -0 -1.2 0
7.864 -19.924 -22.224 -0 -1.2 0
7.767 -20.329 -21.906 -0 -1.2 0
7.669 -20.727 -21.581 -0 -1.2 0
7.568 -21.12 -21.25 -0 -1.2 0
7.464 -21.506 -20.913 -0 -1.2 0
7.359 -21.887 -20.568 -0 -1.2 0
7.25 -22.262 -20.219 -0 -1.2 0
8.296 -11.325 -27.164 -0 -1.2 0
8.255 -11.816 -26.985 -0 -1.2 0
8.211 -12.303 -26.799 -0 -1.2 0
8.166 -12.786 -26.604 -0 -1.2 0
8.117 -13.267 -26.402 -0 -1.2 0
8.066 -13.744 -26.19 -0 -1.2 0
8.012 -14.217 -25.972 -0 -1.2 0
7.956 -14.685 -25.745 -0 -1.2 0
7.898 -15.15 -25.511 -0 -1.2 0
7.837 -15.61 -25.269 -0 -1.2 0
7.774 -16.066 -25.02 -0 -1.2 0
7.708 -16.518 -24.762 -0 -1.2 0
7.641 -16.964 -24.497 -0 -1.2 0
7.571 -17.406 -24.225 -0 -1.2 0
7.498 -17.842 -23.946 -0 -1.2 0
7.424 -18.274 -23.66 -0 -1.2 0
7.347 -18.701 -23.366 -0 -1.2 0
7.267 -19.122 -23.065 -0 -1.2 0
7.187 -19.537 -22.756 -0 -1.2 0
7.103 -19.947 -22.443 -0 -1.2 0
7.017 -20.352 -22.121 -0 -1.2 0
6.929 -20.75 -21.793 -0 -1.2 0
6.839 -21.142 -21.458 -0 -1.2 0
6.748 -21.529 -21.116 -0 -1.2 0
6.654 -21.909 -20.769 -0 -1.2 0
6.558 -22.283 -20.414 -0 -1.2 0
7.297 -11.356 -27.42 -0 -1.2 0
7.262 -11.847 -27.241 -0 -1.2 0
7.225 -12.333 -27.052 -0 -1.2 0
7.186 -12.816 -26.856 -0 -1.2 0
7.145 -13.297 -26.65 -0 -1.2 0
7.102 -13.773 -26.437 -0 -1.2 0
7.056 -14.246 -26.216 -0 -1.2 0
7.008 -14.714 -25.987 -0 -1.2 0
6.958 -15.179 -25.751 -0 -1.2 0
6.906 -15.639 -25.506 -0 -1.2 0
6.852 -16.095 -25.254 -0 -1.2 0
6.796 -16.546 -24.994 -0 -1.2 0
6.738 -16.991 -24.726 -0 -1.2 0
6.678 -17.433 -24.451 -0 -1.2 0
6.616 -17.869 -24.169 -0 -1.2 0
6.551 -18.301 -23.879 -0 -1.2 0
6.485 -18.727 -23.582 -0 -1.2 0
6.417 -19.148 -23.279 -0 -1.2 0
6.347 -19.563 -22.968 -0 -1.2 0
6.274 -19.973 -22.65 -0 -1.2 0
6.201 -20.377 -22.324 -0 -1.2 0
6.125 -20.775 -21.993 -0 -1.2 0
6.048 -21.167 -21.654 -0 -1.2 0
5.967 -21.553 -21.31 -0 -1.2 0
5.886 -21.933 -20.959 -0 -1.2 0
5.804 -22.306 -20.602 -0 -1.2 0
6.392 -10.891 -27.797 -0 -1.2 0
6.366 -11.384 -27.624 -0 -1.2 0
6.338 -11.875 -27.442 -0 -1.2 0
6.307 -12.361 -27.252 -0 -1.2 0
6.274 -12.844 -27.053 -0 -1.2 0
6.24 -13.325 -26.846 -0 -1.2 0
6.203 -13.8 -26.632 -0 -1.2 0
6.165 -14.273 -26.409 -0 -1.2 0
6.125 -14.741 -26.178 -0 -1.2 0
6.083 -15.205 -25.94 -0 -1.2 0
6.039 -15.665 -25.693 -0 -1.2 0
5.994 -16.121 -25.439 -0 -1.2 0
5.947 -16.571 -25.176 -0 -1.2 0
5.897 -17.017 -24.907 -0 -1.2 0
5.846 -17.459 -24.629 -0 -1.2 0
5.793 -17.894 -24.345 -0 -1.2 0
5.738 -18.326 -24.052 -0 -1.2 0
5.682 -18.751 -23.753 -0 -1.2 0
5.624 -19.172 -23.447 -0 -1.2 0
5.565 -19.587 -23.133 -0 -1.2 0
5.503 -19.996 -22.812 -0 -1.2 0
5.44 -20.4 -22.485 -0 -1.2 0
5.376 -20.797 -22.151 -0 -1.2 0
5.31 -21.189 -21.81 -0 -1.2 0
5.242 -21.575 -21.462 -0 -1.2 0
5.172 -21.954 -21.107 -0 -1.2 0
5.101 -22.328 -20.747 -0 -1.2 0
5.499 -10.422 -28.131 -0 -1.2 0
5.479 -10.919 -27.965 -0 -1.2 0
5.458 -11.411 -27.79 -0 -1.2 0
5.435 -11.902 -27.607 -0 -1.2 0
5.41 -12.388 -27.416 -0 -1.2 0
5.384 -12.871 -27.216 -0 -1.2 0
5.356 -13.351 -27.008 -0 -1.2 0
5.327 -13.827 -26.792 -0 -1.2 0
5.296 -14.299 -26.567 -0 -1.2 0
5.263 -14.767 -26.334 -0 -1.2 0
5.229 -15.231 -26.094 -0 -1.2 0
5.193 -15.691 -25.846 -0 -1.2 0
5.156 -16.146 -25.589 -0 -1.2 0
5.117 -16.596 -25.326 -0 -1.2 0
5.076 -17.042 -25.054 -0 -1.2 0
5.034 -17.483 -24.774 -0 -1.2 0
4.991 -17.918 -24.488 -0 -1.2 0
4.946 -18.35 -24.194 -0 -1.2 0
4.899 -18.775 -23.893 -0 -1.2 0
4.851 -19.195 -23.584 -0 -1.2 0
4.801 -19.61 -23.268 -0 -1.2 0
4.751 -20.019 -22.946 -0 -1.2 0
4.698 -20.422 -22.615 -0 -1.2 0
4.645 -20.819 -22.279 -0 -1.2 0
4.589 -21.211 -21.936 -0 -1.2 0
4.533 -21.596 -21.586 -0 -1.2 0
4.475 -21.975 -21.229 -0 -1.2 0
4.415 -22.348 -20.866 -0 -1.2 0
4.503 -10.452 -28.279 -0 -1.2 0
4.49 -10.948 -28.112 -0 -1.2 0
4.474 -11.441 -27.936 -0 -1.2 0
4.458 -11.931 -27.752 -0 -1.2 0
4.439 -12.417 -27.558 -0 -1.2 0
4.421 -12.9 -27.358 -0 -1.2 0
4.4 -13.38 -27.149 -0 -1.2 0
4.378 -13.855 -26.931 -0 -1.2 0
4.354 -14.327 -26.705 -0 -1.2 0
4.33 -14.794 -26.471 -0 -1.2 0
4.304 -15.259 -26.229 -0 -1.2 0
4.277 -15.718 -25.979 -0 -1.2 0
4.249 -16.173 -25.721 -0 -1.2 0
4.218 -16.623 -25.456 -0 -1.2 0
4.188 -17.068 -25.182 -0 -1.2 0
4.155 -17.509 -24.901 -0 -1.2 0
4.121 -17.944 -24.612 -0 -1.2 0
4.087 -18.375 -24.317 -0 -1.2 0
4.051 -18.8 -24.013 -0 -1.2 0
4.013 -19.22 -23.703 -0 -1.2 0
3.975 -19.634 -23.385 -0 -1.2 0
3.936 -20.043 -23.061 -0 -1.2 0
3.894 -20.446 -22.728 -0 -1.2 0
3.853 -20.843 -22.39 -0 -1.2 0
3.81 -21.234 -22.044 -0 -1.2 0
3.765 -21.619 -21.692 -0 -1.2 0
3.72 -21.998 -21.334 -0 -1.2 0
3.672 -22.371 -20.968 -0 -1.2 0
3.574 -10.479 -28.386 -0 -1.2 0
3.566 -10.975 -28.217 -0 -1.2 0
3.555 -11.468 -28.04 -0 -1.2 0
3.545 -11.958 -27.855 -0 -1.2 0
3.533 -12.444 -27.662 -0 -1.2 0
3.521 -12.926 -27.459 -0 -1.2 0
3.506 -13.406 -27.249 -0 -1.2 0
3.491 -13.881 -27.03 -0 -1.2 0
3.475 -14.353 -26.804 -0 -1.2 0
3.458 -14.82 -26.569 -0 -1.2 0
3.44 -15.284 -26.325 -0 -1.2 0
3.421 -15.743 -26.074 -0 -1.2 0
3.401 -16.198 -25.815 -0 -1.2 0
3.38 -16.648 -25.548 -0 -1.2 0
3.357 -17.093 -25.273 -0 -1.2 0
3.334 -17.533 -24.991 -0 -1.2 0
3.31 -17.968 -24.701 -0 -1.2 0
3.285 -18.399 -24.404 -0 -1.2 0
3.258 -18.824 -24.099 -0 -1.2 0
3.231 -19.243 -23.787 -0 -1.2 0
3.203 -19.657 -23.469 -0 -1.2 0
3.174 -20.066 -23.142 -0 -1.2 0
3.144 -20.468 -22.809 -0 -1.2 0
3.112 -20.865 -22.468 -0 -1.2 0
3.081 -21.255 -22.121 -0 -1.2 0
3.048 -21.64 -21.767 -0 -1.2 0
3.014 -22.018 -21.407 -0 -1.2 0
2.98 -22.391 -21.04 -0 -1.2 0
2.565 -10.005 -28.629 -0 -1.2 0
2.563 -10.504 -28.469 -0 -1.2 0
2.561 -11 -28.3 -0 -1.2 0
2.556 -11.492 -28.123 -0 -1.2 0
2.553 -11.982 -27.936 -0 -1.2 0
2.547 -12.468 -27.742 -0 -1.2 0
2.542 -12.95 -27.539 -0 -1.2 0
2.535 -13.43 -27.328 -0 -1.2 0
2.527 -13.904 -27.109 -0 -1.2 0
2.519 -14.376 -26.881 -0 -1.2 0
2.51 -14.843 -26.645 -0 -1.2 0
2.5 -15.307 -26.401 -0 -1.2 0
2.49 -15.765 -26.149 -0 -1.2 0
2.479 -16.22 -25.889 -0 -1.2 0
2.466 -16.67 -25.621 -0 -1.2 0
2.454 -17.114 -25.346 -0 -1.2 0
2.44 -17.555 -25.062 -0 -1.2 0
2.427 -17.989 -24.771 -0 -1.2 0
2.412 -18.42 -24.474 -0 -1.2 0
2.396 -18.844 -24.168 -0 -1.2 0
2.38 -19.264 -23.854 -0 -1.2 0
2.363 -19.677 -23.533 -0 -1.2 0
2.344 -20.086 -23.207 -0 -1.2 0
2.326 -20.488 -22.872 -0 -1.2 0
2.307 -20.884 -22.531 -0 -1.2 0
2.288 -21.274 -22.182 -0 -1.2 0
2.267 -21.659 -21.827 -0 -1.2 0
2.246 -22.037 -21.465 -0 -1.2 0
2.224 -22.409 -21.097 -0 -1.2 0
1.609 -10.025 -28.675 -0 -1.2 0
1.611 -10.523 -28.514 -0 -1.2 0
1.614 -11.019 -28.345 -0 -1.2 0
1.616 -11.511 -28.167 -0 -1.2 0
1.618 -12.001 -27.981 -0 -1.2 0
1.618 -12.487 -27.786 -0 -1.2 0
1.619 -12.969 -27.583 -0 -1.2 0
1.619 -13.448 -27.371 -0 -1.2 0
1.619 -13.923 -27.152 -0 -1.2 0
1.618 -14.395 -26.923 -0 -1.2 0
1.617 -14.861 -26.687 -0 -1.2 0
1.615 -15.325 -26.443 -0 -1.2 0
1.613 -15.783 -26.19 -0 -1.2 0
1.61 -16.238 -25.929 -0 -1.2 0
1.606 -16.687 -25.661 -0 -1.2 0
1.603 -17.132 -25.385 -0 -1.2 0
1.598 -17.572 -25.101 -0 -1.2 0
1.593 -18.007 -24.81 -0 -1.2 0
1.589 -18.437 -24.511 -0 -1.2 0
1.583 -18.861 -24.204 -0 -1.2 0
1.577 -19.28 -23.89 -0 -1.2 0
1.569 -19.694 -23.57 -0 -1.2 0
1.563 -20.102 -23.241 -0 -1.2 0
1.555 -20.504 -22.906 -0 -1.2 0
1.547 -20.9 -22.564 -0 -1.2 0
1.539 -21.29 -22.214 -0 -1.2 0
1.53 -21.674 -21.859 -0 -1.2 0
1.52 -22.052 -21.496 -0 -1.2 0
1.511 -22.424 -21.128 -0 -1.2 0
0.642 -9.543 -28.842 -0 -1.2 0
0.651 -10.044 -28.689 -0 -1.2 0
0.658 -10.542 -28.529 -0 -1.2 0
0.667 -11.038 -28.359 -0 -1.2 0
0.674 -11.53 -28.182 -0 -1.2 0
0.682 -12.019 -27.995 -0 -1.2 0
0.689 -12.505 -27.8 -0 -1.2 0
0.696 -12.987 -27.597 -0 -1.2 0
0.704 -13.466 -27.385 -0 -1.2 0
0.71 -13.941 -27.165 -0 -1.2 0
0.716 -14.413 -26.937 -0 -1.2 0
0.723 -14.879 -26.7 -0 -1.2 0
0.728 -15.343 -26.456 -0 -1.2 0
0.734 -15.801 -26.203 -0 -1.2 0
0.74 -16.255 -25.942 -0 -1.2 0
0.746 -16.704 -25.673 -0 -1.2 0
0.75 -17.149 -25.397 -0 -1.2 0
0.755 -17.589 -25.112 -0 -1.2 0
0.76 -18.023 -24.82 -0 -1.2 0
0.765 -18.453 -24.522 -0 -1.2 0
0.769 -18.877 -24.215 -0 -1.2 0
0.773 -19.296 -23.901 -0 -1.2 0
0.777 -19.709 -23.58 -0 -1.2 0
0.78 -20.117 -23.251 -0 -1.2 0
0.783 -20.519 -22.916 -0 -1.2 0
0.787 -20.915 -22.573 -0 -1.2 0
0.789 -21.305 -22.224 -0 -1.2 0
0.792 -21.688 -21.867 -0 -1.2 0
0.795 -22.066 -21.505 -0 -1.2 0
0.797 -22.438 -21.135 -0 -1.2 0
-0.33 -9.057 -28.967 -0 -1.2 0
-0.318 -9.561 -28.823 -0 -1.2 0
-0.304 -10.062 -28.672 -0 -1.2 0
-0.292 -10.56 -28.511 -0 -1.2 0
-0.278 -11.056 -28.342 -0 -1.2 0
-0.265 -11.548 -28.164 -0 -1.2 0
-0.252 -12.037 -27.978 -0 -1.2 0
-0.238 -12.523 -27.783 -0 -1.2 0
-0.224 -13.004 -27.58 -0 -1.2 0
-0.211 -13.484 -27.368 -0 -1.2 0
-0.197 -13.958 -27.148 -0 -1.2 0
-0.183 -14.43 -26.919 -0 -1.2 0
-0.169 -14.896 -26.683 -0 -1.2 0
-0.155 -15.359 -26.438 -0 -1.2 0
-0.142 -15.818 -26.185 -0 -1.2 0
-0.128 -16.272 -25.925 -0 -1.2 0
-0.113 -16.721 -25.656 -0 -1.2 0
-0.1 -17.165 -25.379 -0 -1.2 0
-0.085 -17.605 -25.096 -0 -1.2 0
-0.071 -18.039 -24.804 -0 -1.2 0
-0.057 -18.469 -24.505 -0 -1.2 0
-0.043 -18.893 -24.199 -0 -1.2 0
-0.029 -19.312 -23.884 -0 -1.2 0
-0.014 -19.724 -23.562 -0 -1.2 0
0 -20.132 -23.235 -0 -1.2 0
0.013 -20.534 -22.899 -0 -1.2 0
0.027 -20.929 -22.557 -0 -1.2 0
0.041 -21.319 -22.207 -0 -1.2 0
0.056 -21.702 -21.851 -0 -1.2 0
0.07 -22.08 -21.488 -0 -1.2 0
0.084 -22.451 -21.119 -0 -1.2 0
-1.38 -9.076 -28.912 -0 -1.2 0
-1.363 -9.58 -28.77 -0 -1.2 0
-1.344 -10.081 -28.617 -0 -1.2 0
-1.326 -10.579 -28.457 -0 -1.2 0
-1.307 -11.075 -28.288 -0 -1.2 0
-1.287 -11.566 -28.111 -0 -1.2 0
-1.267 -12.056 -27.924 -0 -1.2 0
-1.247 -12.541 -27.73 -0 -1.2 0
-1.227 -13.023 -27.527 -0 -1.2 0
-1.206 -13.502 -27.315 -0 -1.2 0
-1.184 -13.976 -27.095 -0 -1.2 0
-1.163 -14.447 -26.867 -0 -1.2 0
-1.14 -14.914 -26.631 -0 -1.2 0
-1.118 -15.377 -26.388 -0 -1.2 0
-1.095 -15.835 -26.135 -0 -1.2 0
-1.072 -16.289 -25.875 -0 -1.2 0
-1.048 -16.738 -25.606 -0 -1.2 0
-1.025 -17.182 -25.33 -0 -1.2 0
-1 -17.622 -25.047 -0 -1.2 0
-0.976 -18.055 -24.755 -0 -1.2 0
-0.952 -18.485 -24.456 -0 -1.2 0
-0.927 -18.909 -24.151 -0 -1.2 0
-0.901 -19.327 -23.837 -0 -1.2 0
-0.876 -19.74 -23.515 -0 -1.2 0
-0.85 -20.147 -23.188 -0 -1.2 0
-0.823 -20.549 -22.852 -0 -1.2 0
-0.798 -20.944 -22.511 -0 -1.2 0
-0.77 -21.334 -22.162 -0 -1.2 0
-0.744 -21.717 -21.806 -0 -1.2 0
-0.717 -22.094 -21.444 -0 -1.2 0
-0.69 -22.466 -21.076 -0 -1.2 0
-2.381 -8.588 -28.962 -0 -1.2 0
-2.358 -9.093 -28.828 -0 -1.2 0
-2.336 -9.597 -28.686 -0 -1.2 0
-2.314 -10.098 -28.534 -0 -1.2 0
-2.289 -10.596 -28.375 -0 -1.2 0
-2.265 -11.091 -28.206 -0 -1.2 0
-2.24 -11.583 -28.029 -0 -1.2 0
-2.214 -12.072 -27.843 -0 -1.2 0
-2.187 -12.557 -27.649 -0 -1.2 0
-2.16 -13.039 -27.446 -0 -1.2 0
-2.132 -13.518 -27.235 -0 -1.2 0
-2.104 -13.992 -27.016 -0 -1.2 0
-2.074 -14.463 -26.788 -0 -1.2 0
-2.045 -14.929 -26.553 -0 -1.2 0
-2.015 -15.392 -26.309 -0 -1.2 0
-1.983 -15.85 -26.058 -0 -1.2 0
-1.952 -16.304 -25.798 -0 -1.2 0
-1.92 -16.753 -25.53 -0 -1.2 0
-1.887 -17.197 -25.255 -0 -1.2 0
-1.853 -17.636 -24.972 -0 -1.2 0
-1.82 -18.07 -24.681 -0 -1.2 0
-1.785 -18.499 -24.384 -0 -1.2 0
-1.75 -18.923 -24.078 -0 -1.2 0
-1.715 -19.341 -23.765 -0 -1.2 0
-1.678 -19.754 -23.445 -0 -1.2 0
-1.642 -20.161 -23.117 -0 -1.2 0
-1.604 -20.562 -22.784 -0 -1.2 0
-1.566 -20.958 -22.443 -0 -1.2 0
-1.529 -21.347 -22.094 -0 -1.2 0
-1.49 -21.73 -21.74 -0 -1.2 0
-1.451 -22.107 -21.379 -0 -1.2 0
-1.411 -22.478 -21.01 -0 -1.2 0
-3.459 -8.097 -28.958 -0 -1.2 0
-3.433 -8.605 -28.834 -0 -1.2 0
-3.408 -9.111 -28.701 -0 -1.2 0
-3.381 -9.615 -28.559 -0 -1.2 0
-3.353 -10.115 -28.408 -0 -1.2 0
-3.323 -10.613 -28.249 -0 -1.2 0
-3.293 -11.108 -28.081 -0 -1.2 0
-3.261 -11.6 -27.905 -0 -1.2 0
-3.229 -12.089 -27.72 -0 -1.2 0
-3.196 -12.574 -27.526 -0 -1.2 0
-3.162 -13.055 -27.324 -0 -1.2 0
-3.127 -13.535 -27.114 -0 -1.2 0
-3.09 -14.009 -26.895 -0 -1.2 0
-3.053 -14.48 -26.67 -0 -1.2 0
-3.015 -14.946 -26.435 -0 -1.2 0
-2.975 -15.408 -26.192 -0 -1.2 0
-2.936 -15.866 -25.941 -0 -1.2 0
-2.895 -16.32 -25.683 -0 -1.2 0
-2.854 -16.769 -25.416 -0 -1.2 0
-2.811 -17.212 -25.141 -0 -1.2 0
-2.768 -17.652 -24.86 -0 -1.2 0
-2.724 -18.085 -24.57 -0 -1.2 0
-2.678 -18.514 -24.274 -0 -1.2 0
-2.632 -18.938 -23.969 -0 -1.2 0
-2.586 -19.356 -23.658 -0 -1.2 0
-2.538 -19.768 -23.339 -0 -1.2 0
-2.49 -20.175 -23.013 -0 -1.2 0
-2.441 -20.576 -22.679 -0 -1.2 0
-2.391 -20.971 -22.34 -0 -1.2 0
-2.34 -21.36 -21.993 -0 -1.2 0
-2.289 -21.743 -21.639 -0 -1.2 0
-2.238 -22.12 -21.28 -0 -1.2 0
-2.184 -22.491 -20.913 -0 -1.2 0
-4.443 -8.121 -28.8 -0 -1.2 0
-4.413 -8.629 -28.676 -0 -1.2 0
-4.383 -9.135 -28.543 -0 -1.2 0
-4.352 -9.638 -28.402 -0 -1.2 0
-4.319 -10.139 -28.252 -0 -1.2 0
-4.284 -10.636 -28.094 -0 -1.2 0
-4.249 -11.132 -27.926 -0 -1.2 0
-4.212 -11.623 -27.751 -0 -1.2 0
-4.173 -12.112 -27.567 -0 -1.2 0
-4.133 -12.597 -27.374 -0 -1.2 0
-4.093 -13.078 -27.173 -0 -1.2 0
-4.051 -13.557 -26.964 -0 -1.2 0
-4.008 -14.031 -26.746 -0 -1.2 0
-3.963 -14.502 -26.52 -0 -1.2 0
-3.917 -14.968 -26.286 -0 -1.2 0
-3.871 -15.43 -26.045 -0 -1.2 0
-3.823 -15.888 -25.795 -0 -1.2 0
-3.773 -16.341 -25.537 -0 -1.2 0
-3.723 -16.79 -25.272 -0 -1.2 0
-3.671 -17.233 -24.999 -0 -1.2 0
-3.619 -17.672 -24.718 -0 -1.2 0
-3.565 -18.106 -24.431 -0 -1.2 0
-3.511 -18.535 -24.135 -0 -1.2 0
-3.454 -18.958 -23.832 -0 -1.2 0
-3.397 -19.376 -23.521 -0 -1.2 0
-3.339 -19.788 -23.204 -0 -1.2 0
-3.281 -20.195 -22.879 -0 -1.2 0
-3.221 -20.595 -22.548 -0 -1.2 0
-3.159 -20.99 -22.209 -0 -1.2 0
-3.098 -21.379 -21.864 -0 -1.2 0
-3.035 -21.761 -21.513 -0 -1.2 0
-2.971 -22.138 -21.154 -0 -1.2 0
-2.906 -22.509 -20.789 -0 -1.2 0
-5.445 -7.645 -28.723 -0 -1.2 0
-5.414 -8.155 -28.608 -0 -1.2 0
-5.381 -8.662 -28.485 -0 -1.2 0
-5.346 -9.168 -28.352 -0 -1.2 0
-5.31 -9.671 -28.211 -0 -1.2 0
-5.273 -10.171 -28.061 -0 -1.2 0
-5.233 -10.669 -27.903 -0 -1.2 0
-5.192 -11.164 -27.737 -0 -1.2 0
-5.15 -11.655 -27.561 -0 -1.2 0
-5.106 -12.144 -27.378 -0 -1.2 0
-5.06 -12.629 -27.187 -0 -1.2 0
-5.013 -13.11 -26.987 -0 -1.2 0
-4.964 -13.588 -26.778 -0 -1.2 0
-4.914 -14.062 -26.561 -0 -1.2 0
-4.862 -14.533 -26.337 -0 -1.2 0
-4.809 -14.998 -26.104 -0 -1.2 0
-4.754 -15.46 -25.864 -0 -1.2 0
-4.698 -15.918 -25.615 -0 -1.2 0
-4.64 -16.371 -25.359 -0 -1.2 0
-4.582 -16.819 -25.095 -0 -1.2 0
-4.521 -17.262 -24.823 -0 -1.2 0
-4.459 -17.701 -24.544 -0 -1.2 0
-4.397 -18.134 -24.257 -0 -1.2 0
-4.332 -18.563 -23.963 -0 -1.2 0
-4.266 -18.986 -23.662 -0 -1.2 0
-4.199 -19.403 -23.353 -0 -1.2 0
-4.13 -19.815 -23.037 -0 -1.2 0
-4.062 -20.221 -22.714 -0 -1.2 0
-3.991 -20.622 -22.384 -0 -1.2 0
-3.918 -21.016 -22.048 -0 -1.2 0
-3.845 -21.404 -21.704 -0 -1.2 0
-3.771 -21.787 -21.355 -0 -1.2 0
-3.695 -22.163 -20.998 -0 -1.2 0
-3.618 -22.533 -20.635 -0 -1.2 0
-6.445 -7.165 -28.604 -0 -1.2 0
-6.413 -7.677 -28.498 -0 -1.2 0
-6.378 -8.186 -28.384 -0 -1.2 0
-6.341 -8.694 -28.261 -0 -1.2 0
-6.302 -9.199 -28.13 -0 -1.2 0
-6.262 -9.703 -27.989 -0 -1.2 0
-6.219 -10.203 -27.84 -0 -1.2 0
-6.175 -10.7 -27.683 -0 -1.2 0
-6.129 -11.195 -27.517 -0 -1.2 0
-6.082 -11.686 -27.344 -0 -1.2 0
-6.032 -12.175 -27.161 -0 -1.2 0
-5.98 -12.659 -26.97 -0 -1.2 0
-5.926 -13.14 -26.771 -0 -1.2 0
-5.87 -13.618 -26.564 -0 -1.2 0
-5.814 -14.092 -26.348 -0 -1.2 0
-5.755 -14.562 -26.125 -0 -1.2 0
-5.694 -15.027 -25.894 -0 -1.2 0
-5.632 -15.489 -25.654 -0 -1.2 0
-5.567 -15.946 -25.407 -0 -1.2 0
-5.502 -16.399 -25.153 -0 -1.2 0
-5.434 -16.847 -24.891 -0 -1.2 0
-5.365 -17.29 -24.621 -0 -1.2 0
-5.295 -17.729 -24.342 -0 -1.2 0
-5.222 -18.161 -24.057 -0 -1.2 0
-5.148 -18.59 -23.765 -0 -1.2 0
-5.072 -19.012 -23.466 -0 -1.2 0
-4.995 -19.429 -23.159 -0 -1.2 0
-4.917 -19.841 -22.845 -0 -1.2 0
-4.837 -20.247 -22.524 -0 -1.2 0
-4.755 -20.647 -22.196 -0 -1.2 0
-4.672 -21.041 -21.862 -0 -1.2 0
-4.588 -21.429 -21.52 -0 -1.2 0
-4.502 -21.811 -21.172 -0 -1.2 0
-4.415 -22.186 -20.819 -0 -1.2 0
-4.326 -22.556 -20.457 -0 -1.2 0
-7.516 -6.684 -28.421 -0 -1.2 0
-7.482 -7.198 -28.325 -0 -1.2 0
-7.445 -7.71 -28.22 -0 -1.2 0
-7.407 -8.219 -28.106 -0 -1.2 0
-7.366 -8.727 -27.984 -0 -1.2 0
-7.324 -9.232 -27.853 -0 -1.2 0
-7.278 -9.735 -27.714 -0 -1.2 0
-7.231 -10.235 -27.566 -0 -1.2 0
-7.181 -10.732 -27.41 -0 -1.2 0
-7.129 -11.227 -27.245 -0 -1.2 0
-7.076 -11.717 -27.073 -0 -1.2 0
-7.019 -12.206 -26.891 -0 -1.2 0
-6.961 -12.69 -26.702 -0 -1.2 0
-6.901 -13.171 -26.504 -0 -1.2 0
-6.839 -13.649 -26.299 -0 -1.2 0
-6.774 -14.122 -26.085 -0 -1.2 0
-6.708 -14.592 -25.863 -0 -1.2 0
-6.639 -15.057 -25.634 -0 -1.2 0
-6.569 -15.519 -25.396 -0 -1.2 0
-6.495 -15.976 -25.151 -0 -1.2 0
-6.421 -16.428 -24.898 -0 -1.2 0
-6.344 -16.876 -24.637 -0 -1.2 0
-6.266 -17.318 -24.37 -0 -1.2 0
-6.186 -17.757 -24.094 -0 -1.2 0
-6.103 -18.189 -23.811 -0 -1.2 0
-6.019 -18.617 -23.521 -0 -1.2 0
-5.933 -19.039 -23.224 -0 -1.2 0
-5.845 -19.456 -22.92 -0 -1.2 0
-5.756 -19.867 -22.608 -0 -1.2 0
-5.664 -20.273 -22.29 -0 -1.2 0
-5.571 -20.673 -21.965 -0 -1.2 0
-5.476 -21.066 -21.633 -0 -1.2 0
-5.38 -21.454 -21.294 -0 -1.2 0
-5.282 -21.835 -20.95 -0 -1.2 0
-5.182 -22.211 -20.598 -0 -1.2 0
-5.081 -22.58 -20.24 -0 -1.2 0
-8.473 -6.714 -28.13 -0 -1.2 0
-8.435 -7.227 -28.034 -0 -1.2 0
-8.397 -7.739 -27.929 -0 -1.2 0
-8.354 -8.248 -27.817 -0 -1.2 0
-8.311 -8.755 -27.695 -0 -1.2 0
-8.263 -9.26 -27.565 -0 -1.2 0
-8.214 -9.763 -27.427 -0 -1.2 0
-8.162 -10.263 -27.28 -0 -1.2 0
-8.108 -10.76 -27.125 -0 -1.2 0
-8.05 -11.255 -26.962 -0 -1.2 0
-7.992 -11.745 -26.79 -0 -1.2 0
-7.929 -12.234 -26.609 -0 -1.2 0
-7.865 -12.718 -26.421 -0 -1.2 0
-7.799 -13.198 -26.226 -0 -1.2 0
-7.73 -13.676 -26.022 -0 -1.2 0
-7.659 -14.149 -25.81 -0 -1.2 0
-7.585 -14.619 -25.59 -0 -1.2 0
-7.509 -15.084 -25.362 -0 -1.2 0
-7.43 -15.545 -25.126 -0 -1.2 0
-7.35 -16.002 -24.884 -0 -1.2 0
-7.267 -16.454 -24.633 -0 -1.2 0
-7.182 -16.901 -24.375 -0 -1.2 0
-7.095 -17.344 -24.108 -0 -1.2 0
-7.006 -17.782 -23.836 -0 -1.2 0
-6.914 -18.214 -23.555 -0 -1.2 0
-6.821 -18.642 -23.267 -0 -1.2 0
-6.726 -19.063 -22.973 -0 -1.2 0
-6.628 -19.48 -22.67 -0 -1.2 0
-6.528 -19.891 -22.362 -0 -1.2 0
-6.427 -20.296 -22.046 -0 -1.2 0
-6.323 -20.696 -21.724 -0 -1.2 0
-6.217 -21.089 -21.395 -0 -1.2 0
-6.11 -21.476 -21.059 -0 -1.2 0
-6.001 -21.857 -20.717 -0 -1.2 0
-5.89 -22.232 -20.37 -0 -1.2 0
-5.776 -22.601 -20.015 -0 -1.2 0
-9.552 -6.228 -27.86 -0 -1.2 0
-9.515 -6.743 -27.773 -0 -1.2 0
-9.475 -7.256 -27.678 -0 -1.2 0
-9.432 -7.768 -27.574 -0 -1.2 0
-9.387 -8.277 -27.462 -0 -1.2 0
-9.338 -8.784 -27.342 -0 -1.2 0
-9.287 -9.289 -27.213 -0 -1.2 0
-9.232 -9.792 -27.076 -0 -1.2 0
-9.176 -10.291 -26.93 -0 -1.2 0
-9.116 -10.788 -26.777 -0 -1.2 0
-9.054 -11.283 -26.615 -0 -1.2 0
-8.988 -11.773 -26.445 -0 -1.2 0
-8.921 -12.261 -26.267 -0 -1.2 0
-8.849 -12.745 -26.081 -0 -1.2 0
-8.775 -13.225 -25.887 -0 -1.2 0
-8.7 -13.703 -25.684 -0 -1.2 0
-8.621 -14.176 -25.475 -0 -1.2 0
-8.54 -14.645 -25.257 -0 -1.2 0
-8.456 -15.11 -25.032 -0 -1.2 0
-8.369 -15.571 -24.798 -0 -1.2 0
-8.28 -16.028 -24.559 -0 -1.2 0
-8.188 -16.48 -24.31 -0 -1.2 0
-8.094 -16.927 -24.054 -0 -1.2 0
-7.998 -17.369 -23.791 -0 -1.2 0
-7.899 -17.807 -23.522 -0 -1.2 0
-7.797 -18.238 -23.244 -0 -1.2 0
-7.694 -18.666 -22.96 -0 -1.2 0
-7.588 -19.087 -22.667 -0 -1.2 0
-7.479 -19.504 -22.369 -0 -1.2 0
-7.369 -19.914 -22.064 -0 -1.2 0
-7.256 -20.319 -21.751 -0 -1.2 0
-7.14 -20.718 -21.433 -0 -1.2 0
-7.023 -21.111 -21.107 -0 -1.2 0
-6.904 -21.498 -20.775 -0 -1.2 0
-6.782 -21.879 -20.437 -0 -1.2 0
-6.659 -22.253 -20.093 -0 -1.2 0
-6.533 -22.622 -19.743 -0 -1.2 0
-10.513 -6.255 -27.49 -0 -1.2 0
-10.474 -6.77 -27.404 -0 -1.2 0
-10.43 -7.283 -27.309 -0 -1.2 0
-10.385 -7.795 -27.206 -0 -1.2 0
-10.336 -8.304 -27.095 -0 -1.2 0
-10.283 -8.811 -26.977 -0 -1.2 0
-10.228 -9.316 -26.849 -0 -1.2 0
-10.17 -9.818 -26.713 -0 -1.2 0
-10.108 -10.318 -26.569 -0 -1.2 0
-10.044 -10.814 -26.417 -0 -1.2 0
-9.975 -11.309 -26.257 -0 -1.2 0
-9.905 -11.799 -26.088 -0 -1.2 0
-9.832 -12.287 -25.912 -0 -1.2 0
-9.755 -12.771 -25.728 -0 -1.2 0
-9.675 -13.251 -25.536 -0 -1.2 0
-9.592 -13.728 -25.336 -0 -1.2 0
-9.507 -14.201 -25.128 -0 -1.2 0
-9.419 -14.67 -24.913 -0 -1.2 0
-9.327 -15.135 -24.69 -0 -1.2 0
-9.233 -15.596 -24.46 -0 -1.2 0
-9.136 -16.052 -24.222 -0 -1.2 0
-9.036 -16.504 -23.976 -0 -1.2 0
-8.934 -16.951 -23.724 -0 -1.2 0
-8.829 -17.392 -23.463 -0 -1.2 0
-8.72 -17.83 -23.196 -0 -1.2 0
-8.61 -18.261 -22.922 -0 -1.2 0
-8.497 -18.688 -22.641 -0 -1.2 0
-8.381 -19.11 -22.352 -0 -1.2 0
-8.263 -19.526 -22.057 -0 -1.2 0
-8.142 -19.936 -21.755 -0 -1.2 0
-8.019 -20.341 -21.446 -0 -1.2 0
-7.893 -20.739 -21.131 -0 -1.2 0
-7.765 -21.132 -20.81 -0 -1.2 0
-7.634 -21.519 -20.482 -0 -1.2 0
-7.502 -21.899 -20.148 -0 -1.2 0
-7.367 -22.273 -19.807 -0 -1.2 0
-7.229 -22.642 -19.461 -0 -1.2 0
-11.418 -6.785 -27.007 -0 -1.2 0
-11.373 -7.298 -26.914 -0 -1.2 0
-11.324 -7.81 -26.812 -0 -1.2 0
-11.271 -8.319 -26.703 -0 -1.2 0
-11.216 -8.826 -26.585 -0 -1.2 0
-11.157 -9.331 -26.459 -0 -1.2 0
-11.094 -9.833 -26.324 -0 -1.2 0
-11.027 -10.333 -26.182 -0 -1.2 0
-10.958 -10.829 -26.031 -0 -1.2 0
-10.886 -11.323 -25.874 -0 -1.2 0
-10.81 -11.813 -25.707 -0 -1.2 0
-10.73 -12.301 -25.533 -0 -1.2 0
-10.648 -12.785 -25.351 -0 -1.2 0
-10.562 -13.265 -25.161 -0 -1.2 0
-10.473 -13.742 -24.964 -0 -1.2 0
-10.38 -14.215 -24.76 -0 -1.2 0
-10.285 -14.684 -24.546 -0 -1.2 0
-10.187 -15.148 -24.326 -0 -1.2 0
-10.086 -15.609 -24.099 -0 -1.2 0
-9.98 -16.065 -23.864 -0 -1.2 0
-9.873 -16.517 -23.622 -0 -1.2 0
-9.762 -16.964 -23.372 -0 -1.2 0
-9.649 -17.405 -23.115 -0 -1.2 0
-9.532 -17.843 -22.851 -0 -1.2 0
-9.413 -18.274 -22.581 -0 -1.2 0
-9.291 -18.701 -22.303 -0 -1.2 0
-9.165 -19.122 -22.018 -0 -1.2 0
-9.037 -19.538 -21.727 -0 -1.2 0
-8.907 -19.948 -21.43 -0 -1.2 0
-8.773 -20.353 -21.125 -0 -1.2 0
-8.637 -20.751 -20.814 -0 -1.2 0
-8.498 -21.144 -20.497 -0 -1.2 0
-8.357 -21.53 -20.173 -0 -1.2 0
-8.213 -21.91 -19.843 -0 -1.2 0
-8.067 -22.285 -19.507 -0 -1.2 0
-7.918 -22.653 -19.165 -0 -1.2 0
-12.315 -7.793 -26.363 -0 -1.2 0
-12.259 -8.303 -26.255 -0 -1.2 0
-12.2 -8.81 -26.14 -0 -1.2 0
-12.137 -9.315 -26.015 -0 -1.2 0
-12.07 -9.817 -25.884 -0 -1.2 0
-11.999 -10.317 -25.744 -0 -1.2 0
-11.925 -10.813 -25.597 -0 -1.2 0
-11.847 -11.308 -25.442 -0 -1.2 0
-11.765 -11.798 -25.279 -0 -1.2 0
-11.68 -12.286 -25.107 -0 -1.2 0
-11.591 -12.77 -24.928 -0 -1.2 0
-11.5 -13.25 -24.742 -0 -1.2 0
-11.405 -13.727 -24.548 -0 -1.2 0
-11.305 -14.2 -24.346 -0 -1.2 0
-11.203 -14.669 -24.137 -0 -1.2 0
-11.097 -15.134 -23.922 -0 -1.2 0
-10.987 -15.595 -23.698 -0 -1.2 0
-10.875 -16.051 -23.467 -0 -1.2 0
-10.759 -16.503 -23.229 -0 -1.2 0
-10.639 -16.95 -22.983 -0 -1.2 0
-10.517 -17.391 -22.731 -0 -1.2 0
-10.391 -17.829 -22.471 -0 -1.2 0
-10.263 -18.261 -22.206 -0 -1.2 0
-10.131 -18.688 -21.933 -0 -1.2 0
-9.995 -19.109 -21.652 -0 -1.2 0
-9.857 -19.525 -21.366 -0 -1.2 0
-9.717 -19.935 -21.073 -0 -1.2 0
-9.572 -20.34 -20.773 -0 -1.2 0
-9.425 -20.739 -20.468 -0 -1.2 0
-9.276 -21.132 -20.156 -0 -1.2 0
-9.123 -21.518 -19.837 -0 -1.2 0
-8.968 -21.899 -19.514 -0 -1.2 0
-8.809 -22.273 -19.183 -0 -1.2 0
-8.649 -22.641 -18.847 -0 -1.2 0
-13.165 -8.282 -25.806 -0 -1.2 0
-13.103 -8.789 -25.693 -0 -1.2 0
-13.035 -9.294 -25.571 -0 -1.2 0
-12.965 -9.797 -25.442 -0 -1.2 0
-12.811 -10.793 -25.16 -0 -1.2 0
-12.728 -11.288 -25.007 -0 -1.2 0
-12.643 -11.778 -24.847 -0 -1.2 0
-12.552 -12.266 -24.68 -0 -1.2 0
-12.458 -12.751 -24.504 -0 -1.2 0
-12.36 -13.231 -24.32 -0 -1.2 0
-12.259 -13.708 -24.13 -0 -1.2 0
-12.153 -14.181 -23.932 -0 -1.2 0
-12.044 -14.651 -23.727 -0 -1.2 0
-11.932 -15.115 -23.515 -0 -1.2 0
-11.815 -15.577 -23.295 -0 -1.2 0
-11.696 -16.033 -23.068 -0 -1.2 0
-11.572 -16.485 -22.834 -0 -1.2 0
-11.444 -16.932 -22.593 -0 -1.2 0
-11.314 -17.374 -22.345 -0 -1.2 0
-11.18 -17.812 -22.091 -0 -1.2 0
-11.043 -18.243 -21.829 -0 -1.2 0
-10.902 -18.671 -21.56 -0 -1.2 0
-10.759 -19.092 -21.285 -0 -1.2 0
-10.611 -19.509 -21.004 -0 -1.2 0
-10.461 -19.919 -20.716 -0 -1.2 0
-10.306 -20.324 -20.422 -0 -1.2 0
-10.15 -20.723 -20.121 -0 -1.2 0
-9.991 -21.116 -19.815 -0 -1.2 0
-9.827 -21.503 -19.502 -0 -1.2 0
-9.661 -21.883 -19.182 -0 -1.2 0
-9.493 -22.258 -18.858 -0 -1.2 0
-9.321 -22.627 -18.527 -0 -1.2 0
-13.917 -9.275 -25.098 -0 -1.2 0
-13.842 -9.778 -24.971 -0 -1.2 0
-13.763 -10.278 -24.837 -0 -1.2 0
-13.511 -10.655 -24.387 -0 -1.2 0
-13.593 -11.269 -24.545 -0 -1.2 0
-13.502 -11.759 -24.388 -0 -1.2 0
-13.203 -13.212 -23.872 -0 -1.2 0
-13.096 -13.69 -23.685 -0 -1.2 0
-12.984 -14.163 -23.491 -0 -1.2 0
-12.868 -14.633 -23.29 -0 -1.2 0
-12.749 -15.097 -23.081 -0 -1.2 0
-12.626 -15.559 -22.866 -0 -1.2 0
-12.499 -16.015 -22.643 -0 -1.2 0
-12.368 -16.468 -22.413 -0 -1.2 0
-12.233 -16.915 -22.177 -0 -1.2 0
-12.095 -17.357 -21.933 -0 -1.2 0
-11.952 -17.795 -21.684 -0 -1.2 0
-11.807 -18.227 -21.427 -0 -1.2 0
-11.658 -18.654 -21.164 -0 -1.2 0
-11.505 -19.076 -20.894 -0 -1.2 0
-11.349 -19.493 -20.617 -0 -1.2 0
-11.189 -19.903 -20.335 -0 -1.2 0
-11.026 -20.308 -20.046 -0 -1.2 0
-10.859 -20.708 -19.751 -0 -1.2 0
-10.69 -21.101 -19.45 -0 -1.2 0
-10.517 -21.488 -19.143 -0 -1.2 0
-10.341 -21.869 -18.831 -0 -1.2 0
-10.161 -22.244 -18.512 -0 -1.2 0
-9.979 -22.613 -18.187 -0 -1.2 0
-14.768 -9.758 -24.432 -0 -1.2 0
-14.684 -10.258 -24.301 -0 -1.2 0
-14.505 -11.249 -24.016 -0 -1.2 0
-14.308 -12.228 -23.701 -0 -1.2 0
-14.202 -12.713 -23.533 -0 -1.2 0
-14.093 -13.193 -23.357 -0 -1.2 0
-13.979 -13.671 -23.174 -0 -1.2 0
-13.861 -14.144 -22.985 -0 -1.2 0
-13.738 -14.614 -22.788 -0 -1.2 0
-13.612 -15.079 -22.584 -0 -1.2 0
-13.481 -15.541 -22.373 -0 -1.2 0
-13.347 -15.997 -22.156 -0 -1.2 0
-13.208 -16.45 -21.931 -0 -1.2 0
-13.065 -16.897 -21.699 -0 -1.2 0
-12.919 -17.339 -21.462 -0 -1.2 0
-12.769 -17.777 -21.217 -0 -1.2 0
-12.614 -18.21 -20.966 -0 -1.2 0
-12.456 -18.638 -20.709 -0 -1.2 0
-12.294 -19.059 -20.444 -0 -1.2 0
-12.128 -19.476 -20.174 -0 -1.2 0
-11.958 -19.887 -19.897 -0 -1.2 0
-11.785 -20.292 -19.615 -0 -1.2 0
-11.608 -20.692 -19.326 -0 -1.2 0
-11.427 -21.085 -19.032 -0 -1.2 0
-11.244 -21.473 -18.731 -0 -1.2 0
-11.057 -21.854 -18.425 -0 -1.2 0
-10.866 -22.229 -18.114 -0 -1.2 0
-10.672 -22.598 -17.796 -0 -1.2 0
-15.427 -10.731 -23.64 -0 -1.2 0
-15.331 -11.226 -23.498 -0 -1.2 0
-15.23 -11.716 -23.347 -0 -1.2 0
-15.124 -12.205 -23.19 -0 -1.2 0
-15.014 -12.69 -23.025 -0 -1.2 0
-14.899 -13.17 -22.854 -0 -1.2 0
-14.779 -13.648 -22.675 -0 -1.2 0
-14.656 -14.122 -22.489 -0 -1.2 0
-14.527 -14.592 -22.297 -0 -1.2 0
-14.395 -15.057 -22.097 -0 -1.2 0
-14.258 -15.519 -21.891 -0 -1.2 0
-14.116 -15.975 -21.678 -0 -1.2 0
-13.971 -16.428 -21.459 -0 -1.2 0
-13.82 -16.876 -21.232 -0 -1.2 0
-13.666 -17.318 -21 -0 -1.2 0
-13.508 -17.757 -20.761 -0 -1.2 0
-13.345 -18.189 -20.515 -0 -1.2 0
-13.18 -18.617 -20.263 -0 -1.2 0
-13.009 -19.039 -20.004 -0 -1.2 0
-12.834 -19.456 -19.74 -0 -1.2 0
-12.656 -19.867 -19.47 -0 -1.2 0
-12.474 -20.273 -19.194 -0 -1.2 0
-12.287 -20.673 -18.912 -0 -1.2 0
-12.098 -21.067 -18.622 -0 -1.2 0
-11.904 -21.454 -18.329 -0 -1.2 0
-11.708 -21.836 -18.03 -0 -1.2 0
-11.507 -22.211 -17.724 -0 -1.2 0
-11.303 -22.581 -17.413 -0 -1.2 0
-15.816 -11.004 -22.499 -0 -1.2 0
-16.027 -11.694 -22.809 -0 -1.2 0
-15.916 -12.183 -22.655 -0 -1.2 0
-15.801 -12.668 -22.495 -0 -1.2 0
-15.681 -13.148 -22.327 -0 -1.2 0
-15.556 -13.627 -22.153 -0 -1.2 0
-15.427 -14.1 -21.972 -0 -1.2 0
-15.292 -14.57 -21.784 -0 -1.2 0
-15.153 -15.036 -21.589 -0 -1.2 0
-15.01 -15.498 -21.388 -0 -1.2 0
-14.862 -15.955 -21.18 -0 -1.2 0
-14.709 -16.408 -20.966 -0 -1.2 0
-14.552 -16.856 -20.744 -0 -1.2 0
-14.391 -17.298 -20.517 -0 -1.2 0
-14.225 -17.737 -20.283 -0 -1.2 0
-14.055 -18.169 -20.044 -0 -1.2 0
-13.88 -18.598 -19.798 -0 -1.2 0
-13.702 -19.02 -19.545 -0 -1.2 0
-13.519 -19.438 -19.287 -0 -1.2 0
-13.332 -19.849 -19.023 -0 -1.2 0
-13.141 -20.255 -18.752 -0 -1.2 0
-12.947 -20.655 -18.476 -0 -1.2 0
-12.747 -21.049 -18.195 -0 -1.2 0
-12.545 -21.437 -17.908 -0 -1.2 0
-12.338 -21.819 -17.615 -0 -1.2 0
-12.128 -22.194 -17.316 -0 -1.2 0
-11.914 -22.564 -17.013 -0 -1.2 0
-16.863 -11.67 -22.202 -0 -1.2 0
-16.747 -12.159 -22.052 -0 -1.2 0
-16.627 -12.644 -21.897 -0 -1.2 0
-16.501 -13.125 -21.733 -0 -1.2 0
-16.37 -13.604 -21.564 -0 -1.2 0
-16.235 -14.077 -21.387 -0 -1.2 0
-16.094 -14.548 -21.204 -0 -1.2 0
-15.95 -15.013 -21.015 -0 -1.2 0
-15.8 -15.475 -20.819 -0 -1.2 0
-15.645 -15.933 -20.616 -0 -1.2 0
-15.485 -16.386 -20.408 -0 -1.2 0
-15.32 -16.834 -20.193 -0 -1.2 0
-15.151 -17.277 -19.972 -0 -1.2 0
-14.978 -17.716 -19.744 -0 -1.2 0
-14.798 -18.148 -19.511 -0 -1.2 0
-14.616 -18.577 -19.272 -0 -1.2 0
-14.429 -19 -19.026 -0 -1.2 0
-14.237 -19.417 -18.775 -0 -1.2 0
-14.041 -19.829 -18.517 -0 -1.2 0
-13.841 -20.235 -18.254 -0 -1.2 0
-13.637 -20.635 -17.986 -0 -1.2 0
-13.428 -21.03 -17.711 -0 -1.2 0
-13.216 -21.418 -17.432 -0 -1.2 0
-12.999 -21.8 -17.147 -0 -1.2 0
-12.779 -22.176 -16.856 -0 -1.2 0
-12.554 -22.546 -16.561 -0 -1.2 0
-17.373 -12.653 -21.296 -0 -1.2 0
-17.242 -13.134 -21.138 -0 -1.2 0
-17.106 -13.612 -20.973 -0 -1.2 0
-16.965 -14.086 -20.8 -0 -1.2 0
-16.818 -14.556 -20.622 -0 -1.2 0
-16.666 -15.021 -20.438 -0 -1.2 0
-16.51 -15.484 -20.247 -0 -1.2 0
-16.348 -15.941 -20.049 -0 -1.2 0
-16.182 -16.394 -19.846 -0 -1.2 0
-16.01 -16.842 -19.636 -0 -1.2 0
-15.834 -17.285 -19.42 -0 -1.2 0
-15.653 -17.724 -19.198 -0 -1.2 0
-15.467 -18.156 -18.971 -0 -1.2 0
-15.276 -18.585 -18.737 -0 -1.2 0
-15.08 -19.007 -18.498 -0 -1.2 0
-14.881 -19.425 -18.254 -0 -1.2 0
-14.676 -19.836 -18.002 -0 -1.2 0
-14.468 -20.242 -17.746 -0 -1.2 0
-14.255 -20.643 -17.485 -0 -1.2 0
-14.037 -21.037 -17.218 -0 -1.2 0
-13.816 -21.425 -16.945 -0 -1.2 0
-13.589 -21.807 -16.667 -0 -1.2 0
-13.359 -22.183 -16.384 -0 -1.2 0
-13.125 -22.553 -16.097 -0 -1.2 0
-18.24 -12.176 -20.811 -0 -1.2 0
-18.11 -12.661 -20.662 -0 -1.2 0
-17.973 -13.141 -20.508 -0 -1.2 0
-17.833 -13.62 -20.348 -0 -1.2 0
-17.686 -14.093 -20.18 -0 -1.2 0
-17.533 -14.564 -20.006 -0 -1.2 0
-17.376 -15.029 -19.827 -0 -1.2 0
-17.212 -15.491 -19.641 -0 -1.2 0
-17.044 -15.948 -19.449 -0 -1.2 0
-16.87 -16.401 -19.251 -0 -1.2 0
-16.692 -16.849 -19.048 -0 -1.2 0
-16.508 -17.292 -18.838 -0 -1.2 0
-16.32 -17.731 -18.622 -0 -1.2 0
-16.127 -18.163 -18.401 -0 -1.2 0
-15.927 -18.592 -18.173 -0 -1.2 0
-15.724 -19.014 -17.941 -0 -1.2 0
-15.516 -19.432 -17.703 -0 -1.2 0
-15.304 -19.843 -17.46 -0 -1.2 0
-15.087 -20.249 -17.21 -0 -1.2 0
-14.865 -20.649 -16.956 -0 -1.2 0
-14.638 -21.043 -16.696 -0 -1.2 0
-14.407 -21.431 -16.431 -0 -1.2 0
-14.172 -21.813 -16.161 -0 -1.2 0
-13.932 -22.189 -15.886 -0 -1.2 0
-13.688 -22.558 -15.606 -0 -1.2 0
-19.021 -12.183 -20.094 -0 -1.2 0
-18.885 -12.668 -19.951 -0 -1.2 0
-18.743 -13.149 -19.8 -0 -1.2 0
-18.596 -13.627 -19.645 -0 -1.2 0
-18.443 -14.101 -19.483 -0 -1.2 0
-18.284 -14.571 -19.315 -0 -1.2 0
-18.12 -15.036 -19.141 -0 -1.2 0
-17.95 -15.498 -18.961 -0 -1.2 0
-17.775 -15.955 -18.775 -0 -1.2 0
-17.595 -16.408 -18.584 -0 -1.2 0
-17.408 -16.856 -18.387 -0 -1.2 0
-17.217 -17.299 -18.183 -0 -1.2 0
-17.021 -17.737 -17.975 -0 -1.2 0
-16.82 -18.17 -17.76 -0 -1.2 0
-16.613 -18.598 -17.541 -0 -1.2 0
-16.401 -19.021 -17.316 -0 -1.2 0
-16.185 -19.438 -17.085 -0 -1.2 0
-15.963 -19.849 -16.849 -0 -1.2 0
-15.737 -20.255 -16.608 -0 -1.2 0
-15.506 -20.655 -16.362 -0 -1.2 0
-15.269 -21.049 -16.11 -0 -1.2 0
-15.029 -21.437 -15.854 -0 -1.2 0
-14.784 -21.819 -15.592 -0 -1.2 0
-14.535 -22.194 -15.327 -0 -1.2 0
-14.28 -22.564 -15.055 -0 -1.2 0
-19.722 -12.19 -19.398 -0 -1.2 0
-19.581 -12.675 -19.258 -0 -1.2 0
-19.435 -13.155 -19.113 -0 -1.2 0
-19.282 -13.634 -18.963 -0 -1.2 0
-19.124 -14.107 -18.806 -0 -1.2 0
-18.96 -14.577 -18.643 -0 -1.2 0
-18.789 -15.042 -18.475 -0 -1.2 0
-18.613 -15.504 -18.301 -0 -1.2 0
