# .PCD v.7 - Point Cloud Data file format
FIELDS x y z vp_x vp_y vp_z
SIZE 4 4 4 4 4 4
TYPE F F F F F F
COUNT 1 1 1 1 1 1
WIDTH 1601
HEIGHT 1
VIEWPOINT 0 -1.20013 0 1 0 0 0
POINTS 1601
DATA ascii
10.668 -10.67 -2.878 -0 -1.2 0
10.362 -11.062 -2.789 -0 -1.2 0
11.406 -12.462 -3.013 -0 -1.2 0
1.175 0.022 -0.817 -0 -1.2 0
1.208 0.017 -0.826 -0 -1.2 0
1.248 0.017 -0.837 -0 -1.2 0
1.281 0.009 -0.847 -0 -1.2 0
1.328 0.014 -0.861 -0 -1.2 0
1.362 0.005 -0.871 -0 -1.2 0
1.41 0.007 -0.884 -0 -1.2 0
1.459 0.008 -0.898 -0 -1.2 0
1.508 0.007 -0.913 -0 -1.2 0
1.565 0.011 -0.93 -0 -1.2 0
1.615 0.007 -0.944 -0 -1.2 0
1.673 0.008 -0.961 -0 -1.2 0
1.732 0.007 -0.978 -0 -1.2 0
1.791 0.004 -0.995 -0 -1.2 0
1.859 0.004 -1.015 -0 -1.2 0
1.919 -0.002 -1.032 -0 -1.2 0
1.988 -0.005 -1.052 -0 -1.2 0
2.065 -0.007 -1.075 -0 -1.2 0
2.152 -0.005 -1.099 -0 -1.2 0
2.248 -0.003 -1.127 -0 -1.2 0
2.334 -0.007 -1.153 -0 -1.2 0
2.44 -0.006 -1.183 -0 -1.2 0
2.556 -0.005 -1.217 -0 -1.2 0
2.663 -0.012 -1.247 -0 -1.2 0
2.797 -0.011 -1.287 -0 -1.2 0
2.941 -0.012 -1.329 -0 -1.2 0
2.77 -0.133 -1.275 -0 -1.2 0
2.614 -0.243 -1.228 -0 -1.2 0
2.637 -0.286 -1.233 -0 -1.2 0
2.642 -0.335 -1.233 -0 -1.2 0
2.656 -0.38 -1.236 -0 -1.2 0
2.64 -0.435 -1.229 -0 -1.2 0
2.651 -0.48 -1.231 -0 -1.2 0
2.662 -0.527 -1.233 -0 -1.2 0
2.681 -0.572 -1.237 -0 -1.2 0
4.746 -0.222 -1.848 -0 -1.2 0
4.799 -0.301 -1.86 -0 -1.2 0
4.755 -0.395 -1.846 -0 -1.2 0
4.843 -0.469 -1.868 -0 -1.2 0
4.73 -0.57 -1.833 -0 -1.2 0
4.749 -0.653 -1.836 -0 -1.2 0
4.767 -0.737 -1.838 -0 -1.2 0
4.792 -0.82 -1.844 -0 -1.2 0
6.154 -0.954 -2.236 -0 -1.2 0
4.908 -1.074 -1.87 -0 -1.2 0
4.956 -1.162 -1.881 -0 -1.2 0
5.022 -1.251 -1.899 -0 -1.2 0
21.061 -6.349 -6.415 -0 -1.2 0
21.16 -6.778 -6.431 -0 -1.2 0
22.038 -7.439 -6.668 -0 -1.2 0
21.793 -7.793 -6.587 -0 -1.2 0
21.644 -8.174 -6.533 -0 -1.2 0
20.783 -8.723 -6.266 -0 -1.2 0
20.628 -9.085 -6.212 -0 -1.2 0
20.943 -9.639 -6.286 -0 -1.2 0
19.678 -9.534 -5.922 -0 -1.2 0
17.114 -9.534 -5.176 -0 -1.2 0
15.483 -10.506 -4.675 -0 -1.2 0
13.384 -9.549 -4.092 -0 -1.2 0
10.752 -8.144 -3.367 -0 -1.2 0
12.42 -9.561 -3.812 -0 -1.2 0
10.625 -8.604 -3.318 -0 -1.2 0
11.843 -9.786 -3.638 -0 -1.2 0
11.58 -9.907 -3.558 -0 -1.2 0
9.548 -8.615 -3.004 -0 -1.2 0
10.125 -9.364 -3.15 -0 -1.2 0
9.749 -9.34 -3.041 -0 -1.2 0
12.014 -11.637 -3.635 -0 -1.2 0
11.301 -11.359 -3.436 -0 -1.2 0
10.16 -10.641 -3.124 -0 -1.2 0
9.86 -10.683 -3.036 -0 -1.2 0
9.154 -10.304 -2.841 -0 -1.2 0
1.151 0.008 -0.838 -0 -1.2 0
1.19 0.009 -0.851 -0 -1.2 0
1.229 0.01 -0.863 -0 -1.2 0
1.269 0.009 -0.876 -0 -1.2 0
1.309 0.007 -0.889 -0 -1.2 0
1.349 0.005 -0.903 -0 -1.2 0
1.404 0.013 -0.921 -0 -1.2 0
1.453 0.013 -0.936 -0 -1.2 0
1.5 0.013 -0.953 -0 -1.2 0
1.543 0.004 -0.966 -0 -1.2 0
1.599 0.007 -0.984 -0 -1.2 0
1.649 0.002 -1 -0 -1.2 0
1.715 0.006 -1.023 -0 -1.2 0
1.782 0.008 -1.044 -0 -1.2 0
1.833 -0.001 -1.06 -0 -1.2 0
1.9 -0.003 -1.083 -0 -1.2 0
1.968 -0.007 -1.105 -0 -1.2 0
2.045 -0.008 -1.13 -0 -1.2 0
2.122 -0.011 -1.155 -0 -1.2 0
2.225 -0.005 -1.188 -0 -1.2 0
2.312 -0.009 -1.217 -0 -1.2 0
2.408 -0.013 -1.248 -0 -1.2 0
2.513 -0.015 -1.283 -0 -1.2 0
2.636 -0.014 -1.323 -0 -1.2 0
2.707 -0.039 -1.345 -0 -1.2 0
2.628 -0.125 -1.317 -0 -1.2 0
3.046 -0.022 -1.457 -0 -1.2 0
3.154 -0.045 -1.492 -0 -1.2 0
3.091 -0.129 -1.468 -0 -1.2 0
3.653 -0.014 -1.655 -0 -1.2 0
3.917 -0.007 -1.743 -0 -1.2 0
4.459 0.063 -1.922 -0 -1.2 0
4.765 0.055 -2.021 -0 -1.2 0
4.757 -0.037 -2.016 -0 -1.2 0
4.803 -0.116 -2.029 -0 -1.2 0
2.701 -0.614 -1.327 -0 -1.2 0
2.7 -0.663 -1.325 -0 -1.2 0
4.764 -0.39 -2.009 -0 -1.2 0
4.908 -0.458 -2.054 -0 -1.2 0
4.73 -0.568 -1.992 -0 -1.2 0
4.758 -0.652 -1.998 -0 -1.2 0
4.775 -0.736 -2.002 -0 -1.2 0
4.801 -0.82 -2.007 -0 -1.2 0
4.834 -0.906 -2.017 -0 -1.2 0
4.866 -0.992 -2.024 -0 -1.2 0
4.906 -1.078 -2.035 -0 -1.2 0
4.983 -1.167 -2.057 -0 -1.2 0
5.029 -1.257 -2.07 -0 -1.2 0
16.09 -7.739 -5.501 -0 -1.2 0
16.077 -8.072 -5.487 -0 -1.2 0
15.717 -8.252 -5.364 -0 -1.2 0
15.008 -8.254 -5.133 -0 -1.2 0
17.241 -9.703 -5.821 -0 -1.2 0
14.835 -8.83 -5.059 -0 -1.2 0
15.926 -10.51 -5.367 -0 -1.2 0
11.383 -8.365 -3.944 -0 -1.2 0
10.135 -7.816 -3.551 -0 -1.2 0
15.026 -11.47 -5.045 -0 -1.2 0
12.283 -10.216 -4.185 -0 -1.2 0
12.4 -10.646 -4.21 -0 -1.2 0
9.405 -8.589 -3.29 -0 -1.2 0
10.157 -9.486 -3.51 -0 -1.2 0
9.664 -9.363 -3.352 -0 -1.2 0
10.552 -10.453 -3.611 -0 -1.2 0
11.308 -11.483 -3.829 -0 -1.2 0
9.732 -10.34 -3.346 -0 -1.2 0
9.78 -10.714 -3.352 -0 -1.2 0
9.518 -10.783 -3.264 -0 -1.2 0
1.138 0.008 -0.863 -0 -1.2 0
1.176 0.009 -0.877 -0 -1.2 0
1.215 0.009 -0.892 -0 -1.2 0
1.247 0.002 -0.904 -0 -1.2 0
1.294 0.007 -0.92 -0 -1.2 0
1.332 0.004 -0.934 -0 -1.2 0
1.372 0 -0.949 -0 -1.2 0
1.428 0.007 -0.97 -0 -1.2 0
1.468 0 -0.984 -0 -1.2 0
1.524 0.004 -1.004 -0 -1.2 0
1.581 0.006 -1.026 -0 -1.2 0
1.63 0.002 -1.043 -0 -1.2 0
1.695 0.006 -1.067 -0 -1.2 0
1.753 0.003 -1.087 -0 -1.2 0
1.812 -0.001 -1.109 -0 -1.2 0
1.878 -0.003 -1.133 -0 -1.2 0
1.946 -0.007 -1.157 -0 -1.2 0
2.02 -0.008 -1.186 -0 -1.2 0
2.097 -0.012 -1.213 -0 -1.2 0
2.174 -0.018 -1.241 -0 -1.2 0
2.276 -0.013 -1.279 -0 -1.2 0
2.38 -0.014 -1.316 -0 -1.2 0
2.475 -0.02 -1.351 -0 -1.2 0
2.596 -0.019 -1.395 -0 -1.2 0
2.588 -0.076 -1.39 -0 -1.2 0
2.86 -0.022 -1.491 -0 -1.2 0
2.975 -0.036 -1.533 -0 -1.2 0
2.824 -0.15 -1.474 -0 -1.2 0
3.028 -0.137 -1.549 -0 -1.2 0
2.739 -0.289 -1.439 -0 -1.2 0
2.689 -0.356 -1.419 -0 -1.2 0
4.335 0.043 -2.031 -0 -1.2 0
2.668 -0.464 -1.408 -0 -1.2 0
5.077 0.05 -2.303 -0 -1.2 0
5.215 -0.016 -2.351 -0 -1.2 0
4.763 -0.204 -2.18 -0 -1.2 0
4.899 -0.269 -2.228 -0 -1.2 0
2.668 -0.712 -1.4 -0 -1.2 0
4.777 -0.469 -2.177 -0 -1.2 0
4.778 -0.557 -2.175 -0 -1.2 0
4.769 -0.646 -2.169 -0 -1.2 0
4.786 -0.731 -2.172 -0 -1.2 0
4.812 -0.817 -2.179 -0 -1.2 0
4.835 -0.904 -2.185 -0 -1.2 0
4.904 -0.989 -2.207 -0 -1.2 0
4.963 -1.078 -2.226 -0 -1.2 0
14.318 -1.533 -5.627 -0 -1.2 0
17.327 -7.252 -6.548 -0 -1.2 0
17.827 -8.167 -6.703 -0 -1.2 0
15.248 -7.786 -5.774 -0 -1.2 0
14.862 -7.936 -5.628 -0 -1.2 0
14.468 -8.072 -5.48 -0 -1.2 0
11.766 -7.024 -4.526 -0 -1.2 0
11.761 -7.288 -4.516 -0 -1.2 0
12.088 -7.738 -4.622 -0 -1.2 0
16.509 -10.569 -6.149 -0 -1.2 0
12.048 -8.285 -4.591 -0 -1.2 0
11.239 -8.072 -4.302 -0 -1.2 0
11.729 -8.669 -4.463 -0 -1.2 0
11.782 -9 -4.471 -0 -1.2 0
10.866 -8.95 -4.138 -0 -1.2 0
10.769 -9.17 -4.096 -0 -1.2 0
9.845 -8.746 -3.773 -0 -1.2 0
11.56 -10.418 -4.347 -0 -1.2 0
9.112 -8.695 -3.506 -0 -1.2 0
9.572 -9.369 -3.654 -0 -1.2 0
10.063 -10.108 -3.81 -0 -1.2 0
10.079 -10.442 -3.806 -0 -1.2 0
10.758 -11.43 -4.024 -0 -1.2 0
9.084 -10.115 -3.453 -0 -1.2 0
9.49 -10.854 -3.579 -0 -1.2 0
1.115 0 -0.888 -0 -1.2 0
1.147 -0.005 -0.9 -0 -1.2 0
1.197 0.009 -0.921 -0 -1.2 0
1.229 0.001 -0.934 -0 -1.2 0
1.268 0 -0.949 -0 -1.2 0
1.314 0.004 -0.969 -0 -1.2 0
1.354 0 -0.984 -0 -1.2 0
1.401 0 -1.003 -0 -1.2 0
1.455 0.006 -1.026 -0 -1.2 0
1.511 0.009 -1.048 -0 -1.2 0
1.552 0.001 -1.065 -0 -1.2 0
1.608 0.001 -1.087 -0 -1.2 0
1.663 0 -1.11 -0 -1.2 0
1.728 0.002 -1.137 -0 -1.2 0
1.778 -0.007 -1.157 -0 -1.2 0
1.852 -0.004 -1.186 -0 -1.2 0
1.918 -0.008 -1.214 -0 -1.2 0
2.001 -0.004 -1.247 -0 -1.2 0
2.068 -0.012 -1.274 -0 -1.2 0
2.152 -0.014 -1.308 -0 -1.2 0
2.245 -0.014 -1.346 -0 -1.2 0
2.346 -0.014 -1.388 -0 -1.2 0
2.449 -0.016 -1.429 -0 -1.2 0
2.561 -0.02 -1.474 -0 -1.2 0
2.579 -0.065 -1.48 -0 -1.2 0
2.786 -0.036 -1.565 -0 -1.2 0
2.969 -0.023 -1.64 -0 -1.2 0
3.004 -0.072 -1.653 -0 -1.2 0
3.136 -0.088 -1.706 -0 -1.2 0
2.808 -0.256 -1.567 -0 -1.2 0
2.626 -0.365 -1.489 -0 -1.2 0
2.62 -0.418 -1.485 -0 -1.2 0
2.677 -0.453 -1.507 -0 -1.2 0
2.732 -0.491 -1.528 -0 -1.2 0
5.47 0.053 -2.658 -0 -1.2 0
2.725 -0.596 -1.522 -0 -1.2 0
2.669 -0.657 -1.498 -0 -1.2 0
2.668 -0.707 -1.496 -0 -1.2 0
2.712 -0.75 -1.512 -0 -1.2 0
2.727 -0.799 -1.516 -0 -1.2 0
4.806 -0.636 -2.365 -0 -1.2 0
4.832 -0.723 -2.373 -0 -1.2 0
4.848 -0.812 -2.377 -0 -1.2 0
4.88 -0.899 -2.388 -0 -1.2 0
4.922 -0.989 -2.401 -0 -1.2 0
14.094 -1.008 -6.128 -0 -1.2 0
14.209 -1.272 -6.166 -0 -1.2 0
19.523 -7.73 -8.114 -0 -1.2 0
19.302 -8.052 -8.013 -0 -1.2 0
14.611 -7.592 -6.122 -0 -1.2 0
17.255 -9.151 -7.146 -0 -1.2 0
11.849 -6.88 -5.023 -0 -1.2 0
18.068 -10.341 -7.437 -0 -1.2 0
14.032 -8.915 -5.843 -0 -1.2 0
15.577 -10.151 -6.431 -0 -1.2 0
15.294 -10.355 -6.309 -0 -1.2 0
13.442 -9.559 -5.583 -0 -1.2 0
11.255 -8.456 -4.73 -0 -1.2 0
11.089 -8.631 -4.657 -0 -1.2 0
10.665 -8.62 -4.485 -0 -1.2 0
11.183 -9.286 -4.674 -0 -1.2 0
10.025 -8.707 -4.223 -0 -1.2 0
10.879 -9.666 -4.538 -0 -1.2 0
9.474 -8.822 -3.995 -0 -1.2 0
13.072 -12.169 -5.347 -0 -1.2 0
10.745 -10.511 -4.455 -0 -1.2 0
11.624 -11.651 -4.776 -0 -1.2 0
11.812 -12.203 -4.834 -0 -1.2 0
9.702 -10.525 -4.032 -0 -1.2 0
12.041 -13.654 -4.879 -0 -1.2 0
1.105 0.007 -0.915 -0 -1.2 0
1.143 0.008 -0.931 -0 -1.2 0
1.181 0.008 -0.948 -0 -1.2 0
1.212 0.001 -0.961 -0 -1.2 0
1.257 0.006 -0.981 -0 -1.2 0
1.296 0.003 -0.998 -0 -1.2 0
1.335 0 -1.015 -0 -1.2 0
1.388 0.006 -1.04 -0 -1.2 0
1.434 0.005 -1.061 -0 -1.2 0
1.481 0.003 -1.081 -0 -1.2 0
1.529 0 -1.102 -0 -1.2 0
1.584 0 -1.128 -0 -1.2 0
1.64 0 -1.152 -0 -1.2 0
1.696 -0.003 -1.177 -0 -1.2 0
1.769 0.002 -1.21 -0 -1.2 0
1.826 -0.005 -1.235 -0 -1.2 0
1.891 -0.008 -1.264 -0 -1.2 0
1.965 -0.01 -1.296 -0 -1.2 0
2.039 -0.013 -1.33 -0 -1.2 0
2.121 -0.014 -1.366 -0 -1.2 0
2.221 -0.011 -1.411 -0 -1.2 0
2.305 -0.019 -1.448 -0 -1.2 0
2.415 -0.017 -1.496 -0 -1.2 0
2.525 -0.02 -1.546 -0 -1.2 0
2.643 -0.023 -1.598 -0 -1.2 0
2.593 -0.1 -1.573 -0 -1.2 0
2.678 -0.121 -1.611 -0 -1.2 0
3.091 -0.025 -1.797 -0 -1.2 0
3.274 -0.026 -1.879 -0 -1.2 0
3.493 -0.022 -1.976 -0 -1.2 0
3.729 -0.021 -2.083 -0 -1.2 0
4.011 -0.016 -2.208 -0 -1.2 0
4.597 0.056 -2.471 -0 -1.2 0
4.936 0.047 -2.622 -0 -1.2 0
2.643 -0.556 -1.579 -0 -1.2 0
2.652 -0.604 -1.582 -0 -1.2 0
2.651 -0.655 -1.58 -0 -1.2 0
2.676 -0.701 -1.59 -0 -1.2 0
2.701 -0.748 -1.599 -0 -1.2 0
2.698 -0.799 -1.596 -0 -1.2 0
2.704 -0.848 -1.597 -0 -1.2 0
12.752 -0.052 -6.101 -0 -1.2 0
15.513 -0.114 -7.329 -0 -1.2 0
14.116 -0.474 -6.695 -0 -1.2 0
3.073 -1.038 -1.755 -0 -1.2 0
2.974 -1.095 -1.709 -0 -1.2 0
2.811 -1.147 -1.634 -0 -1.2 0
14.126 -6.552 -6.487 -0 -1.2 0
18.312 -8.565 -8.283 -0 -1.2 0
13.814 -7.022 -6.332 -0 -1.2 0
13.823 -7.328 -6.325 -0 -1.2 0
13.674 -7.563 -6.251 -0 -1.2 0
14.139 -8.424 -6.428 -0 -1.2 0
13.925 -8.635 -6.326 -0 -1.2 0
14.891 -9.512 -6.725 -0 -1.2 0
12.268 -8.616 -5.588 -0 -1.2 0
12.926 -9.344 -5.856 -0 -1.2 0
10.889 -8.313 -4.984 -0 -1.2 0
11.326 -8.898 -5.159 -0 -1.2 0
12.049 -9.717 -5.452 -0 -1.2 0
10.933 -9.21 -4.973 -0 -1.2 0
14.512 -12.701 -6.446 -0 -1.2 0
11.448 -10.912 -5.143 -0 -1.2 0
11.218 -11.413 -5.023 -0 -1.2 0
9.748 -10.366 -4.405 -0 -1.2 0
9.131 -10.08 -4.139 -0 -1.2 0
8.614 -9.863 -3.916 -0 -1.2 0
11.014 -12.724 -4.886 -0 -1.2 0
1.096 0.014 -0.941 -0 -1.2 0
1.12 0.001 -0.953 -0 -1.2 0
1.157 0.002 -0.971 -0 -1.2 0
1.194 0.001 -0.989 -0 -1.2 0
1.239 0.006 -1.011 -0 -1.2 0
1.277 0.004 -1.029 -0 -1.2 0
1.321 0.005 -1.051 -0 -1.2 0
1.367 0.006 -1.073 -0 -1.2 0
1.413 0.006 -1.096 -0 -1.2 0
1.46 0.003 -1.119 -0 -1.2 0
1.506 0 -1.141 -0 -1.2 0
1.561 0.001 -1.167 -0 -1.2 0
1.616 0 -1.194 -0 -1.2 0
1.671 -0.003 -1.221 -0 -1.2 0
1.735 -0.002 -1.252 -0 -1.2 0
1.806 0 -1.286 -0 -1.2 0
1.862 -0.008 -1.313 -0 -1.2 0
1.935 -0.01 -1.349 -0 -1.2 0
2.016 -0.008 -1.388 -0 -1.2 0
2.106 -0.006 -1.433 -0 -1.2 0
2.18 -0.015 -1.468 -0 -1.2 0
2.287 -0.01 -1.52 -0 -1.2 0
2.386 -0.013 -1.569 -0 -1.2 0
2.495 -0.016 -1.621 -0 -1.2 0
2.604 -0.023 -1.673 -0 -1.2 0
2.748 -0.02 -1.743 -0 -1.2 0
2.891 -0.022 -1.814 -0 -1.2 0
2.663 -0.167 -1.697 -0 -1.2 0
2.61 -0.242 -1.669 -0 -1.2 0
2.667 -0.276 -1.695 -0 -1.2 0
2.663 -0.331 -1.691 -0 -1.2 0
2.675 -0.381 -1.695 -0 -1.2 0
2.661 -0.438 -1.686 -0 -1.2 0
2.655 -0.492 -1.681 -0 -1.2 0
2.683 -0.538 -1.693 -0 -1.2 0
2.709 -0.585 -1.704 -0 -1.2 0
2.745 -0.63 -1.72 -0 -1.2 0
2.735 -0.685 -1.713 -0 -1.2 0
2.751 -0.735 -1.719 -0 -1.2 0
2.748 -0.787 -1.715 -0 -1.2 0
2.727 -0.841 -1.703 -0 -1.2 0
12.674 -0.045 -6.567 -0 -1.2 0
15.608 -0.098 -7.99 -0 -1.2 0
2.788 -1.148 -1.722 -0 -1.2 0
2.563 -1.192 -1.611 -0 -1.2 0
13.834 -6.521 -6.891 -0 -1.2 0
13.505 -6.683 -6.726 -0 -1.2 0
13.108 -6.804 -6.528 -0 -1.2 0
12.837 -6.969 -6.39 -0 -1.2 0
14.174 -7.903 -7.005 -0 -1.2 0
18.681 -10.505 -9.1 -0 -1.2 0
11.467 -7.122 -5.719 -0 -1.2 0
11.739 -7.541 -5.836 -0 -1.2 0
11.849 -7.884 -5.876 -0 -1.2 0
11.768 -8.124 -5.828 -0 -1.2 0
11.833 -8.456 -5.847 -0 -1.2 0
11.625 -8.618 -5.74 -0 -1.2 0
11.571 -8.881 -5.705 -0 -1.2 0
10.026 -8.098 -4.983 -0 -1.2 0
10.538 -8.74 -5.208 -0 -1.2 0
11.977 -10.12 -5.856 -0 -1.2 0
12.212 -10.994 -5.939 -0 -1.2 0
13.97 -12.841 -6.724 -0 -1.2 0
11.452 -11.779 -5.54 -0 -1.2 0
9.547 -10.302 -4.668 -0 -1.2 0
9.081 -10.157 -4.448 -0 -1.2 0
10.91 -12.381 -5.254 -0 -1.2 0
11.027 -12.902 -5.291 -0 -1.2 0
1.075 0.013 -0.967 -0 -1.2 0
1.105 0.008 -0.982 -0 -1.2 0
1.142 0.008 -1.002 -0 -1.2 0
1.172 0 -1.018 -0 -1.2 0
1.222 0.011 -1.045 -0 -1.2 0
1.246 -0.003 -1.057 -0 -1.2 0
1.298 0.004 -1.085 -0 -1.2 0
1.342 0.005 -1.108 -0 -1.2 0
1.388 0.005 -1.132 -0 -1.2 0
1.433 0.002 -1.156 -0 -1.2 0
1.487 0.004 -1.185 -0 -1.2 0
1.533 0 -1.209 -0 -1.2 0
1.593 0.004 -1.242 -0 -1.2 0
1.648 0 -1.27 -0 -1.2 0
1.71 0.001 -1.303 -0 -1.2 0
1.765 -0.006 -1.333 -0 -1.2 0
1.829 -0.009 -1.366 -0 -1.2 0
1.9 -0.011 -1.404 -0 -1.2 0
1.98 -0.009 -1.446 -0 -1.2 0
2.052 -0.016 -1.484 -0 -1.2 0
2.156 -0.008 -1.54 -0 -1.2 0
2.237 -0.016 -1.582 -0 -1.2 0
2.343 -0.015 -1.639 -0 -1.2 0
2.45 -0.018 -1.695 -0 -1.2 0
2.565 -0.021 -1.757 -0 -1.2 0
2.697 -0.021 -1.827 -0 -1.2 0
2.839 -0.023 -1.902 -0 -1.2 0
3.007 -0.021 -1.991 -0 -1.2 0
3.174 -0.025 -2.08 -0 -1.2 0
2.863 -0.196 -1.908 -0 -1.2 0
2.844 -0.262 -1.895 -0 -1.2 0
2.866 -0.314 -1.905 -0 -1.2 0
2.896 -0.364 -1.919 -0 -1.2 0
2.762 -0.456 -1.844 -0 -1.2 0
2.747 -0.515 -1.834 -0 -1.2 0
2.895 -0.538 -1.912 -0 -1.2 0
2.8 -0.613 -1.858 -0 -1.2 0
2.931 -0.646 -1.926 -0 -1.2 0
2.93 -0.703 -1.923 -0 -1.2 0
9.042 0.011 -5.197 -0 -1.2 0
10.395 -0.023 -5.914 -0 -1.2 0
12.357 -0.06 -6.955 -0 -1.2 0
16.401 -0.034 -9.104 -0 -1.2 0
23.292 -0.496 -12.744 -0 -1.2 0
23.332 -0.953 -12.748 -0 -1.2 0
2.457 -1.145 -1.655 -0 -1.2 0
2.431 -1.191 -1.638 -0 -1.2 0
2.738 -1.252 -1.8 -0 -1.2 0
3.054 -1.327 -1.964 -0 -1.2 0
3.06 -1.386 -1.966 -0 -1.2 0
3.035 -1.5 -1.947 -0 -1.2 0
2.893 -1.649 -1.867 -0 -1.2 0
2.903 -1.708 -1.869 -0 -1.2 0
17.597 -7.752 -9.434 -0 -1.2 0
14.7 -6.972 -7.927 -0 -1.2 0
12.594 -6.682 -6.82 -0 -1.2 0
12.404 -6.876 -6.711 -0 -1.2 0
14.086 -7.986 -7.561 -0 -1.2 0
11.376 -6.916 -6.164 -0 -1.2 0
11.971 -7.504 -6.456 -0 -1.2 0
12.289 -7.968 -6.607 -0 -1.2 0
11.474 -7.788 -6.181 -0 -1.2 0
12.031 -8.412 -6.452 -0 -1.2 0
10.13 -8.026 -5.458 -0 -1.2 0
11.176 -9.046 -5.974 -0 -1.2 0
10.557 -8.89 -5.652 -0 -1.2 0
12.175 -10.433 -6.45 -0 -1.2 0
11.459 -10.207 -6.079 -0 -1.2 0
11.292 -11.811 -5.926 -0 -1.2 0
9.398 -10.313 -4.98 -0 -1.2 0
10.146 -12.134 -5.305 -0 -1.2 0
1.049 0.005 -0.985 -0 -1.2 0
1.078 0 -1.002 -0 -1.2 0
1.121 0.007 -1.027 -0 -1.2 0
1.157 0.006 -1.048 -0 -1.2 0
1.193 0.004 -1.068 -0 -1.2 0
1.23 0.002 -1.089 -0 -1.2 0
1.267 -0.002 -1.11 -0 -1.2 0
1.318 0.004 -1.14 -0 -1.2 0
1.355 -0.002 -1.162 -0 -1.2 0
1.407 0.001 -1.191 -0 -1.2 0
1.452 -0.001 -1.217 -0 -1.2 0
1.504 -0.001 -1.247 -0 -1.2 0
1.557 -0.002 -1.277 -0 -1.2 0
1.625 0.004 -1.317 -0 -1.2 0
1.679 0 -1.347 -0 -1.2 0
1.733 -0.007 -1.378 -0 -1.2 0
1.795 -0.011 -1.414 -0 -1.2 0
1.865 -0.012 -1.453 -0 -1.2 0
1.943 -0.011 -1.499 -0 -1.2 0
2.029 -0.009 -1.548 -0 -1.2 0
2.108 -0.014 -1.594 -0 -1.2 0
2.204 -0.013 -1.649 -0 -1.2 0
2.3 -0.016 -1.704 -0 -1.2 0
2.405 -0.02 -1.763 -0 -1.2 0
2.517 -0.023 -1.829 -0 -1.2 0
2.648 -0.023 -1.903 -0 -1.2 0
2.779 -0.028 -1.979 -0 -1.2 0
2.95 -0.023 -2.078 -0 -1.2 0
3.116 -0.027 -2.172 -0 -1.2 0
3.134 -0.089 -2.179 -0 -1.2 0
2.767 -0.271 -1.962 -0 -1.2 0
2.755 -0.333 -1.953 -0 -1.2 0
2.793 -0.38 -1.972 -0 -1.2 0
2.838 -0.426 -1.997 -0 -1.2 0
2.824 -0.487 -1.986 -0 -1.2 0
2.852 -0.538 -1.999 -0 -1.2 0
2.869 -0.592 -2.007 -0 -1.2 0
2.86 -0.65 -1.999 -0 -1.2 0
2.637 -0.741 -1.867 -0 -1.2 0
2.626 -0.794 -1.858 -0 -1.2 0
2.631 -0.845 -1.86 -0 -1.2 0
2.653 -0.895 -1.87 -0 -1.2 0
2.734 -0.94 -1.915 -0 -1.2 0
2.876 -0.987 -1.995 -0 -1.2 0
2.896 -1.042 -2.004 -0 -1.2 0
2.889 -1.098 -1.998 -0 -1.2 0
2.856 -1.153 -1.976 -0 -1.2 0
2.448 -1.195 -1.74 -0 -1.2 0
2.456 -1.242 -1.743 -0 -1.2 0
2.507 -1.293 -1.769 -0 -1.2 0
2.773 -1.367 -1.919 -0 -1.2 0
2.769 -1.42 -1.915 -0 -1.2 0
2.765 -1.474 -1.91 -0 -1.2 0
2.812 -1.535 -1.935 -0 -1.2 0
2.798 -1.587 -1.924 -0 -1.2 0
2.791 -1.641 -1.919 -0 -1.2 0
2.792 -1.697 -1.917 -0 -1.2 0
2.81 -1.757 -1.924 -0 -1.2 0
2.826 -1.817 -1.931 -0 -1.2 0
12.08 -6.556 -7.053 -0 -1.2 0
11.572 -6.858 -6.749 -0 -1.2 0
12.036 -7.374 -6.994 -0 -1.2 0
12.3 -7.805 -7.128 -0 -1.2 0
11.019 -7.369 -6.409 -0 -1.2 0
11.811 -8.115 -6.834 -0 -1.2 0
11.059 -8.514 -6.385 -0 -1.2 0
10.83 -8.646 -6.247 -0 -1.2 0
9.93 -8.557 -5.734 -0 -1.2 0
10.911 -9.61 -6.254 -0 -1.2 0
11.164 -10.803 -6.35 -0 -1.2 0
10.029 -10.121 -5.726 -0 -1.2 0
10.703 -11.075 -6.073 -0 -1.2 0
11.129 -11.843 -6.286 -0 -1.2 0
10.989 -12.079 -6.195 -0 -1.2 0
8.994 -10.382 -5.119 -0 -1.2 0
9.418 -11.164 -5.33 -0 -1.2 0
9.041 -11.092 -5.117 -0 -1.2 0
1.034 0.012 -1.011 -0 -1.2 0
1.057 0 -1.025 -0 -1.2 0
1.098 0.006 -1.051 -0 -1.2 0
1.127 -0.001 -1.069 -0 -1.2 0
1.169 0.003 -1.096 -0 -1.2 0
1.205 0 -1.118 -0 -1.2 0
1.248 0.002 -1.144 -0 -1.2 0
1.285 -0.002 -1.167 -0 -1.2 0
1.328 -0.003 -1.193 -0 -1.2 0
1.378 0 -1.225 -0 -1.2 0
1.429 0.002 -1.257 -0 -1.2 0
1.481 0.002 -1.289 -0 -1.2 0
1.526 -0.004 -1.316 -0 -1.2 0
1.585 -0.001 -1.353 -0 -1.2 0
1.645 -0.001 -1.39 -0 -1.2 0
1.698 -0.009 -1.423 -0 -1.2 0
1.759 -0.012 -1.461 -0 -1.2 0
1.834 -0.009 -1.508 -0 -1.2 0
1.904 -0.012 -1.551 -0 -1.2 0
1.973 -0.019 -1.593 -0 -1.2 0
2.066 -0.015 -1.652 -0 -1.2 0
2.152 -0.02 -1.704 -0 -1.2 0
2.262 -0.014 -1.772 -0 -1.2 0
2.356 -0.022 -1.831 -0 -1.2 0
2.467 -0.025 -1.9 -0 -1.2 0
2.595 -0.025 -1.978 -0 -1.2 0
2.723 -0.03 -2.058 -0 -1.2 0
2.883 -0.029 -2.159 -0 -1.2 0
3.046 -0.032 -2.258 -0 -1.2 0
2.779 -0.192 -2.086 -0 -1.2 0
2.769 -0.255 -2.077 -0 -1.2 0
2.766 -0.315 -2.073 -0 -1.2 0
2.63 -0.412 -1.984 -0 -1.2 0
2.807 -0.422 -2.093 -0 -1.2 0
2.785 -0.485 -2.077 -0 -1.2 0
2.795 -0.541 -2.08 -0 -1.2 0
2.612 -0.633 -1.963 -0 -1.2 0
2.603 -0.688 -1.955 -0 -1.2 0
2.593 -0.742 -1.946 -0 -1.2 0
2.641 -0.787 -1.974 -0 -1.2 0
2.68 -0.836 -1.997 -0 -1.2 0
2.618 -0.895 -1.955 -0 -1.2 0
2.622 -0.947 -1.955 -0 -1.2 0
2.642 -0.997 -1.965 -0 -1.2 0
2.679 -1.049 -1.986 -0 -1.2 0
2.748 -1.101 -2.026 -0 -1.2 0
2.706 -1.154 -1.999 -0 -1.2 0
2.681 -1.206 -1.98 -0 -1.2 0
2.638 -1.256 -1.951 -0 -1.2 0
2.501 -1.298 -1.864 -0 -1.2 0
2.507 -1.348 -1.866 -0 -1.2 0
2.529 -1.4 -1.878 -0 -1.2 0
2.611 -1.461 -1.925 -0 -1.2 0
2.648 -1.519 -1.946 -0 -1.2 0
2.685 -1.579 -1.966 -0 -1.2 0
2.763 -1.648 -2.011 -0 -1.2 0
2.814 -1.716 -2.04 -0 -1.2 0
12.508 -7.161 -7.815 -0 -1.2 0
11.887 -7.139 -7.432 -0 -1.2 0
11.535 -7.236 -7.208 -0 -1.2 0
11.788 -7.658 -7.347 -0 -1.2 0
10.572 -7.238 -6.611 -0 -1.2 0
12.022 -8.388 -7.46 -0 -1.2 0
10.452 -8.528 -6.479 -0 -1.2 0
11.716 -9.756 -7.209 -0 -1.2 0
12.229 -10.483 -7.495 -0 -1.2 0
9.844 -8.923 -6.084 -0 -1.2 0
11.21 -10.349 -6.869 -0 -1.2 0
10.688 -10.237 -6.549 -0 -1.2 0
11.566 -12.097 -7.012 -0 -1.2 0
10.428 -11.355 -6.338 -0 -1.2 0
10.252 -11.535 -6.221 -0 -1.2 0
8.703 -10.253 -5.317 -0 -1.2 0
1.005 0.004 -1.031 -0 -1.2 0
1.033 -0.001 -1.05 -0 -1.2 0
1.08 0.012 -1.082 -0 -1.2 0
1.102 -0.002 -1.096 -0 -1.2 0
1.137 -0.003 -1.119 -0 -1.2 0
1.172 -0.006 -1.142 -0 -1.2 0
1.214 -0.004 -1.171 -0 -1.2 0
1.256 -0.003 -1.199 -0 -1.2 0
1.298 -0.004 -1.227 -0 -1.2 0
1.348 0 -1.261 -0 -1.2 0
1.391 -0.003 -1.289 -0 -1.2 0
1.441 -0.003 -1.323 -0 -1.2 0
1.492 -0.005 -1.358 -0 -1.2 0
1.549 -0.003 -1.397 -0 -1.2 0
1.601 -0.007 -1.431 -0 -1.2 0
1.667 -0.005 -1.475 -0 -1.2 0
1.719 -0.014 -1.51 -0 -1.2 0
1.794 -0.01 -1.56 -0 -1.2 0
1.861 -0.014 -1.605 -0 -1.2 0
1.944 -0.013 -1.661 -0 -1.2 0
2.028 -0.013 -1.717 -0 -1.2 0
2.112 -0.017 -1.773 -0 -1.2 0
2.203 -0.02 -1.834 -0 -1.2 0
2.303 -0.024 -1.902 -0 -1.2 0
2.404 -0.031 -1.969 -0 -1.2 0
2.536 -0.028 -2.058 -0 -1.2 0
2.662 -0.033 -2.141 -0 -1.2 0
2.796 -0.041 -2.231 -0 -1.2 0
2.882 -0.071 -2.288 -0 -1.2 0
3.12 -0.052 -2.448 -0 -1.2 0
3.033 -0.151 -2.385 -0 -1.2 0
2.792 -0.292 -2.217 -0 -1.2 0
2.757 -0.362 -2.19 -0 -1.2 0
2.59 -0.464 -2.075 -0 -1.2 0
2.601 -0.517 -2.079 -0 -1.2 0
2.61 -0.57 -2.082 -0 -1.2 0
2.643 -0.618 -2.102 -0 -1.2 0
2.815 -0.643 -2.217 -0 -1.2 0
2.855 -0.695 -2.242 -0 -1.2 0
2.805 -0.761 -2.204 -0 -1.2 0
9.904 -0.036 -7.006 -0 -1.2 0
2.923 -0.866 -2.28 -0 -1.2 0
2.671 -0.942 -2.107 -0 -1.2 0
2.624 -0.998 -2.073 -0 -1.2 0
2.619 -1.052 -2.066 -0 -1.2 0
2.629 -1.104 -2.071 -0 -1.2 0
2.663 -1.157 -2.091 -0 -1.2 0
2.671 -1.211 -2.095 -0 -1.2 0
2.696 -1.266 -2.108 -0 -1.2 0
2.711 -1.322 -2.116 -0 -1.2 0
2.708 -1.376 -2.112 -0 -1.2 0
2.706 -1.431 -2.107 -0 -1.2 0
2.693 -1.484 -2.097 -0 -1.2 0
2.731 -1.545 -2.118 -0 -1.2 0
13.212 -8.642 -8.834 -0 -1.2 0
10.057 -7.342 -6.774 -0 -1.2 0
11.726 -9.323 -7.805 -0 -1.2 0
11.539 -9.51 -7.67 -0 -1.2 0
11.123 -9.518 -7.39 -0 -1.2 0
11.167 -10.201 -7.388 -0 -1.2 0
10.702 -10.142 -7.079 -0 -1.2 0
9.971 -9.827 -6.602 -0 -1.2 0
11.674 -11.7 -7.661 -0 -1.2 0
10.599 -11.06 -6.968 -0 -1.2 0
11.201 -12.004 -7.329 -0 -1.2 0
9.983 -11.502 -6.534 -0 -1.2 0
11.332 -13.331 -7.356 -0 -1.2 0
9.923 -12.17 -6.463 -0 -1.2 0
9.506 -12.067 -6.188 -0 -1.2 0
0.989 0.01 -1.056 -0 -1.2 0
1.016 0.004 -1.076 -0 -1.2 0
1.044 -0.002 -1.094 -0 -1.2 0
1.078 -0.003 -1.119 -0 -1.2 0
1.118 0.001 -1.148 -0 -1.2 0
1.146 -0.008 -1.169 -0 -1.2 0
1.18 -0.012 -1.192 -0 -1.2 0
1.227 -0.005 -1.227 -0 -1.2 0
1.268 -0.005 -1.257 -0 -1.2 0
1.31 -0.007 -1.287 -0 -1.2 0
1.359 -0.005 -1.322 -0 -1.2 0
1.408 -0.005 -1.357 -0 -1.2 0
1.458 -0.007 -1.393 -0 -1.2 0
1.514 -0.005 -1.435 -0 -1.2 0
1.572 -0.005 -1.476 -0 -1.2 0
1.622 -0.012 -1.512 -0 -1.2 0
1.68 -0.016 -1.554 -0 -1.2 0
1.753 -0.013 -1.606 -0 -1.2 0
1.819 -0.017 -1.653 -0 -1.2 0
1.9 -0.015 -1.711 -0 -1.2 0
1.988 -0.012 -1.776 -0 -1.2 0
2.055 -0.025 -1.823 -0 -1.2 0
2.153 -0.024 -1.894 -0 -1.2 0
2.258 -0.023 -1.97 -0 -1.2 0
2.357 -0.031 -2.04 -0 -1.2 0
2.471 -0.036 -2.122 -0 -1.2 0
2.593 -0.041 -2.21 -0 -1.2 0
2.754 -0.036 -2.327 -0 -1.2 0
2.824 -0.073 -2.376 -0 -1.2 0
3.111 -0.034 -2.584 -0 -1.2 0
3.267 -0.053 -2.696 -0 -1.2 0
2.892 -0.244 -2.417 -0 -1.2 0
2.788 -0.338 -2.337 -0 -1.2 0
2.768 -0.405 -2.32 -0 -1.2 0
2.771 -0.464 -2.319 -0 -1.2 0
2.789 -0.521 -2.33 -0 -1.2 0
2.815 -0.576 -2.345 -0 -1.2 0
2.823 -0.634 -2.348 -0 -1.2 0
2.83 -0.693 -2.351 -0 -1.2 0
2.805 -0.756 -2.33 -0 -1.2 0
2.723 -0.824 -2.267 -0 -1.2 0
2.792 -0.875 -2.315 -0 -1.2 0
2.845 -0.93 -2.351 -0 -1.2 0
2.76 -0.993 -2.286 -0 -1.2 0
2.721 -1.051 -2.256 -0 -1.2 0
2.716 -1.107 -2.248 -0 -1.2 0
2.716 -1.163 -2.246 -0 -1.2 0
2.749 -1.22 -2.268 -0 -1.2 0
11.62 -7.024 -8.39 -0 -1.2 0
11.581 -9.103 -8.265 -0 -1.2 0
11.329 -9.242 -8.077 -0 -1.2 0
11.274 -9.52 -8.024 -0 -1.2 0
10.498 -10.518 -7.418 -0 -1.2 0
9.619 -11.362 -6.745 -0 -1.2 0
0.952 -0.005 -1.067 -0 -1.2 0
0.978 -0.011 -1.087 -0 -1.2 0
1.017 -0.004 -1.118 -0 -1.2 0
1.049 -0.005 -1.143 -0 -1.2 0
1.089 0 -1.174 -0 -1.2 0
1.122 -0.003 -1.199 -0 -1.2 0
1.156 -0.008 -1.225 -0 -1.2 0
1.196 -0.006 -1.256 -0 -1.2 0
1.236 -0.007 -1.288 -0 -1.2 0
1.277 -0.009 -1.319 -0 -1.2 0
1.324 -0.007 -1.356 -0 -1.2 0
1.366 -0.013 -1.388 -0 -1.2 0
1.421 -0.009 -1.43 -0 -1.2 0
1.476 -0.007 -1.473 -0 -1.2 0
1.525 -0.012 -1.511 -0 -1.2 0
1.588 -0.01 -1.559 -0 -1.2 0
1.644 -0.014 -1.603 -0 -1.2 0
1.707 -0.016 -1.653 -0 -1.2 0
1.772 -0.019 -1.703 -0 -1.2 0
1.858 -0.013 -1.769 -0 -1.2 0
1.923 -0.023 -1.82 -0 -1.2 0
2.01 -0.023 -1.887 -0 -1.2 0
2.097 -0.027 -1.954 -0 -1.2 0
2.193 -0.031 -2.028 -0 -1.2 0
2.296 -0.035 -2.108 -0 -1.2 0
2.407 -0.039 -2.194 -0 -1.2 0
2.527 -0.045 -2.286 -0 -1.2 0
2.677 -0.043 -2.402 -0 -1.2 0
2.842 -0.042 -2.531 -0 -1.2 0
2.85 -0.105 -2.534 -0 -1.2 0
2.835 -0.177 -2.519 -0 -1.2 0
2.902 -0.221 -2.569 -0 -1.2 0
3.703 -0.051 -3.197 -0 -1.2 0
4.049 -0.041 -3.466 -0 -1.2 0
4.574 -0.002 -3.875 -0 -1.2 0
5.002 -0.009 -4.207 -0 -1.2 0
2.883 -0.551 -2.538 -0 -1.2 0
2.861 -0.619 -2.517 -0 -1.2 0
2.884 -0.678 -2.532 -0 -1.2 0
7.944 -0.056 -6.485 -0 -1.2 0
9.21 -0.089 -7.464 -0 -1.2 0
11.092 -0.123 -8.921 -0 -1.2 0
16.812 -0.347 -13.345 -0 -1.2 0
16.955 -0.714 -13.439 -0 -1.2 0
20.881 -5.219 -16.263 -0 -1.2 0
10.856 -9.431 -8.288 -0 -1.2 0
10.301 -10.593 -7.802 -0 -1.2 0
0.925 -0.006 -1.09 -0 -1.2 0
0.951 -0.011 -1.11 -0 -1.2 0
0.988 -0.004 -1.142 -0 -1.2 0
1.025 0 -1.174 -0 -1.2 0
1.052 -0.008 -1.196 -0 -1.2 0
1.09 -0.004 -1.228 -0 -1.2 0
1.123 -0.008 -1.255 -0 -1.2 0
1.162 -0.007 -1.287 -0 -1.2 0
1.201 -0.008 -1.32 -0 -1.2 0
1.258 0.006 -1.369 -0 -1.2 0
1.304 0.008 -1.407 -0 -1.2 0
1.333 -0.008 -1.43 -0 -1.2 0
1.38 -0.01 -1.469 -0 -1.2 0
1.432 -0.008 -1.514 -0 -1.2 0
1.48 -0.013 -1.554 -0 -1.2 0
1.541 -0.011 -1.605 -0 -1.2 0
1.596 -0.015 -1.651 -0 -1.2 0
1.665 -0.012 -1.708 -0 -1.2 0
1.72 -0.021 -1.754 -0 -1.2 0
1.804 -0.015 -1.824 -0 -1.2 0
1.888 -0.012 -1.894 -0 -1.2 0
1.958 -0.021 -1.953 -0 -1.2 0
2.043 -0.025 -2.024 -0 -1.2 0
2.136 -0.029 -2.102 -0 -1.2 0
2.25 -0.026 -2.197 -0 -1.2 0
2.351 -0.035 -2.281 -0 -1.2 0
2.474 -0.038 -2.384 -0 -1.2 0
2.612 -0.04 -2.499 -0 -1.2 0
2.766 -0.042 -2.628 -0 -1.2 0
2.957 -0.038 -2.788 -0 -1.2 0
3.164 -0.036 -2.961 -0 -1.2 0
3.356 -0.049 -3.122 -0 -1.2 0
3.623 -0.047 -3.346 -0 -1.2 0
3.93 -0.047 -3.603 -0 -1.2 0
4.44 -0.009 -4.03 -0 -1.2 0
4.899 -0.006 -4.416 -0 -1.2 0
5.316 -0.033 -4.762 -0 -1.2 0
5.87 -0.054 -5.224 -0 -1.2 0
6.743 -0.048 -5.956 -0 -1.2 0
7.763 -0.062 -6.809 -0 -1.2 0
9.091 -0.087 -7.919 -0 -1.2 0
11.047 -0.114 -9.554 -0 -1.2 0
15.093 -0.088 -12.942 -0 -1.2 0
16.808 -0.733 -14.344 -0 -1.2 0
10.007 -10.951 -8.142 -0 -1.2 0
0.908 0.006 -1.117 -0 -1.2 0
0.927 -0.006 -1.135 -0 -1.2 0
0.964 0 -1.167 -0 -1.2 0
0.995 0 -1.195 -0 -1.2 0
1.02 -0.009 -1.218 -0 -1.2 0
1.063 0 -1.257 -0 -1.2 0
1.089 -0.01 -1.28 -0 -1.2 0
1.132 -0.003 -1.319 -0 -1.2 0
1.165 -0.01 -1.348 -0 -1.2 0
1.215 -0.001 -1.393 -0 -1.2 0
1.26 0 -1.433 -0 -1.2 0
1.293 -0.011 -1.463 -0 -1.2 0
1.344 -0.007 -1.509 -0 -1.2 0
1.39 -0.011 -1.55 -0 -1.2 0
1.443 -0.011 -1.597 -0 -1.2 0
1.495 -0.014 -1.645 -0 -1.2 0
1.562 -0.008 -1.704 -0 -1.2 0
1.622 -0.011 -1.758 -0 -1.2 0
1.682 -0.015 -1.812 -0 -1.2 0
1.763 -0.009 -1.885 -0 -1.2 0
1.832 -0.015 -1.946 -0 -1.2 0
1.9 -0.025 -2.008 -0 -1.2 0
1.989 -0.025 -2.088 -0 -1.2 0
2.079 -0.029 -2.168 -0 -1.2 0
2.183 -0.03 -2.262 -0 -1.2 0
2.295 -0.032 -2.362 -0 -1.2 0
2.416 -0.035 -2.469 -0 -1.2 0
2.543 -0.042 -2.582 -0 -1.2 0
2.706 -0.039 -2.729 -0 -1.2 0
2.876 -0.04 -2.883 -0 -1.2 0
3.069 -0.041 -3.056 -0 -1.2 0
3.271 -0.05 -3.237 -0 -1.2 0
3.524 -0.051 -3.464 -0 -1.2 0
3.828 -0.05 -3.737 -0 -1.2 0
4.28 -0.023 -4.143 -0 -1.2 0
4.784 -0.007 -4.596 -0 -1.2 0
5.21 -0.031 -4.978 -0 -1.2 0
5.754 -0.052 -5.465 -0 -1.2 0
6.587 -0.052 -6.213 -0 -1.2 0
7.585 -0.067 -7.107 -0 -1.2 0
8.947 -0.087 -8.329 -0 -1.2 0
11.031 -0.104 -10.199 -0 -1.2 0
14.61 -0.116 -13.411 -0 -1.2 0
14.786 -0.45 -13.552 -0 -1.2 0
14.808 -0.793 -13.554 -0 -1.2 0
20.034 -9.247 -17.81 -0 -1.2 0
0.874 -0.001 -1.13 -0 -1.2 0
0.899 -0.008 -1.153 -0 -1.2 0
0.943 0.012 -1.198 -0 -1.2 0
0.964 -0.002 -1.216 -0 -1.2 0
0.988 -0.011 -1.239 -0 -1.2 0
1.03 -0.001 -1.279 -0 -1.2 0
1.055 -0.012 -1.303 -0 -1.2 0
1.097 -0.005 -1.344 -0 -1.2 0
1.134 -0.006 -1.38 -0 -1.2 0
1.171 -0.009 -1.415 -0 -1.2 0
1.209 -0.013 -1.451 -0 -1.2 0
1.252 -0.013 -1.493 -0 -1.2 0
1.308 -0.004 -1.547 -0 -1.2 0
1.347 -0.013 -1.584 -0 -1.2 0
1.404 -0.008 -1.639 -0 -1.2 0
1.455 -0.011 -1.688 -0 -1.2 0
1.519 -0.006 -1.75 -0 -1.2 0
1.577 -0.009 -1.806 -0 -1.2 0
1.642 -0.009 -1.869 -0 -1.2 0
1.708 -0.012 -1.932 -0 -1.2 0
1.774 -0.018 -1.995 -0 -1.2 0
1.848 -0.024 -2.064 -0 -1.2 0
1.934 -0.025 -2.148 -0 -1.2 0
2.021 -0.029 -2.231 -0 -1.2 0
2.129 -0.027 -2.335 -0 -1.2 0
2.237 -0.029 -2.439 -0 -1.2 0
2.346 -0.036 -2.544 -0 -1.2 0
2.483 -0.037 -2.675 -0 -1.2 0
2.627 -0.04 -2.814 -0 -1.2 0
2.806 -0.037 -2.987 -0 -1.2 0
2.98 -0.044 -3.153 -0 -1.2 0
3.189 -0.048 -3.354 -0 -1.2 0
3.427 -0.052 -3.583 -0 -1.2 0
3.722 -0.052 -3.867 -0 -1.2 0
4.089 -0.046 -4.219 -0 -1.2 0
4.661 -0.008 -4.772 -0 -1.2 0
5.124 -0.023 -5.216 -0 -1.2 0
5.658 -0.045 -5.729 -0 -1.2 0
6.473 -0.047 -6.512 -0 -1.2 0
7.496 -0.059 -7.496 -0 -1.2 0
8.866 -0.078 -8.812 -0 -1.2 0
10.691 -0.121 -10.565 -0 -1.2 0
14 -0.15 -13.746 -0 -1.2 0
14.17 -0.48 -13.893 -0 -1.2 0
14.142 -0.822 -13.847 -0 -1.2 0
14.253 -1.162 -13.936 -0 -1.2 0
14.483 -1.511 -14.138 -0 -1.2 0
19.746 -5.471 -18.99 -0 -1.2 0
19.218 -7.249 -18.387 -0 -1.2 0
0.843 -0.003 -1.147 -0 -1.2 0
0.871 -0.002 -1.177 -0 -1.2 0
0.896 -0.009 -1.201 -0 -1.2 0
0.934 0.002 -1.242 -0 -1.2 0
0.963 0 -1.272 -0 -1.2 0
0.993 -0.003 -1.302 -0 -1.2 0
1.023 -0.008 -1.332 -0 -1.2 0
1.053 -0.013 -1.363 -0 -1.2 0
1.094 -0.008 -1.405 -0 -1.2 0
1.136 -0.006 -1.448 -0 -1.2 0
1.172 -0.01 -1.486 -0 -1.2 0
1.22 -0.004 -1.535 -0 -1.2 0
1.256 -0.011 -1.573 -0 -1.2 0
1.305 -0.01 -1.624 -0 -1.2 0
1.36 -0.006 -1.681 -0 -1.2 0
1.403 -0.014 -1.726 -0 -1.2 0
1.465 -0.008 -1.79 -0 -1.2 0
1.522 -0.012 -1.848 -0 -1.2 0
1.584 -0.012 -1.913 -0 -1.2 0
1.654 -0.011 -1.985 -0 -1.2 0
1.725 -0.014 -2.057 -0 -1.2 0
1.795 -0.019 -2.129 -0 -1.2 0
1.872 -0.024 -2.209 -0 -1.2 0
1.962 -0.025 -2.303 -0 -1.2 0
2.066 -0.023 -2.41 -0 -1.2 0
2.171 -0.026 -2.518 -0 -1.2 0
2.277 -0.035 -2.626 -0 -1.2 0
2.402 -0.038 -2.756 -0 -1.2 0
2.548 -0.039 -2.907 -0 -1.2 0
2.727 -0.033 -3.093 -0 -1.2 0
2.902 -0.039 -3.272 -0 -1.2 0
3.111 -0.041 -3.488 -0 -1.2 0
3.353 -0.042 -3.739 -0 -1.2 0
3.618 -0.05 -4.012 -0 -1.2 0
3.938 -0.055 -4.343 -0 -1.2 0
4.539 -0.007 -4.966 -0 -1.2 0
5.005 -0.018 -5.447 -0 -1.2 0
5.556 -0.036 -6.015 -0 -1.2 0
6.383 -0.034 -6.87 -0 -1.2 0
7.398 -0.047 -7.919 -0 -1.2 0
8.755 -0.07 -9.32 -0 -1.2 0
10.931 -0.081 -11.568 -0 -1.2 0
12.711 -0.231 -13.399 -0 -1.2 0
12.083 -0.577 -12.731 -0 -1.2 0
14.125 -0.838 -14.828 -0 -1.2 0
14.296 -1.19 -14.984 -0 -1.2 0
14.421 -1.55 -15.094 -0 -1.2 0
18.201 -6.232 -18.744 -0 -1.2 0
18.798 -9.34 -19.191 -0 -1.2 0
0.82 0.002 -1.168 -0 -1.2 0
0.842 -0.003 -1.193 -0 -1.2 0
0.875 0.003 -1.229 -0 -1.2 0
0.908 0.007 -1.265 -0 -1.2 0
0.926 -0.007 -1.285 -0 -1.2 0
0.955 -0.01 -1.317 -0 -1.2 0
0.984 -0.015 -1.347 -0 -1.2 0
1.028 -0.003 -1.398 -0 -1.2 0
1.062 -0.004 -1.436 -0 -1.2 0
1.097 -0.007 -1.473 -0 -1.2 0
1.137 -0.005 -1.518 -0 -1.2 0
1.178 -0.006 -1.563 -0 -1.2 0
1.219 -0.008 -1.608 -0 -1.2 0
1.26 -0.012 -1.654 -0 -1.2 0
1.308 -0.013 -1.707 -0 -1.2 0
1.361 -0.011 -1.766 -0 -1.2 0
1.421 -0.007 -1.832 -0 -1.2 0
1.476 -0.009 -1.892 -0 -1.2 0
1.531 -0.014 -1.952 -0 -1.2 0
1.604 -0.01 -2.033 -0 -1.2 0
1.671 -0.013 -2.108 -0 -1.2 0
1.739 -0.018 -2.183 -0 -1.2 0
1.814 -0.024 -2.265 -0 -1.2 0
1.908 -0.021 -2.368 -0 -1.2 0
2.002 -0.023 -2.472 -0 -1.2 0
2.097 -0.03 -2.577 -0 -1.2 0
2.204 -0.035 -2.696 -0 -1.2 0
2.332 -0.036 -2.836 -0 -1.2 0
2.473 -0.038 -2.992 -0 -1.2 0
2.634 -0.038 -3.17 -0 -1.2 0
2.808 -0.042 -3.362 -0 -1.2 0
3.029 -0.038 -3.606 -0 -1.2 0
3.25 -0.045 -3.851 -0 -1.2 0
3.499 -0.055 -4.125 -0 -1.2 0
3.822 -0.057 -4.481 -0 -1.2 0
4.361 -0.021 -5.08 -0 -1.2 0
4.884 -0.016 -5.657 -0 -1.2 0
5.449 -0.03 -6.28 -0 -1.2 0
6.281 -0.026 -7.199 -0 -1.2 0
7.301 -0.038 -8.326 -0 -1.2 0
8.598 -0.07 -9.756 -0 -1.2 0
11.519 -0.011 -12.988 -0 -1.2 0
11.399 -0.319 -12.837 -0 -1.2 0
11.488 -0.611 -12.92 -0 -1.2 0
0.785 -0.006 -1.175 -0 -1.2 0
0.811 -0.005 -1.207 -0 -1.2 0
0.847 0.007 -1.251 -0 -1.2 0
0.865 -0.007 -1.27 -0 -1.2 0
0.896 -0.003 -1.308 -0 -1.2 0
0.924 -0.006 -1.34 -0 -1.2 0
0.952 -0.012 -1.373 -0 -1.2 0
0.99 -0.005 -1.418 -0 -1.2 0
1.023 -0.006 -1.457 -0 -1.2 0
1.056 -0.01 -1.497 -0 -1.2 0
1.095 -0.008 -1.543 -0 -1.2 0
1.129 -0.015 -1.582 -0 -1.2 0
1.173 -0.011 -1.635 -0 -1.2 0
1.22 -0.009 -1.689 -0 -1.2 0
1.265 -0.011 -1.743 -0 -1.2 0
1.317 -0.01 -1.804 -0 -1.2 0
1.374 -0.005 -1.872 -0 -1.2 0
1.421 -0.013 -1.926 -0 -1.2 0
1.48 -0.014 -1.996 -0 -1.2 0
1.55 -0.009 -2.079 -0 -1.2 0
1.609 -0.017 -2.149 -0 -1.2 0
1.68 -0.018 -2.234 -0 -1.2 0
1.753 -0.024 -2.318 -0 -1.2 0
1.843 -0.022 -2.425 -0 -1.2 0
1.933 -0.025 -2.532 -0 -1.2 0
2.031 -0.028 -2.646 -0 -1.2 0
2.134 -0.034 -2.769 -0 -1.2 0
2.264 -0.033 -2.922 -0 -1.2 0
2.387 -0.041 -3.067 -0 -1.2 0
2.554 -0.037 -3.265 -0 -1.2 0
2.722 -0.041 -3.463 -0 -1.2 0
2.935 -0.038 -3.715 -0 -1.2 0
3.142 -0.048 -3.959 -0 -1.2 0
3.401 -0.054 -4.264 -0 -1.2 0
3.705 -0.059 -4.623 -0 -1.2 0
4.098 -0.058 -5.088 -0 -1.2 0
4.703 -0.027 -5.803 -0 -1.2 0
5.348 -0.022 -6.566 -0 -1.2 0
6.085 -0.035 -7.436 -0 -1.2 0
7.1 -0.046 -8.634 -0 -1.2 0
8.432 -0.071 -10.206 -0 -1.2 0
10.886 -0.059 -13.106 -0 -1.2 0
11.207 -0.33 -13.47 -0 -1.2 0
11.281 -0.629 -13.54 -0 -1.2 0
17.36 -3.159 -20.576 -0 -1.2 0
15.913 -3.415 -18.853 -0 -1.2 0
18.018 -7.149 -21.124 -0 -1.2 0
0.752 -0.008 -1.189 -0 -1.2 0
0.777 -0.007 -1.221 -0 -1.2 0
0.802 -0.008 -1.254 -0 -1.2 0
0.833 -0.002 -1.292 -0 -1.2 0
0.859 -0.005 -1.325 -0 -1.2 0
0.886 -0.009 -1.358 -0 -1.2 0
0.912 -0.014 -1.392 -0 -1.2 0
0.948 -0.008 -1.438 -0 -1.2 0
0.985 -0.003 -1.484 -0 -1.2 0
1.021 -0.001 -1.532 -0 -1.2 0
1.054 -0.005 -1.573 -0 -1.2 0
1.087 -0.012 -1.613 -0 -1.2 0
1.13 -0.009 -1.668 -0 -1.2 0
1.168 -0.013 -1.717 -0 -1.2 0
1.211 -0.014 -1.772 -0 -1.2 0
1.266 -0.008 -1.842 -0 -1.2 0
1.316 -0.009 -1.905 -0 -1.2 0
1.366 -0.011 -1.968 -0 -1.2 0
1.417 -0.018 -2.033 -0 -1.2 0
1.479 -0.018 -2.111 -0 -1.2 0
1.547 -0.017 -2.198 -0 -1.2 0
1.609 -0.023 -2.277 -0 -1.2 0
1.684 -0.025 -2.372 -0 -1.2 0
1.765 -0.027 -2.474 -0 -1.2 0
1.852 -0.03 -2.584 -0 -1.2 0
1.951 -0.03 -2.71 -0 -1.2 0
2.056 -0.033 -2.843 -0 -1.2 0
2.173 -0.036 -2.993 -0 -1.2 0
2.31 -0.035 -3.165 -0 -1.2 0
2.453 -0.04 -3.346 -0 -1.2 0
2.614 -0.046 -3.55 -0 -1.2 0
2.812 -0.045 -3.801 -0 -1.2 0
3.028 -0.05 -4.076 -0 -1.2 0
3.269 -0.059 -4.382 -0 -1.2 0
3.549 -0.069 -4.736 -0 -1.2 0
3.908 -0.074 -5.191 -0 -1.2 0
4.535 -0.032 -5.99 -0 -1.2 0
5.184 -0.023 -6.814 -0 -1.2 0
5.926 -0.033 -7.757 -0 -1.2 0
6.868 -0.053 -8.951 -0 -1.2 0
8.199 -0.078 -10.639 -0 -1.2 0
10.6 -0.071 -13.687 -0 -1.2 0
11.26 -0.323 -14.509 -0 -1.2 0
11.177 -0.642 -14.385 -0 -1.2 0
11.152 -0.956 -14.335 -0 -1.2 0
11.836 -1.277 -15.184 -0 -1.2 0
16.537 -2.73 -21.068 -0 -1.2 0
16.506 -3.189 -21.001 -0 -1.2 0
16.488 -3.649 -20.951 -0 -1.2 0
17.263 -4.253 -21.899 -0 -1.2 0
15.733 -4.86 -19.92 -0 -1.2 0
17.19 -6.676 -21.661 -0 -1.2 0
0.722 -0.009 -1.2 -0 -1.2 0
0.746 -0.008 -1.233 -0 -1.2 0
0.775 -0.002 -1.272 -0 -1.2 0
0.799 -0.003 -1.306 -0 -1.2 0
0.821 -0.012 -1.334 -0 -1.2 0
0.85 -0.01 -1.374 -0 -1.2 0
0.88 -0.008 -1.415 -0 -1.2 0
0.905 -0.015 -1.449 -0 -1.2 0
0.945 -0.005 -1.503 -0 -1.2 0
0.976 -0.008 -1.545 -0 -1.2 0
1.002 -0.019 -1.58 -0 -1.2 0
1.038 -0.019 -1.629 -0 -1.2 0
1.079 -0.016 -1.684 -0 -1.2 0
1.121 -0.015 -1.741 -0 -1.2 0
1.168 -0.011 -1.805 -0 -1.2 0
1.21 -0.015 -1.862 -0 -1.2 0
1.263 -0.011 -1.934 -0 -1.2 0
1.317 -0.01 -2.007 -0 -1.2 0
1.365 -0.016 -2.072 -0 -1.2 0
1.425 -0.016 -2.153 -0 -1.2 0
1.484 -0.02 -2.233 -0 -1.2 0
1.545 -0.026 -2.315 -0 -1.2 0
1.622 -0.024 -2.42 -0 -1.2 0
1.699 -0.026 -2.524 -0 -1.2 0
1.788 -0.026 -2.645 -0 -1.2 0
1.867 -0.037 -2.751 -0 -1.2 0
1.972 -0.037 -2.896 -0 -1.2 0
2.091 -0.037 -3.056 -0 -1.2 0
2.222 -0.038 -3.233 -0 -1.2 0
2.358 -0.044 -3.418 -0 -1.2 0
2.519 -0.046 -3.635 -0 -1.2 0
2.72 -0.043 -3.908 -0 -1.2 0
2.911 -0.054 -4.166 -0 -1.2 0
3.148 -0.061 -4.489 -0 -1.2 0
3.421 -0.072 -4.858 -0 -1.2 0
3.76 -0.078 -5.317 -0 -1.2 0
4.234 -0.072 -5.96 -0 -1.2 0
4.978 -0.034 -6.972 -0 -1.2 0
5.725 -0.039 -7.987 -0 -1.2 0
6.593 -0.068 -9.162 -0 -1.2 0
7.964 -0.084 -11.02 -0 -1.2 0
10.135 -0.099 -13.966 -0 -1.2 0
9.514 -0.441 -13.102 -0 -1.2 0
9.57 -0.717 -13.16 -0 -1.2 0
9.556 -0.997 -13.125 -0 -1.2 0
16.869 -1.891 -22.991 -0 -1.2 0
16.884 -2.384 -22.982 -0 -1.2 0
15.588 -2.74 -21.202 -0 -1.2 0
16.9 -3.372 -22.943 -0 -1.2 0
16.912 -3.867 -22.93 -0 -1.2 0
16.919 -4.364 -22.909 -0 -1.2 0
14.682 -4.795 -19.85 -0 -1.2 0
15.853 -6.028 -21.361 -0 -1.2 0
0.695 -0.004 -1.216 -0 -1.2 0
0.718 -0.003 -1.25 -0 -1.2 0
0.737 -0.011 -1.278 -0 -1.2 0
0.761 -0.012 -1.311 -0 -1.2 0
0.789 -0.009 -1.352 -0 -1.2 0
0.817 -0.006 -1.394 -0 -1.2 0
0.841 -0.011 -1.429 -0 -1.2 0
0.87 -0.011 -1.471 -0 -1.2 0
0.904 -0.007 -1.52 -0 -1.2 0
0.933 -0.011 -1.562 -0 -1.2 0
0.963 -0.015 -1.605 -0 -1.2 0
0.998 -0.016 -1.655 -0 -1.2 0
1.037 -0.014 -1.712 -0 -1.2 0
1.077 -0.012 -1.771 -0 -1.2 0
1.116 -0.014 -1.828 -0 -1.2 0
1.162 -0.013 -1.894 -0 -1.2 0
1.203 -0.019 -1.953 -0 -1.2 0
1.254 -0.017 -2.028 -0 -1.2 0
1.305 -0.019 -2.102 -0 -1.2 0
1.363 -0.019 -2.184 -0 -1.2 0
1.425 -0.019 -2.275 -0 -1.2 0
1.483 -0.026 -2.358 -0 -1.2 0
1.55 -0.028 -2.458 -0 -1.2 0
1.63 -0.027 -2.572 -0 -1.2 0
1.71 -0.03 -2.688 -0 -1.2 0
1.795 -0.036 -2.812 -0 -1.2 0
1.892 -0.039 -2.952 -0 -1.2 0
2.005 -0.039 -3.116 -0 -1.2 0
2.135 -0.038 -3.305 -0 -1.2 0
2.266 -0.044 -3.494 -0 -1.2 0
2.425 -0.045 -3.725 -0 -1.2 0
2.59 -0.054 -3.964 -0 -1.2 0
2.778 -0.064 -4.236 -0 -1.2 0
3.016 -0.067 -4.582 -0 -1.2 0
3.277 -0.078 -4.96 -0 -1.2 0
3.617 -0.081 -5.454 -0 -1.2 0
4.042 -0.084 -6.071 -0 -1.2 0
4.765 -0.045 -7.123 -0 -1.2 0
5.502 -0.048 -8.193 -0 -1.2 0
6.372 -0.074 -9.453 -0 -1.2 0
7.666 -0.097 -11.33 -0 -1.2 0
9.675 -0.125 -14.244 -0 -1.2 0
8.826 -0.484 -12.99 -0 -1.2 0
8.895 -0.751 -13.075 -0 -1.2 0
8.883 -1.023 -13.039 -0 -1.2 0
15.772 -1.915 -22.985 -0 -1.2 0
15.787 -2.396 -22.977 -0 -1.2 0
15.797 -2.88 -22.962 -0 -1.2 0
15.797 -3.362 -22.931 -0 -1.2 0
15.826 -3.85 -22.944 -0 -1.2 0
14.961 -4.157 -21.667 -0 -1.2 0
0.66 -0.006 -1.224 -0 -1.2 0
0.681 -0.005 -1.259 -0 -1.2 0
0.703 -0.006 -1.294 -0 -1.2 0
0.723 -0.014 -1.323 -0 -1.2 0
0.749 -0.011 -1.365 -0 -1.2 0
0.772 -0.014 -1.401 -0 -1.2 0
0.8 -0.013 -1.442 -0 -1.2 0
0.831 -0.008 -1.492 -0 -1.2 0
0.863 -0.004 -1.542 -0 -1.2 0
0.886 -0.013 -1.579 -0 -1.2 0
0.915 -0.018 -1.624 -0 -1.2 0
0.947 -0.019 -1.674 -0 -1.2 0
0.984 -0.017 -1.733 -0 -1.2 0
1.018 -0.02 -1.785 -0 -1.2 0
1.056 -0.022 -1.845 -0 -1.2 0
1.099 -0.021 -1.911 -0 -1.2 0
1.142 -0.022 -1.979 -0 -1.2 0
1.196 -0.017 -2.063 -0 -1.2 0
1.239 -0.023 -2.131 -0 -1.2 0
1.299 -0.019 -2.223 -0 -1.2 0
1.348 -0.027 -2.301 -0 -1.2 0
1.403 -0.034 -2.386 -0 -1.2 0
1.473 -0.032 -2.495 -0 -1.2 0
1.548 -0.031 -2.613 -0 -1.2 0
1.623 -0.035 -2.731 -0 -1.2 0
1.714 -0.034 -2.874 -0 -1.2 0
1.801 -0.041 -3.009 -0 -1.2 0
1.904 -0.045 -3.17 -0 -1.2 0
2.033 -0.041 -3.371 -0 -1.2 0
2.162 -0.045 -3.573 -0 -1.2 0
2.308 -0.05 -3.801 -0 -1.2 0
2.464 -0.058 -4.045 -0 -1.2 0
2.653 -0.065 -4.34 -0 -1.2 0
2.879 -0.07 -4.694 -0 -1.2 0
3.128 -0.082 -5.081 -0 -1.2 0
3.445 -0.088 -5.578 -0 -1.2 0
3.865 -0.088 -6.234 -0 -1.2 0
4.514 -0.06 -7.252 -0 -1.2 0
5.257 -0.056 -8.413 -0 -1.2 0
6.093 -0.084 -9.719 -0 -1.2 0
7.396 -0.102 -11.759 -0 -1.2 0
9.186 -0.152 -14.555 -0 -1.2 0
8.375 -0.509 -13.264 -0 -1.2 0
8.372 -0.778 -13.241 -0 -1.2 0
8.403 -1.048 -13.271 -0 -1.2 0
14.675 -1.94 -23.027 -0 -1.2 0
14.694 -2.413 -23.028 -0 -1.2 0
14.705 -2.887 -23.013 -0 -1.2 0
14.715 -3.361 -23 -0 -1.2 0
14.733 -3.838 -22.997 -0 -1.2 0
14.74 -4.314 -22.978 -0 -1.2 0
0.627 -0.007 -1.232 -0 -1.2 0
0.648 -0.007 -1.267 -0 -1.2 0
0.67 -0.007 -1.303 -0 -1.2 0
0.687 -0.016 -1.331 -0 -1.2 0
0.712 -0.013 -1.374 -0 -1.2 0
0.735 -0.016 -1.411 -0 -1.2 0
0.76 -0.015 -1.454 -0 -1.2 0
0.786 -0.016 -1.498 -0 -1.2 0
0.813 -0.018 -1.542 -0 -1.2 0
0.839 -0.021 -1.586 -0 -1.2 0
0.87 -0.02 -1.638 -0 -1.2 0
0.905 -0.016 -1.697 -0 -1.2 0
0.936 -0.019 -1.75 -0 -1.2 0
0.969 -0.023 -1.802 -0 -1.2 0
1.009 -0.02 -1.871 -0 -1.2 0
1.049 -0.019 -1.94 -0 -1.2 0
1.087 -0.025 -2.001 -0 -1.2 0
1.133 -0.024 -2.078 -0 -1.2 0
1.179 -0.026 -2.156 -0 -1.2 0
1.235 -0.022 -2.249 -0 -1.2 0
1.282 -0.031 -2.329 -0 -1.2 0
1.343 -0.03 -2.431 -0 -1.2 0
1.405 -0.032 -2.535 -0 -1.2 0
1.477 -0.032 -2.654 -0 -1.2 0
1.549 -0.036 -2.775 -0 -1.2 0
1.631 -0.039 -2.912 -0 -1.2 0
1.718 -0.043 -3.058 -0 -1.2 0
1.816 -0.047 -3.223 -0 -1.2 0
1.928 -0.049 -3.411 -0 -1.2 0
2.061 -0.048 -3.634 -0 -1.2 0
2.194 -0.056 -3.858 -0 -1.2 0
2.348 -0.063 -4.115 -0 -1.2 0
2.523 -0.072 -4.407 -0 -1.2 0
2.744 -0.075 -4.776 -0 -1.2 0
2.979 -0.088 -5.171 -0 -1.2 0
3.292 -0.093 -5.695 -0 -1.2 0
3.676 -0.097 -6.338 -0 -1.2 0
4.162 -0.104 -7.153 -0 -1.2 0
4.999 -0.07 -8.56 -0 -1.2 0
5.88 -0.085 -10.037 -0 -1.2 0
7.11 -0.11 -12.097 -0 -1.2 0
8.389 -0.214 -14.236 -0 -1.2 0
8.327 -0.504 -14.114 -0 -1.2 0
8.329 -0.785 -14.099 -0 -1.2 0
8.345 -1.067 -14.105 -0 -1.2 0
14.176 -1.991 -23.826 -0 -1.2 0
14.175 -2.47 -23.793 -0 -1.2 0
14.169 -2.949 -23.752 -0 -1.2 0
14.164 -3.426 -23.713 -0 -1.2 0
14.176 -3.908 -23.7 -0 -1.2 0
14.173 -4.387 -23.663 -0 -1.2 0
0.596 -0.008 -1.239 -0 -1.2 0
0.612 -0.015 -1.268 -0 -1.2 0
0.636 -0.009 -1.311 -0 -1.2 0
0.653 -0.017 -1.34 -0 -1.2 0
0.673 -0.02 -1.377 -0 -1.2 0
0.698 -0.018 -1.421 -0 -1.2 0
0.722 -0.017 -1.465 -0 -1.2 0
0.746 -0.017 -1.509 -0 -1.2 0
0.775 -0.013 -1.561 -0 -1.2 0
0.8 -0.017 -1.606 -0 -1.2 0
0.826 -0.022 -1.652 -0 -1.2 0
0.855 -0.023 -1.704 -0 -1.2 0
0.885 -0.026 -1.758 -0 -1.2 0
0.919 -0.025 -1.82 -0 -1.2 0
0.958 -0.022 -1.889 -0 -1.2 0
0.996 -0.022 -1.958 -0 -1.2 0
1.036 -0.023 -2.029 -0 -1.2 0
1.074 -0.026 -2.1 -0 -1.2 0
1.114 -0.033 -2.171 -0 -1.2 0
1.172 -0.025 -2.275 -0 -1.2 0
1.217 -0.034 -2.354 -0 -1.2 0
1.274 -0.033 -2.459 -0 -1.2 0
1.333 -0.036 -2.564 -0 -1.2 0
1.401 -0.036 -2.687 -0 -1.2 0
1.473 -0.036 -2.817 -0 -1.2 0
1.547 -0.043 -2.95 -0 -1.2 0
1.63 -0.048 -3.099 -0 -1.2 0
1.722 -0.052 -3.265 -0 -1.2 0
1.834 -0.051 -3.465 -0 -1.2 0
1.96 -0.05 -3.692 -0 -1.2 0
2.091 -0.057 -3.928 -0 -1.2 0
2.237 -0.065 -4.191 -0 -1.2 0
2.398 -0.077 -4.479 -0 -1.2 0
2.606 -0.081 -4.854 -0 -1.2 0
2.839 -0.09 -5.274 -0 -1.2 0
3.154 -0.091 -5.842 -0 -1.2 0
3.504 -0.102 -6.471 -0 -1.2 0
3.913 -0.125 -7.205 -0 -1.2 0
4.692 -0.095 -8.611 -0 -1.2 0
5.585 -0.1 -10.219 -0 -1.2 0
6.919 -0.104 -12.622 -0 -1.2 0
8.305 -0.199 -15.114 -0 -1.2 0
8.267 -0.499 -15.024 -0 -1.2 0
8.255 -0.796 -14.983 -0 -1.2 0
8.281 -1.09 -15.007 -0 -1.2 0
7.14 -4.929 -12.689 -0 -1.2 0
7.219 -5.239 -12.808 -0 -1.2 0
0.559 -0.011 -1.245 -0 -1.2 0
0.574 -0.017 -1.275 -0 -1.2 0
0.594 -0.018 -1.312 -0 -1.2 0
0.616 -0.013 -1.356 -0 -1.2 0
0.631 -0.022 -1.386 -0 -1.2 0
0.655 -0.02 -1.43 -0 -1.2 0
0.677 -0.019 -1.475 -0 -1.2 0
0.7 -0.02 -1.521 -0 -1.2 0
0.724 -0.022 -1.567 -0 -1.2 0
0.751 -0.02 -1.619 -0 -1.2 0
0.775 -0.025 -1.666 -0 -1.2 0
0.806 -0.021 -1.727 -0 -1.2 0
0.835 -0.024 -1.782 -0 -1.2 0
0.866 -0.024 -1.844 -0 -1.2 0
0.899 -0.026 -1.907 -0 -1.2 0
0.931 -0.03 -1.971 -0 -1.2 0
0.972 -0.027 -2.05 -0 -1.2 0
1.013 -0.026 -2.13 -0 -1.2 0
1.05 -0.033 -2.203 -0 -1.2 0
1.095 -0.034 -2.292 -0 -1.2 0
1.146 -0.033 -2.39 -0 -1.2 0
1.2 -0.034 -2.496 -0 -1.2 0
1.251 -0.041 -2.595 -0 -1.2 0
1.315 -0.041 -2.719 -0 -1.2 0
1.383 -0.042 -2.853 -0 -1.2 0
1.456 -0.045 -2.995 -0 -1.2 0
1.529 -0.053 -3.138 -0 -1.2 0
1.616 -0.058 -3.308 -0 -1.2 0
1.73 -0.052 -3.529 -0 -1.2 0
1.843 -0.055 -3.752 -0 -1.2 0
1.961 -0.064 -3.984 -0 -1.2 0
2.095 -0.074 -4.242 -0 -1.2 0
2.255 -0.083 -4.554 -0 -1.2 0
2.446 -0.09 -4.927 -0 -1.2 0
2.683 -0.094 -5.389 -0 -1.2 0
2.964 -0.1 -5.941 -0 -1.2 0
3.315 -0.107 -6.626 -0 -1.2 0
3.676 -0.138 -7.329 -0 -1.2 0
4.195 -0.159 -8.344 -0 -1.2 0
5.254 -0.116 -10.416 -0 -1.2 0
6.479 -0.131 -12.81 -0 -1.2 0
7.884 -0.218 -15.551 -0 -1.2 0
8.208 -0.495 -16.163 -0 -1.2 0
8.166 -0.809 -16.059 -0 -1.2 0
8.195 -1.119 -16.092 -0 -1.2 0
6.885 -4.519 -13.281 -0 -1.2 0
6.784 -4.733 -13.068 -0 -1.2 0
6.573 -4.876 -12.647 -0 -1.2 0
6.692 -5.209 -12.855 -0 -1.2 0
0.523 -0.012 -1.249 -0 -1.2 0
0.538 -0.019 -1.279 -0 -1.2 0
0.556 -0.02 -1.317 -0 -1.2 0
0.577 -0.015 -1.361 -0 -1.2 0
0.591 -0.024 -1.392 -0 -1.2 0
0.615 -0.016 -1.445 -0 -1.2 0
0.631 -0.028 -1.476 -0 -1.2 0
0.656 -0.022 -1.53 -0 -1.2 0
0.68 -0.018 -1.582 -0 -1.2 0
0.703 -0.022 -1.629 -0 -1.2 0
0.725 -0.027 -1.677 -0 -1.2 0
0.755 -0.024 -1.739 -0 -1.2 0
0.781 -0.027 -1.795 -0 -1.2 0
0.811 -0.026 -1.858 -0 -1.2 0
0.841 -0.028 -1.922 -0 -1.2 0
0.872 -0.033 -1.987 -0 -1.2 0
0.909 -0.03 -2.068 -0 -1.2 0
0.948 -0.029 -2.148 -0 -1.2 0
0.983 -0.036 -2.222 -0 -1.2 0
1.033 -0.029 -2.33 -0 -1.2 0
1.072 -0.037 -2.412 -0 -1.2 0
1.128 -0.033 -2.529 -0 -1.2 0
1.179 -0.036 -2.637 -0 -1.2 0
1.235 -0.041 -2.756 -0 -1.2 0
1.295 -0.046 -2.883 -0 -1.2 0
1.359 -0.053 -3.019 -0 -1.2 0
1.436 -0.054 -3.182 -0 -1.2 0
1.518 -0.06 -3.353 -0 -1.2 0
1.615 -0.06 -3.562 -0 -1.2 0
1.726 -0.06 -3.796 -0 -1.2 0
1.837 -0.07 -4.032 -0 -1.2 0
1.969 -0.077 -4.312 -0 -1.2 0
2.115 -0.087 -4.619 -0 -1.2 0
2.311 -0.088 -5.035 -0 -1.2 0
2.507 -0.104 -5.451 -0 -1.2 0
2.772 -0.11 -6.011 -0 -1.2 0
3.125 -0.109 -6.761 -0 -1.2 0
3.467 -0.14 -7.484 -0 -1.2 0
3.92 -0.173 -8.443 -0 -1.2 0
4.878 -0.14 -10.476 -0 -1.2 0
6.152 -0.135 -13.179 -0 -1.2 0
7.37 -0.241 -15.756 -0 -1.2 0
9.098 -0.407 -19.409 -0 -1.2 0
9.109 -0.778 -19.403 -0 -1.2 0
3.35 -1.26 -7.15 -0 -1.2 0
3.37 -1.395 -7.181 -0 -1.2 0
7.283 -4.384 -15.25 -0 -1.2 0
6.196 -4.4 -12.944 -0 -1.2 0
6.271 -4.7 -13.079 -0 -1.2 0
6.456 -5.076 -13.443 -0 -1.2 0
6.308 -5.25 -13.115 -0 -1.2 0
5.768 -6.907 -11.842 -0 -1.2 0
6.229 -7.662 -12.762 -0 -1.2 0
6.079 -7.786 -12.436 -0 -1.2 0
0.487 -0.014 -1.252 -0 -1.2 0
0.5 -0.021 -1.283 -0 -1.2 0
0.516 -0.021 -1.321 -0 -1.2 0
0.536 -0.016 -1.366 -0 -1.2 0
0.55 -0.026 -1.398 -0 -1.2 0
0.572 -0.018 -1.451 -0 -1.2 0
0.587 -0.03 -1.482 -0 -1.2 0
0.61 -0.024 -1.536 -0 -1.2 0
0.627 -0.032 -1.576 -0 -1.2 0
0.654 -0.024 -1.639 -0 -1.2 0
0.675 -0.03 -1.687 -0 -1.2 0
0.701 -0.026 -1.75 -0 -1.2 0
0.723 -0.034 -1.798 -0 -1.2 0
0.751 -0.033 -1.862 -0 -1.2 0
0.782 -0.031 -1.935 -0 -1.2 0
0.81 -0.035 -2.001 -0 -1.2 0
0.846 -0.032 -2.083 -0 -1.2 0
0.881 -0.032 -2.165 -0 -1.2 0
0.914 -0.039 -2.24 -0 -1.2 0
0.958 -0.036 -2.341 -0 -1.2 0
0.997 -0.04 -2.433 -0 -1.2 0
1.045 -0.04 -2.543 -0 -1.2 0
1.093 -0.044 -2.654 -0 -1.2 0
1.145 -0.049 -2.773 -0 -1.2 0
1.204 -0.05 -2.911 -0 -1.2 0
1.264 -0.057 -3.049 -0 -1.2 0
1.332 -0.062 -3.205 -0 -1.2 0
1.411 -0.064 -3.388 -0 -1.2 0
1.506 -0.062 -3.608 -0 -1.2 0
1.605 -0.065 -3.837 -0 -1.2 0
1.712 -0.073 -4.085 -0 -1.2 0
1.828 -0.084 -4.352 -0 -1.2 0
1.968 -0.094 -4.673 -0 -1.2 0
2.15 -0.095 -5.095 -0 -1.2 0
2.336 -0.109 -5.526 -0 -1.2 0
2.575 -0.12 -6.076 -0 -1.2 0
2.888 -0.126 -6.8 -0 -1.2 0
3.081 -0.195 -7.243 -0 -1.2 0
3.075 -0.333 -7.218 -0 -1.2 0
3.08 -0.468 -7.219 -0 -1.2 0
3.088 -0.601 -7.227 -0 -1.2 0
3.084 -0.737 -7.205 -0 -1.2 0
3.054 -0.873 -7.125 -0 -1.2 0
3.043 -1.005 -7.09 -0 -1.2 0
3.075 -1.136 -7.152 -0 -1.2 0
3.094 -1.269 -7.186 -0 -1.2 0
3.066 -1.398 -7.108 -0 -1.2 0
7.099 -3.321 -16.288 -0 -1.2 0
6.932 -3.872 -15.856 -0 -1.2 0
6.873 -4.149 -15.697 -0 -1.2 0
5.805 -4.439 -13.202 -0 -1.2 0
5.899 -4.755 -13.392 -0 -1.2 0
5.888 -5.012 -13.346 -0 -1.2 0
5.937 -5.312 -13.437 -0 -1.2 0
5.838 -5.506 -13.189 -0 -1.2 0
6.134 -6.012 -13.835 -0 -1.2 0
5.986 -6.728 -13.434 -0 -1.2 0
6.057 -7.082 -13.566 -0 -1.2 0
5.54 -6.834 -12.392 -0 -1.2 0
5.394 -6.943 -12.046 -0 -1.2 0
5.668 -7.522 -12.633 -0 -1.2 0
5.7 -7.843 -12.681 -0 -1.2 0
5.612 -8.022 -12.463 -0 -1.2 0
0.444 -0.023 -1.248 -0 -1.2 0
0.459 -0.022 -1.286 -0 -1.2 0
0.476 -0.016 -1.332 -0 -1.2 0
0.491 -0.018 -1.371 -0 -1.2 0
0.507 -0.022 -1.409 -0 -1.2 0
0.52 -0.032 -1.442 -0 -1.2 0
0.541 -0.025 -1.496 -0 -1.2 0
0.559 -0.026 -1.543 -0 -1.2 0
0.578 -0.029 -1.591 -0 -1.2 0
0.597 -0.033 -1.639 -0 -1.2 0
0.616 -0.038 -1.687 -0 -1.2 0
0.641 -0.033 -1.751 -0 -1.2 0
0.666 -0.032 -1.816 -0 -1.2 0
0.689 -0.036 -1.874 -0 -1.2 0
0.715 -0.039 -1.94 -0 -1.2 0
0.744 -0.038 -2.014 -0 -1.2 0
0.776 -0.035 -2.098 -0 -1.2 0
0.806 -0.039 -2.172 -0 -1.2 0
0.836 -0.047 -2.249 -0 -1.2 0
0.879 -0.039 -2.359 -0 -1.2 0
0.915 -0.044 -2.453 -0 -1.2 0
0.962 -0.04 -2.572 -0 -1.2 0
1.006 -0.044 -2.685 -0 -1.2 0
1.054 -0.049 -2.807 -0 -1.2 0
1.105 -0.054 -2.937 -0 -1.2 0
1.16 -0.061 -3.078 -0 -1.2 0
1.223 -0.067 -3.236 -0 -1.2 0
1.299 -0.066 -3.431 -0 -1.2 0
1.379 -0.07 -3.635 -0 -1.2 0
1.47 -0.074 -3.869 -0 -1.2 0
1.568 -0.081 -4.12 -0 -1.2 0
1.678 -0.091 -4.399 -0 -1.2 0
1.812 -0.097 -4.743 -0 -1.2 0
1.976 -0.1 -5.162 -0 -1.2 0
2.155 -0.112 -5.618 -0 -1.2 0
2.385 -0.12 -6.204 -0 -1.2 0
2.664 -0.131 -6.921 -0 -1.2 0
2.864 -0.194 -7.425 -0 -1.2 0
2.798 -0.351 -7.243 -0 -1.2 0
