# .PCD v.7 - Point Cloud Data file format
FIELDS x y z vp_x vp_y vp_z
SIZE 4 4 4 4 4 4
TYPE F F F F F F
COUNT 1 1 1 1 1 1
WIDTH 1494
HEIGHT 1
VIEWPOINT 0 -1.20013 0 1 0 0 0
POINTS 1494
DATA ascii
20.636 -2.045 21.923 -0 -1.2 0
20.62 -2.567 21.909 -0 -1.2 0
20.599 -3.09 21.887 -0 -1.2 0
20.571 -3.612 21.859 -0 -1.2 0
20.043 -8.258 21.312 -0 -1.2 0
19.954 -8.766 21.218 -0 -1.2 0
19.859 -9.271 21.117 -0 -1.2 0
19.757 -9.773 21.011 -0 -1.2 0
19.65 -10.273 20.899 -0 -1.2 0
19.537 -10.77 20.78 -0 -1.2 0
19.417 -11.265 20.654 -0 -1.2 0
19.292 -11.755 20.523 -0 -1.2 0
19.161 -12.243 20.385 -0 -1.2 0
19.024 -12.728 20.241 -0 -1.2 0
18.882 -13.208 20.091 -0 -1.2 0
18.733 -13.686 19.934 -0 -1.2 0
18.579 -14.159 19.772 -0 -1.2 0
18.42 -14.629 19.603 -0 -1.2 0
18.254 -15.094 19.43 -0 -1.2 0
17.538 -16.911 18.674 -0 -1.2 0
17.346 -17.353 18.471 -0 -1.2 0
17.148 -17.791 18.262 -0 -1.2 0
16.945 -18.223 18.048 -0 -1.2 0
16.737 -18.651 17.828 -0 -1.2 0
16.524 -19.072 17.603 -0 -1.2 0
16.306 -19.489 17.373 -0 -1.2 0
16.083 -19.9 17.137 -0 -1.2 0
15.855 -20.305 16.897 -0 -1.2 0
15.622 -20.704 16.65 -0 -1.2 0
15.385 -21.097 16.4 -0 -1.2 0
15.142 -21.485 16.143 -0 -1.2 0
14.896 -21.867 15.882 -0 -1.2 0
21.309 1.091 21.176 -0 -1.2 0
21.358 -0.476 21.231 -0 -1.2 0
21.362 -0.999 21.237 -0 -1.2 0
21.359 -1.522 21.235 -0 -1.2 0
21.103 -5.694 20.996 -0 -1.2 0
20.734 -8.26 20.638 -0 -1.2 0
20.642 -8.768 20.549 -0 -1.2 0
20.542 -9.273 20.452 -0 -1.2 0
20.437 -9.775 20.349 -0 -1.2 0
20.326 -10.275 20.241 -0 -1.2 0
20.209 -10.772 20.126 -0 -1.2 0
20.085 -11.267 20.004 -0 -1.2 0
19.955 -11.757 19.877 -0 -1.2 0
19.819 -12.245 19.744 -0 -1.2 0
19.677 -12.73 19.605 -0 -1.2 0
19.376 -13.688 19.309 -0 -1.2 0
18.88 -15.096 18.821 -0 -1.2 0
18.332 -16.465 18.281 -0 -1.2 0
17.524 -18.225 17.484 -0 -1.2 0
16.395 -20.307 16.371 -0 -1.2 0
16.154 -20.706 16.132 -0 -1.2 0
15.908 -21.099 15.89 -0 -1.2 0
15.657 -21.486 15.642 -0 -1.2 0
15.402 -21.868 15.389 -0 -1.2 0
21.999 1.089 20.457 -0 -1.2 0
22 -3.095 20.477 -0 -1.2 0
21.97 -3.617 20.452 -0 -1.2 0
21.934 -4.139 20.419 -0 -1.2 0
21.89 -4.659 20.382 -0 -1.2 0
21.84 -5.179 20.338 -0 -1.2 0
21.784 -5.696 20.287 -0 -1.2 0
21.721 -6.213 20.231 -0 -1.2 0
21.574 -7.242 20.1 -0 -1.2 0
21.492 -7.753 20.025 -0 -1.2 0
21.402 -8.263 19.943 -0 -1.2 0
21.306 -8.771 19.857 -0 -1.2 0
21.203 -9.275 19.764 -0 -1.2 0
21.095 -9.778 19.665 -0 -1.2 0
20.979 -10.278 19.56 -0 -1.2 0
20.858 -10.775 19.449 -0 -1.2 0
20.73 -11.269 19.333 -0 -1.2 0
20.597 -11.76 19.21 -0 -1.2 0
20.456 -12.247 19.081 -0 -1.2 0
20.309 -12.732 18.947 -0 -1.2 0
20.156 -13.213 18.807 -0 -1.2 0
19.833 -14.163 18.511 -0 -1.2 0
19.302 -15.559 18.023 -0 -1.2 0
17.4 -19.493 16.272 -0 -1.2 0
16.668 -20.708 15.597 -0 -1.2 0
16.414 -21.101 15.363 -0 -1.2 0
16.155 -21.489 15.124 -0 -1.2 0
15.892 -21.87 14.88 -0 -1.2 0
22.782 -1.006 19.705 -0 -1.2 0
22.778 -1.529 19.704 -0 -1.2 0
22.767 -2.054 19.698 -0 -1.2 0
22.75 -2.576 19.686 -0 -1.2 0
22.726 -3.099 19.667 -0 -1.2 0
22.695 -3.621 19.643 -0 -1.2 0
22.657 -4.143 19.612 -0 -1.2 0
22.611 -4.663 19.577 -0 -1.2 0
22.56 -5.183 19.535 -0 -1.2 0
22.501 -5.7 19.487 -0 -1.2 0
22.284 -7.245 19.308 -0 -1.2 0
22.199 -7.757 19.236 -0 -1.2 0
22.106 -8.266 19.158 -0 -1.2 0
22.007 -8.774 19.076 -0 -1.2 0
21.9 -9.279 18.986 -0 -1.2 0
21.669 -10.282 18.792 -0 -1.2 0
21.411 -11.273 18.574 -0 -1.2 0
21.272 -11.764 18.456 -0 -1.2 0
17.72 -19.907 15.429 -0 -1.2 0
17.468 -20.312 15.212 -0 -1.2 0
17.21 -20.711 14.993 -0 -1.2 0
16.948 -21.104 14.767 -0 -1.2 0
16.68 -21.491 14.539 -0 -1.2 0
16.408 -21.873 14.305 -0 -1.2 0
23.381 1.08 18.862 -0 -1.2 0
23.405 0.557 18.885 -0 -1.2 0
23.434 -0.487 18.914 -0 -1.2 0
23.437 -1.01 18.92 -0 -1.2 0
23.432 -1.534 18.919 -0 -1.2 0
23.422 -2.058 18.914 -0 -1.2 0
23.404 -2.581 18.903 -0 -1.2 0
23.379 -3.103 18.885 -0 -1.2 0
23.347 -3.625 18.863 -0 -1.2 0
23.308 -4.147 18.833 -0 -1.2 0
23.26 -4.668 18.799 -0 -1.2 0
23.207 -5.187 18.76 -0 -1.2 0
23.147 -5.705 18.714 -0 -1.2 0
22.923 -7.25 18.543 -0 -1.2 0
22.739 -8.271 18.4 -0 -1.2 0
22.637 -8.778 18.321 -0 -1.2 0
22.288 -10.286 18.05 -0 -1.2 0
21.88 -11.768 17.728 -0 -1.2 0
18.968 -18.661 15.42 -0 -1.2 0
18.223 -19.91 14.827 -0 -1.2 0
17.698 -20.714 14.409 -0 -1.2 0
17.428 -21.107 14.193 -0 -1.2 0
17.152 -21.494 13.973 -0 -1.2 0
16.872 -21.876 13.749 -0 -1.2 0
24.008 1.075 18.056 -0 -1.2 0
24.033 0.552 18.079 -0 -1.2 0
24.051 0.029 18.095 -0 -1.2 0
24.062 -0.493 18.107 -0 -1.2 0
24.065 -1.016 18.113 -0 -1.2 0
24.06 -1.539 18.113 -0 -1.2 0
24.049 -2.063 18.108 -0 -1.2 0
24.031 -2.586 18.098 -0 -1.2 0
24.005 -3.108 18.082 -0 -1.2 0
23.972 -3.63 18.06 -0 -1.2 0
23.93 -4.152 18.033 -0 -1.2 0
23.883 -4.673 18.001 -0 -1.2 0
23.828 -5.192 17.963 -0 -1.2 0
23.766 -5.71 17.919 -0 -1.2 0
23.535 -7.255 17.757 -0 -1.2 0
23.444 -7.766 17.692 -0 -1.2 0
23.241 -8.783 17.546 -0 -1.2 0
23.128 -9.288 17.464 -0 -1.2 0
22.148 -12.745 16.75 -0 -1.2 0
17.888 -21.111 13.602 -0 -1.2 0
17.605 -21.498 13.392 -0 -1.2 0
17.317 -21.88 13.178 -0 -1.2 0
24.653 1.069 17.166 -0 -1.2 0
24.679 0.546 17.188 -0 -1.2 0
24.706 -1.545 17.222 -0 -1.2 0
24.694 -2.069 17.218 -0 -1.2 0
24.675 -2.592 17.208 -0 -1.2 0
24.648 -3.115 17.193 -0 -1.2 0
24.614 -3.636 17.173 -0 -1.2 0
24.571 -4.159 17.147 -0 -1.2 0
24.522 -4.679 17.117 -0 -1.2 0
24.466 -5.198 17.082 -0 -1.2 0
24.251 -6.748 16.944 -0 -1.2 0
24.165 -7.261 16.887 -0 -1.2 0
24.07 -7.772 16.826 -0 -1.2 0
23.97 -8.282 16.759 -0 -1.2 0
23.746 -9.294 16.611 -0 -1.2 0
23.493 -10.297 16.442 -0 -1.2 0
17.774 -21.884 12.546 -0 -1.2 0
25.222 1.062 16.318 -0 -1.2 0
25.267 0.016 16.355 -0 -1.2 0
25.278 -0.505 16.366 -0 -1.2 0
25.281 -1.028 16.373 -0 -1.2 0
25.181 -3.643 16.329 -0 -1.2 0
25.137 -4.165 16.305 -0 -1.2 0
25.086 -4.685 16.277 -0 -1.2 0
25.028 -5.205 16.243 -0 -1.2 0
24.889 -6.239 16.162 -0 -1.2 0
24.808 -6.754 16.113 -0 -1.2 0
24.72 -7.267 16.059 -0 -1.2 0
24.623 -7.779 16.002 -0 -1.2 0
24.52 -8.288 15.939 -0 -1.2 0
24.41 -8.796 15.872 -0 -1.2 0
24.291 -9.301 15.799 -0 -1.2 0
25.762 1.055 15.451 -0 -1.2 0
25.803 -2.083 15.503 -0 -1.2 0
25.783 -2.606 15.496 -0 -1.2 0
25.754 -3.128 15.483 -0 -1.2 0
25.42 -6.246 15.31 -0 -1.2 0
25.337 -6.761 15.264 -0 -1.2 0
25.247 -7.274 15.214 -0 -1.2 0
25.148 -7.786 15.16 -0 -1.2 0
25.043 -8.295 15.101 -0 -1.2 0
24.93 -8.803 15.038 -0 -1.2 0
24.808 -9.308 14.969 -0 -1.2 0
24.68 -9.81 14.896 -0 -1.2 0
24.091 -11.791 14.561 -0 -1.2 0
26.31 1.047 14.498 -0 -1.2 0
26.367 -0.521 14.544 -0 -1.2 0
26.369 -1.044 14.551 -0 -1.2 0
26.364 -1.567 14.552 -0 -1.2 0
26.351 -2.092 14.55 -0 -1.2 0
26.33 -2.614 14.543 -0 -1.2 0
26.301 -3.137 14.532 -0 -1.2 0
26.263 -3.659 14.516 -0 -1.2 0
25.959 -6.255 14.373 -0 -1.2 0
25.874 -6.77 14.33 -0 -1.2 0
25.782 -7.283 14.284 -0 -1.2 0
25.681 -7.794 14.234 -0 -1.2 0
25.573 -8.303 14.178 -0 -1.2 0
25.458 -8.811 14.12 -0 -1.2 0
25.333 -9.316 14.056 -0 -1.2 0
25.202 -9.818 13.988 -0 -1.2 0
24.762 -11.309 13.76 -0 -1.2 0
26.787 1.038 13.598 -0 -1.2 0
26.833 -0.007 13.632 -0 -1.2 0
26.844 -0.53 13.643 -0 -1.2 0
26.846 -1.053 13.65 -0 -1.2 0
26.841 -1.576 13.651 -0 -1.2 0
26.692 -4.189 13.601 -0 -1.2 0
26.488 -4.689 13.503 -0 -1.2 0
26.576 -5.229 13.553 -0 -1.2 0
26.427 -6.263 13.488 -0 -1.2 0
26.341 -6.778 13.449 -0 -1.2 0
26.247 -7.291 13.407 -0 -1.2 0
26.144 -7.802 13.359 -0 -1.2 0
26.034 -8.312 13.308 -0 -1.2 0
25.503 -8.695 13.043 -0 -1.2 0
25.789 -9.324 13.194 -0 -1.2 0
25.208 -11.317 12.919 -0 -1.2 0
24.871 -12.294 12.757 -0 -1.2 0
24.503 -13.259 12.58 -0 -1.2 0
24.106 -14.208 12.387 -0 -1.2 0
27.225 1.029 12.698 -0 -1.2 0
27.253 0.505 12.717 -0 -1.2 0
27.272 -0.016 12.73 -0 -1.2 0
27.266 -2.109 12.75 -0 -1.2 0
27.244 -2.632 12.746 -0 -1.2 0
27.214 -3.155 12.736 -0 -1.2 0
27.174 -3.676 12.724 -0 -1.2 0
27.127 -4.198 12.707 -0 -1.2 0
27.073 -4.719 12.687 -0 -1.2 0
27.009 -5.238 12.663 -0 -1.2 0
26.545 -6.212 12.457 -0 -1.2 0
26.77 -6.787 12.567 -0 -1.2 0
26.674 -7.3 12.528 -0 -1.2 0
26.57 -7.811 12.485 -0 -1.2 0
26.458 -8.321 12.437 -0 -1.2 0
24.703 -13.744 11.676 -0 -1.2 0
23.601 -16.067 11.186 -0 -1.2 0
27.663 1.018 11.713 -0 -1.2 0
27.704 -2.12 11.765 -0 -1.2 0
27.682 -2.642 11.762 -0 -1.2 0
27.651 -3.165 11.753 -0 -1.2 0
27.611 -3.687 11.743 -0 -1.2 0
27.563 -4.209 11.728 -0 -1.2 0
27.443 -5.248 11.689 -0 -1.2 0
27.369 -5.766 11.663 -0 -1.2 0
27.288 -6.283 11.635 -0 -1.2 0
26.441 -6.638 11.279 -0 -1.2 0
27.102 -7.31 11.567 -0 -1.2 0
26.995 -7.821 11.527 -0 -1.2 0
26.882 -8.331 11.484 -0 -1.2 0
26.759 -8.838 11.439 -0 -1.2 0
26.629 -9.343 11.389 -0 -1.2 0
25.097 -13.754 10.789 -0 -1.2 0
24.447 -15.16 10.529 -0 -1.2 0
28.066 0.484 10.802 -0 -1.2 0
28.086 -0.037 10.816 -0 -1.2 0
28.096 -0.56 10.825 -0 -1.2 0
28.099 -1.083 10.833 -0 -1.2 0
28.093 -1.606 10.836 -0 -1.2 0
28.079 -2.13 10.837 -0 -1.2 0
28.056 -2.653 10.834 -0 -1.2 0
28.025 -3.176 10.828 -0 -1.2 0
27.984 -3.697 10.818 -0 -1.2 0
27.936 -4.219 10.806 -0 -1.2 0
27.879 -4.739 10.79 -0 -1.2 0
27.739 -5.776 10.748 -0 -1.2 0
27.657 -6.293 10.723 -0 -1.2 0
27.567 -6.808 10.693 -0 -1.2 0
27.467 -7.32 10.661 -0 -1.2 0
27.244 -8.341 10.586 -0 -1.2 0
26.988 -9.353 10.5 -0 -1.2 0
25.639 -13.286 10.026 -0 -1.2 0
25.003 -14.704 9.798 -0 -1.2 0
24.776 -15.169 9.716 -0 -1.2 0
22.694 -18.719 8.955 -0 -1.2 0
28.412 0.473 9.857 -0 -1.2 0
28.432 -0.048 9.87 -0 -1.2 0
28.439 -1.617 9.891 -0 -1.2 0
28.424 -2.142 9.892 -0 -1.2 0
28.401 -2.664 9.891 -0 -1.2 0
28.369 -3.187 9.885 -0 -1.2 0
28.328 -3.708 9.878 -0 -1.2 0
28.279 -4.23 9.867 -0 -1.2 0
28.221 -4.75 9.853 -0 -1.2 0
28.155 -5.27 9.837 -0 -1.2 0
28.08 -5.787 9.816 -0 -1.2 0
27.997 -6.304 9.794 -0 -1.2 0
27.905 -6.818 9.768 -0 -1.2 0
27.804 -7.331 9.74 -0 -1.2 0
27.695 -7.842 9.708 -0 -1.2 0
27.579 -8.352 9.673 -0 -1.2 0
24.343 -16.545 8.649 -0 -1.2 0
28.782 -0.584 8.838 -0 -1.2 0
27.5 -9.877 8.56 -0 -1.2 0
25.136 -15.65 7.909 -0 -1.2 0
29.253 0.959 6.838 -0 -1.2 0
23.05 -19.594 5.663 -0 -1.2 0
29.481 0.944 5.778 -0 -1.2 0
22.711 -20.429 3.976 -0 -1.2 0
23.151 -20.037 3.262 -0 -1.2 0
23.658 -19.665 0.886 -0 -1.2 0
22.092 -20.604 -6.013 -0 -1.2 0
21.87 -20.619 -6.729 -0 -1.2 0
21.623 -20.634 -7.44 -0 -1.2 0
27.875 -0.41 -11.323 -0 -1.2 0
21.584 -19.467 -10.065 -0 -1.2 0
20.627 -20.301 -10.5 -0 -1.2 0
21.353 -18.663 -11.837 -0 -1.2 0
20.818 -19.501 -11.508 -0 -1.2 0
20.54 -19.912 -11.338 -0 -1.2 0
21.13 -18.202 -12.656 -0 -1.2 0
20.681 -19.102 -12.355 -0 -1.2 0
20.416 -19.518 -12.18 -0 -1.2 0
20.144 -19.928 -12.001 -0 -1.2 0
19.293 -21.124 -11.443 -0 -1.2 0
20.222 -17.86 -13.109 -0 -1.2 0
20.203 -19.108 -13.065 -0 -1.2 0
19.958 -19.536 -12.889 -0 -1.2 0
19.692 -19.946 -12.7 -0 -1.2 0
19.422 -20.35 -12.508 -0 -1.2 0
18.279 -21.908 -11.701 -0 -1.2 0
17.979 -22.282 -11.489 -0 -1.2 0
19.76 -19.137 -13.732 -0 -1.2 0
19.506 -19.552 -13.538 -0 -1.2 0
18.982 -20.367 -13.139 -0 -1.2 0
18.712 -20.765 -12.933 -0 -1.2 0
18.435 -21.157 -12.723 -0 -1.2 0
17.866 -21.923 -12.293 -0 -1.2 0
17.573 -22.298 -12.072 -0 -1.2 0
19.518 -18.734 -14.575 -0 -1.2 0
19.03 -19.569 -14.175 -0 -1.2 0
17.987 -21.173 -13.324 -0 -1.2 0
17.712 -21.559 -13.102 -0 -1.2 0
17.431 -21.939 -12.875 -0 -1.2 0
17.214 -21.576 -13.721 -0 -1.2 0
16.942 -21.956 -13.485 -0 -1.2 0
16.665 -22.329 -13.244 -0 -1.2 0
16.992 -21.206 -14.523 -0 -1.2 0
16.468 -21.971 -14.035 -0 -1.2 0
16.199 -22.344 -13.784 -0 -1.2 0
21.798 -1.171 -20.731 -0 -1.2 0
21.802 -1.694 -20.719 -0 -1.2 0
21.799 -2.216 -20.701 -0 -1.2 0
21.788 -2.74 -20.676 -0 -1.2 0
21.772 -3.262 -20.645 -0 -1.2 0
21.749 -3.784 -20.609 -0 -1.2 0
21.72 -4.305 -20.565 -0 -1.2 0
21.684 -4.825 -20.515 -0 -1.2 0
21.641 -5.344 -20.459 -0 -1.2 0
21.592 -5.862 -20.398 -0 -1.2 0
21.536 -6.378 -20.329 -0 -1.2 0
21.474 -6.892 -20.254 -0 -1.2 0
21.065 -9.435 -19.79 -0 -1.2 0
15.974 -21.986 -14.571 -0 -1.2 0
15.714 -22.36 -14.311 -0 -1.2 0
21.031 -1.194 -21.506 -0 -1.2 0
21.035 -1.717 -21.495 -0 -1.2 0
21.033 -2.24 -21.476 -0 -1.2 0
21.024 -2.763 -21.451 -0 -1.2 0
21.007 -3.285 -21.419 -0 -1.2 0
20.986 -3.807 -21.381 -0 -1.2 0
20.958 -4.328 -21.337 -0 -1.2 0
20.923 -4.848 -21.285 -0 -1.2 0
20.882 -5.367 -21.227 -0 -1.2 0
20.834 -5.885 -21.163 -0 -1.2 0
20.781 -6.4 -21.093 -0 -1.2 0
20.721 -6.915 -21.016 -0 -1.2 0
15.171 -22.376 -14.86 -0 -1.2 0
20.285 -0.692 -22.207 -0 -1.2 0
20.295 -1.215 -22.202 -0 -1.2 0
20.299 -1.738 -22.189 -0 -1.2 0
20.296 -2.261 -22.171 -0 -1.2 0
20.288 -2.785 -22.145 -0 -1.2 0
20.273 -3.306 -22.113 -0 -1.2 0
20.252 -3.828 -22.073 -0 -1.2 0
20.225 -4.349 -22.027 -0 -1.2 0
20.192 -4.869 -21.975 -0 -1.2 0
20.153 -5.388 -21.916 -0 -1.2 0
20.107 -5.906 -21.85 -0 -1.2 0
14.892 -22.018 -15.63 -0 -1.2 0
14.649 -22.391 -15.353 -0 -1.2 0
19.537 -1.236 -22.87 -0 -1.2 0
19.541 -1.759 -22.858 -0 -1.2 0
19.539 -2.282 -22.838 -0 -1.2 0
19.531 -2.806 -22.812 -0 -1.2 0
19.516 -3.328 -22.78 -0 -1.2 0
19.497 -3.849 -22.739 -0 -1.2 0
19.471 -4.37 -22.692 -0 -1.2 0
19.44 -4.89 -22.638 -0 -1.2 0
19.402 -5.409 -22.577 -0 -1.2 0
19.358 -5.927 -22.51 -0 -1.2 0
19.309 -6.442 -22.435 -0 -1.2 0
19.254 -6.957 -22.354 -0 -1.2 0
19.194 -7.469 -22.266 -0 -1.2 0
19.126 -7.979 -22.171 -0 -1.2 0
18.705 -10.498 -21.596 -0 -1.2 0
18.604 -10.994 -21.461 -0 -1.2 0
15.446 -20.082 -17.464 -0 -1.2 0
14.346 -22.034 -16.111 -0 -1.2 0
14.113 -22.406 -15.826 -0 -1.2 0
18.707 -1.259 -23.553 -0 -1.2 0
18.711 -1.781 -23.54 -0 -1.2 0
18.71 -2.304 -23.52 -0 -1.2 0
18.702 -2.828 -23.493 -0 -1.2 0
18.69 -3.35 -23.459 -0 -1.2 0
18.67 -3.871 -23.419 -0 -1.2 0
18.646 -4.392 -23.371 -0 -1.2 0
18.616 -4.913 -23.315 -0 -1.2 0
18.581 -5.431 -23.253 -0 -1.2 0
18.538 -5.949 -23.183 -0 -1.2 0
18.492 -6.464 -23.107 -0 -1.2 0
18.44 -6.979 -23.024 -0 -1.2 0
18.382 -7.491 -22.933 -0 -1.2 0
18.008 -10.021 -22.377 -0 -1.2 0
13.748 -22.05 -16.603 -0 -1.2 0
13.525 -22.422 -16.309 -0 -1.2 0
17.906 -0.756 -24.164 -0 -1.2 0
17.915 -1.279 -24.158 -0 -1.2 0
17.919 -1.802 -24.147 -0 -1.2 0
17.918 -2.325 -24.127 -0 -1.2 0
17.911 -2.849 -24.099 -0 -1.2 0
17.899 -3.37 -24.065 -0 -1.2 0
17.881 -3.892 -24.023 -0 -1.2 0
17.858 -4.413 -23.973 -0 -1.2 0
17.83 -4.933 -23.918 -0 -1.2 0
17.796 -5.452 -23.854 -0 -1.2 0
17.757 -5.969 -23.783 -0 -1.2 0
17.712 -6.484 -23.705 -0 -1.2 0
17.48 -8.529 -23.32 -0 -1.2 0
15.249 -17.586 -19.993 -0 -1.2 0
12.964 -22.436 -16.738 -0 -1.2 0
16.813 -7.531 -24.094 -0 -1.2 0
15.902 -13.002 -22.578 -0 -1.2 0
16.073 -0.28 -25.169 -0 -1.2 0
16.195 -0.798 -25.341 -0 -1.2 0
16.203 -1.321 -25.336 -0 -1.2 0
16.208 -1.844 -25.323 -0 -1.2 0
16.207 -2.367 -25.303 -0 -1.2 0
16.202 -2.891 -25.275 -0 -1.2 0
16.192 -3.412 -25.24 -0 -1.2 0
16.177 -3.934 -25.196 -0 -1.2 0
16.156 -4.454 -25.145 -0 -1.2 0
16.131 -4.975 -25.086 -0 -1.2 0
14.968 -13.502 -22.944 -0 -1.2 0
11.752 -22.466 -17.572 -0 -1.2 0
15.299 0.227 -25.857 -0 -1.2 0
15.332 -0.819 -25.871 -0 -1.2 0
15.341 -1.342 -25.867 -0 -1.2 0
15.345 -1.864 -25.854 -0 -1.2 0
15.345 -2.387 -25.833 -0 -1.2 0
15.34 -2.911 -25.804 -0 -1.2 0
15.331 -3.433 -25.768 -0 -1.2 0
15.317 -3.954 -25.724 -0 -1.2 0
15.298 -4.475 -25.672 -0 -1.2 0
15.102 -4.95 -25.323 -0 -1.2 0
15.247 -5.513 -25.545 -0 -1.2 0
15.214 -6.031 -25.469 -0 -1.2 0
14.42 0.207 -26.358 -0 -1.2 0
14.461 -2.931 -26.305 -0 -1.2 0
14.453 -3.452 -26.268 -0 -1.2 0
14.44 -3.974 -26.223 -0 -1.2 0
14.245 -4.453 -25.848 -0 -1.2 0
14.27 -7.08 -25.788 -0 -1.2 0
14.227 -7.592 -25.687 -0 -1.2 0
13.935 -8.507 -25.116 -0 -1.2 0
14.071 -9.115 -25.339 -0 -1.2 0
13.803 -11.112 -24.769 -0 -1.2 0
13.644 -12.093 -24.438 -0 -1.2 0
13.558 -12.578 -24.262 -0 -1.2 0
13.375 -13.539 -23.887 -0 -1.2 0
10.519 -22.495 -18.302 -0 -1.2 0
13.455 0.186 -26.864 -0 -1.2 0
13.473 -0.337 -26.875 -0 -1.2 0
13.495 -1.383 -26.873 -0 -1.2 0
13.478 -3.995 -26.727 -0 -1.2 0
13.212 -6.526 -26.088 -0 -1.2 0
13.23 -7.058 -26.1 -0 -1.2 0
13.067 -8.031 -25.734 -0 -1.2 0
9.835 -22.51 -18.66 -0 -1.2 0
12.544 0.167 -27.3 -0 -1.2 0
12.381 -0.367 -26.922 -0 -1.2 0
12.573 -0.879 -27.317 -0 -1.2 0
12.582 -1.402 -27.312 -0 -1.2 0
12.587 -1.925 -27.299 -0 -1.2 0
12.587 -2.448 -27.277 -0 -1.2 0
12.568 -4.014 -27.164 -0 -1.2 0
11.657 -13.576 -24.749 -0 -1.2 0
9.482 -21.777 -19.644 -0 -1.2 0
9.337 -22.153 -19.311 -0 -1.2 0
9.189 -22.523 -18.97 -0 -1.2 0
11.644 -4.033 -27.569 -0 -1.2 0
11.516 -7.138 -27.114 -0 -1.2 0
11.482 -7.65 -27.009 -0 -1.2 0
8.803 -21.791 -19.943 -0 -1.2 0
8.669 -22.167 -19.603 -0 -1.2 0
8.532 -22.537 -19.259 -0 -1.2 0
10.635 -4.053 -27.971 -0 -1.2 0
10.521 -7.157 -27.51 -0 -1.2 0
8.181 -21.423 -20.575 -0 -1.2 0
8.062 -21.805 -20.238 -0 -1.2 0
7.939 -22.181 -19.894 -0 -1.2 0
7.815 -22.551 -19.545 -0 -1.2 0
9.654 0.11 -28.451 -0 -1.2 0
7.579 -21.049 -21.164 -0 -1.2 0
7.472 -21.437 -20.829 -0 -1.2 0
7.363 -21.819 -20.487 -0 -1.2 0
7.252 -22.194 -20.14 -0 -1.2 0
7.139 -22.564 -19.787 -0 -1.2 0
8.711 0.093 -28.754 -0 -1.2 0
8.744 -4.089 -28.614 -0 -1.2 0
8.658 -7.192 -28.143 -0 -1.2 0
8.634 -7.704 -28.035 -0 -1.2 0
7.311 -19.035 -22.987 -0 -1.2 0
6.865 -21.062 -21.393 -0 -1.2 0
6.769 -21.45 -21.055 -0 -1.2 0
6.672 -21.831 -20.71 -0 -1.2 0
6.572 -22.207 -20.359 -0 -1.2 0
6.471 -22.576 -20 -0 -1.2 0
7.724 -4.107 -28.903 -0 -1.2 0
7.39 -11.729 -27.135 -0 -1.2 0
7.165 -14.133 -26.127 -0 -1.2 0
6.692 -17.767 -24.104 -0 -1.2 0
6.624 -18.199 -23.817 -0 -1.2 0
6.482 -19.05 -23.222 -0 -1.2 0
6.408 -19.466 -22.914 -0 -1.2 0
6.331 -19.877 -22.598 -0 -1.2 0
6.253 -20.283 -22.276 -0 -1.2 0
6.174 -20.682 -21.948 -0 -1.2 0
6.091 -21.076 -21.613 -0 -1.2 0
6.008 -21.463 -21.27 -0 -1.2 0
5.922 -21.845 -20.922 -0 -1.2 0
5.835 -22.22 -20.568 -0 -1.2 0
5.746 -22.589 -20.206 -0 -1.2 0
6.765 -2.034 -29.281 -0 -1.2 0
6.768 -4.123 -29.139 -0 -1.2 0
6.695 -7.738 -28.551 -0 -1.2 0
6.295 -14.148 -26.342 -0 -1.2 0
5.981 -15.13 -24.902 -0 -1.2 0
5.887 -17.781 -24.303 -0 -1.2 0
5.829 -18.213 -24.014 -0 -1.2 0
5.768 -18.641 -23.717 -0 -1.2 0
5.705 -19.063 -23.414 -0 -1.2 0
5.641 -19.48 -23.103 -0 -1.2 0
5.575 -19.89 -22.786 -0 -1.2 0
5.508 -20.296 -22.461 -0 -1.2 0
5.438 -20.695 -22.13 -0 -1.2 0
5.367 -21.088 -21.792 -0 -1.2 0
5.294 -21.476 -21.447 -0 -1.2 0
5.22 -21.857 -21.096 -0 -1.2 0
5.144 -22.232 -20.738 -0 -1.2 0
5.066 -22.601 -20.374 -0 -1.2 0
5.786 -1.004 -29.505 -0 -1.2 0
5.793 -1.527 -29.5 -0 -1.2 0
5.799 -2.05 -29.487 -0 -1.2 0
5.803 -2.573 -29.464 -0 -1.2 0
5.03 -15.915 -24.394 -0 -1.2 0
5.117 -16.746 -24.769 -0 -1.2 0
5.125 -17.357 -24.758 -0 -1.2 0
5.076 -17.795 -24.475 -0 -1.2 0
5.027 -18.227 -24.184 -0 -1.2 0
4.976 -18.654 -23.886 -0 -1.2 0
4.922 -19.076 -23.58 -0 -1.2 0
4.868 -19.492 -23.268 -0 -1.2 0
4.812 -19.903 -22.948 -0 -1.2 0
4.756 -20.308 -22.621 -0 -1.2 0
4.697 -20.707 -22.287 -0 -1.2 0
4.636 -21.101 -21.947 -0 -1.2 0
4.575 -21.488 -21.6 -0 -1.2 0
4.512 -21.869 -21.247 -0 -1.2 0
4.447 -22.243 -20.886 -0 -1.2 0
4.382 -22.612 -20.52 -0 -1.2 0
4.722 -1.022 -29.693 -0 -1.2 0
4.729 -1.544 -29.689 -0 -1.2 0
4.735 -2.067 -29.675 -0 -1.2 0
4.425 -14.648 -26.468 -0 -1.2 0
4.394 -15.113 -26.229 -0 -1.2 0
4.162 -16.565 -24.618 -0 -1.2 0
4.222 -17.371 -24.918 -0 -1.2 0
4.184 -17.809 -24.634 -0 -1.2 0
4.144 -18.241 -24.34 -0 -1.2 0
4.104 -18.668 -24.04 -0 -1.2 0
4.061 -19.09 -23.733 -0 -1.2 0
4.018 -19.506 -23.418 -0 -1.2 0
3.973 -19.916 -23.097 -0 -1.2 0
3.928 -20.321 -22.768 -0 -1.2 0
3.881 -20.72 -22.432 -0 -1.2 0
3.833 -21.113 -22.089 -0 -1.2 0
3.783 -21.5 -21.74 -0 -1.2 0
3.733 -21.881 -21.384 -0 -1.2 0
3.681 -22.256 -21.022 -0 -1.2 0
3.629 -22.624 -20.653 -0 -1.2 0
3.729 -1.036 -29.833 -0 -1.2 0
3.736 -1.559 -29.829 -0 -1.2 0
3.742 -2.082 -29.816 -0 -1.2 0
3.751 -3.128 -29.762 -0 -1.2 0
3.754 -3.65 -29.721 -0 -1.2 0
3.756 -4.171 -29.671 -0 -1.2 0
3.742 -7.273 -29.185 -0 -1.2 0
3.736 -7.785 -29.073 -0 -1.2 0
3.729 -8.294 -28.952 -0 -1.2 0
3.675 -10.805 -28.215 -0 -1.2 0
3.661 -11.299 -28.042 -0 -1.2 0
3.646 -11.789 -27.861 -0 -1.2 0
3.554 -14.192 -26.826 -0 -1.2 0
3.532 -14.661 -26.594 -0 -1.2 0
3.509 -15.126 -26.355 -0 -1.2 0
3.303 -16.451 -24.534 -0 -1.2 0
3.32 -17.096 -24.597 -0 -1.2 0
3.343 -17.788 -24.702 -0 -1.2 0
3.32 -18.253 -24.457 -0 -1.2 0
3.286 -18.663 -24.132 -0 -1.2 0
3.257 -19.102 -23.847 -0 -1.2 0
3.224 -19.518 -23.531 -0 -1.2 0
3.19 -19.928 -23.208 -0 -1.2 0
3.155 -20.333 -22.877 -0 -1.2 0
3.119 -20.732 -22.54 -0 -1.2 0
3.082 -21.124 -22.196 -0 -1.2 0
3.044 -21.511 -21.845 -0 -1.2 0
3.005 -21.892 -21.488 -0 -1.2 0
2.966 -22.266 -21.123 -0 -1.2 0
2.925 -22.635 -20.753 -0 -1.2 0
2.723 -0.518 -29.936 -0 -1.2 0
2.731 -1.041 -29.94 -0 -1.2 0
2.739 -1.564 -29.937 -0 -1.2 0
2.744 -2.087 -29.923 -0 -1.2 0
2.755 -3.133 -29.87 -0 -1.2 0
2.759 -3.654 -29.829 -0 -1.2 0
2.763 -4.175 -29.78 -0 -1.2 0
2.764 -4.696 -29.721 -0 -1.2 0
2.766 -6.25 -29.491 -0 -1.2 0
2.766 -6.765 -29.397 -0 -1.2 0
2.763 -7.278 -29.293 -0 -1.2 0
2.76 -7.789 -29.181 -0 -1.2 0
2.757 -8.299 -29.059 -0 -1.2 0
2.683 -8.61 -28.198 -0 -1.2 0
2.741 -9.813 -28.642 -0 -1.2 0
2.734 -10.313 -28.486 -0 -1.2 0
2.726 -10.809 -28.322 -0 -1.2 0
2.718 -11.304 -28.148 -0 -1.2 0
2.708 -11.794 -27.966 -0 -1.2 0
2.687 -12.766 -27.575 -0 -1.2 0
2.675 -13.246 -27.369 -0 -1.2 0
2.663 -13.723 -27.153 -0 -1.2 0
2.649 -14.196 -26.929 -0 -1.2 0
2.635 -14.665 -26.696 -0 -1.2 0
2.62 -15.13 -26.455 -0 -1.2 0
2.552 -15.296 -25.675 -0 -1.2 0
2.587 -16.047 -25.951 -0 -1.2 0
2.57 -16.499 -25.687 -0 -1.2 0
2.552 -16.946 -25.414 -0 -1.2 0
2.533 -17.388 -25.135 -0 -1.2 0
2.514 -17.825 -24.848 -0 -1.2 0
2.492 -18.257 -24.552 -0 -1.2 0
2.472 -18.684 -24.25 -0 -1.2 0
2.45 -19.105 -23.94 -0 -1.2 0
2.427 -19.522 -23.623 -0 -1.2 0
2.403 -19.932 -23.299 -0 -1.2 0
2.379 -20.337 -22.968 -0 -1.2 0
2.354 -20.735 -22.629 -0 -1.2 0
2.328 -21.128 -22.284 -0 -1.2 0
2.302 -21.515 -21.932 -0 -1.2 0
2.275 -21.895 -21.574 -0 -1.2 0
2.247 -22.27 -21.209 -0 -1.2 0
2.219 -22.638 -20.837 -0 -1.2 0
1.648 -0.534 -30.014 -0 -1.2 0
1.655 -1.057 -30.019 -0 -1.2 0
1.663 -1.58 -30.015 -0 -1.2 0
1.669 -2.103 -30.002 -0 -1.2 0
1.68 -3.149 -29.948 -0 -1.2 0
1.686 -3.67 -29.907 -0 -1.2 0
1.69 -4.191 -29.857 -0 -1.2 0
1.695 -4.711 -29.799 -0 -1.2 0
1.697 -5.231 -29.731 -0 -1.2 0
1.701 -5.749 -29.655 -0 -1.2 0
1.703 -6.266 -29.568 -0 -1.2 0
1.706 -6.78 -29.473 -0 -1.2 0
1.706 -7.294 -29.37 -0 -1.2 0
1.708 -7.805 -29.257 -0 -1.2 0
1.709 -8.314 -29.136 -0 -1.2 0
1.708 -8.821 -29.005 -0 -1.2 0
1.708 -9.326 -28.866 -0 -1.2 0
1.707 -9.829 -28.718 -0 -1.2 0
1.705 -10.328 -28.561 -0 -1.2 0
1.703 -10.825 -28.395 -0 -1.2 0
1.7 -11.319 -28.221 -0 -1.2 0
1.697 -11.809 -28.039 -0 -1.2 0
1.693 -12.297 -27.848 -0 -1.2 0
1.689 -12.781 -27.648 -0 -1.2 0
1.685 -13.261 -27.44 -0 -1.2 0
1.68 -13.738 -27.224 -0 -1.2 0
1.674 -14.211 -26.999 -0 -1.2 0
1.667 -14.68 -26.766 -0 -1.2 0
1.66 -15.144 -26.525 -0 -1.2 0
1.653 -15.605 -26.276 -0 -1.2 0
1.646 -16.061 -26.019 -0 -1.2 0
1.637 -16.513 -25.754 -0 -1.2 0
1.629 -16.96 -25.482 -0 -1.2 0
1.62 -17.401 -25.201 -0 -1.2 0
1.61 -17.839 -24.913 -0 -1.2 0
1.6 -18.27 -24.617 -0 -1.2 0
1.589 -18.697 -24.314 -0 -1.2 0
1.579 -19.118 -24.003 -0 -1.2 0
1.567 -19.534 -23.685 -0 -1.2 0
1.555 -19.944 -23.36 -0 -1.2 0
1.542 -20.349 -23.028 -0 -1.2 0
1.529 -20.748 -22.689 -0 -1.2 0
1.515 -21.14 -22.343 -0 -1.2 0
1.501 -21.527 -21.99 -0 -1.2 0
1.487 -21.907 -21.63 -0 -1.2 0
1.472 -22.281 -21.264 -0 -1.2 0
1.457 -22.649 -20.892 -0 -1.2 0
0.65 -0.549 -30.052 -0 -1.2 0
0.658 -1.072 -30.057 -0 -1.2 0
0.665 -1.595 -30.052 -0 -1.2 0
0.672 -2.118 -30.04 -0 -1.2 0
0.707 -5.247 -29.769 -0 -1.2 0
0.713 -5.764 -29.692 -0 -1.2 0
0.718 -6.281 -29.605 -0 -1.2 0
0.723 -6.795 -29.511 -0 -1.2 0
0.727 -7.309 -29.406 -0 -1.2 0
0.732 -7.82 -29.294 -0 -1.2 0
0.736 -8.329 -29.172 -0 -1.2 0
0.74 -8.836 -29.042 -0 -1.2 0
0.744 -9.341 -28.902 -0 -1.2 0
0.748 -9.843 -28.754 -0 -1.2 0
0.751 -10.343 -28.597 -0 -1.2 0
0.754 -10.839 -28.431 -0 -1.2 0
0.757 -11.333 -28.256 -0 -1.2 0
0.76 -11.823 -28.074 -0 -1.2 0
0.762 -12.311 -27.882 -0 -1.2 0
0.764 -12.795 -27.682 -0 -1.2 0
0.766 -13.275 -27.474 -0 -1.2 0
0.768 -13.752 -27.257 -0 -1.2 0
0.769 -14.224 -27.032 -0 -1.2 0
0.77 -14.694 -26.799 -0 -1.2 0
0.771 -15.158 -26.558 -0 -1.2 0
0.772 -15.619 -26.309 -0 -1.2 0
0.772 -16.074 -26.051 -0 -1.2 0
0.773 -16.526 -25.786 -0 -1.2 0
0.773 -16.973 -25.512 -0 -1.2 0
0.773 -17.414 -25.232 -0 -1.2 0
0.773 -17.851 -24.944 -0 -1.2 0
0.773 -18.283 -24.648 -0 -1.2 0
0.771 -18.71 -24.344 -0 -1.2 0
0.771 -19.131 -24.032 -0 -1.2 0
0.769 -19.547 -23.715 -0 -1.2 0
0.768 -19.956 -23.389 -0 -1.2 0
0.766 -20.361 -23.056 -0 -1.2 0
0.764 -20.759 -22.716 -0 -1.2 0
0.762 -21.152 -22.37 -0 -1.2 0
0.76 -21.538 -22.017 -0 -1.2 0
0.757 -21.918 -21.657 -0 -1.2 0
0.755 -22.292 -21.291 -0 -1.2 0
0.751 -22.66 -20.918 -0 -1.2 0
-0.258 -6.81 -29.515 -0 -1.2 0
-0.25 -7.323 -29.411 -0 -1.2 0
-0.243 -7.834 -29.298 -0 -1.2 0
-0.235 -8.343 -29.177 -0 -1.2 0
-0.227 -8.85 -29.045 -0 -1.2 0
-0.219 -9.355 -28.906 -0 -1.2 0
-0.21 -9.857 -28.757 -0 -1.2 0
-0.203 -10.357 -28.601 -0 -1.2 0
-0.194 -10.853 -28.435 -0 -1.2 0
-0.186 -11.347 -28.261 -0 -1.2 0
-0.177 -11.837 -28.077 -0 -1.2 0
-0.169 -12.325 -27.886 -0 -1.2 0
-0.16 -12.809 -27.686 -0 -1.2 0
-0.151 -13.288 -27.478 -0 -1.2 0
-0.143 -13.766 -27.261 -0 -1.2 0
-0.134 -14.238 -27.036 -0 -1.2 0
-0.126 -14.707 -26.803 -0 -1.2 0
-0.117 -15.171 -26.562 -0 -1.2 0
-0.107 -15.632 -26.312 -0 -1.2 0
-0.099 -16.087 -26.054 -0 -1.2 0
-0.09 -16.539 -25.79 -0 -1.2 0
-0.081 -16.985 -25.516 -0 -1.2 0
-0.072 -17.427 -25.235 -0 -1.2 0
-0.063 -17.864 -24.947 -0 -1.2 0
-0.053 -18.295 -24.65 -0 -1.2 0
-0.045 -18.722 -24.346 -0 -1.2 0
-0.036 -19.143 -24.035 -0 -1.2 0
-0.027 -19.558 -23.717 -0 -1.2 0
-0.017 -19.968 -23.391 -0 -1.2 0
-0.009 -20.372 -23.059 -0 -1.2 0
0 -20.771 -22.719 -0 -1.2 0
0.008 -21.163 -22.372 -0 -1.2 0
0.018 -21.549 -22.019 -0 -1.2 0
0.027 -21.929 -21.66 -0 -1.2 0
0.036 -22.303 -21.292 -0 -1.2 0
0.045 -22.67 -20.919 -0 -1.2 0
-1.257 -9.369 -28.875 -0 -1.2 0
-1.244 -9.872 -28.727 -0 -1.2 0
-1.231 -10.371 -28.569 -0 -1.2 0
-1.216 -10.867 -28.404 -0 -1.2 0
-1.202 -11.361 -28.23 -0 -1.2 0
-1.187 -11.851 -28.048 -0 -1.2 0
-1.172 -12.339 -27.856 -0 -1.2 0
-1.157 -12.823 -27.656 -0 -1.2 0
-1.141 -13.302 -27.448 -0 -1.2 0
-1.125 -13.779 -27.231 -0 -1.2 0
-1.109 -14.251 -27.006 -0 -1.2 0
-1.092 -14.72 -26.773 -0 -1.2 0
-1.074 -15.184 -26.533 -0 -1.2 0
-1.057 -15.645 -26.283 -0 -1.2 0
-1.039 -16.101 -26.026 -0 -1.2 0
-1.021 -16.552 -25.761 -0 -1.2 0
-1.003 -16.998 -25.488 -0 -1.2 0
-0.984 -17.439 -25.207 -0 -1.2 0
-0.965 -17.876 -24.919 -0 -1.2 0
-0.945 -18.307 -24.623 -0 -1.2 0
-0.926 -18.734 -24.32 -0 -1.2 0
-0.906 -19.155 -24.009 -0 -1.2 0
-0.886 -19.57 -23.691 -0 -1.2 0
-0.865 -19.98 -23.365 -0 -1.2 0
-0.845 -20.384 -23.033 -0 -1.2 0
-0.824 -20.782 -22.694 -0 -1.2 0
-0.802 -21.174 -22.347 -0 -1.2 0
-0.78 -21.56 -21.995 -0 -1.2 0
-0.759 -21.94 -21.634 -0 -1.2 0
-0.737 -22.314 -21.268 -0 -1.2 0
-0.714 -22.681 -20.896 -0 -1.2 0
-2.189 -9.885 -28.666 -0 -1.2 0
-2.171 -10.384 -28.51 -0 -1.2 0
-2.152 -10.88 -28.344 -0 -1.2 0
-2.132 -11.374 -28.17 -0 -1.2 0
-2.111 -11.864 -27.988 -0 -1.2 0
-2.091 -12.351 -27.797 -0 -1.2 0
-2.068 -12.835 -27.597 -0 -1.2 0
-2.046 -13.314 -27.389 -0 -1.2 0
-2.024 -13.791 -27.173 -0 -1.2 0
-2 -14.263 -26.948 -0 -1.2 0
-1.976 -14.732 -26.717 -0 -1.2 0
-1.951 -15.196 -26.476 -0 -1.2 0
-1.925 -15.657 -26.227 -0 -1.2 0
-1.899 -16.112 -25.97 -0 -1.2 0
-1.873 -16.564 -25.706 -0 -1.2 0
-1.846 -17.01 -25.433 -0 -1.2 0
-1.819 -17.451 -25.153 -0 -1.2 0
-1.79 -17.888 -24.865 -0 -1.2 0
-1.761 -18.318 -24.57 -0 -1.2 0
-1.732 -18.745 -24.267 -0 -1.2 0
-1.702 -19.166 -23.957 -0 -1.2 0
-1.672 -19.581 -23.64 -0 -1.2 0
-1.641 -19.99 -23.315 -0 -1.2 0
-1.61 -20.394 -22.983 -0 -1.2 0
-1.578 -20.792 -22.644 -0 -1.2 0
-1.545 -21.184 -22.299 -0 -1.2 0
-1.512 -21.57 -21.946 -0 -1.2 0
-1.479 -21.95 -21.588 -0 -1.2 0
-1.445 -22.323 -21.222 -0 -1.2 0
-1.411 -22.691 -20.85 -0 -1.2 0
-3.223 -7.364 -29.225 -0 -1.2 0
-3.205 -7.875 -29.112 -0 -1.2 0
-3.185 -8.383 -28.992 -0 -1.2 0
-3.165 -8.89 -28.861 -0 -1.2 0
-3.144 -9.395 -28.723 -0 -1.2 0
-3.121 -9.897 -28.575 -0 -1.2 0
-3.099 -10.396 -28.419 -0 -1.2 0
-3.074 -10.892 -28.254 -0 -1.2 0
-3.049 -11.386 -28.08 -0 -1.2 0
-3.023 -11.876 -27.899 -0 -1.2 0
-2.996 -12.363 -27.709 -0 -1.2 0
-2.968 -12.847 -27.51 -0 -1.2 0
-2.939 -13.326 -27.302 -0 -1.2 0
-2.91 -13.803 -27.086 -0 -1.2 0
-2.879 -14.275 -26.863 -0 -1.2 0
-2.847 -14.744 -26.632 -0 -1.2 0
-2.815 -15.208 -26.391 -0 -1.2 0
-2.782 -15.668 -26.143 -0 -1.2 0
-2.748 -16.123 -25.887 -0 -1.2 0
-2.713 -16.575 -25.624 -0 -1.2 0
-2.677 -17.021 -25.352 -0 -1.2 0
-2.641 -17.462 -25.073 -0 -1.2 0
-2.604 -17.898 -24.785 -0 -1.2 0
-2.565 -18.329 -24.491 -0 -1.2 0
-2.527 -18.756 -24.189 -0 -1.2 0
-2.487 -19.176 -23.88 -0 -1.2 0
-2.447 -19.591 -23.564 -0 -1.2 0
-2.405 -20 -23.24 -0 -1.2 0
-2.364 -20.404 -22.909 -0 -1.2 0
-2.321 -20.802 -22.571 -0 -1.2 0
-2.277 -21.194 -22.227 -0 -1.2 0
-2.233 -21.579 -21.876 -0 -1.2 0
-2.189 -21.959 -21.518 -0 -1.2 0
-2.143 -22.332 -21.153 -0 -1.2 0
-2.097 -22.7 -20.782 -0 -1.2 0
-4.285 -6.349 -29.288 -0 -1.2 0
-4.265 -6.863 -29.194 -0 -1.2 0
-4.244 -7.376 -29.091 -0 -1.2 0
-4.222 -7.887 -28.979 -0 -1.2 0
-4.199 -8.396 -28.858 -0 -1.2 0
-4.174 -8.903 -28.729 -0 -1.2 0
-4.149 -9.407 -28.591 -0 -1.2 0
-4.122 -9.909 -28.444 -0 -1.2 0
-4.093 -10.408 -28.288 -0 -1.2 0
-4.064 -10.904 -28.124 -0 -1.2 0
-4.032 -11.398 -27.951 -0 -1.2 0
-4.001 -11.888 -27.77 -0 -1.2 0
-3.968 -12.375 -27.581 -0 -1.2 0
-3.933 -12.859 -27.383 -0 -1.2 0
-3.897 -13.338 -27.177 -0 -1.2 0
-3.86 -13.815 -26.961 -0 -1.2 0
-3.823 -14.287 -26.739 -0 -1.2 0
-3.783 -14.755 -26.508 -0 -1.2 0
-3.742 -15.219 -26.269 -0 -1.2 0
-3.701 -15.679 -26.022 -0 -1.2 0
-3.658 -16.135 -25.767 -0 -1.2 0
-3.614 -16.586 -25.505 -0 -1.2 0
-3.569 -17.032 -25.234 -0 -1.2 0
-3.524 -17.472 -24.957 -0 -1.2 0
-3.477 -17.909 -24.67 -0 -1.2 0
-3.428 -18.34 -24.377 -0 -1.2 0
-3.379 -18.766 -24.077 -0 -1.2 0
-3.329 -19.186 -23.768 -0 -1.2 0
-3.278 -19.601 -23.453 -0 -1.2 0
-3.226 -20.01 -23.132 -0 -1.2 0
-3.173 -20.414 -22.803 -0 -1.2 0
-3.118 -20.812 -22.466 -0 -1.2 0
-3.063 -21.204 -22.123 -0 -1.2 0
-3.007 -21.589 -21.774 -0 -1.2 0
-2.951 -21.968 -21.417 -0 -1.2 0
-2.893 -22.342 -21.054 -0 -1.2 0
-2.834 -22.709 -20.685 -0 -1.2 0
-5.234 -6.359 -29.131 -0 -1.2 0
-5.212 -6.873 -29.038 -0 -1.2 0
-5.188 -7.386 -28.935 -0 -1.2 0
-5.162 -7.897 -28.823 -0 -1.2 0
-5.107 -8.913 -28.574 -0 -1.2 0
-5.077 -9.417 -28.437 -0 -1.2 0
-5.046 -9.919 -28.291 -0 -1.2 0
-5.012 -10.418 -28.136 -0 -1.2 0
-4.978 -10.914 -27.973 -0 -1.2 0
-4.941 -11.408 -27.801 -0 -1.2 0
-4.904 -11.898 -27.621 -0 -1.2 0
-4.865 -12.385 -27.432 -0 -1.2 0
-4.824 -12.868 -27.235 -0 -1.2 0
-4.782 -13.347 -27.03 -0 -1.2 0
-4.739 -13.824 -26.816 -0 -1.2 0
-4.693 -14.296 -26.595 -0 -1.2 0
-4.647 -14.765 -26.365 -0 -1.2 0
-4.599 -15.228 -26.127 -0 -1.2 0
-4.55 -15.688 -25.882 -0 -1.2 0
-4.499 -16.144 -25.628 -0 -1.2 0
-4.447 -16.595 -25.367 -0 -1.2 0
-4.394 -17.041 -25.098 -0 -1.2 0
-4.339 -17.481 -24.821 -0 -1.2 0
-4.284 -17.918 -24.537 -0 -1.2 0
-4.226 -18.348 -24.245 -0 -1.2 0
-4.167 -18.775 -23.946 -0 -1.2 0
-4.108 -19.195 -23.64 -0 -1.2 0
-4.046 -19.61 -23.327 -0 -1.2 0
-3.984 -20.019 -23.006 -0 -1.2 0
-3.921 -20.422 -22.678 -0 -1.2 0
-3.855 -20.82 -22.344 -0 -1.2 0
-3.79 -21.211 -22.003 -0 -1.2 0
-3.723 -21.597 -21.655 -0 -1.2 0
-3.654 -21.976 -21.301 -0 -1.2 0
-3.585 -22.349 -20.939 -0 -1.2 0
-3.514 -22.716 -20.572 -0 -1.2 0
-5.983 -9.928 -28.104 -0 -1.2 0
-5.945 -10.427 -27.951 -0 -1.2 0
-5.906 -10.923 -27.788 -0 -1.2 0
-5.864 -11.417 -27.618 -0 -1.2 0
-5.821 -11.906 -27.439 -0 -1.2 0
-5.775 -12.394 -27.251 -0 -1.2 0
-5.729 -12.877 -27.055 -0 -1.2 0
-5.68 -13.356 -26.851 -0 -1.2 0
-5.63 -13.833 -26.639 -0 -1.2 0
-5.577 -14.305 -26.419 -0 -1.2 0
-5.524 -14.773 -26.191 -0 -1.2 0
-5.468 -15.237 -25.954 -0 -1.2 0
-5.411 -15.697 -25.71 -0 -1.2 0
-5.353 -16.152 -25.459 -0 -1.2 0
-5.292 -16.603 -25.199 -0 -1.2 0
-5.23 -17.049 -24.931 -0 -1.2 0
-5.166 -17.489 -24.657 -0 -1.2 0
-5.102 -17.926 -24.375 -0 -1.2 0
-5.035 -18.356 -24.084 -0 -1.2 0
-4.966 -18.782 -23.787 -0 -1.2 0
-4.897 -19.202 -23.483 -0 -1.2 0
-4.825 -19.617 -23.172 -0 -1.2 0
-4.753 -20.026 -22.853 -0 -1.2 0
-4.679 -20.43 -22.527 -0 -1.2 0
-4.603 -20.827 -22.195 -0 -1.2 0
-4.526 -21.219 -21.857 -0 -1.2 0
-4.448 -21.604 -21.51 -0 -1.2 0
-4.368 -21.983 -21.159 -0 -1.2 0
-4.287 -22.356 -20.799 -0 -1.2 0
-4.205 -22.723 -20.435 -0 -1.2 0
-6.995 -9.938 -27.867 -0 -1.2 0
-6.951 -10.437 -27.714 -0 -1.2 0
-6.906 -10.932 -27.553 -0 -1.2 0
-6.858 -11.426 -27.384 -0 -1.2 0
-6.809 -11.915 -27.206 -0 -1.2 0
-6.757 -12.403 -27.02 -0 -1.2 0
-6.704 -12.886 -26.826 -0 -1.2 0
-6.649 -13.365 -26.624 -0 -1.2 0
-6.59 -13.842 -26.414 -0 -1.2 0
-6.531 -14.313 -26.195 -0 -1.2 0
-6.47 -14.782 -25.969 -0 -1.2 0
-6.406 -15.245 -25.734 -0 -1.2 0
-6.341 -15.705 -25.492 -0 -1.2 0
-6.273 -16.16 -25.242 -0 -1.2 0
-6.204 -16.611 -24.985 -0 -1.2 0
-6.132 -17.057 -24.719 -0 -1.2 0
-6.059 -17.497 -24.447 -0 -1.2 0
-5.985 -17.934 -24.166 -0 -1.2 0
-5.908 -18.364 -23.879 -0 -1.2 0
-5.829 -18.79 -23.585 -0 -1.2 0
-5.749 -19.21 -23.283 -0 -1.2 0
-5.666 -19.625 -22.974 -0 -1.2 0
-5.583 -20.034 -22.658 -0 -1.2 0
-5.498 -20.437 -22.335 -0 -1.2 0
-5.41 -20.834 -22.006 -0 -1.2 0
-5.321 -21.226 -21.669 -0 -1.2 0
-5.231 -21.611 -21.327 -0 -1.2 0
-5.139 -21.99 -20.977 -0 -1.2 0
-5.045 -22.363 -20.621 -0 -1.2 0
-4.95 -22.729 -20.26 -0 -1.2 0
-8.128 -7.413 -28.243 -0 -1.2 0
-8.092 -7.924 -28.135 -0 -1.2 0
-8.054 -8.433 -28.017 -0 -1.2 0
-8.014 -8.939 -27.891 -0 -1.2 0
-7.97 -9.443 -27.757 -0 -1.2 0
-7.925 -9.945 -27.614 -0 -1.2 0
-7.877 -10.444 -27.462 -0 -1.2 0
-7.827 -10.94 -27.303 -0 -1.2 0
-7.774 -11.434 -27.134 -0 -1.2 0
-7.719 -11.923 -26.959 -0 -1.2 0
-7.661 -12.41 -26.774 -0 -1.2 0
-7.602 -12.893 -26.582 -0 -1.2 0
-7.54 -13.372 -26.382 -0 -1.2 0
-7.475 -13.849 -26.173 -0 -1.2 0
-7.409 -14.321 -25.957 -0 -1.2 0
-7.34 -14.789 -25.732 -0 -1.2 0
-7.269 -15.252 -25.5 -0 -1.2 0
-7.196 -15.712 -25.259 -0 -1.2 0
-7.12 -16.167 -25.012 -0 -1.2 0
-7.043 -16.618 -24.757 -0 -1.2 0
-6.963 -17.064 -24.494 -0 -1.2 0
-6.881 -17.504 -24.224 -0 -1.2 0
-6.797 -17.941 -23.946 -0 -1.2 0
-6.533 -19.217 -23.07 -0 -1.2 0
-6.44 -19.631 -22.764 -0 -1.2 0
-6.346 -20.04 -22.451 -0 -1.2 0
-6.25 -20.443 -22.131 -0 -1.2 0
-6.152 -20.841 -21.804 -0 -1.2 0
-6.052 -21.232 -21.47 -0 -1.2 0
-5.951 -21.617 -21.131 -0 -1.2 0
-5.848 -21.996 -20.784 -0 -1.2 0
-5.742 -22.369 -20.432 -0 -1.2 0
-5.635 -22.735 -20.074 -0 -1.2 0
-9.139 -6.393 -28.144 -0 -1.2 0
-9.105 -6.907 -28.053 -0 -1.2 0
-9.07 -7.42 -27.953 -0 -1.2 0
-9.03 -7.931 -27.846 -0 -1.2 0
-8.988 -8.44 -27.729 -0 -1.2 0
-8.944 -8.946 -27.605 -0 -1.2 0
-8.897 -9.451 -27.471 -0 -1.2 0
-8.847 -9.953 -27.329 -0 -1.2 0
-8.794 -10.452 -27.18 -0 -1.2 0
-8.739 -10.947 -27.022 -0 -1.2 0
-8.681 -11.441 -26.855 -0 -1.2 0
-8.621 -11.93 -26.681 -0 -1.2 0
-8.491 -12.9 -26.308 -0 -1.2 0
-8.351 -13.856 -25.902 -0 -1.2 0
-8.278 -14.328 -25.688 -0 -1.2 0
-8.202 -14.796 -25.467 -0 -1.2 0
-8.124 -15.259 -25.237 -0 -1.2 0
-8.043 -15.719 -24.999 -0 -1.2 0
-7.959 -16.174 -24.753 -0 -1.2 0
-7.873 -16.625 -24.501 -0 -1.2 0
-7.601 -17.947 -23.698 -0 -1.2 0
-7.103 -20.046 -22.217 -0 -1.2 0
-6.996 -20.449 -21.901 -0 -1.2 0
-6.887 -20.847 -21.578 -0 -1.2 0
-6.777 -21.238 -21.247 -0 -1.2 0
-6.664 -21.623 -20.911 -0 -1.2 0
-6.55 -22.001 -20.568 -0 -1.2 0
-6.433 -22.374 -20.219 -0 -1.2 0
-6.314 -22.741 -19.865 -0 -1.2 0
-10.316 0.376 -28.196 -0 -1.2 0
-10.32 -0.146 -28.217 -0 -1.2 0
-10.321 -0.67 -28.229 -0 -1.2 0
-10.318 -1.193 -28.233 -0 -1.2 0
-10.313 -1.716 -28.229 -0 -1.2 0
-10.304 -2.239 -28.216 -0 -1.2 0
-10.294 -2.761 -28.194 -0 -1.2 0
-10.279 -3.285 -28.164 -0 -1.2 0
-10.261 -3.806 -28.125 -0 -1.2 0
-10.24 -4.327 -28.078 -0 -1.2 0
-10.215 -4.847 -28.022 -0 -1.2 0
-10.189 -5.367 -27.957 -0 -1.2 0
-10.159 -5.884 -27.884 -0 -1.2 0
-10.125 -6.4 -27.803 -0 -1.2 0
-10.088 -6.915 -27.713 -0 -1.2 0
-10.05 -7.428 -27.614 -0 -1.2 0
-10.007 -7.938 -27.508 -0 -1.2 0
-9.961 -8.447 -27.393 -0 -1.2 0
-9.913 -8.953 -27.269 -0 -1.2 0
-9.861 -9.457 -27.138 -0 -1.2 0
-9.806 -9.96 -26.998 -0 -1.2 0
-9.749 -10.458 -26.85 -0 -1.2 0
-9.688 -10.954 -26.694 -0 -1.2 0
-9.625 -11.448 -26.529 -0 -1.2 0
-9.559 -11.937 -26.357 -0 -1.2 0
-9.183 -14.334 -25.375 -0 -1.2 0
-8.925 -15.725 -24.694 -0 -1.2 0
-8.738 -16.631 -24.201 -0 -1.2 0
-7.772 -20.455 -21.632 -0 -1.2 0
-7.653 -20.852 -21.313 -0 -1.2 0
-7.531 -21.243 -20.987 -0 -1.2 0
-7.407 -21.628 -20.655 -0 -1.2 0
-7.281 -22.007 -20.315 -0 -1.2 0
-7.152 -22.379 -19.971 -0 -1.2 0
-7.021 -22.746 -19.62 -0 -1.2 0
-11.232 -0.152 -27.866 -0 -1.2 0
-11.234 -0.676 -27.878 -0 -1.2 0
-11.232 -1.199 -27.882 -0 -1.2 0
-11.227 -1.722 -27.877 -0 -1.2 0
-11.218 -2.245 -27.865 -0 -1.2 0
-11.207 -2.767 -27.843 -0 -1.2 0
-11.191 -3.291 -27.813 -0 -1.2 0
-11.172 -3.812 -27.774 -0 -1.2 0
-11.15 -4.333 -27.727 -0 -1.2 0
-11.124 -4.853 -27.673 -0 -1.2 0
-11.096 -5.373 -27.609 -0 -1.2 0
-11.064 -5.89 -27.536 -0 -1.2 0
-11.028 -6.406 -27.456 -0 -1.2 0
-10.988 -6.92 -27.367 -0 -1.2 0
-10.947 -7.433 -27.27 -0 -1.2 0
-10.901 -7.944 -27.164 -0 -1.2 0
-10.851 -8.453 -27.051 -0 -1.2 0
-10.8 -8.959 -26.929 -0 -1.2 0
-10.744 -9.463 -26.799 -0 -1.2 0
-10.623 -10.464 -26.514 -0 -1.2 0
-10.557 -10.96 -26.359 -0 -1.2 0
-10.489 -11.453 -26.197 -0 -1.2 0
-10.417 -11.943 -26.027 -0 -1.2 0
-10.342 -12.43 -25.848 -0 -1.2 0
-9.632 -16.186 -24.144 -0 -1.2 0
-8.221 -21.248 -20.721 -0 -1.2 0
-8.087 -21.632 -20.393 -0 -1.2 0
-7.95 -22.011 -20.059 -0 -1.2 0
-7.668 -22.75 -19.371 -0 -1.2 0
-12.087 1.936 -27.354 -0 -1.2 0
-12.133 -0.152 -27.486 -0 -1.2 0
-12.129 -1.723 -27.498 -0 -1.2 0
-12.12 -2.245 -27.485 -0 -1.2 0
-12.107 -2.768 -27.463 -0 -1.2 0
-12.092 -3.291 -27.433 -0 -1.2 0
-12.072 -3.813 -27.396 -0 -1.2 0
-12.049 -4.334 -27.349 -0 -1.2 0
-12.021 -4.854 -27.294 -0 -1.2 0
-11.991 -5.373 -27.232 -0 -1.2 0
-11.957 -5.891 -27.161 -0 -1.2 0
-11.919 -6.407 -27.081 -0 -1.2 0
-11.877 -6.921 -26.994 -0 -1.2 0
-11.832 -7.434 -26.897 -0 -1.2 0
-11.783 -7.945 -26.794 -0 -1.2 0
-11.675 -8.96 -26.561 -0 -1.2 0
-8.758 -21.633 -20.114 -0 -1.2 0
-8.306 -22.75 -19.105 -0 -1.2 0
-13.094 -0.151 -27.042 -0 -1.2 0
-13.095 -1.199 -27.057 -0 -1.2 0
-13.09 -1.722 -27.053 -0 -1.2 0
-13.081 -2.245 -27.04 -0 -1.2 0
-13.068 -2.767 -27.02 -0 -1.2 0
-13.053 -3.291 -26.99 -0 -1.2 0
-13.032 -3.812 -26.952 -0 -1.2 0
-13.007 -4.333 -26.907 -0 -1.2 0
-12.978 -4.853 -26.853 -0 -1.2 0
-12.945 -5.373 -26.792 -0 -1.2 0
-12.909 -5.89 -26.721 -0 -1.2 0
-12.869 -6.406 -26.644 -0 -1.2 0
-12.824 -6.92 -26.557 -0 -1.2 0
-12.775 -7.433 -26.463 -0 -1.2 0
-12.724 -7.944 -26.36 -0 -1.2 0
-12.168 -11.943 -25.256 -0 -1.2 0
-11.263 -16.185 -23.428 -0 -1.2 0
-13.995 -1.726 -26.597 -0 -1.2 0
-13.986 -2.249 -26.584 -0 -1.2 0
-13.972 -2.772 -26.563 -0 -1.2 0
-13.955 -3.295 -26.534 -0 -1.2 0
-13.934 -3.816 -26.497 -0 -1.2 0
-13.908 -4.337 -26.453 -0 -1.2 0
-13.877 -4.857 -26.399 -0 -1.2 0
-13.843 -5.377 -26.338 -0 -1.2 0
-13.805 -5.894 -26.269 -0 -1.2 0
-13.762 -6.411 -26.192 -0 -1.2 0
-13.714 -6.925 -26.107 -0 -1.2 0
-13.663 -7.438 -26.014 -0 -1.2 0
-13.485 -8.963 -25.688 -0 -1.2 0
-11.799 -17.085 -22.551 -0 -1.2 0
-14.874 -2.253 -26.097 -0 -1.2 0
-14.86 -2.775 -26.076 -0 -1.2 0
-14.842 -3.299 -26.048 -0 -1.2 0
-14.82 -3.82 -26.012 -0 -1.2 0
-14.793 -4.341 -25.967 -0 -1.2 0
-14.761 -4.861 -25.915 -0 -1.2 0
-14.724 -5.38 -25.855 -0 -1.2 0
-14.684 -5.898 -25.787 -0 -1.2 0
-14.639 -6.414 -25.711 -0 -1.2 0
-14.589 -6.928 -25.628 -0 -1.2 0
-14.535 -7.441 -25.536 -0 -1.2 0
-14.477 -7.952 -25.438 -0 -1.2 0
-14.347 -8.967 -25.216 -0 -1.2 0
-14.276 -9.471 -25.094 -0 -1.2 0
-12.125 -18.394 -21.378 -0 -1.2 0
-10.257 -22.755 -18.128 -0 -1.2 0
-15.811 -2.256 -25.54 -0 -1.2 0
-15.797 -2.778 -25.519 -0 -1.2 0
-15.778 -3.302 -25.492 -0 -1.2 0
-15.755 -3.823 -25.456 -0 -1.2 0
-15.727 -4.344 -25.412 -0 -1.2 0
-15.693 -4.864 -25.361 -0 -1.2 0
-15.655 -5.383 -25.302 -0 -1.2 0
-15.612 -5.901 -25.236 -0 -1.2 0
-15.566 -6.417 -25.161 -0 -1.2 0
-15.513 -6.931 -25.079 -0 -1.2 0
-15.456 -7.444 -24.989 -0 -1.2 0
-15.395 -7.955 -24.892 -0 -1.2 0
-15.328 -8.463 -24.787 -0 -1.2 0
-15.257 -8.97 -24.675 -0 -1.2 0
-15.182 -9.474 -24.556 -0 -1.2 0
-14.735 -11.953 -23.845 -0 -1.2 0
-13.365 -17.091 -21.655 -0 -1.2 0
-16.67 -0.164 -24.996 -0 -1.2 0
-16.673 -1.735 -25.004 -0 -1.2 0
-16.664 -2.258 -24.993 -0 -1.2 0
-16.649 -2.78 -24.972 -0 -1.2 0
-16.629 -3.304 -24.944 -0 -1.2 0
-16.605 -3.825 -24.91 -0 -1.2 0
-16.576 -4.346 -24.866 -0 -1.2 0
-16.541 -4.866 -24.817 -0 -1.2 0
-16.501 -5.385 -24.758 -0 -1.2 0
-16.456 -5.903 -24.693 -0 -1.2 0
-16.407 -6.419 -24.62 -0 -1.2 0
-16.292 -7.446 -24.452 -0 -1.2 0
-18.382 -1.737 -23.777 -0 -1.2 0
-18.017 -2.237 -23.307 -0 -1.2 0
-18.356 -2.782 -23.746 -0 -1.2 0
-18.335 -3.306 -23.719 -0 -1.2 0
-18.278 -4.348 -23.644 -0 -1.2 0
-18.24 -4.868 -23.595 -0 -1.2 0
-18.197 -5.387 -23.54 -0 -1.2 0
-17.97 -7.448 -23.247 -0 -1.2 0
-17.254 -11.467 -22.323 -0 -1.2 0
-17.023 -12.444 -22.024 -0 -1.2 0
-15.728 -16.649 -20.351 -0 -1.2 0
-15.027 -18.4 -19.444 -0 -1.2 0
-19.176 -1.214 -23.15 -0 -1.2 0
-19.173 -1.737 -23.145 -0 -1.2 0
-19.163 -2.26 -23.132 -0 -1.2 0
-19.147 -2.782 -23.114 -0 -1.2 0
-19.125 -3.306 -23.087 -0 -1.2 0
-19.098 -3.827 -23.054 -0 -1.2 0
-19.065 -4.348 -23.014 -0 -1.2 0
-19.027 -4.868 -22.966 -0 -1.2 0
-18.982 -5.387 -22.912 -0 -1.2 0
-18.931 -5.905 -22.851 -0 -1.2 0
-18.875 -6.421 -22.783 -0 -1.2 0
-18.814 -6.935 -22.708 -0 -1.2 0
-19.934 -1.736 -22.492 -0 -1.2 0
-19.925 -2.259 -22.479 -0 -1.2 0
-19.909 -2.781 -22.461 -0 -1.2 0
-19.887 -3.305 -22.435 -0 -1.2 0
-19.858 -3.826 -22.402 -0 -1.2 0
-19.824 -4.347 -22.363 -0 -1.2 0
-19.785 -4.867 -22.317 -0 -1.2 0
-19.739 -5.386 -22.264 -0 -1.2 0
-19.686 -5.904 -22.204 -0 -1.2 0
-19.628 -6.42 -22.138 -0 -1.2 0
-19.565 -6.934 -22.065 -0 -1.2 0
-19.495 -7.447 -21.985 -0 -1.2 0
-19.418 -7.958 -21.898 -0 -1.2 0
-19.337 -8.466 -21.805 -0 -1.2 0
-17.905 -14.352 -20.18 -0 -1.2 0
-13.832 -22.76 -15.566 -0 -1.2 0
-20.716 -2.257 -21.753 -0 -1.2 0
-20.7 -2.78 -21.735 -0 -1.2 0
-20.677 -3.303 -21.709 -0 -1.2 0
-20.648 -3.824 -21.677 -0 -1.2 0
-20.613 -4.345 -21.64 -0 -1.2 0
-20.572 -4.865 -21.594 -0 -1.2 0
-20.524 -5.385 -21.543 -0 -1.2 0
-20.47 -5.902 -21.485 -0 -1.2 0
-20.41 -6.419 -21.421 -0 -1.2 0
-20.344 -6.933 -21.349 -0 -1.2 0
-20.272 -7.445 -21.272 -0 -1.2 0
-20.193 -7.956 -21.187 -0 -1.2 0
-20.108 -8.465 -21.097 -0 -1.2 0
-20.017 -8.971 -21 -0 -1.2 0
-19.92 -9.475 -20.897 -0 -1.2 0
-19.593 -10.971 -20.548 -0 -1.2 0
-19.472 -11.465 -20.42 -0 -1.2 0
-19.345 -11.954 -20.286 -0 -1.2 0
-16.547 -19.243 -17.325 -0 -1.2 0
-15.637 -20.866 -16.364 -0 -1.2 0
-14.904 -22.02 -15.591 -0 -1.2 0
-14.651 -22.392 -15.323 -0 -1.2 0
-14.393 -22.759 -15.051 -0 -1.2 0
-21.428 -2.255 -21.053 -0 -1.2 0
-21.411 -2.777 -21.036 -0 -1.2 0
-21.388 -3.301 -21.011 -0 -1.2 0
-21.358 -3.822 -20.979 -0 -1.2 0
-21.321 -4.343 -20.943 -0 -1.2 0
-21.279 -4.863 -20.898 -0 -1.2 0
-21.23 -5.383 -20.849 -0 -1.2 0
-21.175 -5.9 -20.792 -0 -1.2 0
-21.113 -6.416 -20.73 -0 -1.2 0
-21.044 -6.93 -20.66 -0 -1.2 0
-20.97 -7.443 -20.585 -0 -1.2 0
-20.888 -7.954 -20.503 -0 -1.2 0
-20.801 -8.462 -20.415 -0 -1.2 0
-20.501 -9.975 -20.115 -0 -1.2 0
-18.75 -15.74 -18.371 -0 -1.2 0
-16.425 -20.467 -16.067 -0 -1.2 0
-16.182 -20.864 -15.828 -0 -1.2 0
-15.682 -21.64 -15.333 -0 -1.2 0
-15.425 -22.018 -15.079 -0 -1.2 0
-15.163 -22.391 -14.819 -0 -1.2 0
-14.896 -22.757 -14.556 -0 -1.2 0
-22.114 -2.252 -20.331 -0 -1.2 0
-22.098 -2.774 -20.313 -0 -1.2 0
-22.074 -3.298 -20.289 -0 -1.2 0
-22.044 -3.819 -20.258 -0 -1.2 0
-22.007 -4.34 -20.222 -0 -1.2 0
-21.963 -4.86 -20.179 -0 -1.2 0
-21.913 -5.38 -20.131 -0 -1.2 0
-21.856 -5.897 -20.076 -0 -1.2 0
-21.792 -6.413 -20.016 -0 -1.2 0
-21.721 -6.927 -19.948 -0 -1.2 0
-21.561 -7.951 -19.796 -0 -1.2 0
-21.471 -8.46 -19.711 -0 -1.2 0
-21.375 -8.966 -19.619 -0 -1.2 0
-21.272 -9.47 -19.522 -0 -1.2 0
-21.163 -9.972 -19.42 -0 -1.2 0
-21.046 -10.471 -19.311 -0 -1.2 0
-20.924 -10.967 -19.195 -0 -1.2 0
-20.218 -13.398 -18.535 -0 -1.2 0
-16.194 -21.638 -14.795 -0 -1.2 0
-15.658 -22.389 -14.299 -0 -1.2 0
-15.383 -22.755 -14.044 -0 -1.2 0
-22.852 -1.725 -19.523 -0 -1.2 0
-22.841 -2.248 -19.511 -0 -1.2 0
-22.825 -2.77 -19.494 -0 -1.2 0
-22.8 -3.294 -19.471 -0 -1.2 0
-22.769 -3.815 -19.441 -0 -1.2 0
-22.731 -4.336 -19.406 -0 -1.2 0
-22.686 -4.856 -19.365 -0 -1.2 0
-22.635 -5.376 -19.318 -0 -1.2 0
-22.576 -5.893 -19.265 -0 -1.2 0
-22.51 -6.409 -19.205 -0 -1.2 0
-22.437 -6.923 -19.141 -0 -1.2 0
-22.359 -7.436 -19.071 -0 -1.2 0
-22.273 -7.947 -18.994 -0 -1.2 0
-22.179 -8.456 -18.913 -0 -1.2 0
-22.081 -8.962 -18.824 -0 -1.2 0
-21.974 -9.466 -18.731 -0 -1.2 0
-21.861 -9.968 -18.632 -0 -1.2 0
-21.742 -10.467 -18.526 -0 -1.2 0
-21.615 -10.963 -18.416 -0 -1.2 0
-21.483 -11.456 -18.3 -0 -1.2 0
-16.461 -22.013 -13.949 -0 -1.2 0
-16.182 -22.386 -13.709 -0 -1.2 0
-15.898 -22.752 -13.464 -0 -1.2 0
-23.506 -1.198 -18.74 -0 -1.2 0
-23.503 -1.721 -18.735 -0 -1.2 0
-23.492 -2.243 -18.723 -0 -1.2 0
-23.476 -2.766 -18.706 -0 -1.2 0
-23.451 -3.289 -18.683 -0 -1.2 0
-23.419 -3.811 -18.655 -0 -1.2 0
-23.38 -4.332 -18.621 -0 -1.2 0
-23.334 -4.851 -18.581 -0 -1.2 0
-23.281 -5.371 -18.535 -0 -1.2 0
-23.221 -5.889 -18.484 -0 -1.2 0
-23.153 -6.405 -18.427 -0 -1.2 0
-23.079 -6.919 -18.365 -0 -1.2 0
-22.998 -7.432 -18.296 -0 -1.2 0
-22.91 -7.943 -18.223 -0 -1.2 0
-22.814 -8.451 -18.144 -0 -1.2 0
-22.713 -8.958 -18.059 -0 -1.2 0
-22.603 -9.462 -17.969 -0 -1.2 0
-22.487 -9.964 -17.874 -0 -1.2 0
-22.364 -10.463 -17.772 -0 -1.2 0
-21.317 -13.867 -16.916 -0 -1.2 0
-17.219 -21.631 -13.599 -0 -1.2 0
-16.938 -22.01 -13.372 -0 -1.2 0
-16.651 -22.383 -13.141 -0 -1.2 0
-16.359 -22.749 -12.906 -0 -1.2 0
-24.127 -1.715 -17.925 -0 -1.2 0
-24.117 -2.238 -17.913 -0 -1.2 0
-24.099 -2.761 -17.896 -0 -1.2 0
-24.074 -3.284 -17.875 -0 -1.2 0
-24.042 -3.805 -17.847 -0 -1.2 0
-24.002 -4.326 -17.814 -0 -1.2 0
-23.954 -4.846 -17.775 -0 -1.2 0
-23.9 -5.366 -17.731 -0 -1.2 0
-23.839 -5.883 -17.682 -0 -1.2 0
-23.77 -6.4 -17.627 -0 -1.2 0
-23.694 -6.914 -17.567 -0 -1.2 0
-23.611 -7.427 -17.501 -0 -1.2 0
-23.52 -7.938 -17.431 -0 -1.2 0
-23.422 -8.446 -17.355 -0 -1.2 0
-23.318 -8.953 -17.273 -0 -1.2 0
-23.206 -9.457 -17.187 -0 -1.2 0
-23.087 -9.959 -17.096 -0 -1.2 0
-22.961 -10.458 -16.998 -0 -1.2 0
-17.967 -21.243 -13.21 -0 -1.2 0
-17.684 -21.627 -12.997 -0 -1.2 0
-17.395 -22.006 -12.779 -0 -1.2 0
-17.101 -22.379 -12.558 -0 -1.2 0
-16.801 -22.745 -12.333 -0 -1.2 0
-24.768 -1.709 -17.03 -0 -1.2 0
-24.757 -2.232 -17.018 -0 -1.2 0
-24.739 -2.754 -17.001 -0 -1.2 0
-24.714 -3.278 -16.98 -0 -1.2 0
-24.681 -3.799 -16.953 -0 -1.2 0
-24.64 -4.32 -16.922 -0 -1.2 0
-24.592 -4.84 -16.885 -0 -1.2 0
-24.536 -5.36 -16.842 -0 -1.2 0
-24.474 -5.877 -16.795 -0 -1.2 0
-24.403 -6.393 -16.742 -0 -1.2 0
-24.325 -6.908 -16.685 -0 -1.2 0
-24.239 -7.421 -16.622 -0 -1.2 0
-24.147 -7.931 -16.555 -0 -1.2 0
-24.047 -8.44 -16.483 -0 -1.2 0
-23.939 -8.946 -16.404 -0 -1.2 0
-23.825 -9.451 -16.322 -0 -1.2 0
-23.575 -10.452 -16.141 -0 -1.2 0
-23.438 -10.947 -16.044 -0 -1.2 0
-22.987 -12.417 -15.723 -0 -1.2 0
-22.823 -12.901 -15.606 -0 -1.2 0
-19.29 -20.046 -13.12 -0 -1.2 0
-19.016 -20.449 -12.928 -0 -1.2 0
-18.736 -20.847 -12.733 -0 -1.2 0
-18.451 -21.238 -12.534 -0 -1.2 0
-18.161 -21.623 -12.331 -0 -1.2 0
-17.864 -22.001 -12.123 -0 -1.2 0
-17.562 -22.374 -11.913 -0 -1.2 0
-17.255 -22.741 -11.699 -0 -1.2 0
-25.337 -1.179 -16.183 -0 -1.2 0
-25.334 -1.702 -16.178 -0 -1.2 0
-25.323 -2.225 -16.166 -0 -1.2 0
-25.304 -2.748 -16.15 -0 -1.2 0
-25.279 -3.271 -16.13 -0 -1.2 0
-25.245 -3.792 -16.103 -0 -1.2 0
-25.204 -4.313 -16.073 -0 -1.2 0
-25.154 -4.833 -16.037 -0 -1.2 0
-25.097 -5.353 -15.996 -0 -1.2 0
-25.034 -5.871 -15.952 -0 -1.2 0
-24.962 -6.387 -15.901 -0 -1.2 0
-24.882 -6.901 -15.846 -0 -1.2 0
-24.794 -7.414 -15.786 -0 -1.2 0
-24.7 -7.925 -15.722 -0 -1.2 0
-24.598 -8.433 -15.653 -0 -1.2 0
-24.488 -8.94 -15.578 -0 -1.2 0
-24.372 -9.444 -15.499 -0 -1.2 0
-24.247 -9.946 -15.416 -0 -1.2 0
-24.115 -10.445 -15.327 -0 -1.2 0
-23.976 -10.941 -15.234 -0 -1.2 0
-23.83 -11.435 -15.136 -0 -1.2 0
-19.456 -20.444 -12.266 -0 -1.2 0
-19.17 -20.842 -12.08 -0 -1.2 0
-18.879 -21.233 -11.89 -0 -1.2 0
-18.581 -21.618 -11.697 -0 -1.2 0
-18.278 -21.997 -11.499 -0 -1.2 0
-17.97 -22.369 -11.299 -0 -1.2 0
-17.655 -22.736 -11.095 -0 -1.2 0
-25.873 -1.172 -15.313 -0 -1.2 0
-25.87 -1.695 -15.307 -0 -1.2 0
-25.859 -2.218 -15.296 -0 -1.2 0
-25.84 -2.74 -15.28 -0 -1.2 0
-25.814 -3.264 -15.26 -0 -1.2 0
-25.78 -3.785 -15.235 -0 -1.2 0
-25.738 -4.306 -15.206 -0 -1.2 0
-25.688 -4.826 -15.171 -0 -1.2 0
-25.63 -5.346 -15.132 -0 -1.2 0
