# .PCD v.7 - Point Cloud Data file format
FIELDS x y z vp_x vp_y vp_z
SIZE 4 4 4 4 4 4
TYPE F F F F F F
COUNT 1 1 1 1 1 1
WIDTH 1621
HEIGHT 1
VIEWPOINT 0 -1.20013 0 1 0 0 0
POINTS 1621
DATA ascii
11.284 -4.591 2.226 -0 -1.2 0
11.175 -4.771 2.204 -0 -1.2 0
12.785 -5.558 2.481 -0 -1.2 0
10.016 -4.777 2.002 -0 -1.2 0
11.026 -5.374 2.174 -0 -1.2 0
14.026 -6.839 2.687 -0 -1.2 0
12.232 -6.347 2.377 -0 -1.2 0
10.018 -5.594 1.996 -0 -1.2 0
10.974 -6.262 2.157 -0 -1.2 0
11.724 -6.872 2.285 -0 -1.2 0
7.573 -4.964 1.573 -0 -1.2 0
7.392 -5.034 1.541 -0 -1.2 0
7.048 -5.005 1.481 -0 -1.2 0
7.219 -5.268 1.508 -0 -1.2 0
9.583 -6.889 1.91 -0 -1.2 0
9.307 -6.943 1.861 -0 -1.2 0
9.568 -7.346 1.903 -0 -1.2 0
9.884 -7.804 1.954 -0 -1.2 0
12.176 -9.699 2.342 -0 -1.2 0
11.175 -9.279 2.169 -0 -1.2 0
4.938 -4.781 1.113 -0 -1.2 0
7.021 -6.578 1.463 -0 -1.2 0
7.063 -6.813 1.469 -0 -1.2 0
8.494 -8.244 1.708 -0 -1.2 0
7.671 -7.772 1.568 -0 -1.2 0
5.305 -5.835 1.169 -0 -1.2 0
7.244 -7.849 1.492 -0 -1.2 0
1.002 0.031 -0.643 -0 -1.2 0
1.04 0.033 -0.655 -0 -1.2 0
1.079 0.035 -0.669 -0 -1.2 0
1.105 0.021 -0.678 -0 -1.2 0
1.15 0.028 -0.693 -0 -1.2 0
1.183 0.019 -0.704 -0 -1.2 0
1.23 0.024 -0.72 -0 -1.2 0
1.278 0.026 -0.737 -0 -1.2 0
1.326 0.028 -0.753 -0 -1.2 0
1.375 0.027 -0.769 -0 -1.2 0
1.423 0.026 -0.786 -0 -1.2 0
1.472 0.022 -0.803 -0 -1.2 0
1.522 0.018 -0.82 -0 -1.2 0
1.587 0.023 -0.842 -0 -1.2 0
1.652 0.026 -0.865 -0 -1.2 0
1.727 0.031 -0.89 -0 -1.2 0
1.779 0.02 -0.908 -0 -1.2 0
1.862 0.026 -0.936 -0 -1.2 0
1.931 0.021 -0.959 -0 -1.2 0
2.024 0.026 -0.992 -0 -1.2 0
2.118 0.029 -1.023 -0 -1.2 0
2.205 0.025 -1.053 -0 -1.2 0
2.326 0.034 -1.095 -0 -1.2 0
2.449 0.04 -1.136 -0 -1.2 0
2.581 0.044 -1.181 -0 -1.2 0
2.73 0.051 -1.233 -0 -1.2 0
2.882 0.054 -1.284 -0 -1.2 0
3.061 0.062 -1.346 -0 -1.2 0
3.232 0.059 -1.404 -0 -1.2 0
3.44 0.062 -1.475 -0 -1.2 0
3.676 0.068 -1.555 -0 -1.2 0
3.942 0.073 -1.646 -0 -1.2 0
4.235 0.076 -1.746 -0 -1.2 0
4.556 0.076 -1.856 -0 -1.2 0
4.944 0.079 -1.988 -0 -1.2 0
5.408 0.086 -2.147 -0 -1.2 0
5.975 0.094 -2.34 -0 -1.2 0
6.675 0.107 -2.58 -0 -1.2 0
7.565 0.124 -2.883 -0 -1.2 0
8.569 0.125 -3.226 -0 -1.2 0
8.812 -0.005 -3.309 -0 -1.2 0
9.027 -0.147 -3.382 -0 -1.2 0
8.759 -0.338 -3.29 -0 -1.2 0
8.562 -0.514 -3.223 -0 -1.2 0
8.57 -0.672 -3.226 -0 -1.2 0
21.572 -0.823 -7.665 -0 -1.2 0
21.545 -1.221 -7.655 -0 -1.2 0
21.597 -1.62 -7.672 -0 -1.2 0
21.641 -2.02 -7.688 -0 -1.2 0
21.642 -2.421 -7.687 -0 -1.2 0
21.635 -2.821 -7.685 -0 -1.2 0
21.642 -3.224 -7.686 -0 -1.2 0
21.641 -3.627 -7.685 -0 -1.2 0
21.633 -4.03 -7.682 -0 -1.2 0
21.638 -4.439 -7.684 -0 -1.2 0
21.635 -4.847 -7.682 -0 -1.2 0
21.635 -5.257 -7.682 -0 -1.2 0
21.629 -5.669 -7.679 -0 -1.2 0
21.624 -6.085 -7.676 -0 -1.2 0
21.631 -6.506 -7.679 -0 -1.2 0
21.621 -6.926 -7.674 -0 -1.2 0
21.613 -7.351 -7.671 -0 -1.2 0
21.614 -7.782 -7.671 -0 -1.2 0
10.424 -4.531 -3.854 -0 -1.2 0
21.614 -8.657 -7.671 -0 -1.2 0
21.603 -9.097 -7.666 -0 -1.2 0
21.619 -9.553 -7.671 -0 -1.2 0
21.608 -10.005 -7.667 -0 -1.2 0
21.624 -10.475 -7.672 -0 -1.2 0
21.613 -10.939 -7.668 -0 -1.2 0
21.62 -11.418 -7.67 -0 -1.2 0
21.541 -11.863 -7.642 -0 -1.2 0
21.182 -12.165 -7.519 -0 -1.2 0
21.635 -12.903 -7.673 -0 -1.2 0
8.504 -5.939 -3.197 -0 -1.2 0
6.054 -4.69 -2.362 -0 -1.2 0
21.666 -14.482 -7.682 -0 -1.2 0
21.636 -15.004 -7.672 -0 -1.2 0
8.876 -7.03 -3.323 -0 -1.2 0
9.504 -7.698 -3.537 -0 -1.2 0
5.649 -5.171 -2.223 -0 -1.2 0
5.604 -5.293 -2.208 -0 -1.2 0
5.06 -5.028 -2.023 -0 -1.2 0
4.716 -4.896 -1.905 -0 -1.2 0
5.735 -6.423 -2.252 -0 -1.2 0
5.547 -6.434 -2.188 -0 -1.2 0
5.286 -6.364 -2.099 -0 -1.2 0
0.991 0.031 -0.673 -0 -1.2 0
1.029 0.033 -0.687 -0 -1.2 0
1.06 0.028 -0.7 -0 -1.2 0
1.099 0.028 -0.714 -0 -1.2 0
1.138 0.028 -0.729 -0 -1.2 0
1.177 0.027 -0.744 -0 -1.2 0
1.216 0.024 -0.758 -0 -1.2 0
1.256 0.02 -0.774 -0 -1.2 0
1.31 0.028 -0.794 -0 -1.2 0
1.358 0.027 -0.813 -0 -1.2 0
1.406 0.026 -0.831 -0 -1.2 0
1.455 0.022 -0.849 -0 -1.2 0
1.504 0.018 -0.868 -0 -1.2 0
1.576 0.028 -0.895 -0 -1.2 0
1.634 0.026 -0.917 -0 -1.2 0
1.7 0.026 -0.942 -0 -1.2 0
1.774 0.03 -0.97 -0 -1.2 0
1.841 0.026 -0.995 -0 -1.2 0
1.908 0.021 -1.021 -0 -1.2 0
1.992 0.022 -1.052 -0 -1.2 0
2.085 0.025 -1.088 -0 -1.2 0
2.187 0.029 -1.127 -0 -1.2 0
2.316 0.042 -1.176 -0 -1.2 0
2.429 0.043 -1.218 -0 -1.2 0
2.567 0.051 -1.271 -0 -1.2 0
2.707 0.056 -1.324 -0 -1.2 0
2.866 0.061 -1.384 -0 -1.2 0
3.034 0.065 -1.448 -0 -1.2 0
3.212 0.065 -1.515 -0 -1.2 0
3.426 0.072 -1.597 -0 -1.2 0
3.67 0.08 -1.688 -0 -1.2 0
3.922 0.081 -1.784 -0 -1.2 0
4.185 0.076 -1.884 -0 -1.2 0
4.549 0.087 -2.021 -0 -1.2 0
4.905 0.084 -2.156 -0 -1.2 0
5.372 0.091 -2.333 -0 -1.2 0
5.96 0.106 -2.556 -0 -1.2 0
6.652 0.117 -2.819 -0 -1.2 0
7.493 0.127 -3.138 -0 -1.2 0
8.559 0.138 -3.542 -0 -1.2 0
8.429 -0.04 -3.493 -0 -1.2 0
8.231 -0.22 -3.417 -0 -1.2 0
8.226 -0.375 -3.415 -0 -1.2 0
8.032 -0.543 -3.34 -0 -1.2 0
7.984 -0.696 -3.322 -0 -1.2 0
8.84 -0.818 -3.646 -0 -1.2 0
10.086 -0.967 -4.118 -0 -1.2 0
10.358 -1.157 -4.22 -0 -1.2 0
21.743 -1.63 -8.534 -0 -1.2 0
21.759 -2.037 -8.539 -0 -1.2 0
21.75 -2.443 -8.535 -0 -1.2 0
21.772 -2.853 -8.542 -0 -1.2 0
21.759 -3.261 -8.536 -0 -1.2 0
21.757 -3.671 -8.535 -0 -1.2 0
21.758 -4.083 -8.534 -0 -1.2 0
21.763 -4.498 -8.535 -0 -1.2 0
21.769 -4.915 -8.536 -0 -1.2 0
21.767 -5.333 -8.535 -0 -1.2 0
21.75 -5.75 -8.527 -0 -1.2 0
21.745 -6.172 -8.524 -0 -1.2 0
21.75 -6.6 -8.525 -0 -1.2 0
21.756 -7.033 -8.527 -0 -1.2 0
21.747 -7.465 -8.522 -0 -1.2 0
10.716 -4.45 -4.348 -0 -1.2 0
21.758 -8.35 -8.525 -0 -1.2 0
10.502 -4.814 -4.266 -0 -1.2 0
21.747 -9.246 -8.518 -0 -1.2 0
21.752 -9.706 -8.519 -0 -1.2 0
21.748 -10.169 -8.516 -0 -1.2 0
21.744 -10.638 -8.514 -0 -1.2 0
21.748 -11.117 -8.514 -0 -1.2 0
21.727 -11.592 -8.506 -0 -1.2 0
21.594 -12.016 -8.454 -0 -1.2 0
21.246 -12.329 -8.321 -0 -1.2 0
21.824 -13.147 -8.538 -0 -1.2 0
8.225 -5.835 -3.401 -0 -1.2 0
9.891 -7.035 -4.031 -0 -1.2 0
8.583 -6.462 -3.535 -0 -1.2 0
9.324 -7.161 -3.816 -0 -1.2 0
9.121 -7.265 -3.738 -0 -1.2 0
9.34 -7.659 -3.82 -0 -1.2 0
5.075 -4.799 -2.21 -0 -1.2 0
4.998 -4.882 -2.18 -0 -1.2 0
9.037 -8.196 -3.704 -0 -1.2 0
4.596 -4.842 -2.029 -0 -1.2 0
4.564 -4.952 -2.016 -0 -1.2 0
5.494 -6.259 -2.365 -0 -1.2 0
5.215 -6.171 -2.26 -0 -1.2 0
5.057 -6.192 -2.2 -0 -1.2 0
0.978 0.031 -0.704 -0 -1.2 0
1.016 0.033 -0.719 -0 -1.2 0
1.047 0.028 -0.732 -0 -1.2 0
1.079 0.021 -0.745 -0 -1.2 0
1.13 0.034 -0.767 -0 -1.2 0
1.162 0.026 -0.78 -0 -1.2 0
1.208 0.03 -0.799 -0 -1.2 0
1.24 0.02 -0.813 -0 -1.2 0
1.301 0.034 -0.839 -0 -1.2 0
1.348 0.033 -0.858 -0 -1.2 0
1.389 0.026 -0.875 -0 -1.2 0
1.436 0.022 -0.895 -0 -1.2 0
1.485 0.018 -0.915 -0 -1.2 0
1.556 0.028 -0.945 -0 -1.2 0
1.612 0.026 -0.969 -0 -1.2 0
1.677 0.026 -0.995 -0 -1.2 0
1.743 0.025 -1.023 -0 -1.2 0
1.809 0.022 -1.05 -0 -1.2 0
1.892 0.026 -1.085 -0 -1.2 0
1.975 0.026 -1.119 -0 -1.2 0
2.067 0.029 -1.158 -0 -1.2 0
2.159 0.029 -1.196 -0 -1.2 0
2.27 0.034 -1.243 -0 -1.2 0
2.389 0.039 -1.292 -0 -1.2 0
2.526 0.048 -1.349 -0 -1.2 0
2.672 0.055 -1.411 -0 -1.2 0
2.829 0.06 -1.476 -0 -1.2 0
3.004 0.068 -1.55 -0 -1.2 0
3.171 0.065 -1.619 -0 -1.2 0
3.382 0.072 -1.708 -0 -1.2 0
3.613 0.076 -1.804 -0 -1.2 0
3.871 0.081 -1.912 -0 -1.2 0
4.148 0.081 -2.027 -0 -1.2 0
4.453 0.078 -2.154 -0 -1.2 0
4.831 0.081 -2.312 -0 -1.2 0
5.31 0.093 -2.513 -0 -1.2 0
5.855 0.1 -2.74 -0 -1.2 0
6.546 0.114 -3.029 -0 -1.2 0
7.341 0.118 -3.36 -0 -1.2 0
8.091 0.086 -3.673 -0 -1.2 0
7.788 -0.108 -3.546 -0 -1.2 0
7.794 -0.256 -3.549 -0 -1.2 0
10.556 -0.16 -4.702 -0 -1.2 0
7.641 -0.564 -3.483 -0 -1.2 0
9.381 -0.621 -4.21 -0 -1.2 0
8.853 -0.814 -3.989 -0 -1.2 0
21.811 -0.814 -9.4 -0 -1.2 0
21.786 -1.226 -9.387 -0 -1.2 0
21.863 -1.641 -9.419 -0 -1.2 0
21.879 -2.056 -9.423 -0 -1.2 0
21.879 -2.47 -9.423 -0 -1.2 0
21.873 -2.885 -9.418 -0 -1.2 0
21.869 -3.302 -9.415 -0 -1.2 0
21.877 -3.721 -9.417 -0 -1.2 0
21.878 -4.14 -9.415 -0 -1.2 0
21.88 -4.562 -9.415 -0 -1.2 0
21.886 -4.987 -9.416 -0 -1.2 0
21.874 -5.411 -9.41 -0 -1.2 0
21.874 -5.84 -9.409 -0 -1.2 0
11.451 -3.805 -5.064 -0 -1.2 0
21.871 -6.705 -9.404 -0 -1.2 0
21.876 -7.145 -9.405 -0 -1.2 0
11.021 -4.366 -4.882 -0 -1.2 0
11.082 -4.61 -4.906 -0 -1.2 0
21.873 -8.484 -9.399 -0 -1.2 0
9.99 -4.679 -4.45 -0 -1.2 0
21.875 -9.402 -9.397 -0 -1.2 0
9.548 -4.925 -4.265 -0 -1.2 0
9.941 -5.298 -4.428 -0 -1.2 0
21.881 -10.825 -9.395 -0 -1.2 0
21.874 -11.308 -9.39 -0 -1.2 0
21.799 -11.766 -9.357 -0 -1.2 0
13.462 -7.993 -5.888 -0 -1.2 0
21.874 -12.814 -9.384 -0 -1.2 0
21.928 -13.363 -9.405 -0 -1.2 0
21.931 -13.895 -9.404 -0 -1.2 0
8.453 -6.237 -3.803 -0 -1.2 0
8.552 -6.513 -3.844 -0 -1.2 0
9.142 -7.12 -4.088 -0 -1.2 0
8.732 -7.078 -3.917 -0 -1.2 0
9.391 -7.781 -4.19 -0 -1.2 0
4.866 -4.693 -2.31 -0 -1.2 0
8.003 -7.235 -3.611 -0 -1.2 0
4.531 -4.836 -2.17 -0 -1.2 0
5.015 -5.869 -2.369 -0 -1.2 0
4.939 -6.138 -2.336 -0 -1.2 0
0.965 0.031 -0.734 -0 -1.2 0
0.996 0.026 -0.749 -0 -1.2 0
1.033 0.028 -0.766 -0 -1.2 0
1.083 0.042 -0.788 -0 -1.2 0
1.115 0.034 -0.803 -0 -1.2 0
1.139 0.019 -0.814 -0 -1.2 0
1.185 0.024 -0.835 -0 -1.2 0
1.231 0.026 -0.856 -0 -1.2 0
1.27 0.021 -0.873 -0 -1.2 0
1.33 0.033 -0.902 -0 -1.2 0
1.37 0.026 -0.92 -0 -1.2 0
1.417 0.022 -0.941 -0 -1.2 0
1.479 0.029 -0.969 -0 -1.2 0
1.534 0.028 -0.995 -0 -1.2 0
1.591 0.026 -1.02 -0 -1.2 0
1.654 0.026 -1.049 -0 -1.2 0
1.727 0.03 -1.083 -0 -1.2 0
1.784 0.022 -1.109 -0 -1.2 0
1.866 0.026 -1.146 -0 -1.2 0
1.94 0.022 -1.18 -0 -1.2 0
2.038 0.029 -1.225 -0 -1.2 0
2.13 0.029 -1.267 -0 -1.2 0
2.238 0.033 -1.317 -0 -1.2 0
2.348 0.035 -1.366 -0 -1.2 0
2.482 0.043 -1.428 -0 -1.2 0
2.627 0.051 -1.495 -0 -1.2 0
2.789 0.06 -1.568 -0 -1.2 0
2.952 0.064 -1.644 -0 -1.2 0
3.126 0.065 -1.722 -0 -1.2 0
3.325 0.068 -1.814 -0 -1.2 0
3.552 0.073 -1.917 -0 -1.2 0
3.79 0.072 -2.026 -0 -1.2 0
4.09 0.081 -2.163 -0 -1.2 0
4.39 0.078 -2.3 -0 -1.2 0
4.736 0.074 -2.459 -0 -1.2 0
5.199 0.085 -2.671 -0 -1.2 0
5.736 0.092 -2.915 -0 -1.2 0
6.409 0.104 -3.223 -0 -1.2 0
7.181 0.107 -3.576 -0 -1.2 0
8.191 0.117 -4.039 -0 -1.2 0
8.526 0 -4.191 -0 -1.2 0
8.298 -0.19 -4.086 -0 -1.2 0
8.293 -0.351 -4.083 -0 -1.2 0
8.285 -0.512 -4.079 -0 -1.2 0
8.212 -0.675 -4.044 -0 -1.2 0
10.29 -0.765 -4.994 -0 -1.2 0
10.985 -0.953 -5.311 -0 -1.2 0
21.899 -1.233 -10.3 -0 -1.2 0
21.968 -1.655 -10.329 -0 -1.2 0
21.983 -2.078 -10.335 -0 -1.2 0
21.983 -2.501 -10.333 -0 -1.2 0
21.985 -2.924 -10.332 -0 -1.2 0
21.989 -3.349 -10.333 -0 -1.2 0
22.005 -3.778 -10.338 -0 -1.2 0
21.996 -4.204 -10.332 -0 -1.2 0
21.989 -4.634 -10.328 -0 -1.2 0
21.993 -5.066 -10.327 -0 -1.2 0
21.999 -5.502 -10.328 -0 -1.2 0
21.989 -5.937 -10.322 -0 -1.2 0
21.989 -6.378 -10.321 -0 -1.2 0
14.095 -4.765 -6.718 -0 -1.2 0
21.995 -7.27 -10.32 -0 -1.2 0
21.99 -7.719 -10.316 -0 -1.2 0
10.845 -4.586 -5.233 -0 -1.2 0
10.719 -4.771 -5.174 -0 -1.2 0
21.984 -9.098 -10.307 -0 -1.2 0
9.883 -4.904 -4.792 -0 -1.2 0
9.676 -5.035 -4.697 -0 -1.2 0
10.02 -5.394 -4.852 -0 -1.2 0
9.782 -5.51 -4.743 -0 -1.2 0
9.636 -5.661 -4.676 -0 -1.2 0
9.744 -5.935 -4.724 -0 -1.2 0
21.448 -12.248 -10.049 -0 -1.2 0
13.322 -8.338 -6.35 -0 -1.2 0
12.316 -8.087 -5.891 -0 -1.2 0
12.42 -8.451 -5.937 -0 -1.2 0
10.715 -7.708 -5.161 -0 -1.2 0
8.172 -6.347 -4.004 -0 -1.2 0
8.492 -6.773 -4.149 -0 -1.2 0
8.862 -7.255 -4.316 -0 -1.2 0
8.908 -7.529 -4.336 -0 -1.2 0
4.873 -4.749 -2.502 -0 -1.2 0
7.644 -7.045 -3.759 -0 -1.2 0
7.49 -7.143 -3.689 -0 -1.2 0
4.489 -4.855 -2.326 -0 -1.2 0
11.087 -10.721 -5.319 -0 -1.2 0
5.109 -6.028 -2.605 -0 -1.2 0
4.714 -5.809 -2.425 -0 -1.2 0
0.954 0.031 -0.76 -0 -1.2 0
0.99 0.033 -0.778 -0 -1.2 0
1.02 0.028 -0.793 -0 -1.2 0
1.057 0.028 -0.81 -0 -1.2 0
1.101 0.035 -0.832 -0 -1.2 0
1.132 0.027 -0.847 -0 -1.2 0
1.17 0.024 -0.866 -0 -1.2 0
1.215 0.026 -0.888 -0 -1.2 0
1.253 0.021 -0.907 -0 -1.2 0
1.299 0.021 -0.93 -0 -1.2 0
1.367 0.037 -0.963 -0 -1.2 0
1.399 0.022 -0.979 -0 -1.2 0
1.453 0.023 -1.005 -0 -1.2 0
1.523 0.034 -1.04 -0 -1.2 0
1.571 0.026 -1.063 -0 -1.2 0
1.634 0.026 -1.094 -0 -1.2 0
1.697 0.025 -1.126 -0 -1.2 0
1.77 0.026 -1.161 -0 -1.2 0
1.842 0.026 -1.196 -0 -1.2 0
1.915 0.022 -1.232 -0 -1.2 0
2.005 0.025 -1.276 -0 -1.2 0
2.094 0.025 -1.321 -0 -1.2 0
2.202 0.029 -1.373 -0 -1.2 0
2.309 0.031 -1.426 -0 -1.2 0
2.442 0.04 -1.492 -0 -1.2 0
2.593 0.051 -1.566 -0 -1.2 0
2.754 0.06 -1.645 -0 -1.2 0
2.915 0.064 -1.724 -0 -1.2 0
3.085 0.065 -1.808 -0 -1.2 0
3.274 0.065 -1.901 -0 -1.2 0
3.49 0.067 -2.007 -0 -1.2 0
3.741 0.072 -2.131 -0 -1.2 0
4.036 0.081 -2.276 -0 -1.2 0
4.316 0.073 -2.413 -0 -1.2 0
4.684 0.075 -2.594 -0 -1.2 0
5.105 0.077 -2.802 -0 -1.2 0
5.634 0.085 -3.061 -0 -1.2 0
6.281 0.095 -3.378 -0 -1.2 0
7.043 0.099 -3.754 -0 -1.2 0
7.932 0.093 -4.191 -0 -1.2 0
8.387 -0.004 -4.414 -0 -1.2 0
7.956 -0.217 -4.202 -0 -1.2 0
7.942 -0.374 -4.194 -0 -1.2 0
7.899 -0.533 -4.172 -0 -1.2 0
8.526 -0.655 -4.479 -0 -1.2 0
10.352 -0.761 -5.377 -0 -1.2 0
10.312 -0.962 -5.357 -0 -1.2 0
10.429 -1.163 -5.413 -0 -1.2 0
12.382 -1.417 -6.373 -0 -1.2 0
22.177 -2.104 -11.186 -0 -1.2 0
22.168 -2.535 -11.179 -0 -1.2 0
22.16 -2.968 -11.173 -0 -1.2 0
22.155 -3.401 -11.169 -0 -1.2 0
22.152 -3.835 -11.166 -0 -1.2 0
22.177 -4.276 -11.177 -0 -1.2 0
22.169 -4.714 -11.171 -0 -1.2 0
22.155 -5.153 -11.162 -0 -1.2 0
22.159 -5.597 -11.162 -0 -1.2 0
22.164 -6.045 -11.164 -0 -1.2 0
13.998 -4.505 -7.155 -0 -1.2 0
11.34 -4.089 -5.85 -0 -1.2 0
22.156 -7.402 -11.155 -0 -1.2 0
13.829 -5.319 -7.069 -0 -1.2 0
13.296 -5.436 -6.806 -0 -1.2 0
10.887 -4.879 -5.624 -0 -1.2 0
13.596 -6.113 -6.951 -0 -1.2 0
9.228 -4.701 -4.81 -0 -1.2 0
9.718 -5.105 -5.048 -0 -1.2 0
10.064 -5.472 -5.217 -0 -1.2 0
12.286 -6.716 -6.305 -0 -1.2 0
9.682 -5.746 -5.028 -0 -1.2 0
9.526 -5.892 -4.952 -0 -1.2 0
12.689 -7.783 -6.499 -0 -1.2 0
13.266 -8.406 -6.78 -0 -1.2 0
12.265 -8.153 -6.289 -0 -1.2 0
22.185 -14.414 -11.142 -0 -1.2 0
9.452 -7.009 -4.911 -0 -1.2 0
9.282 -7.141 -4.826 -0 -1.2 0
7.636 -6.27 -4.02 -0 -1.2 0
7.645 -6.482 -4.024 -0 -1.2 0
4.722 -4.551 -2.595 -0 -1.2 0
7.931 -7.125 -4.163 -0 -1.2 0
8.54 -7.833 -4.459 -0 -1.2 0
10.793 -9.93 -5.558 -0 -1.2 0
7.932 -7.827 -4.16 -0 -1.2 0
9.291 -9.27 -4.822 -0 -1.2 0
9.099 -9.392 -4.728 -0 -1.2 0
9.564 -10.131 -4.954 -0 -1.2 0
4.934 -5.923 -2.694 -0 -1.2 0
3.835 -4.981 -2.156 -0 -1.2 0
3.825 -5.11 -2.152 -0 -1.2 0
0.937 0.023 -0.78 -0 -1.2 0
0.972 0.026 -0.799 -0 -1.2 0
1.008 0.028 -0.818 -0 -1.2 0
1.039 0.021 -0.834 -0 -1.2 0
1.087 0.035 -0.86 -0 -1.2 0
1.119 0.027 -0.876 -0 -1.2 0
1.156 0.024 -0.896 -0 -1.2 0
1.193 0.02 -0.916 -0 -1.2 0
1.238 0.022 -0.939 -0 -1.2 0
1.283 0.021 -0.963 -0 -1.2 0
1.335 0.026 -0.99 -0 -1.2 0
1.381 0.022 -1.014 -0 -1.2 0
1.435 0.023 -1.042 -0 -1.2 0
1.488 0.023 -1.071 -0 -1.2 0
1.551 0.026 -1.103 -0 -1.2 0
1.613 0.026 -1.137 -0 -1.2 0
1.668 0.02 -1.166 -0 -1.2 0
1.739 0.022 -1.203 -0 -1.2 0
1.81 0.02 -1.241 -0 -1.2 0
1.889 0.022 -1.282 -0 -1.2 0
1.978 0.025 -1.329 -0 -1.2 0
2.051 0.016 -1.367 -0 -1.2 0
2.148 0.017 -1.418 -0 -1.2 0
2.262 0.023 -1.479 -0 -1.2 0
2.402 0.036 -1.552 -0 -1.2 0
2.542 0.043 -1.626 -0 -1.2 0
2.692 0.05 -1.705 -0 -1.2 0
2.859 0.057 -1.792 -0 -1.2 0
3.027 0.058 -1.881 -0 -1.2 0
3.222 0.062 -1.984 -0 -1.2 0
3.409 0.056 -2.082 -0 -1.2 0
3.682 0.07 -2.226 -0 -1.2 0
3.947 0.07 -2.366 -0 -1.2 0
4.232 0.064 -2.515 -0 -1.2 0
4.585 0.067 -2.702 -0 -1.2 0
4.984 0.065 -2.911 -0 -1.2 0
5.514 0.075 -3.191 -0 -1.2 0
6.133 0.083 -3.517 -0 -1.2 0
6.868 0.085 -3.904 -0 -1.2 0
7.788 0.087 -4.388 -0 -1.2 0
8.974 0.086 -5.013 -0 -1.2 0
8.146 -0.184 -4.576 -0 -1.2 0
8.195 -0.341 -4.601 -0 -1.2 0
8.867 -0.455 -4.955 -0 -1.2 0
9.672 -0.589 -5.378 -0 -1.2 0
9.926 -0.771 -5.511 -0 -1.2 0
22.211 -1.245 -11.979 -0 -1.2 0
22.25 -1.684 -11.998 -0 -1.2 0
13.662 -4.19 -7.466 -0 -1.2 0
22.251 -6.595 -11.981 -0 -1.2 0
10.889 -4.012 -6.006 -0 -1.2 0
10.748 -4.199 -5.931 -0 -1.2 0
11.237 -4.577 -6.187 -0 -1.2 0
10.604 -4.606 -5.854 -0 -1.2 0
13.076 -5.706 -7.152 -0 -1.2 0
11.338 -5.34 -6.238 -0 -1.2 0
11.03 -5.467 -6.075 -0 -1.2 0
9.898 -5.239 -5.481 -0 -1.2 0
9.503 -5.288 -5.272 -0 -1.2 0
11.067 -6.231 -6.092 -0 -1.2 0
10.482 -6.202 -5.784 -0 -1.2 0
9.45 -5.922 -5.242 -0 -1.2 0
9.406 -6.124 -5.218 -0 -1.2 0
9.288 -6.286 -5.155 -0 -1.2 0
8.907 -6.295 -4.954 -0 -1.2 0
9.575 -6.925 -5.304 -0 -1.2 0
12.787 -9.21 -6.987 -0 -1.2 0
9.091 -7.101 -5.048 -0 -1.2 0
7.59 -6.312 -4.261 -0 -1.2 0
7.045 -6.129 -3.974 -0 -1.2 0
4.665 -4.557 -2.727 -0 -1.2 0
8.093 -7.334 -4.522 -0 -1.2 0
8.516 -7.909 -4.743 -0 -1.2 0
8.038 -7.768 -4.491 -0 -1.2 0
7.892 -7.889 -4.414 -0 -1.2 0
9.488 -9.563 -5.249 -0 -1.2 0
8.986 -9.406 -4.985 -0 -1.2 0
9.518 -10.216 -5.262 -0 -1.2 0
3.848 -4.912 -2.296 -0 -1.2 0
3.835 -5.035 -2.288 -0 -1.2 0
3.754 -5.09 -2.245 -0 -1.2 0
0.923 0.023 -0.807 -0 -1.2 0
0.958 0.026 -0.827 -0 -1.2 0
0.994 0.028 -0.846 -0 -1.2 0
1.03 0.029 -0.867 -0 -1.2 0
1.059 0.022 -0.883 -0 -1.2 0
1.102 0.027 -0.907 -0 -1.2 0
1.138 0.024 -0.928 -0 -1.2 0
1.176 0.02 -0.949 -0 -1.2 0
1.22 0.022 -0.974 -0 -1.2 0
1.264 0.021 -0.999 -0 -1.2 0
1.309 0.02 -1.024 -0 -1.2 0
1.361 0.023 -1.054 -0 -1.2 0
1.407 0.018 -1.079 -0 -1.2 0
1.467 0.023 -1.114 -0 -1.2 0
1.52 0.021 -1.144 -0 -1.2 0
1.574 0.016 -1.174 -0 -1.2 0
1.651 0.025 -1.217 -0 -1.2 0
1.705 0.017 -1.248 -0 -1.2 0
1.775 0.016 -1.288 -0 -1.2 0
1.853 0.018 -1.333 -0 -1.2 0
1.94 0.021 -1.382 -0 -1.2 0
2.027 0.021 -1.431 -0 -1.2 0
2.107 0.013 -1.476 -0 -1.2 0
2.212 0.015 -1.534 -0 -1.2 0
2.349 0.028 -1.612 -0 -1.2 0
2.486 0.037 -1.69 -0 -1.2 0
2.634 0.043 -1.773 -0 -1.2 0
2.79 0.047 -1.862 -0 -1.2 0
2.98 0.058 -1.97 -0 -1.2 0
3.163 0.059 -2.073 -0 -1.2 0
3.355 0.056 -2.182 -0 -1.2 0
3.599 0.061 -2.319 -0 -1.2 0
3.86 0.062 -2.467 -0 -1.2 0
4.122 0.053 -2.616 -0 -1.2 0
4.479 0.058 -2.817 -0 -1.2 0
4.854 0.053 -3.029 -0 -1.2 0
5.358 0.061 -3.314 -0 -1.2 0
5.958 0.067 -3.654 -0 -1.2 0
6.681 0.071 -4.062 -0 -1.2 0
7.586 0.074 -4.574 -0 -1.2 0
8.779 0.079 -5.248 -0 -1.2 0
7.774 -0.212 -4.679 -0 -1.2 0
7.951 -0.352 -4.779 -0 -1.2 0
7.822 -0.522 -4.705 -0 -1.2 0
8.16 -0.661 -4.896 -0 -1.2 0
19.581 -0.446 -11.356 -0 -1.2 0
11.293 -3.932 -6.656 -0 -1.2 0
11.316 -4.176 -6.669 -0 -1.2 0
11.319 -4.418 -6.669 -0 -1.2 0
11.376 -4.678 -6.701 -0 -1.2 0
11.487 -4.961 -6.762 -0 -1.2 0
8.335 -4.082 -4.982 -0 -1.2 0
12.233 -6.024 -7.18 -0 -1.2 0
9.11 -4.971 -5.418 -0 -1.2 0
8.904 -5.088 -5.302 -0 -1.2 0
7.384 -4.577 -4.444 -0 -1.2 0
9.322 -5.711 -5.536 -0 -1.2 0
8.037 -5.267 -4.811 -0 -1.2 0
9.688 -6.36 -5.741 -0 -1.2 0
9.264 -6.357 -5.5 -0 -1.2 0
12.231 -8.352 -7.172 -0 -1.2 0
13.309 -9.333 -7.777 -0 -1.2 0
12.369 -9.073 -7.246 -0 -1.2 0
8.96 -7.112 -5.326 -0 -1.2 0
8.526 -7.051 -5.08 -0 -1.2 0
7.602 -6.616 -4.56 -0 -1.2 0
8.362 -7.405 -4.986 -0 -1.2 0
4.545 -4.654 -2.837 -0 -1.2 0
7.398 -7.111 -4.443 -0 -1.2 0
8.049 -7.886 -4.808 -0 -1.2 0
7.89 -7.998 -4.717 -0 -1.2 0
9.582 -9.787 -5.668 -0 -1.2 0
9.078 -9.628 -5.383 -0 -1.2 0
8.455 -9.33 -5.033 -0 -1.2 0
3.768 -4.893 -2.397 -0 -1.2 0
3.651 -4.907 -2.332 -0 -1.2 0
8.881 -10.704 -5.269 -0 -1.2 0
0.915 0.032 -0.833 -0 -1.2 0
0.944 0.027 -0.851 -0 -1.2 0
0.979 0.029 -0.871 -0 -1.2 0
1.008 0.022 -0.889 -0 -1.2 0
1.056 0.035 -0.918 -0 -1.2 0
1.086 0.027 -0.936 -0 -1.2 0
1.122 0.025 -0.958 -0 -1.2 0
1.158 0.021 -0.98 -0 -1.2 0
1.201 0.022 -1.005 -0 -1.2 0
1.251 0.028 -1.036 -0 -1.2 0
1.288 0.02 -1.058 -0 -1.2 0
1.333 0.018 -1.085 -0 -1.2 0
1.385 0.018 -1.116 -0 -1.2 0
1.444 0.023 -1.152 -0 -1.2 0
1.497 0.021 -1.184 -0 -1.2 0
1.557 0.021 -1.22 -0 -1.2 0
1.618 0.02 -1.257 -0 -1.2 0
1.679 0.017 -1.293 -0 -1.2 0
1.748 0.017 -1.335 -0 -1.2 0
1.824 0.018 -1.381 -0 -1.2 0
1.91 0.021 -1.432 -0 -1.2 0
1.98 0.012 -1.475 -0 -1.2 0
2.075 0.014 -1.532 -0 -1.2 0
2.169 0.011 -1.589 -0 -1.2 0
2.296 0.021 -1.665 -0 -1.2 0
2.44 0.033 -1.752 -0 -1.2 0
2.593 0.043 -1.845 -0 -1.2 0
2.739 0.044 -1.932 -0 -1.2 0
2.917 0.052 -2.04 -0 -1.2 0
3.113 0.06 -2.159 -0 -1.2 0
3.303 0.056 -2.273 -0 -1.2 0
3.534 0.059 -2.412 -0 -1.2 0
3.799 0.063 -2.572 -0 -1.2 0
4.066 0.056 -2.732 -0 -1.2 0
4.391 0.054 -2.929 -0 -1.2 0
4.785 0.055 -3.166 -0 -1.2 0
5.239 0.054 -3.439 -0 -1.2 0
5.855 0.066 -3.811 -0 -1.2 0
6.549 0.067 -4.229 -0 -1.2 0
7.465 0.074 -4.782 -0 -1.2 0
8.094 0.005 -5.16 -0 -1.2 0
8.092 -0.161 -5.158 -0 -1.2 0
8.344 -0.303 -5.31 -0 -1.2 0
7.885 -0.508 -5.032 -0 -1.2 0
7.859 -0.67 -5.017 -0 -1.2 0
9.002 -0.792 -5.705 -0 -1.2 0
9.984 -3.221 -6.289 -0 -1.2 0
15.579 -4.742 -9.657 -0 -1.2 0
12.905 -4.945 -8.044 -0 -1.2 0
13.838 -5.525 -8.604 -0 -1.2 0
10.516 -4.926 -6.603 -0 -1.2 0
13.475 -6.307 -8.383 -0 -1.2 0
8.972 -4.768 -5.674 -0 -1.2 0
12.091 -6.324 -7.548 -0 -1.2 0
8.487 -5.163 -5.38 -0 -1.2 0
8.717 -5.481 -5.517 -0 -1.2 0
8.439 -5.547 -5.35 -0 -1.2 0
8.116 -5.577 -5.155 -0 -1.2 0
8.571 -6.043 -5.427 -0 -1.2 0
8.64 -6.303 -5.468 -0 -1.2 0
8.78 -6.617 -5.552 -0 -1.2 0
8.457 -6.638 -5.356 -0 -1.2 0
9.261 -7.415 -5.839 -0 -1.2 0
8.609 -7.207 -5.447 -0 -1.2 0
7.394 -6.551 -4.716 -0 -1.2 0
7.397 -6.767 -4.717 -0 -1.2 0
8.38 -7.769 -5.307 -0 -1.2 0
7.279 -7.11 -4.645 -0 -1.2 0
7.209 -7.276 -4.603 -0 -1.2 0
8.589 -8.732 -5.43 -0 -1.2 0
9.039 -9.426 -5.698 -0 -1.2 0
8.681 -9.387 -5.482 -0 -1.2 0
3.804 -4.855 -2.558 -0 -1.2 0
8.679 -9.993 -5.48 -0 -1.2 0
8.253 -9.858 -5.223 -0 -1.2 0
8.402 -10.333 -5.312 -0 -1.2 0
0.89 0.017 -0.848 -0 -1.2 0
0.93 0.027 -0.873 -0 -1.2 0
0.965 0.029 -0.896 -0 -1.2 0
0.999 0.029 -0.918 -0 -1.2 0
1.033 0.03 -0.941 -0 -1.2 0
1.069 0.028 -0.963 -0 -1.2 0
1.104 0.025 -0.986 -0 -1.2 0
1.14 0.021 -1.009 -0 -1.2 0
1.183 0.023 -1.036 -0 -1.2 0
1.226 0.022 -1.063 -0 -1.2 0
1.269 0.021 -1.091 -0 -1.2 0
1.313 0.018 -1.119 -0 -1.2 0
1.371 0.024 -1.156 -0 -1.2 0
1.415 0.019 -1.184 -0 -1.2 0
1.473 0.022 -1.222 -0 -1.2 0
1.533 0.022 -1.26 -0 -1.2 0
1.585 0.015 -1.293 -0 -1.2 0
1.659 0.023 -1.342 -0 -1.2 0
1.72 0.017 -1.38 -0 -1.2 0
1.795 0.019 -1.429 -0 -1.2 0
1.873 0.017 -1.477 -0 -1.2 0
1.948 0.013 -1.527 -0 -1.2 0
2.033 0.01 -1.581 -0 -1.2 0
2.135 0.011 -1.646 -0 -1.2 0
2.252 0.017 -1.72 -0 -1.2 0
2.384 0.026 -1.806 -0 -1.2 0
2.527 0.033 -1.897 -0 -1.2 0
2.686 0.041 -2 -0 -1.2 0
2.853 0.046 -2.106 -0 -1.2 0
3.063 0.06 -2.241 -0 -1.2 0
3.248 0.056 -2.36 -0 -1.2 0
3.476 0.059 -2.505 -0 -1.2 0
3.721 0.058 -2.661 -0 -1.2 0
3.982 0.052 -2.83 -0 -1.2 0
4.295 0.048 -3.03 -0 -1.2 0
4.707 0.055 -3.294 -0 -1.2 0
5.161 0.056 -3.585 -0 -1.2 0
5.733 0.062 -3.952 -0 -1.2 0
6.432 0.066 -4.399 -0 -1.2 0
7.316 0.071 -4.966 -0 -1.2 0
8.16 0.034 -5.506 -0 -1.2 0
9.541 0.025 -6.391 -0 -1.2 0
8.381 -0.285 -5.647 -0 -1.2 0
8.174 -0.475 -5.514 -0 -1.2 0
8.199 -0.644 -5.529 -0 -1.2 0
8.457 -0.804 -5.694 -0 -1.2 0
10.181 -3.518 -6.791 -0 -1.2 0
10.095 -3.715 -6.734 -0 -1.2 0
10.014 -3.913 -6.682 -0 -1.2 0
10.192 -4.186 -6.795 -0 -1.2 0
9.991 -4.347 -6.666 -0 -1.2 0
8.471 -4.041 -5.693 -0 -1.2 0
8.74 -4.331 -5.865 -0 -1.2 0
8.9 -4.594 -5.965 -0 -1.2 0
8.783 -4.751 -5.891 -0 -1.2 0
8.903 -5.009 -5.966 -0 -1.2 0
8.043 -4.822 -5.416 -0 -1.2 0
9.016 -5.489 -6.038 -0 -1.2 0
8.943 -5.671 -5.99 -0 -1.2 0
8.482 -5.645 -5.695 -0 -1.2 0
8.827 -6.051 -5.914 -0 -1.2 0
7.763 -5.652 -5.234 -0 -1.2 0
8.946 -6.578 -5.988 -0 -1.2 0
8.218 -6.35 -5.523 -0 -1.2 0
8.5 -6.759 -5.703 -0 -1.2 0
8.06 -6.687 -5.421 -0 -1.2 0
8.559 -7.274 -5.739 -0 -1.2 0
7.299 -6.573 -4.934 -0 -1.2 0
8.478 -7.707 -5.686 -0 -1.2 0
6.773 -6.578 -4.596 -0 -1.2 0
6.787 -6.797 -4.605 -0 -1.2 0
7.117 -7.298 -4.815 -0 -1.2 0
6.77 -7.214 -4.593 -0 -1.2 0
7.843 -8.446 -5.276 -0 -1.2 0
8.993 -9.83 -6.009 -0 -1.2 0
8.76 -9.911 -5.86 -0 -1.2 0
3.724 -4.972 -2.648 -0 -1.2 0
8.515 -10.289 -5.701 -0 -1.2 0
0.88 0.024 -0.875 -0 -1.2 0
0.914 0.027 -0.898 -0 -1.2 0
0.948 0.03 -0.921 -0 -1.2 0
0.975 0.023 -0.94 -0 -1.2 0
1.016 0.03 -0.968 -0 -1.2 0
1.05 0.028 -0.991 -0 -1.2 0
1.086 0.025 -1.014 -0 -1.2 0
1.12 0.022 -1.039 -0 -1.2 0
1.162 0.023 -1.067 -0 -1.2 0
1.204 0.023 -1.095 -0 -1.2 0
1.247 0.021 -1.124 -0 -1.2 0
1.296 0.024 -1.158 -0 -1.2 0
1.346 0.025 -1.193 -0 -1.2 0
1.396 0.024 -1.227 -0 -1.2 0
1.439 0.016 -1.257 -0 -1.2 0
1.505 0.022 -1.302 -0 -1.2 0
1.564 0.021 -1.341 -0 -1.2 0
1.615 0.013 -1.377 -0 -1.2 0
1.689 0.018 -1.427 -0 -1.2 0
1.756 0.014 -1.473 -0 -1.2 0
1.838 0.018 -1.528 -0 -1.2 0
1.92 0.018 -1.585 -0 -1.2 0
2.004 0.015 -1.642 -0 -1.2 0
2.096 0.012 -1.704 -0 -1.2 0
2.202 0.015 -1.778 -0 -1.2 0
2.34 0.026 -1.872 -0 -1.2 0
2.481 0.033 -1.967 -0 -1.2 0
2.636 0.042 -2.074 -0 -1.2 0
2.801 0.047 -2.186 -0 -1.2 0
3.013 0.063 -2.331 -0 -1.2 0
3.204 0.063 -2.461 -0 -1.2 0
3.418 0.062 -2.608 -0 -1.2 0
3.658 0.062 -2.772 -0 -1.2 0
3.908 0.052 -2.942 -0 -1.2 0
4.221 0.05 -3.156 -0 -1.2 0
4.602 0.053 -3.416 -0 -1.2 0
5.08 0.06 -3.742 -0 -1.2 0
5.617 0.06 -4.11 -0 -1.2 0
6.31 0.067 -4.583 -0 -1.2 0
7.153 0.068 -5.158 -0 -1.2 0
8.087 0.047 -5.796 -0 -1.2 0
7.987 -0.137 -5.727 -0 -1.2 0
8.346 -0.271 -5.972 -0 -1.2 0
5.053 -0.704 -3.721 -0 -1.2 0
5.057 -0.811 -3.724 -0 -1.2 0
5.103 -0.915 -3.755 -0 -1.2 0
5.178 -1.022 -3.807 -0 -1.2 0
5.179 -1.131 -3.807 -0 -1.2 0
5.169 -1.24 -3.799 -0 -1.2 0
5.2 -1.35 -3.821 -0 -1.2 0
5.154 -1.457 -3.789 -0 -1.2 0
11.915 -3.723 -8.399 -0 -1.2 0
9.373 -4.416 -6.661 -0 -1.2 0
9.269 -4.593 -6.589 -0 -1.2 0
9.139 -4.757 -6.499 -0 -1.2 0
11.26 -5.873 -7.945 -0 -1.2 0
8.315 -4.819 -5.937 -0 -1.2 0
8.268 -4.998 -5.904 -0 -1.2 0
8.616 -5.373 -6.141 -0 -1.2 0
7.794 -5.159 -5.58 -0 -1.2 0
7.449 -5.166 -5.345 -0 -1.2 0
7.434 -5.348 -5.334 -0 -1.2 0
7.52 -5.593 -5.392 -0 -1.2 0
7.688 -5.898 -5.507 -0 -1.2 0
7.822 -6.192 -5.597 -0 -1.2 0
7.676 -6.308 -5.496 -0 -1.2 0
11.259 -9.059 -7.935 -0 -1.2 0
9.293 -7.934 -6.596 -0 -1.2 0
7.007 -6.454 -5.04 -0 -1.2 0
7.047 -6.694 -5.065 -0 -1.2 0
6.965 -6.842 -5.009 -0 -1.2 0
7.07 -7.15 -5.081 -0 -1.2 0
6.789 -7.126 -4.889 -0 -1.2 0
8.016 -8.482 -5.723 -0 -1.2 0
8.142 -8.872 -5.808 -0 -1.2 0
8.285 -9.297 -5.903 -0 -1.2 0
8.947 -10.273 -6.353 -0 -1.2 0
8.447 -10.07 -6.012 -0 -1.2 0
8.018 -9.917 -5.719 -0 -1.2 0
0.872 0.033 -0.899 -0 -1.2 0
0.904 0.035 -0.923 -0 -1.2 0
0.932 0.03 -0.943 -0 -1.2 0
0.959 0.023 -0.963 -0 -1.2 0
1.004 0.037 -0.996 -0 -1.2 0
1.033 0.029 -1.015 -0 -1.2 0
1.066 0.026 -1.04 -0 -1.2 0
1.101 0.022 -1.065 -0 -1.2 0
1.149 0.03 -1.099 -0 -1.2 0
1.183 0.023 -1.124 -0 -1.2 0
1.225 0.022 -1.154 -0 -1.2 0
1.267 0.019 -1.185 -0 -1.2 0
1.316 0.02 -1.22 -0 -1.2 0
1.366 0.02 -1.256 -0 -1.2 0
1.429 0.028 -1.301 -0 -1.2 0
1.472 0.017 -1.332 -0 -1.2 0
1.536 0.022 -1.379 -0 -1.2 0
1.587 0.014 -1.416 -0 -1.2 0
1.659 0.018 -1.468 -0 -1.2 0
1.733 0.02 -1.52 -0 -1.2 0
1.813 0.023 -1.579 -0 -1.2 0
1.888 0.018 -1.633 -0 -1.2 0
1.961 0.011 -1.686 -0 -1.2 0
2.059 0.012 -1.756 -0 -1.2 0
2.172 0.019 -1.837 -0 -1.2 0
2.292 0.024 -1.925 -0 -1.2 0
2.437 0.034 -2.029 -0 -1.2 0
2.598 0.046 -2.145 -0 -1.2 0
2.751 0.047 -2.256 -0 -1.2 0
2.961 0.064 -2.407 -0 -1.2 0
3.155 0.067 -2.547 -0 -1.2 0
3.374 0.069 -2.706 -0 -1.2 0
3.586 0.059 -2.859 -0 -1.2 0
3.846 0.056 -3.046 -0 -1.2 0
4.147 0.051 -3.262 -0 -1.2 0
4.528 0.056 -3.538 -0 -1.2 0
4.974 0.058 -3.859 -0 -1.2 0
4.869 -0.073 -3.783 -0 -1.2 0
4.899 -0.175 -3.805 -0 -1.2 0
4.968 -0.271 -3.854 -0 -1.2 0
5.083 -0.362 -3.937 -0 -1.2 0
5.093 -0.472 -3.945 -0 -1.2 0
5.085 -0.583 -3.938 -0 -1.2 0
5.035 -0.697 -3.901 -0 -1.2 0
4.895 -0.813 -3.8 -0 -1.2 0
4.89 -0.918 -3.796 -0 -1.2 0
4.916 -1.023 -3.815 -0 -1.2 0
4.925 -1.128 -3.821 -0 -1.2 0
4.948 -1.234 -3.837 -0 -1.2 0
4.961 -1.342 -3.846 -0 -1.2 0
5.006 -1.451 -3.878 -0 -1.2 0
5.13 -1.571 -3.967 -0 -1.2 0
9.436 -4.061 -7.066 -0 -1.2 0
9.29 -4.229 -6.961 -0 -1.2 0
13.286 -5.888 -9.839 -0 -1.2 0
11.227 -6.215 -8.351 -0 -1.2 0
8.447 -5.153 -6.348 -0 -1.2 0
7.96 -5.117 -5.998 -0 -1.2 0
7.187 -4.907 -5.441 -0 -1.2 0
13.899 -8.831 -10.271 -0 -1.2 0
8.264 -5.907 -6.214 -0 -1.2 0
9.628 -6.957 -7.195 -0 -1.2 0
12.983 -9.353 -9.608 -0 -1.2 0
7.806 -6.271 -5.882 -0 -1.2 0
7.456 -6.247 -5.629 -0 -1.2 0
8.881 -7.486 -6.654 -0 -1.2 0
8.54 -7.49 -6.408 -0 -1.2 0
6.665 -6.281 -5.059 -0 -1.2 0
6.923 -6.692 -5.244 -0 -1.2 0
7.246 -7.179 -5.475 -0 -1.2 0
7.854 -7.94 -5.911 -0 -1.2 0
7.966 -8.298 -5.991 -0 -1.2 0
8.315 -8.892 -6.241 -0 -1.2 0
8.082 -8.952 -6.073 -0 -1.2 0
7.838 -8.991 -5.896 -0 -1.2 0
8.716 -10.193 -6.526 -0 -1.2 0
8.745 -10.551 -6.546 -0 -1.2 0
7.889 -9.928 -5.93 -0 -1.2 0
7.568 -9.87 -5.699 -0 -1.2 0
0.859 0.033 -0.917 -0 -1.2 0
0.892 0.035 -0.941 -0 -1.2 0
0.918 0.03 -0.962 -0 -1.2 0
0.946 0.023 -0.982 -0 -1.2 0
0.985 0.031 -1.011 -0 -1.2 0
1.018 0.029 -1.037 -0 -1.2 0
1.058 0.032 -1.066 -0 -1.2 0
1.086 0.022 -1.088 -0 -1.2 0
1.132 0.03 -1.123 -0 -1.2 0
1.179 0.036 -1.159 -0 -1.2 0
1.213 0.028 -1.185 -0 -1.2 0
1.255 0.025 -1.216 -0 -1.2 0
1.31 0.032 -1.258 -0 -1.2 0
1.358 0.03 -1.294 -0 -1.2 0
1.408 0.028 -1.332 -0 -1.2 0
1.463 0.028 -1.374 -0 -1.2 0
1.514 0.022 -1.412 -0 -1.2 0
1.577 0.024 -1.46 -0 -1.2 0
1.635 0.019 -1.504 -0 -1.2 0
1.706 0.02 -1.558 -0 -1.2 0
1.779 0.019 -1.613 -0 -1.2 0
1.858 0.019 -1.673 -0 -1.2 0
1.939 0.016 -1.734 -0 -1.2 0
2.034 0.017 -1.807 -0 -1.2 0
2.137 0.019 -1.884 -0 -1.2 0
2.256 0.024 -1.974 -0 -1.2 0
2.391 0.031 -2.077 -0 -1.2 0
2.549 0.043 -2.197 -0 -1.2 0
2.715 0.051 -2.323 -0 -1.2 0
2.921 0.068 -2.478 -0 -1.2 0
3.104 0.068 -2.617 -0 -1.2 0
3.328 0.073 -2.786 -0 -1.2 0
3.543 0.066 -2.951 -0 -1.2 0
3.799 0.061 -3.144 -0 -1.2 0
4.102 0.059 -3.373 -0 -1.2 0
4.469 0.061 -3.652 -0 -1.2 0
4.939 0.07 -4.007 -0 -1.2 0
5.489 0.077 -4.424 -0 -1.2 0
4.937 -0.151 -4.006 -0 -1.2 0
4.942 -0.26 -4.009 -0 -1.2 0
4.945 -0.37 -4.01 -0 -1.2 0
5.01 -0.471 -4.058 -0 -1.2 0
4.971 -0.585 -4.029 -0 -1.2 0
4.914 -0.699 -3.984 -0 -1.2 0
4.87 -0.809 -3.952 -0 -1.2 0
4.882 -0.915 -3.959 -0 -1.2 0
4.82 -1.022 -3.913 -0 -1.2 0
4.798 -1.127 -3.894 -0 -1.2 0
4.805 -1.232 -3.899 -0 -1.2 0
4.818 -1.337 -3.909 -0 -1.2 0
4.885 -1.448 -3.959 -0 -1.2 0
5 -1.566 -4.045 -0 -1.2 0
5.032 -1.68 -4.069 -0 -1.2 0
9.554 -3.924 -7.484 -0 -1.2 0
9.413 -4.101 -7.377 -0 -1.2 0
13.118 -5.593 -10.175 -0 -1.2 0
11.392 -5.269 -8.869 -0 -1.2 0
10.297 -5.113 -8.041 -0 -1.2 0
13.527 -6.701 -10.48 -0 -1.2 0
14.442 -7.433 -11.17 -0 -1.2 0
8.284 -4.931 -6.516 -0 -1.2 0
8.244 -5.118 -6.485 -0 -1.2 0
7.368 -4.876 -5.822 -0 -1.2 0
6.868 -4.795 -5.444 -0 -1.2 0
8.19 -5.723 -6.441 -0 -1.2 0
11.495 -7.897 -8.934 -0 -1.2 0
7.821 -5.93 -6.16 -0 -1.2 0
7.852 -6.165 -6.183 -0 -1.2 0
7.746 -6.312 -6.102 -0 -1.2 0
8.195 -6.847 -6.439 -0 -1.2 0
8.969 -7.651 -7.021 -0 -1.2 0
8.515 -7.571 -6.678 -0 -1.2 0
12.392 -10.899 -9.598 -0 -1.2 0
6.755 -6.642 -5.349 -0 -1.2 0
6.909 -6.985 -5.463 -0 -1.2 0
6.878 -7.181 -5.439 -0 -1.2 0
7.752 -8.213 -6.096 -0 -1.2 0
7.829 -8.55 -6.154 -0 -1.2 0
7.713 -8.708 -6.064 -0 -1.2 0
8.923 -10.224 -6.973 -0 -1.2 0
9.069 -10.709 -7.081 -0 -1.2 0
8.688 -10.634 -6.794 -0 -1.2 0
8.011 -10.202 -6.282 -0 -1.2 0
0.846 0.033 -0.934 -0 -1.2 0
0.877 0.035 -0.96 -0 -1.2 0
0.904 0.03 -0.98 -0 -1.2 0
0.936 0.031 -1.006 -0 -1.2 0
0.974 0.037 -1.037 -0 -1.2 0
1.001 0.029 -1.057 -0 -1.2 0
1.041 0.032 -1.089 -0 -1.2 0
1.079 0.035 -1.12 -0 -1.2 0
1.107 0.024 -1.143 -0 -1.2 0
1.16 0.036 -1.183 -0 -1.2 0
1.193 0.028 -1.21 -0 -1.2 0
1.234 0.025 -1.243 -0 -1.2 0
1.281 0.026 -1.281 -0 -1.2 0
1.342 0.037 -1.329 -0 -1.2 0
1.39 0.034 -1.367 -0 -1.2 0
1.438 0.028 -1.407 -0 -1.2 0
1.487 0.022 -1.445 -0 -1.2 0
1.543 0.019 -1.49 -0 -1.2 0
1.606 0.019 -1.54 -0 -1.2 0
1.676 0.02 -1.595 -0 -1.2 0
1.754 0.023 -1.657 -0 -1.2 0
1.832 0.023 -1.72 -0 -1.2 0
1.905 0.016 -1.778 -0 -1.2 0
1.998 0.018 -1.852 -0 -1.2 0
2.099 0.019 -1.933 -0 -1.2 0
2.223 0.028 -2.032 -0 -1.2 0
2.349 0.032 -2.131 -0 -1.2 0
2.503 0.044 -2.254 -0 -1.2 0
2.674 0.055 -2.391 -0 -1.2 0
2.861 0.065 -2.54 -0 -1.2 0
3.048 0.068 -2.689 -0 -1.2 0
3.267 0.073 -2.863 -0 -1.2 0
3.472 0.064 -3.026 -0 -1.2 0
3.752 0.069 -3.251 -0 -1.2 0
4.057 0.069 -3.494 -0 -1.2 0
4.41 0.067 -3.775 -0 -1.2 0
4.856 0.073 -4.129 -0 -1.2 0
5.426 0.086 -4.584 -0 -1.2 0
6.09 0.092 -5.114 -0 -1.2 0
6.889 0.092 -5.75 -0 -1.2 0
7.936 0.092 -6.585 -0 -1.2 0
8.007 -0.076 -6.64 -0 -1.2 0
9.01 -0.152 -7.438 -0 -1.2 0
7.992 -0.437 -6.625 -0 -1.2 0
4.829 -0.805 -4.102 -0 -1.2 0
4.379 -0.929 -3.743 -0 -1.2 0
4.28 -1.028 -3.663 -0 -1.2 0
4.218 -1.123 -3.613 -0 -1.2 0
4.17 -1.214 -3.574 -0 -1.2 0
4.16 -1.307 -3.566 -0 -1.2 0
4.149 -1.399 -3.557 -0 -1.2 0
9.693 -3.791 -7.957 -0 -1.2 0
9.556 -3.976 -7.846 -0 -1.2 0
12.278 -5.088 -10.007 -0 -1.2 0
11.195 -5.002 -9.146 -0 -1.2 0
13.772 -6.234 -11.189 -0 -1.2 0
12.422 -6.03 -10.115 -0 -1.2 0
10.509 -5.526 -8.595 -0 -1.2 0
8.149 -4.731 -6.719 -0 -1.2 0
13.535 -7.48 -10.992 -0 -1.2 0
12.433 -7.276 -10.115 -0 -1.2 0
6.817 -4.655 -5.659 -0 -1.2 0
7.991 -5.478 -6.589 -0 -1.2 0
11.251 -7.569 -9.172 -0 -1.2 0
13.359 -9.144 -10.84 -0 -1.2 0
7.761 -5.978 -6.401 -0 -1.2 0
8.85 -6.911 -7.262 -0 -1.2 0
7.624 -6.32 -6.289 -0 -1.2 0
9.199 -7.668 -7.535 -0 -1.2 0
9.156 -7.906 -7.499 -0 -1.2 0
7.797 -7.127 -6.421 -0 -1.2 0
12.347 -11.035 -10.02 -0 -1.2 0
9.542 -9.073 -7.799 -0 -1.2 0
7.891 -7.942 -6.491 -0 -1.2 0
6.74 -7.163 -5.579 -0 -1.2 0
8.339 -8.887 -6.841 -0 -1.2 0
7.695 -8.549 -6.33 -0 -1.2 0
10.382 -11.527 -8.45 -0 -1.2 0
9.686 -11.179 -7.898 -0 -1.2 0
8.878 -10.668 -7.258 -0 -1.2 0
8.864 -10.995 -7.244 -0 -1.2 0
8.252 -10.639 -6.76 -0 -1.2 0
0.833 0.033 -0.95 -0 -1.2 0
0.864 0.035 -0.976 -0 -1.2 0
0.895 0.038 -1.003 -0 -1.2 0
0.921 0.031 -1.024 -0 -1.2 0
0.959 0.037 -1.055 -0 -1.2 0
0.985 0.029 -1.078 -0 -1.2 0
1.023 0.033 -1.109 -0 -1.2 0
1.056 0.029 -1.137 -0 -1.2 0
1.089 0.024 -1.164 -0 -1.2 0
1.134 0.03 -1.202 -0 -1.2 0
1.18 0.035 -1.24 -0 -1.2 0
1.219 0.031 -1.273 -0 -1.2 0
1.266 0.032 -1.312 -0 -1.2 0
1.313 0.031 -1.351 -0 -1.2 0
1.36 0.028 -1.391 -0 -1.2 0
1.414 0.029 -1.436 -0 -1.2 0
1.469 0.028 -1.481 -0 -1.2 0
1.523 0.025 -1.527 -0 -1.2 0
1.586 0.023 -1.579 -0 -1.2 0
1.648 0.021 -1.631 -0 -1.2 0
1.724 0.023 -1.694 -0 -1.2 0
1.802 0.023 -1.758 -0 -1.2 0
1.872 0.016 -1.817 -0 -1.2 0
1.964 0.018 -1.894 -0 -1.2 0
2.063 0.02 -1.977 -0 -1.2 0
2.178 0.025 -2.073 -0 -1.2 0
2.301 0.029 -2.175 -0 -1.2 0
2.46 0.044 -2.308 -0 -1.2 0
2.605 0.045 -2.429 -0 -1.2 0
2.796 0.06 -2.589 -0 -1.2 0
2.994 0.068 -2.755 -0 -1.2 0
3.202 0.07 -2.928 -0 -1.2 0
3.448 0.077 -3.133 -0 -1.2 0
3.701 0.075 -3.344 -0 -1.2 0
3.919 0.05 -3.525 -0 -1.2 0
3.926 -0.041 -3.532 -0 -1.2 0
3.932 -0.132 -3.536 -0 -1.2 0
3.945 -0.22 -3.546 -0 -1.2 0
3.957 -0.31 -3.554 -0 -1.2 0
3.967 -0.4 -3.562 -0 -1.2 0
3.976 -0.489 -3.569 -0 -1.2 0
3.984 -0.579 -3.575 -0 -1.2 0
3.999 -0.668 -3.586 -0 -1.2 0
3.996 -0.76 -3.583 -0 -1.2 0
3.954 -0.853 -3.548 -0 -1.2 0
3.942 -0.943 -3.536 -0 -1.2 0
3.944 -1.032 -3.537 -0 -1.2 0
3.945 -1.121 -3.537 -0 -1.2 0
3.936 -1.209 -3.529 -0 -1.2 0
3.95 -1.3 -3.54 -0 -1.2 0
3.962 -1.389 -3.549 -0 -1.2 0
3.989 -1.482 -3.571 -0 -1.2 0
4.053 -1.581 -3.622 -0 -1.2 0
9.873 -3.656 -8.461 -0 -1.2 0
9.755 -3.856 -8.361 -0 -1.2 0
10.995 -4.734 -9.389 -0 -1.2 0
12.749 -5.624 -10.844 -0 -1.2 0
11.661 -5.522 -9.938 -0 -1.2 0
9.825 -5.065 -8.408 -0 -1.2 0
9.88 -5.334 -8.452 -0 -1.2 0
8.022 -4.737 -6.907 -0 -1.2 0
11.149 -6.445 -9.501 -0 -1.2 0
11.098 -6.707 -9.456 -0 -1.2 0
7.027 -4.828 -6.076 -0 -1.2 0
12.08 -7.843 -10.265 -0 -1.2 0
12.677 -8.519 -10.757 -0 -1.2 0
7.413 -5.633 -6.39 -0 -1.2 0
7.552 -5.928 -6.504 -0 -1.2 0
7.192 -5.901 -6.203 -0 -1.2 0
7.392 -6.248 -6.367 -0 -1.2 0
10.822 -8.964 -9.205 -0 -1.2 0
9.046 -7.942 -7.732 -0 -1.2 0
7.677 -7.137 -6.598 -0 -1.2 0
8.006 -7.645 -6.867 -0 -1.2 0
7.681 -7.874 -6.593 -0 -1.2 0
7.584 -8.04 -6.51 -0 -1.2 0
8.068 -8.761 -6.908 -0 -1.2 0
7.265 -8.251 -6.243 -0 -1.2 0
7.344 -8.593 -6.307 -0 -1.2 0
7.214 -8.726 -6.196 -0 -1.2 0
8.27 -10.163 -7.065 -0 -1.2 0
9.14 -11.476 -7.778 -0 -1.2 0
8.903 -11.566 -7.58 -0 -1.2 0
9.774 -13.001 -8.293 -0 -1.2 0
0.82 0.033 -0.966 -0 -1.2 0
0.85 0.035 -0.992 -0 -1.2 0
0.876 0.03 -1.014 -0 -1.2 0
0.912 0.038 -1.047 -0 -1.2 0
0.944 0.037 -1.074 -0 -1.2 0
0.969 0.029 -1.097 -0 -1.2 0
1.007 0.032 -1.13 -0 -1.2 0
1.045 0.035 -1.163 -0 -1.2 0
1.078 0.03 -1.191 -0 -1.2 0
1.121 0.036 -1.229 -0 -1.2 0
1.154 0.028 -1.258 -0 -1.2 0
1.206 0.036 -1.303 -0 -1.2 0
1.246 0.032 -1.337 -0 -1.2 0
1.292 0.031 -1.377 -0 -1.2 0
1.344 0.034 -1.424 -0 -1.2 0
1.391 0.029 -1.465 -0 -1.2 0
1.438 0.022 -1.506 -0 -1.2 0
1.504 0.029 -1.564 -0 -1.2 0
1.558 0.023 -1.611 -0 -1.2 0
1.626 0.025 -1.67 -0 -1.2 0
1.695 0.023 -1.73 -0 -1.2 0
1.77 0.023 -1.796 -0 -1.2 0
1.846 0.02 -1.862 -0 -1.2 0
1.93 0.018 -1.935 -0 -1.2 0
2.034 0.024 -2.027 -0 -1.2 0
2.14 0.025 -2.118 -0 -1.2 0
2.266 0.032 -2.23 -0 -1.2 0
2.416 0.044 -2.36 -0 -1.2 0
2.551 0.042 -2.478 -0 -1.2 0
2.745 0.06 -2.649 -0 -1.2 0
2.919 0.06 -2.8 -0 -1.2 0
3.144 0.07 -2.996 -0 -1.2 0
3.377 0.075 -3.2 -0 -1.2 0
3.656 0.081 -3.443 -0 -1.2 0
3.964 0.085 -3.713 -0 -1.2 0
4.296 0.081 -4.004 -0 -1.2 0
4.658 0.068 -4.321 -0 -1.2 0
4.689 -0.035 -4.345 -0 -1.2 0
4.665 -0.151 -4.324 -0 -1.2 0
4.678 -0.259 -4.333 -0 -1.2 0
4.689 -0.367 -4.342 -0 -1.2 0
4.802 -0.461 -4.44 -0 -1.2 0
4.054 -0.654 -3.783 -0 -1.2 0
3.969 -0.756 -3.709 -0 -1.2 0
3.845 -0.856 -3.599 -0 -1.2 0
3.849 -0.944 -3.601 -0 -1.2 0
3.85 -1.032 -3.602 -0 -1.2 0
3.851 -1.121 -3.601 -0 -1.2 0
3.851 -1.209 -3.6 -0 -1.2 0
3.849 -1.298 -3.597 -0 -1.2 0
3.846 -1.386 -3.594 -0 -1.2 0
3.88 -1.479 -3.623 -0 -1.2 0
3.92 -1.573 -3.656 -0 -1.2 0
3.951 -1.669 -3.683 -0 -1.2 0
3.951 -1.761 -3.681 -0 -1.2 0
10.308 -3.328 -9.219 -0 -1.2 0
10.115 -3.526 -9.048 -0 -1.2 0
13.558 -4.681 -12.043 -0 -1.2 0
13.563 -5.009 -12.044 -0 -1.2 0
10.839 -4.483 -9.669 -0 -1.2 0
10.913 -5.042 -9.728 -0 -1.2 0
10.774 -5.259 -9.604 -0 -1.2 0
10.871 -5.57 -9.685 -0 -1.2 0
10.862 -5.842 -9.674 -0 -1.2 0
10.963 -6.168 -9.759 -0 -1.2 0
9.246 -5.612 -8.264 -0 -1.2 0
10.003 -6.245 -8.918 -0 -1.2 0
11.577 -7.68 -10.278 -0 -1.2 0
12.441 -8.514 -11.024 -0 -1.2 0
12.118 -8.659 -10.739 -0 -1.2 0
13.183 -9.7 -11.66 -0 -1.2 0
6.884 -5.776 -6.198 -0 -1.2 0
7.188 -6.196 -6.46 -0 -1.2 0
9.942 -8.455 -8.842 -0 -1.2 0
8.605 -7.724 -7.681 -0 -1.2 0
7.302 -6.944 -6.552 -0 -1.2 0
10.461 -9.816 -9.28 -0 -1.2 0
10.182 -9.912 -9.035 -0 -1.2 0
7.671 -7.986 -6.863 -0 -1.2 0
7.643 -8.219 -6.834 -0 -1.2 0
7.335 -8.186 -6.566 -0 -1.2 0
7.482 -8.596 -6.691 -0 -1.2 0
8.353 -9.777 -7.438 -0 -1.2 0
8.913 -10.696 -7.916 -0 -1.2 0
8.503 -10.583 -7.56 -0 -1.2 0
8.947 -11.436 -7.938 -0 -1.2 0
8.402 -11.149 -7.466 -0 -1.2 0
0.804 0.033 -0.981 -0 -1.2 0
0.834 0.035 -1.009 -0 -1.2 0
0.859 0.03 -1.032 -0 -1.2 0
0.895 0.038 -1.064 -0 -1.2 0
0.926 0.037 -1.093 -0 -1.2 0
0.951 0.029 -1.116 -0 -1.2 0
0.987 0.032 -1.15 -0 -1.2 0
1.019 0.029 -1.178 -0 -1.2 0
1.062 0.036 -1.218 -0 -1.2 0
1.094 0.03 -1.247 -0 -1.2 0
1.138 0.034 -1.287 -0 -1.2 0
1.176 0.031 -1.323 -0 -1.2 0
1.227 0.037 -1.369 -0 -1.2 0
1.271 0.037 -1.411 -0 -1.2 0
1.323 0.039 -1.458 -0 -1.2 0
1.369 0.034 -1.5 -0 -1.2 0
1.415 0.027 -1.542 -0 -1.2 0
1.467 0.025 -1.59 -0 -1.2 0
1.533 0.028 -1.651 -0 -1.2 0
1.587 0.02 -1.699 -0 -1.2 0
1.673 0.032 -1.78 -0 -1.2 0
1.734 0.023 -1.834 -0 -1.2 0
1.815 0.024 -1.91 -0 -1.2 0
1.904 0.026 -1.99 -0 -1.2 0
1.993 0.024 -2.072 -0 -1.2 0
2.102 0.028 -2.173 -0 -1.2 0
2.212 0.028 -2.275 -0 -1.2 0
2.358 0.04 -2.408 -0 -1.2 0
2.498 0.042 -2.537 -0 -1.2 0
2.667 0.051 -2.692 -0 -1.2 0
2.858 0.059 -2.866 -0 -1.2 0
3.07 0.068 -3.063 -0 -1.2 0
3.306 0.074 -3.278 -0 -1.2 0
3.593 0.086 -3.542 -0 -1.2 0
3.887 0.087 -3.813 -0 -1.2 0
3.997 0.021 -3.912 -0 -1.2 0
3.982 -0.08 -3.897 -0 -1.2 0
3.973 -0.178 -3.887 -0 -1.2 0
3.971 -0.275 -3.883 -0 -1.2 0
3.966 -0.372 -3.878 -0 -1.2 0
3.961 -0.468 -3.872 -0 -1.2 0
3.962 -0.562 -3.872 -0 -1.2 0
3.925 -0.66 -3.836 -0 -1.2 0
3.864 -0.758 -3.779 -0 -1.2 0
3.802 -0.853 -3.722 -0 -1.2 0
3.798 -0.943 -3.716 -0 -1.2 0
3.792 -1.032 -3.711 -0 -1.2 0
3.778 -1.121 -3.696 -0 -1.2 0
3.771 -1.209 -3.688 -0 -1.2 0
3.747 -1.297 -3.666 -0 -1.2 0
3.766 -1.386 -3.682 -0 -1.2 0
3.771 -1.476 -3.684 -0 -1.2 0
3.869 -1.577 -3.772 -0 -1.2 0
3.95 -1.681 -3.846 -0 -1.2 0
10.431 -2.902 -9.779 -0 -1.2 0
10.415 -3.15 -9.761 -0 -1.2 0
10.404 -3.399 -9.747 -0 -1.2 0
10.374 -3.643 -9.716 -0 -1.2 0
10.262 -3.866 -9.61 -0 -1.2 0
10.335 -4.14 -9.673 -0 -1.2 0
10.575 -4.473 -9.89 -0 -1.2 0
8.787 -4.118 -8.253 -0 -1.2 0
8.862 -4.367 -8.318 -0 -1.2 0
12.343 -5.971 -11.493 -0 -1.2 0
8.923 -4.845 -8.368 -0 -1.2 0
9.156 -5.18 -8.577 -0 -1.2 0
10.769 -6.185 -10.046 -0 -1.2 0
9.574 -5.873 -8.952 -0 -1.2 0
9.858 -6.278 -9.206 -0 -1.2 0
9.168 -6.165 -8.576 -0 -1.2 0
9.029 -6.336 -8.445 -0 -1.2 0
10.302 -7.366 -9.6 -0 -1.2 0
6.302 -5.103 -5.959 -0 -1.2 0
6.497 -5.415 -6.133 -0 -1.2 0
6.895 -5.883 -6.493 -0 -1.2 0
8.254 -7.078 -7.724 -0 -1.2 0
8.396 -7.437 -7.85 -0 -1.2 0
10.579 -9.42 -9.827 -0 -1.2 0
8.497 -8.046 -7.934 -0 -1.2 0
7.344 -7.336 -6.884 -0 -1.2 0
7.641 -7.842 -7.15 -0 -1.2 0
9.165 -9.502 -8.527 -0 -1.2 0
7.647 -8.369 -7.148 -0 -1.2 0
7.464 -8.459 -6.98 -0 -1.2 0
7.262 -8.524 -6.794 -0 -1.2 0
8.762 -10.391 -8.145 -0 -1.2 0
7.517 -9.354 -7.017 -0 -1.2 0
8.764 -11.074 -8.138 -0 -1.2 0
8.329 -10.916 -7.741 -0 -1.2 0
8.818 -11.863 -8.176 -0 -1.2 0
8.463 -11.793 -7.852 -0 -1.2 0
0.794 0.04 -1.002 -0 -1.2 0
0.823 0.042 -1.03 -0 -1.2 0
0.848 0.037 -1.054 -0 -1.2 0
0.878 0.037 -1.082 -0 -1.2 0
0.908 0.037 -1.111 -0 -1.2 0
0.938 0.035 -1.14 -0 -1.2 0
0.969 0.032 -1.17 -0 -1.2 0
0.999 0.028 -1.199 -0 -1.2 0
1.041 0.036 -1.24 -0 -1.2 0
1.078 0.036 -1.275 -0 -1.2 0
1.121 0.039 -1.316 -0 -1.2 0
1.153 0.031 -1.347 -0 -1.2 0
1.191 0.025 -1.383 -0 -1.2 0
1.24 0.03 -1.431 -0 -1.2 0
1.285 0.028 -1.473 -0 -1.2 0
1.341 0.033 -1.529 -0 -1.2 0
1.386 0.027 -1.571 -0 -1.2 0
1.438 0.024 -1.621 -0 -1.2 0
1.496 0.023 -1.678 -0 -1.2 0
1.561 0.024 -1.739 -0 -1.2 0
1.633 0.027 -1.808 -0 -1.2 0
1.705 0.027 -1.878 -0 -1.2 0
1.771 0.02 -1.942 -0 -1.2 0
1.864 0.026 -2.032 -0 -1.2 0
1.958 0.026 -2.121 -0 -1.2 0
2.059 0.028 -2.219 -0 -1.2 0
2.167 0.028 -2.323 -0 -1.2 0
2.296 0.033 -2.447 -0 -1.2 0
2.433 0.036 -2.579 -0 -1.2 0
2.597 0.044 -2.737 -0 -1.2 0
2.783 0.053 -2.917 -0 -1.2 0
2.992 0.062 -3.117 -0 -1.2 0
3.229 0.07 -3.346 -0 -1.2 0
3.502 0.08 -3.608 -0 -1.2 0
3.805 0.086 -3.899 -0 -1.2 0
4.109 0.077 -4.192 -0 -1.2 0
4.363 0.041 -4.436 -0 -1.2 0
5.059 0.097 -5.106 -0 -1.2 0
5.665 0.101 -5.689 -0 -1.2 0
6.479 0.113 -6.472 -0 -1.2 0
7.466 0.115 -7.422 -0 -1.2 0
8.799 0.117 -8.706 -0 -1.2 0
8.686 -0.109 -8.593 -0 -1.2 0
3.748 -0.762 -3.831 -0 -1.2 0
3.751 -0.852 -3.833 -0 -1.2 0
3.712 -0.944 -3.793 -0 -1.2 0
3.692 -1.033 -3.773 -0 -1.2 0
3.693 -1.122 -3.772 -0 -1.2 0
3.707 -1.21 -3.784 -0 -1.2 0
3.734 -1.301 -3.81 -0 -1.2 0
3.732 -1.39 -3.806 -0 -1.2 0
12.366 -3.59 -12.078 -0 -1.2 0
12.467 -4.539 -12.16 -0 -1.2 0
12.325 -4.809 -12.02 -0 -1.2 0
9.911 -4.329 -9.704 -0 -1.2 0
8.714 -4.159 -8.556 -0 -1.2 0
8.635 -4.352 -8.476 -0 -1.2 0
8.67 -4.591 -8.506 -0 -1.2 0
8.744 -4.849 -8.573 -0 -1.2 0
8.759 -5.088 -8.583 -0 -1.2 0
9.064 -5.469 -8.872 -0 -1.2 0
8.622 -5.488 -8.446 -0 -1.2 0
10.553 -7.058 -10.278 -0 -1.2 0
10.57 -7.366 -10.29 -0 -1.2 0
9.06 -6.725 -8.848 -0 -1.2 0
9.409 -7.217 -9.176 -0 -1.2 0
10.527 -8.257 -10.235 -0 -1.2 0
10.514 -8.563 -10.218 -0 -1.2 0
11.25 -9.432 -10.912 -0 -1.2 0
10.533 -9.225 -10.225 -0 -1.2 0
9.235 -8.513 -8.988 -0 -1.2 0
9.093 -8.691 -8.848 -0 -1.2 0
7.14 -7.289 -6.991 -0 -1.2 0
8.335 -8.612 -8.121 -0 -1.2 0
10.382 -10.823 -10.055 -0 -1.2 0
7.149 -8.035 -6.988 -0 -1.2 0
7.706 -8.857 -7.511 -0 -1.2 0
8.643 -10.125 -8.393 -0 -1.2 0
8.37 -10.157 -8.129 -0 -1.2 0
7.401 -9.393 -7.209 -0 -1.2 0
8.573 -11.056 -8.31 -0 -1.2 0
9.687 -13.17 -9.349 -0 -1.2 0
9.127 -12.872 -8.815 -0 -1.2 0
0.779 0.04 -1.017 -0 -1.2 0
0.807 0.042 -1.046 -0 -1.2 0
0.826 0.03 -1.064 -0 -1.2 0
0.855 0.03 -1.094 -0 -1.2 0
0.884 0.03 -1.124 -0 -1.2 0
0.915 0.028 -1.153 -0 -1.2 0
0.95 0.032 -1.189 -0 -1.2 0
0.979 0.028 -1.219 -0 -1.2 0
1.015 0.029 -1.255 -0 -1.2 0
1.051 0.029 -1.291 -0 -1.2 0
1.092 0.034 -1.334 -0 -1.2 0
1.129 0.03 -1.371 -0 -1.2 0
1.172 0.031 -1.413 -0 -1.2 0
1.215 0.03 -1.457 -0 -1.2 0
1.264 0.033 -1.507 -0 -1.2 0
1.313 0.033 -1.556 -0 -1.2 0
1.358 0.027 -1.601 -0 -1.2 0
1.408 0.024 -1.651 -0 -1.2 0
1.464 0.022 -1.709 -0 -1.2 0
1.522 0.02 -1.766 -0 -1.2 0
1.592 0.022 -1.837 -0 -1.2 0
1.663 0.022 -1.909 -0 -1.2 0
1.733 0.019 -1.98 -0 -1.2 0
1.825 0.025 -2.072 -0 -1.2 0
1.915 0.026 -2.164 -0 -1.2 0
2.001 0.019 -2.251 -0 -1.2 0
2.107 0.02 -2.357 -0 -1.2 0
2.233 0.026 -2.484 -0 -1.2 0
2.373 0.032 -2.625 -0 -1.2 0
2.52 0.034 -2.774 -0 -1.2 0
2.695 0.04 -2.952 -0 -1.2 0
2.913 0.055 -3.17 -0 -1.2 0
3.144 0.065 -3.404 -0 -1.2 0
3.398 0.07 -3.66 -0 -1.2 0
3.714 0.083 -3.979 -0 -1.2 0
4.044 0.084 -4.312 -0 -1.2 0
4.391 0.074 -4.661 -0 -1.2 0
4.89 0.082 -5.165 -0 -1.2 0
5.537 0.099 -5.819 -0 -1.2 0
6.318 0.109 -6.606 -0 -1.2 0
7.234 0.103 -7.531 -0 -1.2 0
8.606 0.116 -8.916 -0 -1.2 0
9.084 -0.043 -9.395 -0 -1.2 0
9.08 -0.494 -9.383 -0 -1.2 0
9.096 -0.718 -9.394 -0 -1.2 0
12.498 -3.365 -12.78 -0 -1.2 0
12.241 -3.626 -12.515 -0 -1.2 0
12.197 -3.924 -12.465 -0 -1.2 0
12.059 -4.198 -12.321 -0 -1.2 0
12.104 -4.518 -12.362 -0 -1.2 0
12.422 -4.926 -12.674 -0 -1.2 0
8.59 -3.963 -8.825 -0 -1.2 0
12.826 -5.717 -13.066 -0 -1.2 0
8.641 -4.431 -8.868 -0 -1.2 0
12.154 -6.117 -12.382 -0 -1.2 0
12.336 -6.522 -12.558 -0 -1.2 0
8.577 -5.329 -8.787 -0 -1.2 0
9.189 -5.886 -9.394 -0 -1.2 0
9.17 -6.133 -9.371 -0 -1.2 0
10.196 -6.988 -10.39 -0 -1.2 0
8.903 -6.494 -9.094 -0 -1.2 0
8.83 -6.707 -9.017 -0 -1.2 0
10.343 -7.98 -10.521 -0 -1.2 0
10.329 -8.282 -10.501 -0 -1.2 0
10.292 -8.571 -10.458 -0 -1.2 0
10.918 -9.368 -11.075 -0 -1.2 0
11.603 -10.256 -11.75 -0 -1.2 0
8.721 -8.543 -8.874 -0 -1.2 0
7.214 -7.494 -7.373 -0 -1.2 0
7.255 -7.779 -7.408 -0 -1.2 0
6.857 -7.651 -7.009 -0 -1.2 0
7.652 -8.69 -7.793 -0 -1.2 0
7.039 -8.337 -7.18 -0 -1.2 0
7.43 -9.024 -7.562 -0 -1.2 0
7.501 -9.39 -7.627 -0 -1.2 0
7.944 -10.199 -8.06 -0 -1.2 0
7.187 -9.622 -7.307 -0 -1.2 0
8.206 -11.182 -8.306 -0 -1.2 0
9.53 -13.233 -9.604 -0 -1.2 0
8.745 -12.62 -8.823 -0 -1.2 0
0.752 0.032 -1.03 -0 -1.2 0
0.779 0.034 -1.06 -0 -1.2 0
0.807 0.037 -1.09 -0 -1.2 0
0.835 0.037 -1.121 -0 -1.2 0
0.859 0.03 -1.145 -0 -1.2 0
0.887 0.028 -1.175 -0 -1.2 0
0.921 0.032 -1.212 -0 -1.2 0
0.951 0.028 -1.243 -0 -1.2 0
0.991 0.035 -1.286 -0 -1.2 0
1.02 0.029 -1.317 -0 -1.2 0
1.06 0.033 -1.361 -0 -1.2 0
1.101 0.035 -1.405 -0 -1.2 0
1.137 0.031 -1.444 -0 -1.2 0
1.179 0.029 -1.488 -0 -1.2 0
1.226 0.032 -1.539 -0 -1.2 0
1.269 0.027 -1.584 -0 -1.2 0
1.318 0.026 -1.636 -0 -1.2 0
1.366 0.023 -1.688 -0 -1.2 0
1.422 0.022 -1.747 -0 -1.2 0
1.477 0.019 -1.806 -0 -1.2 0
1.545 0.022 -1.88 -0 -1.2 0
1.613 0.022 -1.953 -0 -1.2 0
1.682 0.019 -2.026 -0 -1.2 0
1.764 0.02 -2.113 -0 -1.2 0
1.852 0.022 -2.208 -0 -1.2 0
1.955 0.026 -2.318 -0 -1.2 0
2.038 0.016 -2.406 -0 -1.2 0
2.16 0.021 -2.537 -0 -1.2 0
2.29 0.025 -2.676 -0 -1.2 0
2.433 0.027 -2.829 -0 -1.2 0
2.602 0.034 -3.011 -0 -1.2 0
2.799 0.043 -3.223 -0 -1.2 0
3.037 0.059 -3.477 -0 -1.2 0
3.282 0.064 -3.74 -0 -1.2 0
3.582 0.075 -4.06 -0 -1.2 0
3.89 0.073 -4.39 -0 -1.2 0
4.252 0.07 -4.777 -0 -1.2 0
4.71 0.073 -5.267 -0 -1.2 0
5.309 0.084 -5.91 -0 -1.2 0
6.053 0.093 -6.706 -0 -1.2 0
6.996 0.097 -7.715 -0 -1.2 0
8.252 0.099 -9.059 -0 -1.2 0
10.136 0.112 -11.076 -0 -1.2 0
4.398 -0.797 -4.916 -0 -1.2 0
4.368 -0.91 -4.882 -0 -1.2 0
4.365 -1.02 -4.875 -0 -1.2 0
4.338 -1.13 -4.845 -0 -1.2 0
4.339 -1.24 -4.843 -0 -1.2 0
4.337 -1.35 -4.839 -0 -1.2 0
4.389 -1.465 -4.893 -0 -1.2 0
11.829 -3.008 -12.824 -0 -1.2 0
19.366 -4.731 -20.854 -0 -1.2 0
12.37 -4.704 -13.369 -0 -1.2 0
12.008 -5.557 -12.964 -0 -1.2 0
12.161 -5.944 -13.12 -0 -1.2 0
9.209 -5.014 -9.979 -0 -1.2 0
9.183 -5.256 -9.947 -0 -1.2 0
8.237 -5.521 -8.929 -0 -1.2 0
11.172 -8.085 -12.018 -0 -1.2 0
10.094 -7.711 -10.872 -0 -1.2 0
9.588 -7.67 -10.33 -0 -1.2 0
10.438 -8.909 -11.216 -0 -1.2 0
9.856 -8.787 -10.594 -0 -1.2 0
10.269 -9.446 -11.024 -0 -1.2 0
8.643 -8.407 -9.304 -0 -1.2 0
8.762 -8.805 -9.425 -0 -1.2 0
8.404 -8.779 -9.041 -0 -1.2 0
7.283 -8.006 -7.856 -0 -1.2 0
7.337 -8.324 -7.909 -0 -1.2 0
7.803 -9.075 -8.393 -0 -1.2 0
6.947 -8.458 -7.489 -0 -1.2 0
7.14 -8.941 -7.686 -0 -1.2 0
8.018 -10.229 -8.598 -0 -1.2 0
6.963 -9.308 -7.489 -0 -1.2 0
7.062 -9.721 -7.585 -0 -1.2 0
6.918 -9.844 -7.429 -0 -1.2 0
7.459 -10.865 -7.988 -0 -1.2 0
8.955 -13.246 -9.539 -0 -1.2 0
0.73 0.032 -1.047 -0 -1.2 0
0.757 0.034 -1.077 -0 -1.2 0
0.779 0.029 -1.102 -0 -1.2 0
0.807 0.029 -1.133 -0 -1.2 0
0.834 0.03 -1.164 -0 -1.2 0
0.866 0.034 -1.201 -0 -1.2 0
0.889 0.025 -1.227 -0 -1.2 0
0.917 0.021 -1.259 -0 -1.2 0
0.957 0.029 -1.302 -0 -1.2 0
0.995 0.035 -1.347 -0 -1.2 0
1.024 0.027 -1.379 -0 -1.2 0
1.064 0.03 -1.424 -0 -1.2 0
1.104 0.03 -1.469 -0 -1.2 0
1.144 0.029 -1.515 -0 -1.2 0
1.186 0.027 -1.561 -0 -1.2 0
