# .PCD v.7 - Point Cloud Data file format
FIELDS x y z vp_x vp_y vp_z
SIZE 4 4 4 4 4 4
TYPE F F F F F F
COUNT 1 1 1 1 1 1
WIDTH 1511
HEIGHT 1
VIEWPOINT 0 -1.20013 0 1 0 0 0
POINTS 1511
DATA ascii
11.875 -12.754 25.101 -0 -1.2 0
11.789 -13.234 24.911 -0 -1.2 0
11.699 -13.711 24.715 -0 -1.2 0
11.606 -14.184 24.512 -0 -1.2 0
11.509 -14.654 24.3 -0 -1.2 0
11.408 -15.119 24.082 -0 -1.2 0
11.303 -15.58 23.856 -0 -1.2 0
11.196 -16.036 23.623 -0 -1.2 0
11.086 -16.487 23.383 -0 -1.2 0
10.971 -16.935 23.135 -0 -1.2 0
10.854 -17.376 22.881 -0 -1.2 0
10.733 -17.814 22.619 -0 -1.2 0
10.609 -18.246 22.351 -0 -1.2 0
10.482 -18.673 22.076 -0 -1.2 0
10.351 -19.095 21.795 -0 -1.2 0
10.218 -19.511 21.506 -0 -1.2 0
10.081 -19.922 21.212 -0 -1.2 0
9.942 -20.326 20.91 -0 -1.2 0
9.799 -20.725 20.603 -0 -1.2 0
9.653 -21.118 20.289 -0 -1.2 0
9.504 -21.505 19.969 -0 -1.2 0
9.352 -21.887 19.644 -0 -1.2 0
13.76 -0.497 26.789 -0 -1.2 0
13.764 -1.02 26.794 -0 -1.2 0
13.765 -1.543 26.79 -0 -1.2 0
13.761 -2.067 26.778 -0 -1.2 0
13.753 -2.59 26.758 -0 -1.2 0
13.74 -3.112 26.73 -0 -1.2 0
13.724 -3.634 26.694 -0 -1.2 0
13.704 -4.156 26.65 -0 -1.2 0
13.679 -4.677 26.598 -0 -1.2 0
13.651 -5.196 26.537 -0 -1.2 0
13.617 -5.714 26.469 -0 -1.2 0
13.581 -6.231 26.392 -0 -1.2 0
13.539 -6.746 26.307 -0 -1.2 0
13.494 -7.259 26.216 -0 -1.2 0
13.444 -7.77 26.115 -0 -1.2 0
13.392 -8.28 26.006 -0 -1.2 0
13.334 -8.787 25.89 -0 -1.2 0
13.272 -9.292 25.765 -0 -1.2 0
13.207 -9.794 25.634 -0 -1.2 0
13.137 -10.295 25.495 -0 -1.2 0
13.063 -10.791 25.347 -0 -1.2 0
12.985 -11.286 25.192 -0 -1.2 0
12.905 -11.776 25.029 -0 -1.2 0
12.819 -12.263 24.858 -0 -1.2 0
12.73 -12.748 24.68 -0 -1.2 0
12.636 -13.229 24.495 -0 -1.2 0
12.539 -13.706 24.303 -0 -1.2 0
12.439 -14.179 24.102 -0 -1.2 0
12.334 -14.649 23.895 -0 -1.2 0
12.226 -15.114 23.68 -0 -1.2 0
12.113 -15.575 23.458 -0 -1.2 0
11.998 -16.031 23.229 -0 -1.2 0
11.879 -16.482 22.993 -0 -1.2 0
11.755 -16.93 22.75 -0 -1.2 0
11.629 -17.372 22.5 -0 -1.2 0
11.499 -17.81 22.243 -0 -1.2 0
11.366 -18.242 21.98 -0 -1.2 0
11.229 -18.669 21.71 -0 -1.2 0
11.088 -19.09 21.433 -0 -1.2 0
10.944 -19.507 21.149 -0 -1.2 0
10.798 -19.917 20.86 -0 -1.2 0
10.648 -20.322 20.564 -0 -1.2 0
10.494 -20.721 20.262 -0 -1.2 0
10.338 -21.114 19.953 -0 -1.2 0
10.177 -21.501 19.639 -0 -1.2 0
10.014 -21.883 19.319 -0 -1.2 0
14.753 -1.014 26.262 -0 -1.2 0
14.752 -1.537 26.26 -0 -1.2 0
14.748 -2.062 26.248 -0 -1.2 0
14.739 -2.584 26.229 -0 -1.2 0
14.725 -3.107 26.201 -0 -1.2 0
14.707 -3.629 26.166 -0 -1.2 0
14.685 -4.151 26.122 -0 -1.2 0
14.658 -4.671 26.072 -0 -1.2 0
14.627 -5.191 26.012 -0 -1.2 0
14.591 -5.708 25.946 -0 -1.2 0
14.551 -6.225 25.871 -0 -1.2 0
14.506 -6.74 25.788 -0 -1.2 0
14.457 -7.254 25.698 -0 -1.2 0
14.403 -7.765 25.599 -0 -1.2 0
14.346 -8.274 25.493 -0 -1.2 0
14.284 -8.782 25.38 -0 -1.2 0
14.217 -9.287 25.259 -0 -1.2 0
14.147 -9.789 25.129 -0 -1.2 0
14.071 -10.29 24.992 -0 -1.2 0
13.992 -10.786 24.848 -0 -1.2 0
13.908 -11.281 24.696 -0 -1.2 0
13.821 -11.771 24.537 -0 -1.2 0
13.729 -12.258 24.37 -0 -1.2 0
13.633 -12.744 24.196 -0 -1.2 0
13.532 -13.224 24.015 -0 -1.2 0
13.428 -13.701 23.825 -0 -1.2 0
13.32 -14.174 23.63 -0 -1.2 0
13.207 -14.644 23.427 -0 -1.2 0
13.09 -15.109 23.216 -0 -1.2 0
12.97 -15.57 22.999 -0 -1.2 0
12.845 -16.026 22.774 -0 -1.2 0
12.718 -16.478 22.543 -0 -1.2 0
12.585 -16.925 22.306 -0 -1.2 0
12.449 -17.367 22.061 -0 -1.2 0
12.309 -17.805 21.809 -0 -1.2 0
12.166 -18.237 21.551 -0 -1.2 0
12.019 -18.665 21.286 -0 -1.2 0
11.868 -19.086 21.015 -0 -1.2 0
11.713 -19.502 20.737 -0 -1.2 0
11.556 -19.913 20.454 -0 -1.2 0
11.394 -20.318 20.163 -0 -1.2 0
11.229 -20.717 19.868 -0 -1.2 0
11.06 -21.11 19.566 -0 -1.2 0
10.889 -21.497 19.258 -0 -1.2 0
10.714 -21.879 18.944 -0 -1.2 0
15.648 -1.01 25.739 -0 -1.2 0
15.647 -1.533 25.737 -0 -1.2 0
15.642 -2.058 25.725 -0 -1.2 0
15.632 -2.58 25.707 -0 -1.2 0
15.617 -3.103 25.68 -0 -1.2 0
15.598 -3.625 25.646 -0 -1.2 0
15.573 -4.147 25.604 -0 -1.2 0
15.544 -4.667 25.554 -0 -1.2 0
15.511 -5.187 25.496 -0 -1.2 0
15.472 -5.704 25.431 -0 -1.2 0
15.43 -6.221 25.357 -0 -1.2 0
15.381 -6.736 25.277 -0 -1.2 0
15.33 -7.249 25.188 -0 -1.2 0
15.272 -7.761 25.092 -0 -1.2 0
15.21 -8.27 24.989 -0 -1.2 0
15.144 -8.778 24.877 -0 -1.2 0
15.073 -9.283 24.758 -0 -1.2 0
14.998 -9.785 24.632 -0 -1.2 0
14.918 -10.286 24.498 -0 -1.2 0
14.833 -10.782 24.357 -0 -1.2 0
14.744 -11.277 24.208 -0 -1.2 0
14.65 -11.768 24.053 -0 -1.2 0
14.553 -12.255 23.889 -0 -1.2 0
14.451 -12.74 23.718 -0 -1.2 0
14.344 -13.22 23.54 -0 -1.2 0
14.233 -13.698 23.356 -0 -1.2 0
14.118 -14.17 23.164 -0 -1.2 0
13.998 -14.64 22.965 -0 -1.2 0
13.873 -15.105 22.759 -0 -1.2 0
13.745 -15.566 22.546 -0 -1.2 0
13.613 -16.023 22.327 -0 -1.2 0
13.477 -16.474 22.1 -0 -1.2 0
13.336 -16.922 21.866 -0 -1.2 0
13.192 -17.364 21.628 -0 -1.2 0
13.043 -17.802 21.381 -0 -1.2 0
12.891 -18.234 21.128 -0 -1.2 0
12.734 -18.661 20.869 -0 -1.2 0
12.574 -19.083 20.603 -0 -1.2 0
12.409 -19.499 20.331 -0 -1.2 0
12.241 -19.91 20.054 -0 -1.2 0
12.071 -20.315 19.769 -0 -1.2 0
11.895 -20.714 19.48 -0 -1.2 0
11.716 -21.107 19.183 -0 -1.2 0
11.533 -21.494 18.882 -0 -1.2 0
11.348 -21.876 18.575 -0 -1.2 0
16.52 -0.484 25.181 -0 -1.2 0
16.524 -1.007 25.186 -0 -1.2 0
16.523 -1.53 25.183 -0 -1.2 0
16.517 -2.054 25.172 -0 -1.2 0
16.507 -2.577 25.154 -0 -1.2 0
16.49 -3.1 25.129 -0 -1.2 0
16.47 -3.622 25.095 -0 -1.2 0
16.443 -4.144 25.054 -0 -1.2 0
16.412 -4.664 25.005 -0 -1.2 0
16.377 -5.183 24.95 -0 -1.2 0
16.336 -5.701 24.885 -0 -1.2 0
16.29 -6.218 24.815 -0 -1.2 0
16.239 -6.733 24.735 -0 -1.2 0
16.184 -7.246 24.648 -0 -1.2 0
16.123 -7.758 24.555 -0 -1.2 0
16.057 -8.267 24.454 -0 -1.2 0
15.987 -8.775 24.345 -0 -1.2 0
15.912 -9.28 24.229 -0 -1.2 0
15.831 -9.782 24.106 -0 -1.2 0
15.747 -10.282 23.975 -0 -1.2 0
15.657 -10.779 23.837 -0 -1.2 0
15.563 -11.274 23.691 -0 -1.2 0
15.463 -11.764 23.539 -0 -1.2 0
15.36 -12.251 23.379 -0 -1.2 0
15.252 -12.737 23.213 -0 -1.2 0
15.139 -13.217 23.039 -0 -1.2 0
15.021 -13.695 22.859 -0 -1.2 0
14.899 -14.167 22.67 -0 -1.2 0
14.771 -14.637 22.476 -0 -1.2 0
14.64 -15.102 22.275 -0 -1.2 0
14.505 -15.563 22.067 -0 -1.2 0
14.365 -16.02 21.853 -0 -1.2 0
14.22 -16.471 21.631 -0 -1.2 0
14.072 -16.919 21.403 -0 -1.2 0
13.919 -17.361 21.168 -0 -1.2 0
13.761 -17.799 20.927 -0 -1.2 0
13.6 -18.231 20.681 -0 -1.2 0
13.435 -18.658 20.427 -0 -1.2 0
13.265 -19.08 20.167 -0 -1.2 0
13.091 -19.497 19.901 -0 -1.2 0
12.913 -19.907 19.63 -0 -1.2 0
12.732 -20.312 19.352 -0 -1.2 0
12.547 -20.711 19.069 -0 -1.2 0
12.358 -21.105 18.779 -0 -1.2 0
12.165 -21.492 18.485 -0 -1.2 0
11.968 -21.873 18.184 -0 -1.2 0
17.398 1.087 24.492 -0 -1.2 0
17.442 -0.481 24.552 -0 -1.2 0
17.446 -1.004 24.556 -0 -1.2 0
17.444 -1.527 24.554 -0 -1.2 0
17.438 -2.052 24.543 -0 -1.2 0
17.426 -2.574 24.526 -0 -1.2 0
17.409 -3.097 24.502 -0 -1.2 0
17.387 -3.619 24.469 -0 -1.2 0
17.358 -4.141 24.429 -0 -1.2 0
17.326 -4.661 24.382 -0 -1.2 0
17.287 -5.181 24.327 -0 -1.2 0
17.244 -5.698 24.265 -0 -1.2 0
17.195 -6.215 24.196 -0 -1.2 0
17.141 -6.73 24.119 -0 -1.2 0
17.081 -7.244 24.036 -0 -1.2 0
17.018 -7.755 23.944 -0 -1.2 0
16.948 -8.265 23.845 -0 -1.2 0
16.874 -8.772 23.74 -0 -1.2 0
16.794 -9.277 23.627 -0 -1.2 0
16.708 -9.779 23.507 -0 -1.2 0
16.619 -10.28 23.379 -0 -1.2 0
16.524 -10.776 23.246 -0 -1.2 0
16.424 -11.271 23.104 -0 -1.2 0
16.319 -11.762 22.956 -0 -1.2 0
16.208 -12.249 22.8 -0 -1.2 0
16.095 -12.734 22.638 -0 -1.2 0
15.975 -13.215 22.468 -0 -1.2 0
15.85 -13.692 22.293 -0 -1.2 0
15.721 -14.165 22.11 -0 -1.2 0
15.586 -14.635 21.921 -0 -1.2 0
15.447 -15.1 21.724 -0 -1.2 0
15.304 -15.561 21.522 -0 -1.2 0
15.156 -16.018 21.313 -0 -1.2 0
15.002 -16.469 21.098 -0 -1.2 0
14.845 -16.917 20.875 -0 -1.2 0
14.684 -17.359 20.647 -0 -1.2 0
14.517 -17.797 20.412 -0 -1.2 0
14.346 -18.229 20.171 -0 -1.2 0
14.172 -18.656 19.924 -0 -1.2 0
13.992 -19.078 19.671 -0 -1.2 0
13.808 -19.494 19.413 -0 -1.2 0
13.62 -19.905 19.148 -0 -1.2 0
13.429 -20.31 18.877 -0 -1.2 0
13.233 -20.709 18.601 -0 -1.2 0
13.033 -21.103 18.319 -0 -1.2 0
12.829 -21.49 18.032 -0 -1.2 0
12.621 -21.872 17.739 -0 -1.2 0
18.275 -1.526 23.942 -0 -1.2 0
18.268 -2.05 23.932 -0 -1.2 0
18.255 -2.572 23.915 -0 -1.2 0
18.237 -3.095 23.892 -0 -1.2 0
18.213 -3.617 23.86 -0 -1.2 0
18.183 -4.139 23.822 -0 -1.2 0
18.149 -4.66 23.775 -0 -1.2 0
18.108 -5.179 23.723 -0 -1.2 0
18.062 -5.697 23.662 -0 -1.2 0
18.01 -6.214 23.595 -0 -1.2 0
17.954 -6.729 23.52 -0 -1.2 0
17.891 -7.242 23.439 -0 -1.2 0
17.824 -7.753 23.35 -0 -1.2 0
17.751 -8.263 23.255 -0 -1.2 0
17.673 -8.771 23.152 -0 -1.2 0
17.588 -9.276 23.041 -0 -1.2 0
17.499 -9.778 22.925 -0 -1.2 0
17.405 -10.278 22.801 -0 -1.2 0
17.305 -10.775 22.67 -0 -1.2 0
17.2 -11.269 22.533 -0 -1.2 0
17.089 -11.76 22.388 -0 -1.2 0
16.974 -12.247 22.237 -0 -1.2 0
16.854 -12.733 22.079 -0 -1.2 0
16.728 -13.213 21.914 -0 -1.2 0
16.597 -13.691 21.743 -0 -1.2 0
16.461 -14.163 21.565 -0 -1.2 0
16.32 -14.633 21.38 -0 -1.2 0
16.174 -15.098 21.19 -0 -1.2 0
16.024 -15.56 20.993 -0 -1.2 0
15.869 -16.016 20.789 -0 -1.2 0
15.708 -16.468 20.578 -0 -1.2 0
15.543 -16.915 20.362 -0 -1.2 0
15.373 -17.357 20.14 -0 -1.2 0
15.199 -17.795 19.911 -0 -1.2 0
15.019 -18.228 19.676 -0 -1.2 0
14.836 -18.655 19.436 -0 -1.2 0
14.648 -19.076 19.189 -0 -1.2 0
14.455 -19.493 18.937 -0 -1.2 0
14.258 -19.904 18.68 -0 -1.2 0
14.056 -20.309 18.415 -0 -1.2 0
13.851 -20.708 18.147 -0 -1.2 0
13.641 -21.101 17.871 -0 -1.2 0
13.427 -21.489 17.592 -0 -1.2 0
13.21 -21.87 17.306 -0 -1.2 0
19.024 1.089 23.251 -0 -1.2 0
18.938 -4.659 23.151 -0 -1.2 0
18.895 -5.179 23.1 -0 -1.2 0
18.848 -5.697 23.042 -0 -1.2 0
18.793 -6.213 22.976 -0 -1.2 0
18.734 -6.728 22.905 -0 -1.2 0
18.668 -7.242 22.825 -0 -1.2 0
18.598 -7.753 22.738 -0 -1.2 0
18.521 -8.263 22.646 -0 -1.2 0
18.439 -8.771 22.546 -0 -1.2 0
18.351 -9.276 22.438 -0 -1.2 0
18.257 -9.778 22.326 -0 -1.2 0
18.159 -10.278 22.205 -0 -1.2 0
18.055 -10.775 22.078 -0 -1.2 0
17.944 -11.269 21.944 -0 -1.2 0
17.829 -11.76 21.803 -0 -1.2 0
17.708 -12.247 21.656 -0 -1.2 0
17.582 -12.732 21.503 -0 -1.2 0
17.45 -13.213 21.343 -0 -1.2 0
17.313 -13.69 21.176 -0 -1.2 0
17.171 -14.163 21.003 -0 -1.2 0
17.024 -14.633 20.824 -0 -1.2 0
16.872 -15.098 20.638 -0 -1.2 0
16.715 -15.559 20.446 -0 -1.2 0
16.553 -16.016 20.248 -0 -1.2 0
16.384 -16.467 20.044 -0 -1.2 0
16.212 -16.915 19.833 -0 -1.2 0
16.034 -17.357 19.617 -0 -1.2 0
15.852 -17.795 19.395 -0 -1.2 0
15.665 -18.227 19.167 -0 -1.2 0
15.473 -18.655 18.933 -0 -1.2 0
15.277 -19.076 18.693 -0 -1.2 0
15.075 -19.493 18.447 -0 -1.2 0
14.869 -19.904 18.196 -0 -1.2 0
14.659 -20.309 17.94 -0 -1.2 0
14.444 -20.708 17.678 -0 -1.2 0
14.225 -21.101 17.411 -0 -1.2 0
14.002 -21.489 17.138 -0 -1.2 0
13.774 -21.87 16.86 -0 -1.2 0
19.858 1.087 22.543 -0 -1.2 0
19.905 -0.48 22.599 -0 -1.2 0
19.908 -1.003 22.605 -0 -1.2 0
19.906 -1.527 22.603 -0 -1.2 0
19.898 -2.051 22.594 -0 -1.2 0
19.883 -2.573 22.579 -0 -1.2 0
19.862 -3.096 22.558 -0 -1.2 0
19.408 -7.754 22.051 -0 -1.2 0
19.327 -8.264 21.961 -0 -1.2 0
19.242 -8.772 21.864 -0 -1.2 0
19.149 -9.277 21.761 -0 -1.2 0
19.051 -9.779 21.651 -0 -1.2 0
18.948 -10.279 21.535 -0 -1.2 0
18.839 -10.776 21.412 -0 -1.2 0
18.724 -11.27 21.282 -0 -1.2 0
18.603 -11.761 21.146 -0 -1.2 0
18.476 -12.248 21.004 -0 -1.2 0
18.344 -12.733 20.855 -0 -1.2 0
18.207 -13.214 20.7 -0 -1.2 0
18.064 -13.691 20.539 -0 -1.2 0
17.915 -14.164 20.372 -0 -1.2 0
17.761 -14.634 20.198 -0 -1.2 0
17.602 -15.099 20.018 -0 -1.2 0
17.438 -15.56 19.832 -0 -1.2 0
17.268 -16.017 19.64 -0 -1.2 0
17.092 -16.468 19.443 -0 -1.2 0
16.726 -17.358 19.029 -0 -1.2 0
16.536 -17.796 18.813 -0 -1.2 0
16.34 -18.228 18.593 -0 -1.2 0
16.14 -18.656 18.367 -0 -1.2 0
15.935 -19.077 18.134 -0 -1.2 0
15.724 -19.494 17.896 -0 -1.2 0
15.509 -19.905 17.653 -0 -1.2 0
15.289 -20.31 17.405 -0 -1.2 0
15.065 -20.709 17.15 -0 -1.2 0
14.836 -21.102 16.892 -0 -1.2 0
14.603 -21.489 16.628 -0 -1.2 0
14.365 -21.871 16.358 -0 -1.2 0
20.608 1.086 21.859 -0 -1.2 0
20.631 0.562 21.884 -0 -1.2 0
20.646 0.04 21.903 -0 -1.2 0
20.656 -0.482 21.914 -0 -1.2 0
20.659 -1.005 21.92 -0 -1.2 0
20.657 -1.528 21.919 -0 -1.2 0
20.648 -2.053 21.91 -0 -1.2 0
20.632 -2.575 21.896 -0 -1.2 0
20.611 -3.098 21.875 -0 -1.2 0
20.137 -7.756 21.386 -0 -1.2 0
20.053 -8.266 21.3 -0 -1.2 0
19.963 -8.773 21.206 -0 -1.2 0
19.868 -9.278 21.106 -0 -1.2 0
19.766 -9.78 21 -0 -1.2 0
19.658 -10.281 20.887 -0 -1.2 0
19.545 -10.777 20.768 -0 -1.2 0
19.425 -11.272 20.643 -0 -1.2 0
19.3 -11.763 20.511 -0 -1.2 0
19.168 -12.25 20.373 -0 -1.2 0
19.031 -12.735 20.229 -0 -1.2 0
18.888 -13.216 20.079 -0 -1.2 0
18.739 -13.693 19.923 -0 -1.2 0
18.585 -14.166 19.761 -0 -1.2 0
18.425 -14.636 19.592 -0 -1.2 0
18.089 -15.562 19.239 -0 -1.2 0
17.913 -16.018 19.053 -0 -1.2 0
17.543 -16.918 18.664 -0 -1.2 0
17.35 -17.36 18.461 -0 -1.2 0
17.152 -17.798 18.252 -0 -1.2 0
16.949 -18.23 18.039 -0 -1.2 0
16.741 -18.657 17.819 -0 -1.2 0
16.527 -19.079 17.593 -0 -1.2 0
16.309 -19.495 17.363 -0 -1.2 0
16.085 -19.906 17.128 -0 -1.2 0
15.857 -20.311 16.887 -0 -1.2 0
15.624 -20.71 16.641 -0 -1.2 0
15.386 -21.103 16.391 -0 -1.2 0
15.144 -21.491 16.134 -0 -1.2 0
14.897 -21.872 15.873 -0 -1.2 0
21.339 1.083 21.145 -0 -1.2 0
21.388 -0.485 21.2 -0 -1.2 0
21.391 -1.008 21.206 -0 -1.2 0
21.388 -1.531 21.205 -0 -1.2 0
20.76 -8.268 20.61 -0 -1.2 0
20.667 -8.776 20.519 -0 -1.2 0
20.568 -9.281 20.423 -0 -1.2 0
20.462 -9.783 20.321 -0 -1.2 0
20.35 -10.283 20.212 -0 -1.2 0
20.233 -10.78 20.097 -0 -1.2 0
20.109 -11.274 19.976 -0 -1.2 0
19.978 -11.765 19.849 -0 -1.2 0
19.842 -12.252 19.716 -0 -1.2 0
19.7 -12.737 19.577 -0 -1.2 0
19.397 -13.695 19.281 -0 -1.2 0
19.072 -14.638 18.962 -0 -1.2 0
18.9 -15.103 18.794 -0 -1.2 0
18.351 -16.472 18.256 -0 -1.2 0
17.752 -17.8 17.667 -0 -1.2 0
17.541 -18.232 17.46 -0 -1.2 0
16.878 -19.497 16.808 -0 -1.2 0
16.41 -20.313 16.348 -0 -1.2 0
16.168 -20.712 16.11 -0 -1.2 0
15.922 -21.105 15.868 -0 -1.2 0
15.671 -21.493 15.62 -0 -1.2 0
15.415 -21.874 15.368 -0 -1.2 0
22.106 1.08 20.343 -0 -1.2 0
22.105 -3.104 20.362 -0 -1.2 0
22.074 -3.626 20.337 -0 -1.2 0
22.037 -4.148 20.306 -0 -1.2 0
21.993 -4.668 20.268 -0 -1.2 0
21.943 -5.188 20.224 -0 -1.2 0
21.886 -5.705 20.174 -0 -1.2 0
21.675 -7.25 19.988 -0 -1.2 0
21.592 -7.762 19.913 -0 -1.2 0
21.502 -8.271 19.833 -0 -1.2 0
21.405 -8.779 19.747 -0 -1.2 0
21.302 -9.284 19.654 -0 -1.2 0
21.192 -9.786 19.555 -0 -1.2 0
21.076 -10.287 19.452 -0 -1.2 0
20.954 -10.783 19.341 -0 -1.2 0
20.826 -11.278 19.225 -0 -1.2 0
20.69 -11.768 19.103 -0 -1.2 0
20.401 -12.741 18.842 -0 -1.2 0
19.922 -14.171 18.408 -0 -1.2 0
19.388 -15.567 17.924 -0 -1.2 0
16.99 -20.316 15.741 -0 -1.2 0
16.739 -20.715 15.512 -0 -1.2 0
16.484 -21.108 15.279 -0 -1.2 0
16.224 -21.495 15.041 -0 -1.2 0
15.959 -21.877 14.799 -0 -1.2 0
22.844 -1.015 19.631 -0 -1.2 0
22.841 -1.538 19.631 -0 -1.2 0
22.829 -2.063 19.624 -0 -1.2 0
22.812 -2.585 19.612 -0 -1.2 0
22.788 -3.108 19.594 -0 -1.2 0
22.756 -3.63 19.57 -0 -1.2 0
22.718 -4.152 19.54 -0 -1.2 0
22.672 -4.672 19.504 -0 -1.2 0
22.62 -5.192 19.462 -0 -1.2 0
22.562 -5.709 19.414 -0 -1.2 0
22.343 -7.254 19.236 -0 -1.2 0
22.256 -7.766 19.164 -0 -1.2 0
22.164 -8.275 19.088 -0 -1.2 0
22.064 -8.783 19.005 -0 -1.2 0
21.725 -10.29 18.722 -0 -1.2 0
21.466 -11.281 18.505 -0 -1.2 0
21.326 -11.772 18.388 -0 -1.2 0
21.028 -12.744 18.137 -0 -1.2 0
18.009 -19.503 15.582 -0 -1.2 0
17.761 -19.914 15.372 -0 -1.2 0
17.508 -20.319 15.158 -0 -1.2 0
17.25 -20.718 14.938 -0 -1.2 0
16.986 -21.111 14.714 -0 -1.2 0
16.718 -21.498 14.486 -0 -1.2 0
16.444 -21.879 14.252 -0 -1.2 0
23.448 1.071 18.779 -0 -1.2 0
23.49 0.025 18.82 -0 -1.2 0
23.5 -0.497 18.831 -0 -1.2 0
23.503 -1.02 18.837 -0 -1.2 0
23.499 -1.543 18.836 -0 -1.2 0
23.487 -2.067 18.831 -0 -1.2 0
23.469 -2.59 18.82 -0 -1.2 0
23.444 -3.113 18.802 -0 -1.2 0
23.411 -3.635 18.78 -0 -1.2 0
23.372 -4.157 18.752 -0 -1.2 0
23.325 -4.677 18.717 -0 -1.2 0
23.271 -5.196 18.678 -0 -1.2 0
23.21 -5.714 18.632 -0 -1.2 0
23.068 -6.746 18.524 -0 -1.2 0
22.985 -7.259 18.462 -0 -1.2 0
22.801 -8.28 18.32 -0 -1.2 0
22.697 -8.788 18.241 -0 -1.2 0
22.348 -10.295 17.971 -0 -1.2 0
19.013 -18.669 15.353 -0 -1.2 0
18.266 -19.917 14.763 -0 -1.2 0
17.74 -20.721 14.347 -0 -1.2 0
17.469 -21.114 14.133 -0 -1.2 0
17.192 -21.501 13.913 -0 -1.2 0
16.911 -21.883 13.69 -0 -1.2 0
24.128 1.065 17.897 -0 -1.2 0
24.167 -2.073 17.949 -0 -1.2 0
24.148 -2.596 17.939 -0 -1.2 0
24.122 -3.119 17.923 -0 -1.2 0
24.088 -3.641 17.902 -0 -1.2 0
24.048 -4.163 17.875 -0 -1.2 0
23.999 -4.683 17.843 -0 -1.2 0
23.943 -5.202 17.806 -0 -1.2 0
23.733 -6.752 17.66 -0 -1.2 0
23.649 -7.265 17.602 -0 -1.2 0
23.556 -7.776 17.537 -0 -1.2 0
23.239 -9.298 17.312 -0 -1.2 0
17.967 -21.119 13.486 -0 -1.2 0
17.683 -21.506 13.277 -0 -1.2 0
17.393 -21.887 13.065 -0 -1.2 0
24.731 1.058 17.055 -0 -1.2 0
24.782 -1.556 17.111 -0 -1.2 0
24.77 -2.08 17.107 -0 -1.2 0
24.75 -2.602 17.098 -0 -1.2 0
24.723 -3.125 17.083 -0 -1.2 0
24.688 -3.647 17.063 -0 -1.2 0
24.646 -4.169 17.037 -0 -1.2 0
24.596 -4.689 17.008 -0 -1.2 0
24.539 -5.209 16.973 -0 -1.2 0
24.323 -6.758 16.835 -0 -1.2 0
24.236 -7.271 16.78 -0 -1.2 0
24.142 -7.782 16.718 -0 -1.2 0
24.041 -8.292 16.652 -0 -1.2 0
23.562 -10.307 16.338 -0 -1.2 0
17.819 -21.892 12.468 -0 -1.2 0
25.304 1.051 16.193 -0 -1.2 0
25.347 0.005 16.23 -0 -1.2 0
25.357 -0.517 16.241 -0 -1.2 0
25.36 -1.04 16.247 -0 -1.2 0
25.294 -3.133 16.222 -0 -1.2 0
25.259 -3.655 16.204 -0 -1.2 0
25.216 -4.177 16.18 -0 -1.2 0
25.164 -4.697 16.152 -0 -1.2 0
25.106 -5.216 16.119 -0 -1.2 0
24.966 -6.251 16.038 -0 -1.2 0
24.884 -6.766 15.99 -0 -1.2 0
24.796 -7.279 15.937 -0 -1.2 0
24.699 -7.79 15.88 -0 -1.2 0
24.595 -8.299 15.818 -0 -1.2 0
24.483 -8.807 15.75 -0 -1.2 0
25.886 1.042 15.242 -0 -1.2 0
25.932 -0.003 15.279 -0 -1.2 0
25.945 -1.049 15.296 -0 -1.2 0
25.94 -1.572 15.297 -0 -1.2 0
25.926 -2.097 15.294 -0 -1.2 0
25.906 -2.619 15.286 -0 -1.2 0
25.876 -3.142 15.274 -0 -1.2 0
25.54 -6.26 15.103 -0 -1.2 0
25.456 -6.775 15.058 -0 -1.2 0
25.365 -7.288 15.01 -0 -1.2 0
25.16 -8.308 14.897 -0 -1.2 0
25.045 -8.816 14.835 -0 -1.2 0
22.445 -16.056 13.369 -0 -1.2 0
18.951 -21.523 11.36 -0 -1.2 0
26.437 -1.581 14.419 -0 -1.2 0
26.423 -2.106 14.417 -0 -1.2 0
26.402 -2.628 14.41 -0 -1.2 0
26.372 -3.151 14.399 -0 -1.2 0
26.335 -3.673 14.383 -0 -1.2 0
26.028 -6.268 14.241 -0 -1.2 0
25.943 -6.783 14.199 -0 -1.2 0
25.85 -7.296 14.153 -0 -1.2 0
25.641 -8.317 14.049 -0 -1.2 0
25.524 -8.824 13.99 -0 -1.2 0
25.399 -9.329 13.928 -0 -1.2 0
26.906 -0.544 13.518 -0 -1.2 0
26.904 -1.591 13.527 -0 -1.2 0
26.799 -3.682 13.496 -0 -1.2 0
26.753 -4.204 13.478 -0 -1.2 0
26.557 -4.704 13.384 -0 -1.2 0
26.486 -6.277 13.364 -0 -1.2 0
26.399 -6.792 13.326 -0 -1.2 0
26.305 -7.305 13.283 -0 -1.2 0
26.202 -7.816 13.237 -0 -1.2 0
26.091 -8.326 13.187 -0 -1.2 0
25.972 -8.833 13.132 -0 -1.2 0
25.845 -9.338 13.073 -0 -1.2 0
25.261 -11.33 12.799 -0 -1.2 0
24.924 -12.307 12.64 -0 -1.2 0
24.555 -13.272 12.464 -0 -1.2 0
24.359 -13.749 12.371 -0 -1.2 0
23.947 -14.691 12.173 -0 -1.2 0
27.318 1.013 12.498 -0 -1.2 0
27.345 0.489 12.516 -0 -1.2 0
27.358 -2.126 12.549 -0 -1.2 0
27.336 -2.648 12.544 -0 -1.2 0
27.304 -3.171 12.536 -0 -1.2 0
27.266 -3.692 12.523 -0 -1.2 0
27.219 -4.214 12.506 -0 -1.2 0
27.163 -4.735 12.487 -0 -1.2 0
27.099 -5.254 12.463 -0 -1.2 0
27.027 -5.771 12.436 -0 -1.2 0
26.893 -6.277 12.379 -0 -1.2 0
26.858 -6.803 12.368 -0 -1.2 0
26.762 -7.316 12.33 -0 -1.2 0
26.657 -7.827 12.287 -0 -1.2 0
26.545 -8.336 12.241 -0 -1.2 0
24.781 -13.759 11.491 -0 -1.2 0
27.769 -0.043 11.606 -0 -1.2 0
27.779 -0.566 11.616 -0 -1.2 0
27.782 -1.089 11.623 -0 -1.2 0
27.775 -1.612 11.626 -0 -1.2 0
27.761 -2.136 11.625 -0 -1.2 0
27.739 -2.658 11.622 -0 -1.2 0
27.707 -3.181 11.614 -0 -1.2 0
27.668 -3.703 11.604 -0 -1.2 0
27.619 -4.225 11.589 -0 -1.2 0
27.563 -4.745 11.572 -0 -1.2 0
27.499 -5.264 11.55 -0 -1.2 0
27.425 -5.782 11.524 -0 -1.2 0
27.253 -6.813 11.464 -0 -1.2 0
27.156 -7.326 11.429 -0 -1.2 0
27.049 -7.837 11.391 -0 -1.2 0
26.935 -8.346 11.348 -0 -1.2 0
26.812 -8.854 11.302 -0 -1.2 0
24.718 -14.709 10.492 -0 -1.2 0
24.493 -15.174 10.403 -0 -1.2 0
28.129 0.468 10.638 -0 -1.2 0
28.149 -0.054 10.652 -0 -1.2 0
28.159 -0.577 10.661 -0 -1.2 0
28.162 -1.1 10.669 -0 -1.2 0
28.155 -1.623 10.672 -0 -1.2 0
28.141 -2.147 10.672 -0 -1.2 0
28.118 -2.67 10.67 -0 -1.2 0
28.085 -3.192 10.663 -0 -1.2 0
28.045 -3.714 10.654 -0 -1.2 0
27.996 -4.236 10.641 -0 -1.2 0
27.939 -4.756 10.625 -0 -1.2 0
27.799 -5.793 10.584 -0 -1.2 0
27.716 -6.309 10.559 -0 -1.2 0
27.625 -6.824 10.531 -0 -1.2 0
27.526 -7.337 10.499 -0 -1.2 0
27.301 -8.357 10.425 -0 -1.2 0
25.273 -14.25 9.725 -0 -1.2 0
25.053 -14.719 9.648 -0 -1.2 0
28.501 0.456 9.597 -0 -1.2 0
28.521 -0.065 9.61 -0 -1.2 0
28.531 -0.588 9.62 -0 -1.2 0
28.534 -1.111 9.627 -0 -1.2 0
28.527 -1.634 9.631 -0 -1.2 0
28.512 -2.159 9.632 -0 -1.2 0
28.489 -2.681 9.63 -0 -1.2 0
28.456 -3.204 9.626 -0 -1.2 0
28.415 -3.725 9.618 -0 -1.2 0
28.365 -4.247 9.607 -0 -1.2 0
28.241 -5.287 9.578 -0 -1.2 0
28.165 -5.804 9.559 -0 -1.2 0
28.082 -6.32 9.537 -0 -1.2 0
27.989 -6.835 9.511 -0 -1.2 0
27.888 -7.348 9.483 -0 -1.2 0
27.779 -7.859 9.453 -0 -1.2 0
27.66 -8.368 9.419 -0 -1.2 0
24.666 -16.109 8.504 -0 -1.2 0
24.413 -16.56 8.423 -0 -1.2 0
28.831 -0.077 8.631 -0 -1.2 0
27.553 -9.892 8.371 -0 -1.2 0
24.933 -16.119 7.665 -0 -1.2 0
24.677 -16.57 7.594 -0 -1.2 0
29.899 1.406 2.5 -0 -1.2 0
23.627 -19.664 1.507 -0 -1.2 0
29.981 1.347 -1.184 -0 -1.2 0
29.544 1.276 -5.247 -0 -1.2 0
21.797 -20.999 -5.781 -0 -1.2 0
21.98 -19.844 -8.372 -0 -1.2 0
21.657 -19.861 -9.14 -0 -1.2 0
21.357 -20.267 -8.998 -0 -1.2 0
20.696 -20.297 -10.37 -0 -1.2 0
20.399 -20.696 -10.206 -0 -1.2 0
20.586 -19.909 -11.262 -0 -1.2 0
20.301 -20.314 -11.091 -0 -1.2 0
25.51 1.578 -15.727 -0 -1.2 0
21.237 -18.25 -12.624 -0 -1.2 0
20.724 -19.098 -12.288 -0 -1.2 0
20.459 -19.514 -12.114 -0 -1.2 0
20.186 -19.925 -11.937 -0 -1.2 0
19.907 -20.329 -11.756 -0 -1.2 0
19.332 -21.121 -11.383 -0 -1.2 0
20.224 -19.055 -12.923 -0 -1.2 0
20.031 -19.53 -12.784 -0 -1.2 0
19.764 -19.941 -12.597 -0 -1.2 0
19.491 -20.345 -12.406 -0 -1.2 0
18.041 -22.278 -11.399 -0 -1.2 0
19.798 -19.132 -13.681 -0 -1.2 0
19.545 -19.548 -13.489 -0 -1.2 0
19.285 -19.958 -13.293 -0 -1.2 0
19.019 -20.362 -13.092 -0 -1.2 0
18.47 -21.153 -12.679 -0 -1.2 0
18.188 -21.539 -12.467 -0 -1.2 0
17.9 -21.919 -12.252 -0 -1.2 0
17.605 -22.293 -12.032 -0 -1.2 0
18.294 -20.776 -13.5 -0 -1.2 0
18.024 -21.168 -13.282 -0 -1.2 0
17.748 -21.554 -13.06 -0 -1.2 0
17.557 -21.183 -13.869 -0 -1.2 0
17.289 -21.569 -13.638 -0 -1.2 0
17.016 -21.949 -13.403 -0 -1.2 0
16.737 -22.323 -13.164 -0 -1.2 0
16.773 -21.585 -14.243 -0 -1.2 0
16.238 -22.338 -13.749 -0 -1.2 0
21.87 -1.161 -20.657 -0 -1.2 0
21.873 -1.684 -20.645 -0 -1.2 0
21.87 -2.207 -20.627 -0 -1.2 0
21.86 -2.73 -20.603 -0 -1.2 0
21.843 -3.252 -20.573 -0 -1.2 0
21.82 -3.774 -20.535 -0 -1.2 0
21.789 -4.295 -20.493 -0 -1.2 0
21.753 -4.816 -20.444 -0 -1.2 0
21.711 -5.334 -20.388 -0 -1.2 0
21.661 -5.852 -20.327 -0 -1.2 0
21.541 -6.883 -20.185 -0 -1.2 0
21.13 -9.426 -19.724 -0 -1.2 0
20.806 -10.923 -19.375 -0 -1.2 0
20.286 -12.875 -18.829 -0 -1.2 0
16.527 -21.215 -15.037 -0 -1.2 0
21.165 -0.658 -21.372 -0 -1.2 0
21.175 -1.181 -21.366 -0 -1.2 0
21.178 -1.704 -21.355 -0 -1.2 0
21.176 -2.227 -21.336 -0 -1.2 0
21.167 -2.751 -21.312 -0 -1.2 0
21.15 -3.272 -21.281 -0 -1.2 0
21.128 -3.794 -21.243 -0 -1.2 0
21.099 -4.315 -21.199 -0 -1.2 0
21.064 -4.836 -21.148 -0 -1.2 0
21.023 -5.354 -21.091 -0 -1.2 0
20.975 -5.872 -21.028 -0 -1.2 0
20.921 -6.388 -20.958 -0 -1.2 0
20.86 -6.902 -20.882 -0 -1.2 0
20.365 -9.947 -20.293 -0 -1.2 0
20.399 -0.68 -22.102 -0 -1.2 0
20.412 -1.725 -22.086 -0 -1.2 0
20.41 -2.248 -22.067 -0 -1.2 0
20.402 -2.772 -22.042 -0 -1.2 0
20.386 -3.294 -22.01 -0 -1.2 0
20.365 -3.816 -21.972 -0 -1.2 0
20.337 -4.336 -21.927 -0 -1.2 0
20.304 -4.857 -21.874 -0 -1.2 0
20.264 -5.376 -21.816 -0 -1.2 0
20.218 -5.893 -21.75 -0 -1.2 0
20.166 -6.409 -21.678 -0 -1.2 0
19.897 -8.455 -21.325 -0 -1.2 0
19.632 -9.967 -20.993 -0 -1.2 0
14.966 -22.01 -15.571 -0 -1.2 0
14.722 -22.382 -15.295 -0 -1.2 0
19.675 -1.222 -22.752 -0 -1.2 0
19.678 -1.745 -22.74 -0 -1.2 0
19.676 -2.268 -22.721 -0 -1.2 0
19.669 -2.792 -22.696 -0 -1.2 0
19.654 -3.314 -22.663 -0 -1.2 0
19.634 -3.835 -22.624 -0 -1.2 0
19.608 -4.356 -22.577 -0 -1.2 0
19.575 -4.877 -22.524 -0 -1.2 0
19.538 -5.395 -22.464 -0 -1.2 0
19.493 -5.913 -22.397 -0 -1.2 0
19.444 -6.428 -22.323 -0 -1.2 0
19.387 -6.943 -22.243 -0 -1.2 0
19.326 -7.455 -22.155 -0 -1.2 0
19.258 -7.966 -22.061 -0 -1.2 0
18.833 -10.485 -21.491 -0 -1.2 0
18.731 -10.981 -21.357 -0 -1.2 0
18.623 -11.473 -21.217 -0 -1.2 0
14.438 -22.024 -16.043 -0 -1.2 0
14.203 -22.396 -15.759 -0 -1.2 0
18.92 -1.242 -23.383 -0 -1.2 0
18.924 -1.765 -23.37 -0 -1.2 0
18.922 -2.288 -23.352 -0 -1.2 0
18.915 -2.812 -23.325 -0 -1.2 0
18.9 -3.333 -23.292 -0 -1.2 0
18.882 -3.855 -23.251 -0 -1.2 0
18.857 -4.376 -23.204 -0 -1.2 0
18.826 -4.896 -23.15 -0 -1.2 0
18.79 -5.415 -23.088 -0 -1.2 0
18.747 -5.932 -23.02 -0 -1.2 0
18.7 -6.448 -22.944 -0 -1.2 0
18.646 -6.962 -22.861 -0 -1.2 0
18.587 -7.475 -22.772 -0 -1.2 0
18.376 -9 -22.462 -0 -1.2 0
18.017 -11 -21.953 -0 -1.2 0
17.804 -11.982 -21.659 -0 -1.2 0
17.69 -12.468 -21.502 -0 -1.2 0
13.668 -22.41 -16.205 -0 -1.2 0
18.027 0.305 -24.036 -0 -1.2 0
18.062 -0.741 -24.048 -0 -1.2 0
18.071 -1.263 -24.043 -0 -1.2 0
18.076 -1.786 -24.031 -0 -1.2 0
18.073 -2.309 -24.011 -0 -1.2 0
18.067 -2.833 -23.985 -0 -1.2 0
18.054 -3.355 -23.951 -0 -1.2 0
18.036 -3.876 -23.91 -0 -1.2 0
18.013 -4.397 -23.861 -0 -1.2 0
17.983 -4.917 -23.805 -0 -1.2 0
17.949 -5.436 -23.742 -0 -1.2 0
17.909 -5.953 -23.672 -0 -1.2 0
17.864 -6.469 -23.594 -0 -1.2 0
17.813 -6.983 -23.51 -0 -1.2 0
17.629 -8.514 -23.213 -0 -1.2 0
17.479 -9.525 -22.98 -0 -1.2 0
15.206 -18.008 -19.67 -0 -1.2 0
17.106 -5.973 -24.253 -0 -1.2 0
16.962 -7.515 -23.994 -0 -1.2 0
16.903 -8.025 -23.892 -0 -1.2 0
16.04 -12.988 -22.488 -0 -1.2 0
15.055 -13.96 -22.633 -0 -1.2 0
14.817 -14.897 -22.232 -0 -1.2 0
12.29 -21.704 -18.108 -0 -1.2 0
12.098 -22.082 -17.8 -0 -1.2 0
15.502 -0.801 -25.77 -0 -1.2 0
15.511 -1.324 -25.766 -0 -1.2 0
15.515 -1.846 -25.753 -0 -1.2 0
15.514 -2.369 -25.734 -0 -1.2 0
15.509 -2.893 -25.705 -0 -1.2 0
15.5 -3.415 -25.67 -0 -1.2 0
15.485 -3.936 -25.625 -0 -1.2 0
15.466 -4.457 -25.574 -0 -1.2 0
15.416 -4.97 -25.473 -0 -1.2 0
15.413 -5.496 -25.448 -0 -1.2 0
15.342 -6.528 -25.292 -0 -1.2 0
15.3 -7.042 -25.201 -0 -1.2 0
14.594 0.226 -26.262 -0 -1.2 0
14.634 -2.912 -26.211 -0 -1.2 0
14.625 -3.434 -26.175 -0 -1.2 0
14.611 -3.955 -26.13 -0 -1.2 0
14.502 -4.454 -25.913 -0 -1.2 0
14.228 -4.904 -25.404 -0 -1.2 0
14.394 -7.573 -25.599 -0 -1.2 0
14.136 -7.981 -25.118 -0 -1.2 0
14.174 -9.601 -25.123 -0 -1.2 0
13.963 -11.095 -24.687 -0 -1.2 0
13.885 -11.586 -24.526 -0 -1.2 0
13.429 -13.996 -23.612 -0 -1.2 0
13.218 -14.933 -23.195 -0 -1.2 0
13.106 -15.396 -22.977 -0 -1.2 0
13.701 0.207 -26.738 -0 -1.2 0
13.719 -0.316 -26.75 -0 -1.2 0
13.721 -3.974 -26.606 -0 -1.2 0
13.405 -4.42 -25.97 -0 -1.2 0
13.305 -5.932 -25.714 -0 -1.2 0
13.409 -6.489 -25.893 -0 -1.2 0
13.507 -7.056 -26.062 -0 -1.2 0
13.52 -7.592 -26.066 -0 -1.2 0
13.056 -8.402 -25.126 -0 -1.2 0
13.315 -9.619 -25.582 -0 -1.2 0
13.253 -10.12 -25.442 -0 -1.2 0
12.801 -13.06 -24.438 -0 -1.2 0
12.712 -13.539 -24.245 -0 -1.2 0
10.001 -22.495 -18.589 -0 -1.2 0
12.724 0.187 -27.217 -0 -1.2 0
12.74 -0.336 -27.23 -0 -1.2 0
12.647 -0.861 -27.007 -0 -1.2 0
12.674 -2.419 -26.997 -0 -1.2 0
12.653 -2.935 -26.932 -0 -1.2 0
12.745 -3.994 -27.084 -0 -1.2 0
9.458 -22.139 -19.267 -0 -1.2 0
9.307 -22.509 -18.928 -0 -1.2 0
11.806 0.169 -27.628 -0 -1.2 0
11.831 -4.013 -27.493 -0 -1.2 0
8.933 -21.776 -19.9 -0 -1.2 0
8.796 -22.152 -19.563 -0 -1.2 0
8.656 -22.522 -19.219 -0 -1.2 0
10.888 0.151 -28.003 -0 -1.2 0
10.915 -4.03 -27.867 -0 -1.2 0
8.504 -21.018 -20.841 -0 -1.2 0
8.383 -21.406 -20.511 -0 -1.2 0
8.26 -21.789 -20.175 -0 -1.2 0
8.134 -22.165 -19.833 -0 -1.2 0
8.005 -22.535 -19.485 -0 -1.2 0
9.886 0.133 -28.371 -0 -1.2 0
9.22 -13.607 -25.74 -0 -1.2 0
7.637 -21.42 -20.786 -0 -1.2 0
7.525 -21.802 -20.446 -0 -1.2 0
7.412 -22.178 -20.099 -0 -1.2 0
7.295 -22.548 -19.747 -0 -1.2 0
8.945 0.116 -28.682 -0 -1.2 0
8.928 -4.05 -28.393 -0 -1.2 0
8.833 -8.191 -27.853 -0 -1.2 0
7.034 -21.045 -21.355 -0 -1.2 0
6.935 -21.433 -21.017 -0 -1.2 0
6.835 -21.815 -20.674 -0 -1.2 0
6.733 -22.19 -20.324 -0 -1.2 0
6.627 -22.56 -19.967 -0 -1.2 0
8.011 -4.082 -28.829 -0 -1.2 0
6.709 -19.03 -23.173 -0 -1.2 0
6.632 -19.447 -22.866 -0 -1.2 0
6.553 -19.858 -22.553 -0 -1.2 0
6.471 -20.264 -22.231 -0 -1.2 0
6.388 -20.664 -21.904 -0 -1.2 0
6.302 -21.058 -21.57 -0 -1.2 0
6.215 -21.445 -21.229 -0 -1.2 0
6.126 -21.827 -20.882 -0 -1.2 0
6.035 -22.203 -20.529 -0 -1.2 0
5.942 -22.572 -20.169 -0 -1.2 0
6.942 -2.011 -29.242 -0 -1.2 0
6.944 -4.1 -29.101 -0 -1.2 0
6.845 -8.225 -28.398 -0 -1.2 0
6.684 -11.232 -27.506 -0 -1.2 0
6.651 -11.723 -27.328 -0 -1.2 0
6.03 -17.762 -24.282 -0 -1.2 0
5.969 -18.194 -23.994 -0 -1.2 0
5.907 -18.622 -23.698 -0 -1.2 0
5.842 -19.044 -23.395 -0 -1.2 0
5.775 -19.461 -23.085 -0 -1.2 0
5.708 -19.872 -22.768 -0 -1.2 0
5.638 -20.278 -22.445 -0 -1.2 0
5.566 -20.678 -22.114 -0 -1.2 0
5.493 -21.071 -21.777 -0 -1.2 0
5.418 -21.459 -21.433 -0 -1.2 0
5.341 -21.84 -21.083 -0 -1.2 0
5.264 -22.215 -20.725 -0 -1.2 0
5.183 -22.585 -20.362 -0 -1.2 0
5.925 -0.982 -29.478 -0 -1.2 0
5.933 -1.505 -29.473 -0 -1.2 0
5.939 -2.027 -29.461 -0 -1.2 0
5.221 -16.7 -24.716 -0 -1.2 0
5.237 -17.338 -24.749 -0 -1.2 0
5.188 -17.776 -24.465 -0 -1.2 0
5.136 -18.208 -24.175 -0 -1.2 0
5.084 -18.636 -23.877 -0 -1.2 0
5.029 -19.058 -23.573 -0 -1.2 0
4.974 -19.474 -23.26 -0 -1.2 0
4.916 -19.885 -22.941 -0 -1.2 0
4.857 -20.291 -22.615 -0 -1.2 0
4.796 -20.69 -22.282 -0 -1.2 0
4.734 -21.084 -21.942 -0 -1.2 0
4.671 -21.471 -21.596 -0 -1.2 0
4.607 -21.852 -21.242 -0 -1.2 0
4.541 -22.227 -20.883 -0 -1.2 0
4.474 -22.596 -20.517 -0 -1.2 0
4.915 -0.997 -29.662 -0 -1.2 0
4.923 -1.52 -29.658 -0 -1.2 0
4.929 -2.043 -29.645 -0 -1.2 0
4.593 -14.627 -26.451 -0 -1.2 0
4.561 -15.091 -26.213 -0 -1.2 0
4.315 -16.534 -24.587 -0 -1.2 0
4.38 -17.351 -24.905 -0 -1.2 0
4.34 -17.789 -24.62 -0 -1.2 0
4.298 -18.221 -24.328 -0 -1.2 0
4.255 -18.649 -24.028 -0 -1.2 0
4.211 -19.07 -23.721 -0 -1.2 0
4.166 -19.487 -23.408 -0 -1.2 0
4.119 -19.898 -23.087 -0 -1.2 0
4.071 -20.303 -22.758 -0 -1.2 0
4.022 -20.702 -22.424 -0 -1.2 0
3.971 -21.095 -22.082 -0 -1.2 0
3.919 -21.483 -21.733 -0 -1.2 0
3.867 -21.864 -21.378 -0 -1.2 0
3.813 -22.239 -21.016 -0 -1.2 0
3.758 -22.607 -20.648 -0 -1.2 0
3.813 -1.014 -29.823 -0 -1.2 0
3.821 -1.537 -29.82 -0 -1.2 0
3.827 -2.06 -29.806 -0 -1.2 0
3.836 -3.106 -29.753 -0 -1.2 0
3.839 -3.627 -29.713 -0 -1.2 0
3.839 -4.149 -29.664 -0 -1.2 0
3.817 -7.763 -29.068 -0 -1.2 0
3.809 -8.272 -28.948 -0 -1.2 0
3.8 -8.78 -28.819 -0 -1.2 0
3.369 -16.438 -24.546 -0 -1.2 0
3.383 -17.067 -24.584 -0 -1.2 0
3.39 -17.68 -24.575 -0 -1.2 0
3.384 -18.235 -24.462 -0 -1.2 0
3.352 -18.662 -24.161 -0 -1.2 0
3.319 -19.084 -23.852 -0 -1.2 0
3.285 -19.5 -23.537 -0 -1.2 0
3.25 -19.911 -23.214 -0 -1.2 0
3.214 -20.316 -22.884 -0 -1.2 0
3.177 -20.715 -22.547 -0 -1.2 0
3.139 -21.108 -22.203 -0 -1.2 0
3.1 -21.495 -21.853 -0 -1.2 0
3.06 -21.876 -21.496 -0 -1.2 0
3.019 -22.25 -21.132 -0 -1.2 0
2.978 -22.619 -20.762 -0 -1.2 0
2.784 -1.029 -29.936 -0 -1.2 0
2.79 -1.552 -29.932 -0 -1.2 0
2.797 -2.075 -29.919 -0 -1.2 0
2.806 -3.121 -29.866 -0 -1.2 0
2.81 -3.642 -29.826 -0 -1.2 0
2.813 -4.163 -29.776 -0 -1.2 0
2.815 -4.684 -29.718 -0 -1.2 0
2.815 -5.204 -29.651 -0 -1.2 0
2.812 -7.266 -29.291 -0 -1.2 0
2.809 -7.778 -29.179 -0 -1.2 0
2.805 -8.287 -29.058 -0 -1.2 0
2.726 -8.589 -28.159 -0 -1.2 0
2.763 -11.292 -28.148 -0 -1.2 0
2.753 -11.783 -27.966 -0 -1.2 0
2.742 -12.271 -27.775 -0 -1.2 0
2.719 -13.235 -27.369 -0 -1.2 0
2.706 -13.713 -27.153 -0 -1.2 0
2.692 -14.185 -26.93 -0 -1.2 0
2.677 -14.655 -26.698 -0 -1.2 0
2.661 -15.119 -26.457 -0 -1.2 0
2.59 -15.276 -25.661 -0 -1.2 0
2.627 -16.037 -25.954 -0 -1.2 0
2.609 -16.489 -25.689 -0 -1.2 0
2.591 -16.936 -25.417 -0 -1.2 0
2.57 -17.378 -25.138 -0 -1.2 0
2.55 -17.815 -24.851 -0 -1.2 0
2.53 -18.247 -24.556 -0 -1.2 0
2.507 -18.674 -24.254 -0 -1.2 0
2.484 -19.096 -23.944 -0 -1.2 0
2.461 -19.512 -23.627 -0 -1.2 0
2.437 -19.922 -23.304 -0 -1.2 0
2.412 -20.327 -22.972 -0 -1.2 0
2.386 -20.726 -22.634 -0 -1.2 0
2.36 -21.119 -22.289 -0 -1.2 0
2.333 -21.506 -21.937 -0 -1.2 0
2.305 -21.887 -21.579 -0 -1.2 0
2.277 -22.261 -21.214 -0 -1.2 0
2.248 -22.63 -20.843 -0 -1.2 0
1.75 -1.043 -30.014 -0 -1.2 0
1.756 -1.566 -30.01 -0 -1.2 0
1.763 -2.089 -29.997 -0 -1.2 0
1.774 -3.135 -29.944 -0 -1.2 0
1.779 -3.657 -29.904 -0 -1.2 0
1.782 -4.178 -29.854 -0 -1.2 0
1.787 -4.698 -29.796 -0 -1.2 0
1.79 -5.218 -29.728 -0 -1.2 0
1.792 -5.736 -29.651 -0 -1.2 0
1.795 -6.252 -29.566 -0 -1.2 0
1.796 -6.767 -29.471 -0 -1.2 0
1.797 -7.28 -29.368 -0 -1.2 0
1.797 -7.792 -29.255 -0 -1.2 0
1.798 -8.301 -29.134 -0 -1.2 0
1.796 -8.808 -29.003 -0 -1.2 0
1.796 -9.313 -28.864 -0 -1.2 0
1.794 -9.815 -28.717 -0 -1.2 0
1.791 -10.315 -28.56 -0 -1.2 0
1.789 -10.812 -28.395 -0 -1.2 0
1.785 -11.306 -28.221 -0 -1.2 0
1.781 -11.796 -28.039 -0 -1.2 0
1.777 -12.284 -27.848 -0 -1.2 0
1.773 -12.768 -27.648 -0 -1.2 0
1.767 -13.248 -27.441 -0 -1.2 0
1.761 -13.726 -27.225 -0 -1.2 0
1.754 -14.198 -27 -0 -1.2 0
1.747 -14.668 -26.768 -0 -1.2 0
1.74 -15.132 -26.527 -0 -1.2 0
1.732 -15.593 -26.278 -0 -1.2 0
1.722 -16.049 -26.021 -0 -1.2 0
1.713 -16.501 -25.756 -0 -1.2 0
1.704 -16.948 -25.484 -0 -1.2 0
1.693 -17.39 -25.204 -0 -1.2 0
1.683 -17.827 -24.916 -0 -1.2 0
1.672 -18.259 -24.621 -0 -1.2 0
1.66 -18.686 -24.318 -0 -1.2 0
1.647 -19.107 -24.007 -0 -1.2 0
1.635 -19.524 -23.689 -0 -1.2 0
1.622 -19.934 -23.365 -0 -1.2 0
1.608 -20.339 -23.033 -0 -1.2 0
1.593 -20.737 -22.693 -0 -1.2 0
1.579 -21.13 -22.348 -0 -1.2 0
1.564 -21.517 -21.995 -0 -1.2 0
1.548 -21.897 -21.636 -0 -1.2 0
1.532 -22.271 -21.27 -0 -1.2 0
1.516 -22.64 -20.898 -0 -1.2 0
0.634 -1.058 -30.057 -0 -1.2 0
0.64 -1.581 -30.054 -0 -1.2 0
0.647 -2.104 -30.041 -0 -1.2 0
0.683 -5.233 -29.771 -0 -1.2 0
0.687 -5.75 -29.695 -0 -1.2 0
0.693 -6.267 -29.609 -0 -1.2 0
0.697 -6.782 -29.514 -0 -1.2 0
0.702 -7.295 -29.411 -0 -1.2 0
0.706 -7.806 -29.299 -0 -1.2 0
0.71 -8.315 -29.176 -0 -1.2 0
0.714 -8.822 -29.046 -0 -1.2 0
0.718 -9.327 -28.907 -0 -1.2 0
0.721 -9.83 -28.759 -0 -1.2 0
0.724 -10.329 -28.602 -0 -1.2 0
0.728 -10.826 -28.437 -0 -1.2 0
0.73 -11.32 -28.263 -0 -1.2 0
0.733 -11.81 -28.08 -0 -1.2 0
0.735 -12.298 -27.889 -0 -1.2 0
0.738 -12.782 -27.689 -0 -1.2 0
0.739 -13.262 -27.482 -0 -1.2 0
0.741 -13.739 -27.265 -0 -1.2 0
0.743 -14.212 -27.04 -0 -1.2 0
0.744 -14.681 -26.807 -0 -1.2 0
0.745 -15.145 -26.566 -0 -1.2 0
0.746 -15.606 -26.317 -0 -1.2 0
0.746 -16.062 -26.059 -0 -1.2 0
0.746 -16.514 -25.795 -0 -1.2 0
0.747 -16.961 -25.522 -0 -1.2 0
0.747 -17.402 -25.241 -0 -1.2 0
0.746 -17.84 -24.952 -0 -1.2 0
0.746 -18.271 -24.656 -0 -1.2 0
0.745 -18.698 -24.354 -0 -1.2 0
0.745 -19.119 -24.043 -0 -1.2 0
0.743 -19.535 -23.724 -0 -1.2 0
0.742 -19.945 -23.399 -0 -1.2 0
0.74 -20.35 -23.067 -0 -1.2 0
0.738 -20.749 -22.727 -0 -1.2 0
0.736 -21.141 -22.381 -0 -1.2 0
0.734 -21.528 -22.028 -0 -1.2 0
0.731 -21.908 -21.667 -0 -1.2 0
0.729 -22.282 -21.301 -0 -1.2 0
0.726 -22.65 -20.928 -0 -1.2 0
-0.307 -6.794 -29.518 -0 -1.2 0
-0.299 -7.308 -29.415 -0 -1.2 0
-0.291 -7.819 -29.301 -0 -1.2 0
-0.283 -8.328 -29.18 -0 -1.2 0
-0.275 -8.835 -29.05 -0 -1.2 0
-0.267 -9.34 -28.911 -0 -1.2 0
-0.259 -9.842 -28.763 -0 -1.2 0
-0.251 -10.342 -28.606 -0 -1.2 0
-0.242 -10.838 -28.441 -0 -1.2 0
-0.234 -11.332 -28.267 -0 -1.2 0
-0.225 -11.822 -28.084 -0 -1.2 0
-0.216 -12.31 -27.893 -0 -1.2 0
-0.207 -12.794 -27.693 -0 -1.2 0
-0.199 -13.274 -27.484 -0 -1.2 0
-0.19 -13.751 -27.269 -0 -1.2 0
-0.181 -14.223 -27.043 -0 -1.2 0
-0.172 -14.693 -26.81 -0 -1.2 0
-0.163 -15.157 -26.569 -0 -1.2 0
-0.154 -15.618 -26.32 -0 -1.2 0
-0.145 -16.074 -26.063 -0 -1.2 0
-0.136 -16.525 -25.798 -0 -1.2 0
-0.127 -16.972 -25.524 -0 -1.2 0
-0.117 -17.413 -25.244 -0 -1.2 0
-0.109 -17.851 -24.955 -0 -1.2 0
-0.099 -18.282 -24.659 -0 -1.2 0
-0.09 -18.709 -24.356 -0 -1.2 0
-0.08 -19.13 -24.046 -0 -1.2 0
-0.071 -19.546 -23.728 -0 -1.2 0
-0.062 -19.956 -23.402 -0 -1.2 0
-0.053 -20.36 -23.07 -0 -1.2 0
-0.043 -20.759 -22.73 -0 -1.2 0
-0.033 -21.151 -22.384 -0 -1.2 0
-0.024 -21.537 -22.031 -0 -1.2 0
-0.015 -21.917 -21.67 -0 -1.2 0
-0.005 -22.292 -21.304 -0 -1.2 0
0.004 -22.659 -20.931 -0 -1.2 0
-1.253 -9.352 -28.881 -0 -1.2 0
-1.24 -9.854 -28.733 -0 -1.2 0
-1.226 -10.354 -28.576 -0 -1.2 0
-1.213 -10.85 -28.411 -0 -1.2 0
-1.199 -11.344 -28.237 -0 -1.2 0
-1.185 -11.834 -28.055 -0 -1.2 0
-1.169 -12.322 -27.864 -0 -1.2 0
-1.154 -12.805 -27.664 -0 -1.2 0
-1.139 -13.285 -27.456 -0 -1.2 0
-1.123 -13.762 -27.239 -0 -1.2 0
-1.107 -14.235 -27.016 -0 -1.2 0
-1.09 -14.704 -26.782 -0 -1.2 0
-1.073 -15.168 -26.542 -0 -1.2 0
-1.056 -15.629 -26.293 -0 -1.2 0
-1.038 -16.084 -26.036 -0 -1.2 0
-1.021 -16.536 -25.771 -0 -1.2 0
-1.002 -16.983 -25.498 -0 -1.2 0
-0.984 -17.424 -25.218 -0 -1.2 0
-0.965 -17.861 -24.93 -0 -1.2 0
-0.946 -18.292 -24.634 -0 -1.2 0
-0.927 -18.719 -24.331 -0 -1.2 0
-0.907 -19.14 -24.02 -0 -1.2 0
-0.887 -19.556 -23.703 -0 -1.2 0
-0.867 -19.965 -23.378 -0 -1.2 0
-0.847 -20.37 -23.045 -0 -1.2 0
-0.825 -20.768 -22.706 -0 -1.2 0
-0.804 -21.16 -22.361 -0 -1.2 0
-0.783 -21.547 -22.007 -0 -1.2 0
-0.762 -21.927 -21.648 -0 -1.2 0
-0.74 -22.3 -21.282 -0 -1.2 0
-0.718 -22.668 -20.909 -0 -1.2 0
-2.313 -9.364 -28.811 -0 -1.2 0
-2.295 -9.866 -28.663 -0 -1.2 0
-2.276 -10.366 -28.507 -0 -1.2 0
-2.257 -10.862 -28.342 -0 -1.2 0
-2.237 -11.356 -28.169 -0 -1.2 0
-2.216 -11.846 -27.987 -0 -1.2 0
-2.194 -12.334 -27.796 -0 -1.2 0
-2.172 -12.817 -27.598 -0 -1.2 0
-2.149 -13.297 -27.39 -0 -1.2 0
-2.126 -13.774 -27.174 -0 -1.2 0
-2.102 -14.246 -26.951 -0 -1.2 0
-2.077 -14.715 -26.718 -0 -1.2 0
-2.051 -15.179 -26.477 -0 -1.2 0
-2.025 -15.64 -26.229 -0 -1.2 0
-1.998 -16.096 -25.973 -0 -1.2 0
-1.972 -16.547 -25.708 -0 -1.2 0
-1.944 -16.993 -25.436 -0 -1.2 0
-1.915 -17.435 -25.157 -0 -1.2 0
-1.886 -17.872 -24.869 -0 -1.2 0
-1.856 -18.303 -24.575 -0 -1.2 0
-1.827 -18.73 -24.272 -0 -1.2 0
-1.795 -19.15 -23.962 -0 -1.2 0
-1.764 -19.566 -23.645 -0 -1.2 0
-1.733 -19.975 -23.321 -0 -1.2 0
-1.7 -20.38 -22.989 -0 -1.2 0
-1.667 -20.778 -22.651 -0 -1.2 0
-1.633 -21.17 -22.305 -0 -1.2 0
-1.599 -21.556 -21.954 -0 -1.2 0
-1.566 -21.936 -21.595 -0 -1.2 0
-1.531 -22.31 -21.23 -0 -1.2 0
-1.495 -22.677 -20.858 -0 -1.2 0
-3.379 -7.343 -29.212 -0 -1.2 0
-3.36 -7.855 -29.101 -0 -1.2 0
-3.34 -8.363 -28.98 -0 -1.2 0
-3.319 -8.87 -28.85 -0 -1.2 0
-3.298 -9.375 -28.711 -0 -1.2 0
-3.275 -9.877 -28.564 -0 -1.2 0
-3.251 -10.377 -28.409 -0 -1.2 0
-3.226 -10.873 -28.244 -0 -1.2 0
-3.201 -11.367 -28.071 -0 -1.2 0
-3.173 -11.856 -27.89 -0 -1.2 0
-3.146 -12.344 -27.7 -0 -1.2 0
-3.117 -12.828 -27.501 -0 -1.2 0
-3.088 -13.307 -27.295 -0 -1.2 0
-3.057 -13.784 -27.08 -0 -1.2 0
-3.026 -14.256 -26.856 -0 -1.2 0
-2.993 -14.725 -26.625 -0 -1.2 0
-2.96 -15.189 -26.385 -0 -1.2 0
-2.926 -15.65 -26.138 -0 -1.2 0
-2.89 -16.105 -25.882 -0 -1.2 0
-2.855 -16.557 -25.619 -0 -1.2 0
-2.818 -17.003 -25.348 -0 -1.2 0
-2.78 -17.444 -25.07 -0 -1.2 0
-2.742 -17.881 -24.783 -0 -1.2 0
-2.702 -18.312 -24.489 -0 -1.2 0
-2.662 -18.739 -24.188 -0 -1.2 0
-2.62 -19.159 -23.879 -0 -1.2 0
-2.579 -19.575 -23.562 -0 -1.2 0
-2.536 -19.984 -23.24 -0 -1.2 0
-2.492 -20.388 -22.909 -0 -1.2 0
-2.448 -20.787 -22.572 -0 -1.2 0
-2.403 -21.179 -22.228 -0 -1.2 0
-2.357 -21.564 -21.877 -0 -1.2 0
-2.311 -21.944 -21.52 -0 -1.2 0
-2.265 -22.318 -21.156 -0 -1.2 0
-2.217 -22.685 -20.786 -0 -1.2 0
-4.558 -0.595 -29.71 -0 -1.2 0
-4.433 -6.326 -29.27 -0 -1.2 0
-4.413 -6.841 -29.177 -0 -1.2 0
-4.392 -7.354 -29.075 -0 -1.2 0
-4.37 -7.865 -28.963 -0 -1.2 0
-4.346 -8.374 -28.842 -0 -1.2 0
-4.321 -8.881 -28.714 -0 -1.2 0
-4.295 -9.385 -28.576 -0 -1.2 0
-4.268 -9.888 -28.43 -0 -1.2 0
-4.238 -10.387 -28.275 -0 -1.2 0
-4.208 -10.883 -28.111 -0 -1.2 0
-4.177 -11.377 -27.939 -0 -1.2 0
-4.144 -11.867 -27.758 -0 -1.2 0
-4.11 -12.354 -27.569 -0 -1.2 0
-4.075 -12.838 -27.371 -0 -1.2 0
-4.038 -13.317 -27.166 -0 -1.2 0
-4.001 -13.794 -26.952 -0 -1.2 0
-3.962 -14.266 -26.729 -0 -1.2 0
-3.922 -14.735 -26.499 -0 -1.2 0
-3.88 -15.199 -26.26 -0 -1.2 0
-3.837 -15.659 -26.015 -0 -1.2 0
-3.794 -16.115 -25.76 -0 -1.2 0
-3.748 -16.566 -25.498 -0 -1.2 0
-3.703 -17.012 -25.228 -0 -1.2 0
-3.656 -17.453 -24.951 -0 -1.2 0
-3.608 -17.89 -24.666 -0 -1.2 0
-3.558 -18.321 -24.373 -0 -1.2 0
-3.508 -18.748 -24.073 -0 -1.2 0
-3.456 -19.168 -23.765 -0 -1.2 0
-3.404 -19.584 -23.45 -0 -1.2 0
-3.351 -19.993 -23.129 -0 -1.2 0
-3.295 -20.397 -22.8 -0 -1.2 0
-3.24 -20.795 -22.465 -0 -1.2 0
-3.183 -21.187 -22.122 -0 -1.2 0
-3.125 -21.572 -21.773 -0 -1.2 0
-3.067 -21.952 -21.417 -0 -1.2 0
-3.008 -22.325 -21.055 -0 -1.2 0
-2.947 -22.693 -20.686 -0 -1.2 0
-5.545 -5.821 -29.167 -0 -1.2 0
-5.525 -6.337 -29.082 -0 -1.2 0
-5.502 -6.852 -28.989 -0 -1.2 0
-5.478 -7.365 -28.887 -0 -1.2 0
-5.451 -7.876 -28.776 -0 -1.2 0
-5.424 -8.385 -28.657 -0 -1.2 0
-5.394 -8.891 -28.529 -0 -1.2 0
-5.363 -9.396 -28.392 -0 -1.2 0
-5.33 -9.898 -28.246 -0 -1.2 0
-5.296 -10.397 -28.092 -0 -1.2 0
-5.26 -10.893 -27.93 -0 -1.2 0
-5.223 -11.387 -27.759 -0 -1.2 0
-5.183 -11.877 -27.579 -0 -1.2 0
-5.142 -12.364 -27.391 -0 -1.2 0
-5.1 -12.848 -27.194 -0 -1.2 0
-5.056 -13.327 -26.99 -0 -1.2 0
-5.011 -13.804 -26.778 -0 -1.2 0
-4.964 -14.276 -26.556 -0 -1.2 0
-4.916 -14.745 -26.327 -0 -1.2 0
-4.865 -15.209 -26.09 -0 -1.2 0
-4.814 -15.669 -25.846 -0 -1.2 0
-4.761 -16.124 -25.593 -0 -1.2 0
-4.706 -16.576 -25.332 -0 -1.2 0
-4.651 -17.022 -25.064 -0 -1.2 0
-4.594 -17.463 -24.788 -0 -1.2 0
-4.535 -17.899 -24.504 -0 -1.2 0
-4.475 -18.33 -24.214 -0 -1.2 0
-4.413 -18.757 -23.916 -0 -1.2 0
-4.351 -19.177 -23.611 -0 -1.2 0
-4.287 -19.592 -23.298 -0 -1.2 0
-4.221 -20.001 -22.978 -0 -1.2 0
-4.155 -20.405 -22.652 -0 -1.2 0
-4.087 -20.803 -22.318 -0 -1.2 0
-4.018 -21.195 -21.978 -0 -1.2 0
-3.948 -21.581 -21.631 -0 -1.2 0
-3.876 -21.96 -21.278 -0 -1.2 0
-3.804 -22.333 -20.918 -0 -1.2 0
-3.73 -22.701 -20.551 -0 -1.2 0
-6.479 -7.374 -28.676 -0 -1.2 0
-6.448 -7.885 -28.567 -0 -1.2 0
-6.31 -9.907 -28.041 -0 -1.2 0
-6.271 -10.406 -27.888 -0 -1.2 0
-6.23 -10.902 -27.726 -0 -1.2 0
-6.186 -11.396 -27.556 -0 -1.2 0
-6.141 -11.886 -27.378 -0 -1.2 0
-6.094 -12.373 -27.191 -0 -1.2 0
-6.045 -12.857 -26.996 -0 -1.2 0
-5.995 -13.336 -26.793 -0 -1.2 0
-5.943 -13.813 -26.582 -0 -1.2 0
-5.888 -14.285 -26.362 -0 -1.2 0
-5.832 -14.753 -26.135 -0 -1.2 0
-5.774 -15.217 -25.9 -0 -1.2 0
-5.715 -15.677 -25.656 -0 -1.2 0
-5.653 -16.133 -25.405 -0 -1.2 0
-5.59 -16.584 -25.147 -0 -1.2 0
-5.526 -17.03 -24.88 -0 -1.2 0
-5.459 -17.471 -24.606 -0 -1.2 0
-5.39 -17.907 -24.325 -0 -1.2 0
-5.321 -18.338 -24.036 -0 -1.2 0
-5.249 -18.764 -23.74 -0 -1.2 0
-5.177 -19.185 -23.438 -0 -1.2 0
-5.102 -19.6 -23.127 -0 -1.2 0
-5.025 -20.009 -22.809 -0 -1.2 0
-4.948 -20.413 -22.485 -0 -1.2 0
-4.869 -20.81 -22.154 -0 -1.2 0
-4.788 -21.202 -21.816 -0 -1.2 0
-4.706 -21.588 -21.472 -0 -1.2 0
-4.623 -21.967 -21.12 -0 -1.2 0
-4.538 -22.34 -20.763 -0 -1.2 0
-4.452 -22.707 -20.399 -0 -1.2 0
-7.231 -10.415 -27.65 -0 -1.2 0
-7.185 -10.911 -27.49 -0 -1.2 0
-7.135 -11.404 -27.322 -0 -1.2 0
-7.084 -11.894 -27.145 -0 -1.2 0
-7.032 -12.381 -26.96 -0 -1.2 0
-6.977 -12.865 -26.767 -0 -1.2 0
-6.919 -13.344 -26.565 -0 -1.2 0
-6.86 -13.821 -26.355 -0 -1.2 0
-6.798 -14.293 -26.138 -0 -1.2 0
-6.735 -14.761 -25.912 -0 -1.2 0
-6.669 -15.225 -25.68 -0 -1.2 0
-6.601 -15.685 -25.438 -0 -1.2 0
-6.531 -16.14 -25.189 -0 -1.2 0
-6.46 -16.591 -24.933 -0 -1.2 0
-6.387 -17.037 -24.668 -0 -1.2 0
-6.311 -17.478 -24.397 -0 -1.2 0
-6.233 -17.915 -24.118 -0 -1.2 0
-6.154 -18.345 -23.831 -0 -1.2 0
-6.072 -18.772 -23.538 -0 -1.2 0
-5.989 -19.192 -23.237 -0 -1.2 0
-5.905 -19.607 -22.929 -0 -1.2 0
-5.817 -20.016 -22.614 -0 -1.2 0
-5.729 -20.419 -22.293 -0 -1.2 0
-5.639 -20.817 -21.964 -0 -1.2 0
-5.547 -21.209 -21.629 -0 -1.2 0
-5.453 -21.594 -21.287 -0 -1.2 0
-5.358 -21.973 -20.939 -0 -1.2 0
-5.261 -22.346 -20.585 -0 -1.2 0
-5.163 -22.713 -20.224 -0 -1.2 0
-8.465 -7.902 -28.031 -0 -1.2 0
-8.426 -8.411 -27.915 -0 -1.2 0
-8.384 -8.917 -27.79 -0 -1.2 0
-8.34 -9.422 -27.655 -0 -1.2 0
-8.292 -9.924 -27.513 -0 -1.2 0
-8.243 -10.423 -27.363 -0 -1.2 0
-8.191 -10.919 -27.204 -0 -1.2 0
-8.136 -11.412 -27.037 -0 -1.2 0
-8.079 -11.902 -26.862 -0 -1.2 0
-8.02 -12.389 -26.679 -0 -1.2 0
-7.958 -12.873 -26.488 -0 -1.2 0
-7.893 -13.352 -26.288 -0 -1.2 0
-7.827 -13.829 -26.081 -0 -1.2 0
-7.758 -14.3 -25.866 -0 -1.2 0
-7.686 -14.769 -25.642 -0 -1.2 0
-7.612 -15.232 -25.411 -0 -1.2 0
-7.536 -15.693 -25.172 -0 -1.2 0
-7.457 -16.148 -24.926 -0 -1.2 0
-7.376 -16.599 -24.672 -0 -1.2 0
-7.293 -17.045 -24.41 -0 -1.2 0
-7.208 -17.485 -24.142 -0 -1.2 0
-7.121 -17.922 -23.865 -0 -1.2 0
-6.939 -18.779 -23.291 -0 -1.2 0
-6.846 -19.199 -22.993 -0 -1.2 0
-6.652 -20.022 -22.377 -0 -1.2 0
-6.552 -20.426 -22.058 -0 -1.2 0
-6.45 -20.824 -21.734 -0 -1.2 0
-6.346 -21.215 -21.402 -0 -1.2 0
-6.24 -21.6 -21.063 -0 -1.2 0
-6.132 -21.98 -20.719 -0 -1.2 0
-6.023 -22.353 -20.368 -0 -1.2 0
-5.912 -22.72 -20.011 -0 -1.2 0
-9.456 -7.398 -27.831 -0 -1.2 0
-9.416 -7.909 -27.724 -0 -1.2 0
-9.373 -8.418 -27.609 -0 -1.2 0
-9.327 -8.924 -27.484 -0 -1.2 0
-9.279 -9.429 -27.352 -0 -1.2 0
-9.226 -9.931 -27.212 -0 -1.2 0
-9.172 -10.43 -27.063 -0 -1.2 0
-9.116 -10.926 -26.906 -0 -1.2 0
-9.055 -11.419 -26.741 -0 -1.2 0
-8.992 -11.909 -26.567 -0 -1.2 0
-8.859 -12.879 -26.196 -0 -1.2 0
-8.714 -13.835 -25.794 -0 -1.2 0
-8.638 -14.307 -25.581 -0 -1.2 0
-8.559 -14.776 -25.36 -0 -1.2 0
-8.479 -15.239 -25.131 -0 -1.2 0
-8.308 -16.154 -24.652 -0 -1.2 0
-8.033 -17.492 -23.876 -0 -1.2 0
-7.308 -20.432 -21.815 -0 -1.2 0
-7.195 -20.829 -21.493 -0 -1.2 0
-7.08 -21.221 -21.165 -0 -1.2 0
-6.963 -21.606 -20.83 -0 -1.2 0
-6.844 -21.985 -20.489 -0 -1.2 0
-6.723 -22.358 -20.142 -0 -1.2 0
-6.6 -22.725 -19.789 -0 -1.2 0
-10.668 0.399 -28.064 -0 -1.2 0
-10.673 -0.122 -28.085 -0 -1.2 0
-10.674 -0.646 -28.098 -0 -1.2 0
-10.672 -1.17 -28.102 -0 -1.2 0
-10.615 -3.783 -27.996 -0 -1.2 0
-10.594 -4.304 -27.95 -0 -1.2 0
-10.569 -4.824 -27.894 -0 -1.2 0
-10.541 -5.343 -27.83 -0 -1.2 0
-10.511 -5.861 -27.758 -0 -1.2 0
-10.477 -6.377 -27.677 -0 -1.2 0
-10.44 -6.892 -27.588 -0 -1.2 0
-10.399 -7.405 -27.491 -0 -1.2 0
-10.356 -7.915 -27.385 -0 -1.2 0
-10.309 -8.424 -27.271 -0 -1.2 0
-10.259 -8.931 -27.148 -0 -1.2 0
-10.206 -9.435 -27.018 -0 -1.2 0
-10.15 -9.937 -26.879 -0 -1.2 0
-10.091 -10.436 -26.732 -0 -1.2 0
-10.028 -10.932 -26.577 -0 -1.2 0
-9.963 -11.426 -26.413 -0 -1.2 0
-9.895 -11.915 -26.242 -0 -1.2 0
-9.824 -12.402 -26.063 -0 -1.2 0
-9.509 -14.313 -25.267 -0 -1.2 0
-9.423 -14.781 -25.049 -0 -1.2 0
-9.334 -15.245 -24.823 -0 -1.2 0
-9.243 -15.705 -24.59 -0 -1.2 0
-8.848 -17.497 -23.582 -0 -1.2 0
-8.635 -18.364 -23.035 -0 -1.2 0
-8.055 -20.437 -21.545 -0 -1.2 0
-7.806 -21.226 -20.903 -0 -1.2 0
-7.678 -21.611 -20.573 -0 -1.2 0
-7.548 -21.99 -20.236 -0 -1.2 0
-7.415 -22.363 -19.893 -0 -1.2 0
-7.28 -22.729 -19.544 -0 -1.2 0
-11.704 -0.128 -27.671 -0 -1.2 0
-11.706 -0.653 -27.684 -0 -1.2 0
-11.7 -1.699 -27.684 -0 -1.2 0
-11.691 -2.222 -27.671 -0 -1.2 0
-11.679 -2.744 -27.65 -0 -1.2 0
-11.664 -3.268 -27.62 -0 -1.2 0
-11.645 -3.789 -27.583 -0 -1.2 0
-11.623 -4.31 -27.537 -0 -1.2 0
-11.596 -4.83 -27.482 -0 -1.2 0
-11.566 -5.35 -27.419 -0 -1.2 0
-11.534 -5.867 -27.348 -0 -1.2 0
-11.496 -6.384 -27.268 -0 -1.2 0
-11.457 -6.898 -27.18 -0 -1.2 0
-11.413 -7.411 -27.085 -0 -1.2 0
-11.366 -7.922 -26.979 -0 -1.2 0
-11.315 -8.43 -26.867 -0 -1.2 0
-11.261 -8.937 -26.746 -0 -1.2 0
-11.203 -9.441 -26.618 -0 -1.2 0
-10.052 -16.166 -23.986 -0 -1.2 0
-8.586 -21.23 -20.59 -0 -1.2 0
-8.304 -21.994 -19.933 -0 -1.2 0
-8.01 -22.734 -19.251 -0 -1.2 0
-12.654 -0.134 -27.25 -0 -1.2 0
-12.658 -0.658 -27.262 -0 -1.2 0
-12.657 -1.181 -27.266 -0 -1.2 0
-12.653 -1.704 -27.262 -0 -1.2 0
-12.644 -2.227 -27.249 -0 -1.2 0
-12.631 -2.75 -27.229 -0 -1.2 0
-12.615 -3.273 -27.199 -0 -1.2 0
-12.595 -3.794 -27.162 -0 -1.2 0
-12.571 -4.315 -27.117 -0 -1.2 0
-12.543 -4.835 -27.062 -0 -1.2 0
-12.511 -5.355 -27 -0 -1.2 0
-12.477 -5.872 -26.929 -0 -1.2 0
-12.437 -6.389 -26.851 -0 -1.2 0
-12.395 -6.903 -26.765 -0 -1.2 0
-12.348 -7.416 -26.67 -0 -1.2 0
-12.243 -8.435 -26.456 -0 -1.2 0
-11.841 -11.437 -25.623 -0 -1.2 0
