# .PCD v.7 - Point Cloud Data file format
FIELDS x y z vp_x vp_y vp_z
SIZE 4 4 4 4 4 4
TYPE F F F F F F
COUNT 1 1 1 1 1 1
WIDTH 1549
HEIGHT 1
VIEWPOINT 0 -1.20013 0 1 0 0 0
POINTS 1549
DATA ascii
-16.908 -22.33 12.95 -0 -1.2 0
-17.595 -20.782 14.409 -0 -1.2 0
-17.318 -21.174 14.201 -0 -1.2 0
-17.035 -21.56 13.989 -0 -1.2 0
-16.746 -21.94 13.772 -0 -1.2 0
-16.453 -22.314 13.551 -0 -1.2 0
-16.854 -21.159 14.771 -0 -1.2 0
-16.578 -21.545 14.55 -0 -1.2 0
-16.297 -21.925 14.324 -0 -1.2 0
-16.011 -22.299 14.094 -0 -1.2 0
-15.824 -21.91 14.868 -0 -1.2 0
-15.546 -22.284 14.628 -0 -1.2 0
-15.024 -22.268 15.188 -0 -1.2 0
-7.175 -22.081 20.33 -0 -1.2 0
-6.747 -21.306 21.246 -0 -1.2 0
-6.627 -21.69 20.91 -0 -1.2 0
-6.505 -22.068 20.568 -0 -1.2 0
-6.304 -20.104 22.462 -0 -1.2 0
-6.202 -20.506 22.143 -0 -1.2 0
-6.099 -20.902 21.817 -0 -1.2 0
-5.993 -21.292 21.484 -0 -1.2 0
-5.885 -21.677 21.145 -0 -1.2 0
-5.776 -22.055 20.799 -0 -1.2 0
-5.741 -19.269 23.293 -0 -1.2 0
-5.653 -19.683 22.984 -0 -1.2 0
-5.563 -20.091 22.669 -0 -1.2 0
-5.472 -20.493 22.346 -0 -1.2 0
-5.38 -20.89 22.017 -0 -1.2 0
-5.285 -21.28 21.681 -0 -1.2 0
-5.189 -21.664 21.339 -0 -1.2 0
-5.091 -22.043 20.99 -0 -1.2 0
-5.133 -17.981 24.384 -0 -1.2 0
-5.062 -18.411 24.094 -0 -1.2 0
-4.988 -18.836 23.797 -0 -1.2 0
-4.914 -19.255 23.493 -0 -1.2 0
-4.838 -19.669 23.182 -0 -1.2 0
-4.759 -20.077 22.864 -0 -1.2 0
-4.68 -20.48 22.538 -0 -1.2 0
-4.599 -20.876 22.206 -0 -1.2 0
-4.517 -21.267 21.867 -0 -1.2 0
-4.434 -21.652 21.521 -0 -1.2 0
-4.349 -22.03 21.17 -0 -1.2 0
-4.522 -16.646 25.376 -0 -1.2 0
-4.464 -17.092 25.108 -0 -1.2 0
-4.405 -17.532 24.831 -0 -1.2 0
-4.343 -17.968 24.546 -0 -1.2 0
-4.282 -18.398 24.255 -0 -1.2 0
-4.218 -18.823 23.956 -0 -1.2 0
-4.154 -19.242 23.649 -0 -1.2 0
-4.088 -19.657 23.336 -0 -1.2 0
-4.02 -20.065 23.015 -0 -1.2 0
-3.952 -20.468 22.688 -0 -1.2 0
-3.883 -20.864 22.354 -0 -1.2 0
-3.812 -21.255 22.012 -0 -1.2 0
-3.74 -21.64 21.664 -0 -1.2 0
-3.667 -22.019 21.31 -0 -1.2 0
-3.839 -15.269 26.284 -0 -1.2 0
-3.794 -15.728 26.036 -0 -1.2 0
-3.747 -16.183 25.781 -0 -1.2 0
-3.7 -16.633 25.518 -0 -1.2 0
-3.651 -17.079 25.248 -0 -1.2 0
-3.6 -17.519 24.969 -0 -1.2 0
-3.549 -17.955 24.683 -0 -1.2 0
-3.497 -18.385 24.39 -0 -1.2 0
-3.443 -18.811 24.089 -0 -1.2 0
-3.389 -19.23 23.781 -0 -1.2 0
-3.334 -19.645 23.466 -0 -1.2 0
-3.277 -20.053 23.143 -0 -1.2 0
-3.22 -20.456 22.814 -0 -1.2 0
-3.162 -20.853 22.477 -0 -1.2 0
-3.102 -21.244 22.135 -0 -1.2 0
-3.042 -21.629 21.784 -0 -1.2 0
-2.981 -22.008 21.428 -0 -1.2 0
-3.059 -13.375 27.323 -0 -1.2 0
-3.025 -13.851 27.107 -0 -1.2 0
-2.992 -14.323 26.882 -0 -1.2 0
-2.957 -14.791 26.65 -0 -1.2 0
-2.921 -15.255 26.41 -0 -1.2 0
-2.885 -15.715 26.161 -0 -1.2 0
-2.847 -16.169 25.905 -0 -1.2 0
-2.81 -16.619 25.64 -0 -1.2 0
-2.77 -17.065 25.368 -0 -1.2 0
-2.73 -17.506 25.089 -0 -1.2 0
-2.69 -17.942 24.802 -0 -1.2 0
-2.648 -18.372 24.507 -0 -1.2 0
-2.606 -18.798 24.204 -0 -1.2 0
-2.562 -19.217 23.895 -0 -1.2 0
-2.518 -19.632 23.577 -0 -1.2 0
-2.473 -20.041 23.254 -0 -1.2 0
-2.427 -20.444 22.923 -0 -1.2 0
-2.381 -20.841 22.584 -0 -1.2 0
-2.334 -21.232 22.24 -0 -1.2 0
-2.286 -21.617 21.888 -0 -1.2 0
-2.237 -21.997 21.53 -0 -1.2 0
-2.591 0.924 29.938 -0 -1.2 0
-2.581 -0.121 29.992 -0 -1.2 0
-2.575 -0.644 30.005 -0 -1.2 0
-2.567 -1.167 30.009 -0 -1.2 0
-2.559 -1.69 30.004 -0 -1.2 0
-2.55 -2.214 29.99 -0 -1.2 0
-2.542 -2.736 29.967 -0 -1.2 0
-2.52 -3.781 29.893 -0 -1.2 0
-2.508 -4.302 29.842 -0 -1.2 0
-2.496 -4.822 29.783 -0 -1.2 0
-2.482 -5.341 29.715 -0 -1.2 0
-2.468 -5.859 29.637 -0 -1.2 0
-2.452 -6.375 29.551 -0 -1.2 0
-2.403 -7.913 29.237 -0 -1.2 0
-2.367 -8.929 28.984 -0 -1.2 0
-2.348 -9.433 28.844 -0 -1.2 0
-2.327 -9.934 28.695 -0 -1.2 0
-2.307 -10.434 28.537 -0 -1.2 0
-2.263 -11.423 28.198 -0 -1.2 0
-2.24 -11.913 28.014 -0 -1.2 0
-2.217 -12.399 27.823 -0 -1.2 0
-2.193 -12.883 27.623 -0 -1.2 0
-2.168 -13.362 27.414 -0 -1.2 0
-2.142 -13.838 27.197 -0 -1.2 0
-2.115 -14.31 26.972 -0 -1.2 0
-2.089 -14.778 26.739 -0 -1.2 0
-2.061 -15.242 26.497 -0 -1.2 0
-2.033 -15.702 26.248 -0 -1.2 0
-2.005 -16.157 25.991 -0 -1.2 0
-1.975 -16.607 25.726 -0 -1.2 0
-1.945 -17.053 25.453 -0 -1.2 0
-1.914 -17.494 25.172 -0 -1.2 0
-1.884 -17.93 24.885 -0 -1.2 0
-1.852 -18.361 24.589 -0 -1.2 0
-1.82 -18.786 24.285 -0 -1.2 0
-1.786 -19.206 23.974 -0 -1.2 0
-1.753 -19.621 23.656 -0 -1.2 0
-1.72 -20.03 23.331 -0 -1.2 0
-1.684 -20.433 22.999 -0 -1.2 0
-1.65 -20.83 22.66 -0 -1.2 0
-1.614 -21.222 22.313 -0 -1.2 0
-1.578 -21.607 21.961 -0 -1.2 0
-1.542 -21.987 21.602 -0 -1.2 0
-1.592 0.938 30.007 -0 -1.2 0
-1.581 -0.107 30.061 -0 -1.2 0
-1.574 -0.63 30.074 -0 -1.2 0
-1.567 -1.153 30.079 -0 -1.2 0
-1.559 -1.676 30.073 -0 -1.2 0
-1.552 -2.2 30.059 -0 -1.2 0
-1.543 -2.722 30.036 -0 -1.2 0
-1.534 -3.245 30.003 -0 -1.2 0
-1.524 -3.766 29.962 -0 -1.2 0
-1.514 -4.288 29.911 -0 -1.2 0
-1.505 -4.808 29.852 -0 -1.2 0
-1.482 -5.845 29.705 -0 -1.2 0
-1.47 -6.361 29.618 -0 -1.2 0
-1.458 -6.876 29.523 -0 -1.2 0
-1.432 -7.899 29.305 -0 -1.2 0
-1.419 -8.408 29.182 -0 -1.2 0
-1.391 -9.419 28.91 -0 -1.2 0
-1.375 -9.921 28.761 -0 -1.2 0
-1.361 -10.42 28.603 -0 -1.2 0
-1.344 -10.916 28.437 -0 -1.2 0
-1.313 -11.9 28.079 -0 -1.2 0
-1.295 -12.386 27.886 -0 -1.2 0
-1.278 -12.87 27.685 -0 -1.2 0
-1.26 -13.349 27.477 -0 -1.2 0
-1.243 -13.826 27.26 -0 -1.2 0
-1.223 -14.297 27.034 -0 -1.2 0
-1.204 -14.766 26.801 -0 -1.2 0
-1.185 -15.23 26.558 -0 -1.2 0
-1.166 -15.69 26.309 -0 -1.2 0
-1.147 -16.145 26.05 -0 -1.2 0
-1.126 -16.595 25.785 -0 -1.2 0
-1.105 -17.041 25.511 -0 -1.2 0
-1.084 -17.482 25.23 -0 -1.2 0
-1.063 -17.918 24.941 -0 -1.2 0
-1.041 -18.349 24.644 -0 -1.2 0
-1.02 -18.775 24.34 -0 -1.2 0
-0.997 -19.195 24.029 -0 -1.2 0
-0.975 -19.61 23.71 -0 -1.2 0
-0.952 -20.019 23.385 -0 -1.2 0
-0.928 -20.422 23.051 -0 -1.2 0
-0.905 -20.82 22.712 -0 -1.2 0
-0.881 -21.211 22.364 -0 -1.2 0
-0.857 -21.597 22.011 -0 -1.2 0
-0.833 -21.977 21.651 -0 -1.2 0
-0.514 0.953 30.045 -0 -1.2 0
-0.494 -0.615 30.112 -0 -1.2 0
-0.487 -1.138 30.116 -0 -1.2 0
-0.48 -1.661 30.111 -0 -1.2 0
-0.473 -2.185 30.097 -0 -1.2 0
-0.466 -2.708 30.073 -0 -1.2 0
-0.458 -3.23 30.041 -0 -1.2 0
-0.45 -3.752 29.999 -0 -1.2 0
-0.442 -4.274 29.949 -0 -1.2 0
-0.435 -4.794 29.889 -0 -1.2 0
-0.427 -5.313 29.82 -0 -1.2 0
-0.402 -6.861 29.56 -0 -1.2 0
-0.393 -7.374 29.454 -0 -1.2 0
-0.376 -8.394 29.218 -0 -1.2 0
-0.366 -8.901 29.086 -0 -1.2 0
-0.358 -9.405 28.946 -0 -1.2 0
-0.329 -10.902 28.472 -0 -1.2 0
-0.311 -11.886 28.113 -0 -1.2 0
-0.301 -12.372 27.921 -0 -1.2 0
-0.291 -12.856 27.72 -0 -1.2 0
-0.282 -13.336 27.511 -0 -1.2 0
-0.272 -13.812 27.293 -0 -1.2 0
-0.262 -14.284 27.068 -0 -1.2 0
-0.251 -14.753 26.833 -0 -1.2 0
-0.24 -15.217 26.591 -0 -1.2 0
-0.231 -15.677 26.342 -0 -1.2 0
-0.221 -16.132 26.083 -0 -1.2 0
-0.21 -16.583 25.816 -0 -1.2 0
-0.199 -17.029 25.543 -0 -1.2 0
-0.188 -17.47 25.261 -0 -1.2 0
-0.178 -17.906 24.972 -0 -1.2 0
-0.167 -18.337 24.675 -0 -1.2 0
-0.157 -18.763 24.37 -0 -1.2 0
-0.145 -19.183 24.058 -0 -1.2 0
-0.135 -19.598 23.74 -0 -1.2 0
-0.124 -20.008 23.414 -0 -1.2 0
-0.113 -20.411 23.08 -0 -1.2 0
-0.102 -20.809 22.74 -0 -1.2 0
-0.091 -21.2 22.392 -0 -1.2 0
-0.08 -21.586 22.038 -0 -1.2 0
-0.069 -21.966 21.678 -0 -1.2 0
0.486 0.966 30.045 -0 -1.2 0
0.502 -0.607 29.782 -0 -1.2 0
0.507 -1.125 29.696 -0 -1.2 0
0.514 -1.642 29.741 -0 -1.2 0
0.527 -2.172 30.096 -0 -1.2 0
0.533 -2.695 30.073 -0 -1.2 0
0.539 -3.217 30.041 -0 -1.2 0
0.546 -3.739 29.999 -0 -1.2 0
0.551 -4.261 29.949 -0 -1.2 0
0.556 -4.781 29.889 -0 -1.2 0
0.562 -5.3 29.82 -0 -1.2 0
0.568 -5.817 29.742 -0 -1.2 0
0.572 -6.334 29.655 -0 -1.2 0
0.577 -6.848 29.559 -0 -1.2 0
0.587 -7.872 29.34 -0 -1.2 0
0.591 -8.381 29.218 -0 -1.2 0
0.604 -9.894 28.797 -0 -1.2 0
0.607 -10.394 28.639 -0 -1.2 0
0.615 -11.384 28.297 -0 -1.2 0
0.617 -11.874 28.113 -0 -1.2 0
0.621 -12.36 27.921 -0 -1.2 0
0.624 -12.844 27.72 -0 -1.2 0
0.626 -13.324 27.511 -0 -1.2 0
0.628 -13.801 27.294 -0 -1.2 0
0.631 -14.272 27.067 -0 -1.2 0
0.633 -14.741 26.833 -0 -1.2 0
0.635 -15.205 26.592 -0 -1.2 0
0.636 -15.666 26.341 -0 -1.2 0
0.638 -16.121 26.083 -0 -1.2 0
0.639 -16.571 25.817 -0 -1.2 0
0.641 -17.018 25.543 -0 -1.2 0
0.642 -17.459 25.261 -0 -1.2 0
0.642 -17.896 24.972 -0 -1.2 0
0.643 -18.327 24.675 -0 -1.2 0
0.643 -18.753 24.37 -0 -1.2 0
0.644 -19.173 24.059 -0 -1.2 0
0.644 -19.588 23.74 -0 -1.2 0
0.643 -19.998 23.413 -0 -1.2 0
0.642 -20.401 23.08 -0 -1.2 0
0.643 -20.799 22.74 -0 -1.2 0
0.642 -21.191 22.392 -0 -1.2 0
0.641 -21.577 22.038 -0 -1.2 0
0.639 -21.957 21.677 -0 -1.2 0
1.485 0.979 30.011 -0 -1.2 0
1.493 0.455 30.043 -0 -1.2 0
1.501 -0.066 30.066 -0 -1.2 0
1.508 -0.589 30.078 -0 -1.2 0
1.515 -1.112 30.083 -0 -1.2 0
1.52 -1.635 30.078 -0 -1.2 0
1.526 -2.16 30.063 -0 -1.2 0
1.531 -2.682 30.04 -0 -1.2 0
1.536 -3.205 30.007 -0 -1.2 0
1.541 -3.726 29.966 -0 -1.2 0
1.544 -4.248 29.916 -0 -1.2 0
1.547 -4.768 29.856 -0 -1.2 0
1.55 -5.288 29.787 -0 -1.2 0
1.553 -5.805 29.709 -0 -1.2 0
1.554 -6.321 29.623 -0 -1.2 0
1.556 -6.836 29.527 -0 -1.2 0
1.558 -7.349 29.422 -0 -1.2 0
1.558 -7.86 29.308 -0 -1.2 0
1.558 -8.369 29.185 -0 -1.2 0
1.558 -8.876 29.055 -0 -1.2 0
1.557 -9.381 28.914 -0 -1.2 0
1.556 -9.882 28.765 -0 -1.2 0
1.554 -10.382 28.608 -0 -1.2 0
1.551 -10.878 28.441 -0 -1.2 0
1.549 -11.372 28.266 -0 -1.2 0
1.545 -11.862 28.083 -0 -1.2 0
1.542 -12.349 27.89 -0 -1.2 0
1.538 -12.833 27.69 -0 -1.2 0
1.533 -13.313 27.481 -0 -1.2 0
1.528 -13.789 27.264 -0 -1.2 0
1.522 -14.261 27.038 -0 -1.2 0
1.516 -14.73 26.804 -0 -1.2 0
1.51 -15.194 26.563 -0 -1.2 0
1.503 -15.655 26.312 -0 -1.2 0
1.496 -16.11 26.055 -0 -1.2 0
1.488 -16.561 25.788 -0 -1.2 0
1.48 -17.008 25.514 -0 -1.2 0
1.471 -17.448 25.234 -0 -1.2 0
1.462 -17.885 24.945 -0 -1.2 0
1.453 -18.316 24.648 -0 -1.2 0
1.443 -18.743 24.344 -0 -1.2 0
1.433 -19.163 24.033 -0 -1.2 0
1.422 -19.579 23.714 -0 -1.2 0
1.41 -19.988 23.387 -0 -1.2 0
1.398 -20.392 23.055 -0 -1.2 0
1.386 -20.79 22.714 -0 -1.2 0
1.375 -21.182 22.368 -0 -1.2 0
1.361 -21.568 22.014 -0 -1.2 0
1.347 -21.948 21.653 -0 -1.2 0
2.581 -0.576 30.006 -0 -1.2 0
2.586 -1.099 30.01 -0 -1.2 0
2.592 -1.623 30.005 -0 -1.2 0
2.597 -2.147 29.991 -0 -1.2 0
2.601 -2.669 29.968 -0 -1.2 0
2.605 -3.192 29.935 -0 -1.2 0
2.608 -3.714 29.894 -0 -1.2 0
2.609 -4.236 29.843 -0 -1.2 0
2.61 -4.756 29.784 -0 -1.2 0
2.61 -5.275 29.715 -0 -1.2 0
2.61 -5.792 29.638 -0 -1.2 0
2.608 -6.309 29.552 -0 -1.2 0
2.606 -6.824 29.456 -0 -1.2 0
2.603 -7.336 29.351 -0 -1.2 0
2.599 -7.848 29.238 -0 -1.2 0
2.594 -8.357 29.115 -0 -1.2 0
2.589 -8.864 28.985 -0 -1.2 0
2.583 -9.369 28.845 -0 -1.2 0
2.576 -9.87 28.696 -0 -1.2 0
2.568 -10.37 28.538 -0 -1.2 0
2.559 -10.866 28.372 -0 -1.2 0
2.551 -11.36 28.198 -0 -1.2 0
2.54 -11.85 28.015 -0 -1.2 0
2.529 -12.337 27.824 -0 -1.2 0
2.518 -12.821 27.624 -0 -1.2 0
2.506 -13.301 27.415 -0 -1.2 0
2.493 -13.778 27.198 -0 -1.2 0
2.479 -14.25 26.973 -0 -1.2 0
2.464 -14.719 26.74 -0 -1.2 0
2.449 -15.183 26.498 -0 -1.2 0
2.433 -15.644 26.249 -0 -1.2 0
2.416 -16.099 25.991 -0 -1.2 0
2.399 -16.55 25.727 -0 -1.2 0
2.381 -16.997 25.454 -0 -1.2 0
2.361 -17.438 25.173 -0 -1.2 0
2.342 -17.875 24.885 -0 -1.2 0
2.322 -18.306 24.589 -0 -1.2 0
2.3 -18.732 24.286 -0 -1.2 0
2.278 -19.153 23.975 -0 -1.2 0
2.256 -19.569 23.657 -0 -1.2 0
2.233 -19.978 23.332 -0 -1.2 0
2.209 -20.382 23 -0 -1.2 0
2.184 -20.78 22.66 -0 -1.2 0
2.159 -21.172 22.315 -0 -1.2 0
2.133 -21.559 21.962 -0 -1.2 0
2.107 -21.939 21.602 -0 -1.2 0
3.574 -0.565 29.904 -0 -1.2 0
3.579 -1.088 29.908 -0 -1.2 0
3.585 -1.611 29.903 -0 -1.2 0
3.589 -2.136 29.889 -0 -1.2 0
3.592 -2.658 29.866 -0 -1.2 0
3.595 -3.181 29.834 -0 -1.2 0
3.595 -3.702 29.793 -0 -1.2 0
3.595 -4.224 29.742 -0 -1.2 0
3.593 -4.745 29.683 -0 -1.2 0
3.591 -5.264 29.614 -0 -1.2 0
3.587 -5.781 29.538 -0 -1.2 0
3.583 -6.298 29.451 -0 -1.2 0
3.577 -6.813 29.356 -0 -1.2 0
3.571 -7.326 29.252 -0 -1.2 0
3.563 -7.837 29.139 -0 -1.2 0
3.554 -8.346 29.017 -0 -1.2 0
3.544 -8.853 28.886 -0 -1.2 0
3.533 -9.358 28.747 -0 -1.2 0
3.52 -9.859 28.599 -0 -1.2 0
3.508 -10.359 28.442 -0 -1.2 0
3.493 -10.855 28.277 -0 -1.2 0
3.478 -11.35 28.103 -0 -1.2 0
3.462 -11.84 27.92 -0 -1.2 0
3.444 -12.326 27.729 -0 -1.2 0
3.426 -12.811 27.53 -0 -1.2 0
3.406 -13.291 27.322 -0 -1.2 0
3.386 -13.768 27.106 -0 -1.2 0
3.364 -14.24 26.882 -0 -1.2 0
3.342 -14.709 26.65 -0 -1.2 0
3.318 -15.173 26.409 -0 -1.2 0
3.293 -15.634 26.161 -0 -1.2 0
3.268 -16.09 25.904 -0 -1.2 0
3.242 -16.54 25.641 -0 -1.2 0
3.214 -16.987 25.368 -0 -1.2 0
3.185 -17.428 25.088 -0 -1.2 0
3.156 -17.866 24.801 -0 -1.2 0
3.126 -18.297 24.507 -0 -1.2 0
3.094 -18.723 24.204 -0 -1.2 0
3.062 -19.144 23.894 -0 -1.2 0
3.029 -19.56 23.577 -0 -1.2 0
2.995 -19.97 23.254 -0 -1.2 0
2.959 -20.374 22.923 -0 -1.2 0
2.923 -20.772 22.585 -0 -1.2 0
2.886 -21.164 22.239 -0 -1.2 0
2.849 -21.55 21.888 -0 -1.2 0
2.81 -21.931 21.53 -0 -1.2 0
4.536 1.013 29.703 -0 -1.2 0
4.547 0.49 29.733 -0 -1.2 0
4.556 -0.032 29.756 -0 -1.2 0
4.562 -0.555 29.77 -0 -1.2 0
4.569 -1.078 29.773 -0 -1.2 0
4.574 -1.601 29.768 -0 -1.2 0
4.577 -2.125 29.755 -0 -1.2 0
4.579 -2.647 29.731 -0 -1.2 0
4.58 -3.17 29.7 -0 -1.2 0
4.579 -3.692 29.658 -0 -1.2 0
4.577 -4.214 29.609 -0 -1.2 0
4.573 -4.734 29.55 -0 -1.2 0
4.569 -5.253 29.481 -0 -1.2 0
4.562 -5.771 29.405 -0 -1.2 0
4.554 -6.287 29.319 -0 -1.2 0
4.545 -6.802 29.225 -0 -1.2 0
4.534 -7.315 29.12 -0 -1.2 0
4.523 -7.826 29.008 -0 -1.2 0
4.51 -8.336 28.887 -0 -1.2 0
4.495 -8.843 28.757 -0 -1.2 0
4.479 -9.348 28.618 -0 -1.2 0
4.461 -9.849 28.471 -0 -1.2 0
4.443 -10.349 28.315 -0 -1.2 0
4.423 -10.845 28.15 -0 -1.2 0
4.402 -11.34 27.977 -0 -1.2 0
4.379 -11.83 27.795 -0 -1.2 0
4.355 -12.317 27.605 -0 -1.2 0
4.33 -12.801 27.407 -0 -1.2 0
4.303 -13.281 27.2 -0 -1.2 0
4.275 -13.758 26.985 -0 -1.2 0
4.246 -14.23 26.762 -0 -1.2 0
4.216 -14.7 26.53 -0 -1.2 0
4.184 -15.164 26.291 -0 -1.2 0
4.151 -15.625 26.045 -0 -1.2 0
4.117 -16.08 25.789 -0 -1.2 0
4.081 -16.531 25.526 -0 -1.2 0
4.045 -16.978 25.255 -0 -1.2 0
4.006 -17.42 24.977 -0 -1.2 0
3.967 -17.857 24.69 -0 -1.2 0
3.926 -18.288 24.397 -0 -1.2 0
3.885 -18.715 24.096 -0 -1.2 0
3.842 -19.136 23.788 -0 -1.2 0
3.799 -19.552 23.473 -0 -1.2 0
3.753 -19.962 23.151 -0 -1.2 0
3.707 -20.366 22.82 -0 -1.2 0
3.659 -20.764 22.484 -0 -1.2 0
3.611 -21.156 22.141 -0 -1.2 0
3.561 -21.543 21.792 -0 -1.2 0
3.511 -21.923 21.435 -0 -1.2 0
5.58 1.024 29.524 -0 -1.2 0
5.591 0.501 29.555 -0 -1.2 0
5.601 -0.021 29.577 -0 -1.2 0
5.608 -0.544 29.59 -0 -1.2 0
5.614 -1.067 29.594 -0 -1.2 0
5.618 -1.59 29.59 -0 -1.2 0
5.621 -2.114 29.575 -0 -1.2 0
5.622 -2.637 29.553 -0 -1.2 0
5.62 -3.159 29.522 -0 -1.2 0
5.618 -3.681 29.48 -0 -1.2 0
5.614 -4.203 29.431 -0 -1.2 0
5.608 -4.723 29.372 -0 -1.2 0
5.601 -5.243 29.305 -0 -1.2 0
5.591 -5.76 29.228 -0 -1.2 0
5.58 -6.277 29.143 -0 -1.2 0
5.568 -6.792 29.049 -0 -1.2 0
5.553 -7.305 28.946 -0 -1.2 0
5.537 -7.816 28.834 -0 -1.2 0
5.519 -8.325 28.714 -0 -1.2 0
5.499 -8.833 28.585 -0 -1.2 0
5.479 -9.337 28.447 -0 -1.2 0
5.456 -9.839 28.301 -0 -1.2 0
5.432 -10.339 28.146 -0 -1.2 0
5.405 -10.835 27.982 -0 -1.2 0
5.378 -11.33 27.81 -0 -1.2 0
5.348 -11.82 27.629 -0 -1.2 0
5.317 -12.307 27.441 -0 -1.2 0
5.285 -12.791 27.243 -0 -1.2 0
5.251 -13.271 27.038 -0 -1.2 0
5.215 -13.749 26.825 -0 -1.2 0
5.178 -14.221 26.603 -0 -1.2 0
5.139 -14.69 26.372 -0 -1.2 0
5.098 -15.155 26.135 -0 -1.2 0
5.056 -15.615 25.889 -0 -1.2 0
5.013 -16.071 25.636 -0 -1.2 0
4.968 -16.522 25.374 -0 -1.2 0
4.921 -16.969 25.105 -0 -1.2 0
4.873 -17.411 24.828 -0 -1.2 0
4.824 -17.848 24.544 -0 -1.2 0
4.772 -18.28 24.252 -0 -1.2 0
4.72 -18.706 23.953 -0 -1.2 0
4.666 -19.127 23.647 -0 -1.2 0
4.612 -19.543 23.334 -0 -1.2 0
4.555 -19.953 23.014 -0 -1.2 0
4.496 -20.358 22.685 -0 -1.2 0
4.437 -20.756 22.351 -0 -1.2 0
4.376 -21.148 22.01 -0 -1.2 0
4.314 -21.535 21.663 -0 -1.2 0
4.251 -21.916 21.308 -0 -1.2 0
6.566 -0.535 29.392 -0 -1.2 0
6.572 -1.058 29.397 -0 -1.2 0
6.576 -1.581 29.392 -0 -1.2 0
6.578 -2.105 29.378 -0 -1.2 0
6.578 -2.628 29.356 -0 -1.2 0
6.575 -3.15 29.324 -0 -1.2 0
6.572 -3.672 29.284 -0 -1.2 0
6.566 -4.194 29.235 -0 -1.2 0
6.558 -4.714 29.176 -0 -1.2 0
6.547 -5.234 29.11 -0 -1.2 0
6.535 -5.751 29.033 -0 -1.2 0
6.521 -6.268 28.949 -0 -1.2 0
6.506 -6.783 28.855 -0 -1.2 0
6.487 -7.296 28.754 -0 -1.2 0
6.467 -7.807 28.642 -0 -1.2 0
6.446 -8.316 28.522 -0 -1.2 0
6.421 -8.824 28.395 -0 -1.2 0
6.396 -9.329 28.258 -0 -1.2 0
6.368 -9.83 28.112 -0 -1.2 0
6.338 -10.33 27.959 -0 -1.2 0
6.306 -10.827 27.796 -0 -1.2 0
6.272 -11.321 27.625 -0 -1.2 0
6.238 -11.812 27.446 -0 -1.2 0
6.2 -12.298 27.259 -0 -1.2 0
6.16 -12.783 27.063 -0 -1.2 0
6.12 -13.263 26.859 -0 -1.2 0
6.077 -13.74 26.647 -0 -1.2 0
6.032 -14.213 26.426 -0 -1.2 0
5.986 -14.682 26.198 -0 -1.2 0
5.937 -15.147 25.962 -0 -1.2 0
5.887 -15.607 25.717 -0 -1.2 0
5.835 -16.063 25.466 -0 -1.2 0
5.782 -16.514 25.206 -0 -1.2 0
5.725 -16.962 24.939 -0 -1.2 0
5.668 -17.403 24.664 -0 -1.2 0
5.61 -17.841 24.382 -0 -1.2 0
5.549 -18.272 24.092 -0 -1.2 0
5.487 -18.699 23.795 -0 -1.2 0
5.422 -19.12 23.491 -0 -1.2 0
5.357 -19.536 23.18 -0 -1.2 0
5.29 -19.946 22.861 -0 -1.2 0
5.221 -20.351 22.536 -0 -1.2 0
5.15 -20.749 22.204 -0 -1.2 0
5.078 -21.142 21.865 -0 -1.2 0
5.005 -21.528 21.519 -0 -1.2 0
4.93 -21.909 21.168 -0 -1.2 0
7.488 1.042 29.098 -0 -1.2 0
7.501 0.518 29.129 -0 -1.2 0
7.51 -0.003 29.15 -0 -1.2 0
7.518 -0.526 29.163 -0 -1.2 0
7.524 -1.049 29.168 -0 -1.2 0
7.528 -1.572 29.163 -0 -1.2 0
7.529 -2.096 29.15 -0 -1.2 0
7.527 -2.619 29.128 -0 -1.2 0
7.524 -3.142 29.096 -0 -1.2 0
7.518 -3.663 29.056 -0 -1.2 0
7.51 -4.185 29.007 -0 -1.2 0
7.5 -4.706 28.95 -0 -1.2 0
7.487 -5.225 28.884 -0 -1.2 0
7.473 -5.743 28.808 -0 -1.2 0
7.456 -6.259 28.725 -0 -1.2 0
7.437 -6.774 28.632 -0 -1.2 0
7.414 -7.287 28.531 -0 -1.2 0
7.391 -7.799 28.42 -0 -1.2 0
7.364 -8.308 28.302 -0 -1.2 0
7.336 -8.816 28.175 -0 -1.2 0
7.306 -9.32 28.039 -0 -1.2 0
7.273 -9.822 27.895 -0 -1.2 0
7.239 -10.322 27.742 -0 -1.2 0
7.201 -10.819 27.581 -0 -1.2 0
7.161 -11.313 27.412 -0 -1.2 0
7.12 -11.804 27.234 -0 -1.2 0
7.076 -12.29 27.048 -0 -1.2 0
7.03 -12.775 26.854 -0 -1.2 0
6.983 -13.255 26.652 -0 -1.2 0
6.933 -13.732 26.441 -0 -1.2 0
6.881 -14.205 26.222 -0 -1.2 0
6.826 -14.674 25.996 -0 -1.2 0
6.77 -15.139 25.762 -0 -1.2 0
6.712 -15.6 25.519 -0 -1.2 0
6.651 -16.056 25.27 -0 -1.2 0
6.589 -16.507 25.012 -0 -1.2 0
6.524 -16.954 24.747 -0 -1.2 0
6.458 -17.396 24.475 -0 -1.2 0
6.39 -17.833 24.194 -0 -1.2 0
6.319 -18.265 23.907 -0 -1.2 0
6.247 -18.692 23.612 -0 -1.2 0
6.173 -19.113 23.311 -0 -1.2 0
6.097 -19.529 23.002 -0 -1.2 0
6.02 -19.94 22.686 -0 -1.2 0
5.94 -20.344 22.363 -0 -1.2 0
5.858 -20.743 22.033 -0 -1.2 0
5.775 -21.135 21.698 -0 -1.2 0
5.69 -21.522 21.355 -0 -1.2 0
5.604 -21.903 21.005 -0 -1.2 0
8.503 1.05 28.817 -0 -1.2 0
8.515 0.527 28.848 -0 -1.2 0
8.526 0.004 28.869 -0 -1.2 0
8.534 -0.517 28.883 -0 -1.2 0
8.54 -1.04 28.887 -0 -1.2 0
8.543 -1.564 28.882 -0 -1.2 0
8.544 -2.088 28.869 -0 -1.2 0
8.541 -2.61 28.847 -0 -1.2 0
8.536 -3.133 28.816 -0 -1.2 0
8.529 -3.655 28.777 -0 -1.2 0
8.519 -4.177 28.728 -0 -1.2 0
8.507 -4.697 28.672 -0 -1.2 0
8.491 -5.217 28.605 -0 -1.2 0
8.473 -5.734 28.532 -0 -1.2 0
8.453 -6.251 28.448 -0 -1.2 0
8.43 -6.766 28.357 -0 -1.2 0
8.405 -7.279 28.256 -0 -1.2 0
8.377 -7.79 28.148 -0 -1.2 0
8.346 -8.3 28.03 -0 -1.2 0
8.313 -8.807 27.904 -0 -1.2 0
8.278 -9.312 27.77 -0 -1.2 0
8.24 -9.814 27.627 -0 -1.2 0
8.2 -10.314 27.476 -0 -1.2 0
8.156 -10.81 27.316 -0 -1.2 0
8.11 -11.305 27.15 -0 -1.2 0
8.063 -11.795 26.974 -0 -1.2 0
8.012 -12.282 26.789 -0 -1.2 0
7.959 -12.767 26.597 -0 -1.2 0
7.903 -13.247 26.396 -0 -1.2 0
7.847 -13.725 26.188 -0 -1.2 0
7.786 -14.197 25.972 -0 -1.2 0
7.724 -14.667 25.748 -0 -1.2 0
7.659 -15.132 25.515 -0 -1.2 0
7.592 -15.592 25.276 -0 -1.2 0
7.523 -16.049 25.029 -0 -1.2 0
7.451 -16.5 24.774 -0 -1.2 0
7.377 -16.947 24.511 -0 -1.2 0
7.301 -17.389 24.241 -0 -1.2 0
7.223 -17.826 23.964 -0 -1.2 0
7.142 -18.258 23.68 -0 -1.2 0
7.06 -18.685 23.388 -0 -1.2 0
6.974 -19.106 23.089 -0 -1.2 0
6.887 -19.523 22.783 -0 -1.2 0
6.799 -19.933 22.47 -0 -1.2 0
6.707 -20.338 22.151 -0 -1.2 0
6.614 -20.736 21.824 -0 -1.2 0
6.519 -21.129 21.492 -0 -1.2 0
6.422 -21.516 21.153 -0 -1.2 0
6.323 -21.897 20.807 -0 -1.2 0
9.457 1.058 28.518 -0 -1.2 0
9.47 0.535 28.549 -0 -1.2 0
9.498 -1.556 28.583 -0 -1.2 0
9.498 -2.08 28.57 -0 -1.2 0
9.494 -2.603 28.548 -0 -1.2 0
9.488 -3.126 28.518 -0 -1.2 0
9.479 -3.647 28.478 -0 -1.2 0
9.468 -4.169 28.431 -0 -1.2 0
9.452 -4.69 28.375 -0 -1.2 0
9.435 -5.209 28.31 -0 -1.2 0
9.414 -5.727 28.237 -0 -1.2 0
9.391 -6.243 28.154 -0 -1.2 0
9.365 -6.758 28.064 -0 -1.2 0
9.336 -7.272 27.964 -0 -1.2 0
9.304 -7.783 27.857 -0 -1.2 0
9.269 -8.292 27.741 -0 -1.2 0
9.232 -8.8 27.616 -0 -1.2 0
9.191 -9.305 27.484 -0 -1.2 0
9.149 -9.807 27.343 -0 -1.2 0
9.102 -10.307 27.193 -0 -1.2 0
9.054 -10.803 27.035 -0 -1.2 0
9.002 -11.298 26.869 -0 -1.2 0
8.949 -11.789 26.695 -0 -1.2 0
8.892 -12.275 26.513 -0 -1.2 0
8.832 -12.76 26.322 -0 -1.2 0
8.77 -13.241 26.124 -0 -1.2 0
8.706 -13.718 25.918 -0 -1.2 0
8.638 -14.19 25.705 -0 -1.2 0
8.568 -14.66 25.483 -0 -1.2 0
8.495 -15.125 25.253 -0 -1.2 0
8.42 -15.586 25.016 -0 -1.2 0
8.342 -16.042 24.771 -0 -1.2 0
8.261 -16.493 24.52 -0 -1.2 0
8.179 -16.941 24.26 -0 -1.2 0
8.094 -17.382 23.992 -0 -1.2 0
8.006 -17.82 23.719 -0 -1.2 0
7.916 -18.252 23.437 -0 -1.2 0
7.823 -18.679 23.149 -0 -1.2 0
7.728 -19.1 22.853 -0 -1.2 0
7.63 -19.517 22.55 -0 -1.2 0
7.532 -19.927 22.241 -0 -1.2 0
7.429 -20.332 21.925 -0 -1.2 0
7.325 -20.731 21.602 -0 -1.2 0
7.219 -21.124 21.273 -0 -1.2 0
7.11 -21.511 20.937 -0 -1.2 0
7 -21.892 20.594 -0 -1.2 0
10.442 -1.026 28.255 -0 -1.2 0
10.445 -1.549 28.251 -0 -1.2 0
10.443 -2.073 28.238 -0 -1.2 0
10.439 -2.596 28.217 -0 -1.2 0
10.431 -3.119 28.187 -0 -1.2 0
10.421 -3.641 28.148 -0 -1.2 0
10.407 -4.163 28.102 -0 -1.2 0
10.39 -4.683 28.045 -0 -1.2 0
10.37 -5.202 27.982 -0 -1.2 0
10.347 -5.72 27.91 -0 -1.2 0
10.321 -6.237 27.828 -0 -1.2 0
10.291 -6.752 27.739 -0 -1.2 0
10.259 -7.265 27.641 -0 -1.2 0
10.223 -7.776 27.534 -0 -1.2 0
10.184 -8.286 27.42 -0 -1.2 0
10.142 -8.793 27.297 -0 -1.2 0
10.097 -9.298 27.166 -0 -1.2 0
10.049 -9.8 27.027 -0 -1.2 0
9.998 -10.3 26.879 -0 -1.2 0
9.944 -10.797 26.723 -0 -1.2 0
9.887 -11.291 26.559 -0 -1.2 0
9.827 -11.782 26.387 -0 -1.2 0
9.764 -12.269 26.207 -0 -1.2 0
9.697 -12.754 26.019 -0 -1.2 0
9.628 -13.234 25.824 -0 -1.2 0
9.557 -13.712 25.62 -0 -1.2 0
9.482 -14.184 25.409 -0 -1.2 0
9.404 -14.654 25.19 -0 -1.2 0
9.324 -15.119 24.963 -0 -1.2 0
9.241 -15.58 24.729 -0 -1.2 0
9.155 -16.036 24.487 -0 -1.2 0
9.065 -16.488 24.238 -0 -1.2 0
8.973 -16.935 23.981 -0 -1.2 0
8.879 -17.377 23.717 -0 -1.2 0
8.781 -17.815 23.446 -0 -1.2 0
8.682 -18.247 23.168 -0 -1.2 0
8.58 -18.674 22.882 -0 -1.2 0
8.475 -19.095 22.59 -0 -1.2 0
8.367 -19.511 22.292 -0 -1.2 0
8.258 -19.922 21.986 -0 -1.2 0
8.145 -20.327 21.674 -0 -1.2 0
8.03 -20.726 21.355 -0 -1.2 0
7.912 -21.119 21.03 -0 -1.2 0
7.792 -21.506 20.698 -0 -1.2 0
7.67 -21.887 20.36 -0 -1.2 0
11.407 1.071 27.795 -0 -1.2 0
11.423 0.548 27.824 -0 -1.2 0
11.435 0.025 27.846 -0 -1.2 0
11.444 -0.496 27.858 -0 -1.2 0
11.449 -1.019 27.863 -0 -1.2 0
11.451 -1.542 27.859 -0 -1.2 0
11.448 -2.067 27.846 -0 -1.2 0
11.443 -2.589 27.825 -0 -1.2 0
11.434 -3.112 27.796 -0 -1.2 0
11.422 -3.634 27.758 -0 -1.2 0
11.407 -4.156 27.712 -0 -1.2 0
11.387 -4.676 27.657 -0 -1.2 0
11.364 -5.196 27.594 -0 -1.2 0
11.338 -5.713 27.522 -0 -1.2 0
11.309 -6.23 27.443 -0 -1.2 0
11.276 -6.745 27.354 -0 -1.2 0
11.24 -7.258 27.259 -0 -1.2 0
11.2 -7.77 27.154 -0 -1.2 0
11.156 -8.279 27.041 -0 -1.2 0
11.11 -8.787 26.92 -0 -1.2 0
11.06 -9.292 26.79 -0 -1.2 0
11.007 -9.794 26.654 -0 -1.2 0
10.95 -10.294 26.508 -0 -1.2 0
10.89 -10.791 26.354 -0 -1.2 0
10.827 -11.285 26.193 -0 -1.2 0
10.76 -11.776 26.023 -0 -1.2 0
10.691 -12.263 25.846 -0 -1.2 0
10.617 -12.748 25.661 -0 -1.2 0
10.541 -13.228 25.468 -0 -1.2 0
10.461 -13.706 25.267 -0 -1.2 0
10.38 -14.178 25.059 -0 -1.2 0
10.294 -14.648 24.843 -0 -1.2 0
10.205 -15.113 24.619 -0 -1.2 0
10.113 -15.574 24.389 -0 -1.2 0
10.017 -16.031 24.15 -0 -1.2 0
9.919 -16.482 23.904 -0 -1.2 0
9.818 -16.93 23.652 -0 -1.2 0
9.714 -17.371 23.391 -0 -1.2 0
9.607 -17.809 23.124 -0 -1.2 0
9.497 -18.241 22.85 -0 -1.2 0
9.384 -18.668 22.569 -0 -1.2 0
9.269 -19.09 22.281 -0 -1.2 0
9.15 -19.506 21.986 -0 -1.2 0
9.029 -19.917 21.685 -0 -1.2 0
8.905 -20.322 21.377 -0 -1.2 0
8.779 -20.721 21.063 -0 -1.2 0
8.649 -21.114 20.742 -0 -1.2 0
8.517 -21.501 20.415 -0 -1.2 0
8.383 -21.882 20.082 -0 -1.2 0
12.326 1.077 27.398 -0 -1.2 0
12.342 0.554 27.428 -0 -1.2 0
12.364 -0.491 27.462 -0 -1.2 0
12.369 -1.014 27.467 -0 -1.2 0
12.369 -1.537 27.463 -0 -1.2 0
12.367 -2.061 27.45 -0 -1.2 0
12.361 -2.584 27.43 -0 -1.2 0
12.351 -3.107 27.401 -0 -1.2 0
12.337 -3.629 27.364 -0 -1.2 0
12.319 -4.151 27.319 -0 -1.2 0
12.298 -4.671 27.265 -0 -1.2 0
12.273 -5.19 27.203 -0 -1.2 0
12.245 -5.708 27.132 -0 -1.2 0
12.212 -6.225 27.054 -0 -1.2 0
12.176 -6.74 26.967 -0 -1.2 0
12.136 -7.253 26.873 -0 -1.2 0
12.092 -7.764 26.769 -0 -1.2 0
12.045 -8.274 26.659 -0 -1.2 0
11.995 -8.782 26.539 -0 -1.2 0
11.94 -9.287 26.412 -0 -1.2 0
11.882 -9.789 26.276 -0 -1.2 0
11.82 -10.289 26.134 -0 -1.2 0
11.755 -10.785 25.982 -0 -1.2 0
11.686 -11.28 25.823 -0 -1.2 0
11.613 -11.771 25.656 -0 -1.2 0
11.538 -12.258 25.481 -0 -1.2 0
11.458 -12.743 25.299 -0 -1.2 0
11.375 -13.223 25.109 -0 -1.2 0
11.289 -13.701 24.911 -0 -1.2 0
11.199 -14.174 24.706 -0 -1.2 0
11.107 -14.643 24.493 -0 -1.2 0
11.01 -15.108 24.273 -0 -1.2 0
10.91 -15.569 24.045 -0 -1.2 0
10.806 -16.026 23.811 -0 -1.2 0
10.7 -16.477 23.568 -0 -1.2 0
10.59 -16.925 23.32 -0 -1.2 0
10.478 -17.367 23.063 -0 -1.2 0
10.361 -17.805 22.8 -0 -1.2 0
10.242 -18.237 22.529 -0 -1.2 0
10.119 -18.664 22.252 -0 -1.2 0
9.995 -19.085 21.969 -0 -1.2 0
9.866 -19.502 21.678 -0 -1.2 0
9.734 -19.913 21.382 -0 -1.2 0
9.6 -20.318 21.078 -0 -1.2 0
9.463 -20.717 20.768 -0 -1.2 0
9.323 -21.11 20.452 -0 -1.2 0
9.18 -21.497 20.13 -0 -1.2 0
9.034 -21.878 19.801 -0 -1.2 0
13.223 1.082 26.977 -0 -1.2 0
13.24 0.558 27.006 -0 -1.2 0
13.268 -1.009 27.044 -0 -1.2 0
13.267 -1.532 27.04 -0 -1.2 0
13.264 -2.057 27.029 -0 -1.2 0
13.257 -2.579 27.009 -0 -1.2 0
13.246 -3.102 26.98 -0 -1.2 0
13.231 -3.624 26.944 -0 -1.2 0
13.211 -4.146 26.899 -0 -1.2 0
13.188 -4.666 26.846 -0 -1.2 0
13.161 -5.186 26.786 -0 -1.2 0
13.13 -5.703 26.716 -0 -1.2 0
13.094 -6.22 26.64 -0 -1.2 0
13.055 -6.735 26.554 -0 -1.2 0
13.012 -7.248 26.461 -0 -1.2 0
12.964 -7.76 26.359 -0 -1.2 0
12.913 -8.269 26.25 -0 -1.2 0
12.859 -8.777 26.133 -0 -1.2 0
12.799 -9.282 26.008 -0 -1.2 0
12.737 -9.784 25.874 -0 -1.2 0
12.67 -10.285 25.734 -0 -1.2 0
12.6 -10.781 25.585 -0 -1.2 0
12.525 -11.276 25.428 -0 -1.2 0
12.447 -11.767 25.264 -0 -1.2 0
12.365 -12.254 25.092 -0 -1.2 0
12.28 -12.739 24.913 -0 -1.2 0
12.19 -13.219 24.726 -0 -1.2 0
12.097 -13.697 24.531 -0 -1.2 0
12 -14.169 24.329 -0 -1.2 0
11.899 -14.639 24.12 -0 -1.2 0
11.795 -15.104 23.903 -0 -1.2 0
11.688 -15.565 23.679 -0 -1.2 0
11.577 -16.022 23.448 -0 -1.2 0
11.462 -16.473 23.21 -0 -1.2 0
11.345 -16.921 22.965 -0 -1.2 0
11.223 -17.363 22.713 -0 -1.2 0
11.098 -17.801 22.453 -0 -1.2 0
10.97 -18.233 22.187 -0 -1.2 0
10.838 -18.66 21.915 -0 -1.2 0
10.703 -19.082 21.635 -0 -1.2 0
10.565 -19.498 21.35 -0 -1.2 0
10.423 -19.909 21.058 -0 -1.2 0
10.279 -20.314 20.758 -0 -1.2 0
10.132 -20.713 20.454 -0 -1.2 0
9.981 -21.106 20.142 -0 -1.2 0
9.827 -21.493 19.826 -0 -1.2 0
9.671 -21.875 19.502 -0 -1.2 0
14.174 1.085 26.489 -0 -1.2 0
14.214 -0.483 26.552 -0 -1.2 0
14.218 -1.006 26.557 -0 -1.2 0
14.219 -1.529 26.553 -0 -1.2 0
14.215 -2.054 26.541 -0 -1.2 0
14.207 -2.576 26.521 -0 -1.2 0
14.194 -3.099 26.494 -0 -1.2 0
14.178 -3.621 26.459 -0 -1.2 0
14.156 -4.143 26.414 -0 -1.2 0
14.13 -4.663 26.363 -0 -1.2 0
14.101 -5.183 26.303 -0 -1.2 0
14.067 -5.7 26.236 -0 -1.2 0
14.028 -6.217 26.16 -0 -1.2 0
13.986 -6.732 26.077 -0 -1.2 0
13.939 -7.246 25.985 -0 -1.2 0
13.888 -7.757 25.885 -0 -1.2 0
13.833 -8.267 25.778 -0 -1.2 0
13.773 -8.774 25.663 -0 -1.2 0
13.71 -9.279 25.54 -0 -1.2 0
13.642 -9.781 25.41 -0 -1.2 0
13.57 -10.282 25.272 -0 -1.2 0
13.493 -10.778 25.126 -0 -1.2 0
13.414 -11.273 24.972 -0 -1.2 0
13.329 -11.764 24.811 -0 -1.2 0
13.242 -12.251 24.642 -0 -1.2 0
13.149 -12.736 24.466 -0 -1.2 0
13.053 -13.216 24.283 -0 -1.2 0
12.952 -13.694 24.092 -0 -1.2 0
12.848 -14.167 23.894 -0 -1.2 0
12.74 -14.637 23.688 -0 -1.2 0
12.628 -15.102 23.475 -0 -1.2 0
12.512 -15.563 23.255 -0 -1.2 0
12.393 -16.019 23.029 -0 -1.2 0
12.27 -16.471 22.795 -0 -1.2 0
12.143 -16.919 22.555 -0 -1.2 0
12.013 -17.36 22.307 -0 -1.2 0
11.878 -17.798 22.052 -0 -1.2 0
11.74 -18.231 21.791 -0 -1.2 0
11.598 -18.658 21.524 -0 -1.2 0
11.454 -19.079 21.25 -0 -1.2 0
11.305 -19.496 20.969 -0 -1.2 0
11.153 -19.907 20.682 -0 -1.2 0
10.998 -20.312 20.389 -0 -1.2 0
10.84 -20.711 20.09 -0 -1.2 0
10.678 -21.104 19.784 -0 -1.2 0
10.513 -21.491 19.472 -0 -1.2 0
10.344 -21.873 19.156 -0 -1.2 0
15.04 1.087 26.007 -0 -1.2 0
15.059 0.563 26.036 -0 -1.2 0
15.086 -1.004 26.073 -0 -1.2 0
15.086 -1.527 26.07 -0 -1.2 0
15.081 -2.052 26.059 -0 -1.2 0
15.072 -2.574 26.039 -0 -1.2 0
15.059 -3.097 26.013 -0 -1.2 0
15.04 -3.619 25.977 -0 -1.2 0
15.017 -4.141 25.935 -0 -1.2 0
14.99 -4.661 25.884 -0 -1.2 0
14.958 -5.181 25.826 -0 -1.2 0
14.921 -5.698 25.759 -0 -1.2 0
14.88 -6.215 25.685 -0 -1.2 0
14.835 -6.73 25.603 -0 -1.2 0
14.785 -7.244 25.514 -0 -1.2 0
14.73 -7.755 25.416 -0 -1.2 0
14.671 -8.265 25.311 -0 -1.2 0
14.607 -8.772 25.199 -0 -1.2 0
14.539 -9.277 25.078 -0 -1.2 0
14.467 -9.78 24.95 -0 -1.2 0
14.39 -10.28 24.814 -0 -1.2 0
14.309 -10.776 24.671 -0 -1.2 0
14.224 -11.271 24.52 -0 -1.2 0
14.134 -11.762 24.362 -0 -1.2 0
14.04 -12.249 24.196 -0 -1.2 0
13.942 -12.734 24.024 -0 -1.2 0
13.839 -13.215 23.844 -0 -1.2 0
13.732 -13.692 23.657 -0 -1.2 0
13.621 -14.165 23.462 -0 -1.2 0
13.506 -14.635 23.26 -0 -1.2 0
13.387 -15.1 23.052 -0 -1.2 0
13.264 -15.561 22.836 -0 -1.2 0
13.137 -16.018 22.614 -0 -1.2 0
13.006 -16.469 22.384 -0 -1.2 0
12.871 -16.917 22.148 -0 -1.2 0
12.733 -17.359 21.905 -0 -1.2 0
12.589 -17.797 21.655 -0 -1.2 0
12.443 -18.229 21.399 -0 -1.2 0
12.292 -18.656 21.137 -0 -1.2 0
12.138 -19.078 20.868 -0 -1.2 0
11.98 -19.494 20.593 -0 -1.2 0
11.818 -19.905 20.31 -0 -1.2 0
11.653 -20.31 20.023 -0 -1.2 0
11.485 -20.709 19.729 -0 -1.2 0
11.313 -21.103 19.429 -0 -1.2 0
11.138 -21.49 19.124 -0 -1.2 0
10.959 -21.871 18.812 -0 -1.2 0
15.897 1.088 25.492 -0 -1.2 0
15.916 0.565 25.521 -0 -1.2 0
15.939 -0.48 25.553 -0 -1.2 0
15.943 -1.003 25.557 -0 -1.2 0
15.943 -1.526 25.555 -0 -1.2 0
15.938 -2.05 25.543 -0 -1.2 0
15.928 -2.573 25.525 -0 -1.2 0
15.913 -3.096 25.498 -0 -1.2 0
15.893 -3.617 25.465 -0 -1.2 0
15.868 -4.14 25.422 -0 -1.2 0
15.839 -4.66 25.373 -0 -1.2 0
15.805 -5.179 25.316 -0 -1.2 0
15.765 -5.697 25.251 -0 -1.2 0
15.722 -6.214 25.178 -0 -1.2 0
15.674 -6.729 25.099 -0 -1.2 0
15.621 -7.242 25.011 -0 -1.2 0
15.562 -7.754 24.915 -0 -1.2 0
15.5 -8.263 24.813 -0 -1.2 0
15.432 -8.771 24.702 -0 -1.2 0
15.36 -9.276 24.584 -0 -1.2 0
15.282 -9.778 24.458 -0 -1.2 0
15.202 -10.279 24.326 -0 -1.2 0
15.115 -10.775 24.186 -0 -1.2 0
15.025 -11.27 24.039 -0 -1.2 0
14.929 -11.761 23.884 -0 -1.2 0
14.829 -12.248 23.722 -0 -1.2 0
14.726 -12.733 23.553 -0 -1.2 0
14.617 -13.213 23.375 -0 -1.2 0
14.504 -13.691 23.192 -0 -1.2 0
14.386 -14.164 23.002 -0 -1.2 0
14.264 -14.634 22.804 -0 -1.2 0
14.138 -15.099 22.6 -0 -1.2 0
14.007 -15.56 22.389 -0 -1.2 0
13.873 -16.016 22.171 -0 -1.2 0
13.734 -16.468 21.945 -0 -1.2 0
13.591 -16.916 21.715 -0 -1.2 0
13.443 -17.358 21.477 -0 -1.2 0
13.292 -17.796 21.232 -0 -1.2 0
13.137 -18.228 20.981 -0 -1.2 0
12.977 -18.655 20.724 -0 -1.2 0
12.815 -19.077 20.46 -0 -1.2 0
12.647 -19.493 20.19 -0 -1.2 0
12.476 -19.904 19.914 -0 -1.2 0
12.301 -20.309 19.633 -0 -1.2 0
12.123 -20.708 19.344 -0 -1.2 0
11.941 -21.102 19.051 -0 -1.2 0
11.755 -21.489 18.751 -0 -1.2 0
11.565 -21.87 18.446 -0 -1.2 0
16.815 1.089 24.896 -0 -1.2 0
16.858 -0.479 24.956 -0 -1.2 0
16.862 -1.002 24.96 -0 -1.2 0
16.862 -1.525 24.958 -0 -1.2 0
16.856 -2.049 24.947 -0 -1.2 0
16.845 -2.572 24.93 -0 -1.2 0
16.828 -3.095 24.904 -0 -1.2 0
16.807 -3.617 24.871 -0 -1.2 0
16.781 -4.139 24.83 -0 -1.2 0
16.749 -4.659 24.782 -0 -1.2 0
16.713 -5.179 24.726 -0 -1.2 0
16.671 -5.696 24.663 -0 -1.2 0
16.624 -6.213 24.593 -0 -1.2 0
16.573 -6.728 24.514 -0 -1.2 0
16.515 -7.241 24.429 -0 -1.2 0
16.454 -7.753 24.336 -0 -1.2 0
16.388 -8.262 24.235 -0 -1.2 0
16.315 -8.77 24.127 -0 -1.2 0
16.239 -9.275 24.013 -0 -1.2 0
16.157 -9.777 23.891 -0 -1.2 0
16.071 -10.278 23.761 -0 -1.2 0
15.979 -10.774 23.624 -0 -1.2 0
15.883 -11.269 23.48 -0 -1.2 0
15.782 -11.76 23.329 -0 -1.2 0
15.676 -12.247 23.171 -0 -1.2 0
15.566 -12.732 23.006 -0 -1.2 0
15.45 -13.213 22.834 -0 -1.2 0
15.33 -13.69 22.654 -0 -1.2 0
15.205 -14.163 22.469 -0 -1.2 0
15.076 -14.633 22.276 -0 -1.2 0
14.942 -15.098 22.076 -0 -1.2 0
14.804 -15.559 21.871 -0 -1.2 0
14.661 -16.016 21.658 -0 -1.2 0
14.514 -16.467 21.438 -0 -1.2 0
14.362 -16.915 21.213 -0 -1.2 0
14.206 -17.357 20.98 -0 -1.2 0
14.046 -17.795 20.742 -0 -1.2 0
13.881 -18.227 20.497 -0 -1.2 0
13.712 -18.655 20.246 -0 -1.2 0
13.54 -19.076 19.988 -0 -1.2 0
13.362 -19.493 19.724 -0 -1.2 0
13.181 -19.904 19.455 -0 -1.2 0
12.995 -20.309 19.181 -0 -1.2 0
12.806 -20.708 18.899 -0 -1.2 0
12.614 -21.101 18.612 -0 -1.2 0
12.417 -21.488 18.32 -0 -1.2 0
12.216 -21.87 18.022 -0 -1.2 0
17.647 1.089 24.313 -0 -1.2 0
17.691 -0.479 24.371 -0 -1.2 0
17.696 -1.002 24.377 -0 -1.2 0
17.695 -1.525 24.374 -0 -1.2 0
17.688 -2.049 24.364 -0 -1.2 0
17.676 -2.572 24.346 -0 -1.2 0
17.658 -3.095 24.322 -0 -1.2 0
17.636 -3.617 24.289 -0 -1.2 0
17.608 -4.139 24.25 -0 -1.2 0
17.575 -4.659 24.203 -0 -1.2 0
17.536 -5.178 24.149 -0 -1.2 0
17.492 -5.696 24.088 -0 -1.2 0
17.443 -6.213 24.018 -0 -1.2 0
17.388 -6.728 23.943 -0 -1.2 0
17.328 -7.241 23.859 -0 -1.2 0
17.263 -7.753 23.768 -0 -1.2 0
17.193 -8.262 23.671 -0 -1.2 0
17.117 -8.77 23.566 -0 -1.2 0
17.036 -9.275 23.454 -0 -1.2 0
16.95 -9.777 23.334 -0 -1.2 0
16.859 -10.278 23.208 -0 -1.2 0
16.762 -10.774 23.074 -0 -1.2 0
16.662 -11.269 22.934 -0 -1.2 0
16.555 -11.76 22.787 -0 -1.2 0
16.443 -12.247 22.632 -0 -1.2 0
16.328 -12.732 22.472 -0 -1.2 0
16.206 -13.212 22.304 -0 -1.2 0
16.08 -13.69 22.128 -0 -1.2 0
15.948 -14.163 21.947 -0 -1.2 0
15.812 -14.633 21.76 -0 -1.2 0
15.671 -15.098 21.565 -0 -1.2 0
15.526 -15.559 21.364 -0 -1.2 0
15.376 -16.015 21.156 -0 -1.2 0
15.221 -16.467 20.941 -0 -1.2 0
15.062 -16.915 20.722 -0 -1.2 0
14.897 -17.357 20.495 -0 -1.2 0
14.729 -17.795 20.262 -0 -1.2 0
14.556 -18.227 20.023 -0 -1.2 0
14.378 -18.654 19.778 -0 -1.2 0
14.196 -19.076 19.526 -0 -1.2 0
14.01 -19.493 19.269 -0 -1.2 0
13.82 -19.903 19.007 -0 -1.2 0
13.625 -20.308 18.738 -0 -1.2 0
13.426 -20.708 18.464 -0 -1.2 0
13.223 -21.101 18.184 -0 -1.2 0
13.017 -21.488 17.898 -0 -1.2 0
12.806 -21.87 17.608 -0 -1.2 0
18.469 -3.095 23.712 -0 -1.2 0
18.445 -3.617 23.681 -0 -1.2 0
18.415 -4.139 23.642 -0 -1.2 0
18.38 -4.659 23.597 -0 -1.2 0
18.339 -5.179 23.544 -0 -1.2 0
18.293 -5.697 23.485 -0 -1.2 0
18.241 -6.214 23.418 -0 -1.2 0
18.184 -6.729 23.343 -0 -1.2 0
18.12 -7.242 23.263 -0 -1.2 0
18.052 -7.753 23.175 -0 -1.2 0
17.979 -8.263 23.079 -0 -1.2 0
17.899 -8.771 22.977 -0 -1.2 0
17.814 -9.276 22.867 -0 -1.2 0
17.723 -9.778 22.752 -0 -1.2 0
17.628 -10.278 22.629 -0 -1.2 0
17.527 -10.775 22.499 -0 -1.2 0
17.421 -11.269 22.363 -0 -1.2 0
17.309 -11.76 22.219 -0 -1.2 0
17.192 -12.247 22.068 -0 -1.2 0
17.071 -12.733 21.911 -0 -1.2 0
16.943 -13.213 21.748 -0 -1.2 0
16.811 -13.691 21.578 -0 -1.2 0
16.673 -14.163 21.401 -0 -1.2 0
16.531 -14.633 21.218 -0 -1.2 0
16.383 -15.098 21.028 -0 -1.2 0
16.231 -15.56 20.833 -0 -1.2 0
16.073 -16.016 20.63 -0 -1.2 0
15.911 -16.468 20.421 -0 -1.2 0
15.744 -16.915 20.207 -0 -1.2 0
15.572 -17.357 19.986 -0 -1.2 0
15.396 -17.795 19.759 -0 -1.2 0
15.214 -18.227 19.527 -0 -1.2 0
15.028 -18.655 19.288 -0 -1.2 0
14.837 -19.076 19.042 -0 -1.2 0
14.643 -19.493 18.792 -0 -1.2 0
14.443 -19.904 18.537 -0 -1.2 0
14.24 -20.309 18.274 -0 -1.2 0
14.031 -20.708 18.008 -0 -1.2 0
13.819 -21.101 17.735 -0 -1.2 0
13.602 -21.489 17.456 -0 -1.2 0
13.382 -21.87 17.173 -0 -1.2 0
19.313 1.087 23.012 -0 -1.2 0
19.359 -0.481 23.068 -0 -1.2 0
19.363 -1.004 23.074 -0 -1.2 0
19.361 -1.527 23.071 -0 -1.2 0
19.08 -6.215 22.739 -0 -1.2 0
19.02 -6.73 22.667 -0 -1.2 0
18.953 -7.243 22.589 -0 -1.2 0
18.881 -7.755 22.503 -0 -1.2 0
18.803 -8.264 22.412 -0 -1.2 0
18.72 -8.772 22.312 -0 -1.2 0
18.631 -9.277 22.206 -0 -1.2 0
18.536 -9.779 22.094 -0 -1.2 0
18.436 -10.279 21.975 -0 -1.2 0
18.33 -10.776 21.849 -0 -1.2 0
18.218 -11.271 21.716 -0 -1.2 0
18.102 -11.761 21.577 -0 -1.2 0
17.979 -12.249 21.432 -0 -1.2 0
17.851 -12.734 21.279 -0 -1.2 0
17.718 -13.214 21.121 -0 -1.2 0
17.579 -13.692 20.956 -0 -1.2 0
17.435 -14.164 20.784 -0 -1.2 0
17.285 -14.634 20.607 -0 -1.2 0
17.131 -15.099 20.423 -0 -1.2 0
16.971 -15.561 20.233 -0 -1.2 0
16.806 -16.017 20.037 -0 -1.2 0
16.636 -16.469 19.834 -0 -1.2 0
16.46 -16.916 19.626 -0 -1.2 0
16.281 -17.358 19.412 -0 -1.2 0
16.096 -17.796 19.192 -0 -1.2 0
15.906 -18.229 18.966 -0 -1.2 0
15.711 -18.656 18.735 -0 -1.2 0
15.511 -19.077 18.496 -0 -1.2 0
15.308 -19.494 18.254 -0 -1.2 0
15.099 -19.905 18.006 -0 -1.2 0
14.885 -20.31 17.751 -0 -1.2 0
14.667 -20.709 17.492 -0 -1.2 0
14.445 -21.102 17.228 -0 -1.2 0
14.218 -21.49 16.958 -0 -1.2 0
13.987 -21.871 16.682 -0 -1.2 0
19.63 -7.755 21.852 -0 -1.2 0
19.549 -8.265 21.763 -0 -1.2 0
19.462 -8.773 21.668 -0 -1.2 0
19.37 -9.278 21.565 -0 -1.2 0
19.27 -9.78 21.456 -0 -1.2 0
19.166 -10.28 21.34 -0 -1.2 0
19.055 -10.777 21.218 -0 -1.2 0
18.939 -11.271 21.09 -0 -1.2 0
18.818 -11.762 20.955 -0 -1.2 0
18.69 -12.249 20.813 -0 -1.2 0
18.556 -12.735 20.666 -0 -1.2 0
18.418 -13.215 20.513 -0 -1.2 0
18.273 -13.693 20.353 -0 -1.2 0
18.123 -14.165 20.186 -0 -1.2 0
17.967 -14.635 20.015 -0 -1.2 0
17.806 -15.1 19.836 -0 -1.2 0
17.64 -15.561 19.652 -0 -1.2 0
17.468 -16.018 19.461 -0 -1.2 0
17.291 -16.469 19.265 -0 -1.2 0
16.921 -17.359 18.856 -0 -1.2 0
16.729 -17.797 18.642 -0 -1.2 0
16.53 -18.229 18.422 -0 -1.2 0
16.328 -18.657 18.198 -0 -1.2 0
16.12 -19.078 17.968 -0 -1.2 0
15.908 -19.495 17.732 -0 -1.2 0
15.691 -19.906 17.491 -0 -1.2 0
15.468 -20.311 17.245 -0 -1.2 0
15.241 -20.71 16.993 -0 -1.2 0
15.01 -21.103 16.737 -0 -1.2 0
14.774 -21.49 16.475 -0 -1.2 0
14.533 -21.872 16.208 -0 -1.2 0
20.831 1.085 21.647 -0 -1.2 0
20.88 -0.482 21.701 -0 -1.2 0
20.884 -1.005 21.707 -0 -1.2 0
20.881 -1.528 21.705 -0 -1.2 0
20.872 -2.053 21.697 -0 -1.2 0
20.856 -2.575 21.683 -0 -1.2 0
20.835 -3.098 21.661 -0 -1.2 0
20.272 -8.266 21.091 -0 -1.2 0
20.182 -8.774 20.998 -0 -1.2 0
20.086 -9.279 20.899 -0 -1.2 0
19.983 -9.781 20.793 -0 -1.2 0
19.874 -10.281 20.682 -0 -1.2 0
19.759 -10.778 20.564 -0 -1.2 0
19.638 -11.272 20.44 -0 -1.2 0
19.512 -11.763 20.309 -0 -1.2 0
19.379 -12.25 20.173 -0 -1.2 0
19.24 -12.735 20.031 -0 -1.2 0
19.097 -13.216 19.881 -0 -1.2 0
18.946 -13.693 19.727 -0 -1.2 0
18.629 -14.636 19.399 -0 -1.2 0
17.736 -16.918 18.479 -0 -1.2 0
17.542 -17.36 18.278 -0 -1.2 0
17.342 -17.798 18.071 -0 -1.2 0
17.137 -18.23 17.859 -0 -1.2 0
16.927 -18.657 17.642 -0 -1.2 0
16.711 -19.079 17.419 -0 -1.2 0
16.491 -19.495 17.19 -0 -1.2 0
16.265 -19.906 16.957 -0 -1.2 0
16.034 -20.311 16.718 -0 -1.2 0
15.798 -20.71 16.476 -0 -1.2 0
15.558 -21.103 16.227 -0 -1.2 0
15.313 -21.491 15.973 -0 -1.2 0
15.063 -21.872 15.715 -0 -1.2 0
21.609 1.084 20.87 -0 -1.2 0
21.659 -0.484 20.923 -0 -1.2 0
21.503 -4.664 20.789 -0 -1.2 0
21.454 -5.183 20.743 -0 -1.2 0
21.399 -5.701 20.691 -0 -1.2 0
21.113 -7.757 20.422 -0 -1.2 0
21.025 -8.267 20.339 -0 -1.2 0
20.931 -8.775 20.25 -0 -1.2 0
20.83 -9.28 20.155 -0 -1.2 0
20.724 -9.782 20.054 -0 -1.2 0
20.61 -10.282 19.947 -0 -1.2 0
20.492 -10.779 19.834 -0 -1.2 0
20.366 -11.273 19.714 -0 -1.2 0
20.235 -11.764 19.589 -0 -1.2 0
20.096 -12.251 19.457 -0 -1.2 0
19.952 -12.736 19.32 -0 -1.2 0
19.647 -13.694 19.028 -0 -1.2 0
16.862 -19.907 16.362 -0 -1.2 0
16.623 -20.312 16.133 -0 -1.2 0
16.378 -20.711 15.898 -0 -1.2 0
16.128 -21.104 15.658 -0 -1.2 0
15.874 -21.492 15.415 -0 -1.2 0
15.615 -21.873 15.166 -0 -1.2 0
22.321 -2.579 20.171 -0 -1.2 0
22.297 -3.101 20.152 -0 -1.2 0
22.267 -3.623 20.126 -0 -1.2 0
22.23 -4.145 20.095 -0 -1.2 0
22.185 -4.666 20.058 -0 -1.2 0
22.135 -5.185 20.014 -0 -1.2 0
22.078 -5.703 19.965 -0 -1.2 0
22.014 -6.22 19.909 -0 -1.2 0
21.865 -7.248 19.78 -0 -1.2 0
21.782 -7.759 19.706 -0 -1.2 0
21.69 -8.269 19.626 -0 -1.2 0
21.593 -8.777 19.542 -0 -1.2 0
21.489 -9.282 19.45 -0 -1.2 0
21.379 -9.784 19.353 -0 -1.2 0
21.262 -10.284 19.249 -0 -1.2 0
21.139 -10.78 19.14 -0 -1.2 0
21.009 -11.275 19.025 -0 -1.2 0
20.874 -11.766 18.905 -0 -1.2 0
20.582 -12.738 18.646 -0 -1.2 0
20.427 -13.219 18.509 -0 -1.2 0
20.099 -14.169 18.216 -0 -1.2 0
17.143 -20.314 15.576 -0 -1.2 0
16.891 -20.713 15.35 -0 -1.2 0
16.633 -21.106 15.119 -0 -1.2 0
16.37 -21.493 14.884 -0 -1.2 0
16.103 -21.875 14.644 -0 -1.2 0
23.01 -0.488 19.427 -0 -1.2 0
23.014 -1.011 19.433 -0 -1.2 0
23.01 -1.534 19.432 -0 -1.2 0
22.999 -2.059 19.426 -0 -1.2 0
22.982 -2.581 19.414 -0 -1.2 0
22.957 -3.104 19.396 -0 -1.2 0
22.926 -3.626 19.372 -0 -1.2 0
22.887 -4.148 19.343 -0 -1.2 0
22.841 -4.668 19.306 -0 -1.2 0
22.789 -5.188 19.266 -0 -1.2 0
22.73 -5.705 19.218 -0 -1.2 0
22.511 -7.25 19.041 -0 -1.2 0
22.424 -7.762 18.97 -0 -1.2 0
22.33 -8.271 18.894 -0 -1.2 0
22.23 -8.779 18.812 -0 -1.2 0
22.009 -9.786 18.631 -0 -1.2 0
21.888 -10.287 18.533 -0 -1.2 0
21.341 -12.255 18.081 -0 -1.2 0
17.898 -19.911 15.216 -0 -1.2 0
17.643 -20.316 15.004 -0 -1.2 0
17.383 -20.715 14.786 -0 -1.2 0
17.118 -21.108 14.564 -0 -1.2 0
16.847 -21.495 14.339 -0 -1.2 0
16.572 -21.876 14.108 -0 -1.2 0
23.641 1.076 18.534 -0 -1.2 0
23.666 0.552 18.557 -0 -1.2 0
23.684 0.03 18.573 -0 -1.2 0
23.695 -0.492 18.585 -0 -1.2 0
23.698 -1.015 18.591 -0 -1.2 0
23.693 -1.538 18.591 -0 -1.2 0
23.682 -2.062 18.586 -0 -1.2 0
23.664 -2.585 18.574 -0 -1.2 0
23.639 -3.108 18.558 -0 -1.2 0
23.606 -3.63 18.535 -0 -1.2 0
23.567 -4.152 18.507 -0 -1.2 0
23.519 -4.672 18.473 -0 -1.2 0
23.465 -5.191 18.434 -0 -1.2 0
23.404 -5.709 18.389 -0 -1.2 0
23.26 -6.741 18.283 -0 -1.2 0
23.178 -7.254 18.222 -0 -1.2 0
23.089 -7.766 18.155 -0 -1.2 0
22.888 -8.783 18.004 -0 -1.2 0
22.405 -10.787 17.637 -0 -1.2 0
17.892 -20.717 14.161 -0 -1.2 0
17.619 -21.111 13.95 -0 -1.2 0
17.34 -21.498 13.734 -0 -1.2 0
17.057 -21.879 13.513 -0 -1.2 0
24.249 1.072 17.732 -0 -1.2 0
24.292 0.026 17.771 -0 -1.2 0
24.303 -0.496 17.782 -0 -1.2 0
24.306 -1.019 17.789 -0 -1.2 0
24.301 -1.542 17.789 -0 -1.2 0
24.29 -2.067 17.784 -0 -1.2 0
24.271 -2.589 17.773 -0 -1.2 0
24.245 -3.112 17.758 -0 -1.2 0
24.211 -3.634 17.736 -0 -1.2 0
24.169 -4.156 17.71 -0 -1.2 0
24.121 -4.676 17.679 -0 -1.2 0
24.066 -5.196 17.641 -0 -1.2 0
24.003 -5.713 17.599 -0 -1.2 0
23.77 -7.258 17.439 -0 -1.2 0
23.678 -7.77 17.375 -0 -1.2 0
23.579 -8.279 17.307 -0 -1.2 0
23.239 -9.794 17.068 -0 -1.2 0
18.064 -21.114 13.363 -0 -1.2 0
17.778 -21.501 13.156 -0 -1.2 0
17.487 -21.882 12.946 -0 -1.2 0
24.84 1.066 16.894 -0 -1.2 0
24.884 0.02 16.931 -0 -1.2 0
24.881 -2.072 16.946 -0 -1.2 0
24.862 -2.594 16.936 -0 -1.2 0
24.835 -3.117 16.922 -0 -1.2 0
24.8 -3.639 16.902 -0 -1.2 0
24.757 -4.161 16.877 -0 -1.2 0
24.708 -4.681 16.848 -0 -1.2 0
24.651 -5.201 16.812 -0 -1.2 0
24.434 -6.75 16.677 -0 -1.2 0
24.347 -7.263 16.621 -0 -1.2 0
24.252 -7.775 16.562 -0 -1.2 0
24.151 -8.284 16.496 -0 -1.2 0
24.042 -8.792 16.425 -0 -1.2 0
23.925 -9.297 16.351 -0 -1.2 0
17.906 -21.886 12.352 -0 -1.2 0
25.444 1.059 15.969 -0 -1.2 0
25.489 0.013 16.005 -0 -1.2 0
25.5 -0.509 16.017 -0 -1.2 0
25.502 -1.032 16.023 -0 -1.2 0
25.498 -1.555 16.024 -0 -1.2 0
25.485 -2.079 16.021 -0 -1.2 0
25.358 -4.168 15.958 -0 -1.2 0
25.307 -4.688 15.931 -0 -1.2 0
25.248 -5.208 15.897 -0 -1.2 0
25.107 -6.242 15.818 -0 -1.2 0
25.026 -6.757 15.771 -0 -1.2 0
24.937 -7.27 15.719 -0 -1.2 0
24.839 -7.782 15.663 -0 -1.2 0
24.735 -8.291 15.601 -0 -1.2 0
24.624 -8.799 15.535 -0 -1.2 0
24.504 -9.304 15.465 -0 -1.2 0
23.953 -11.297 15.135 -0 -1.2 0
25.975 1.051 15.091 -0 -1.2 0
25.629 -6.25 14.954 -0 -1.2 0
25.546 -6.765 14.911 -0 -1.2 0
25.455 -7.278 14.862 -0 -1.2 0
25.355 -7.79 14.809 -0 -1.2 0
25.135 -8.807 14.69 -0 -1.2 0
24.745 -10.314 14.477 -0 -1.2 0
24.122 -12.282 14.132 -0 -1.2 0
19.023 -21.516 11.252 -0 -1.2 0
26.475 1.042 14.196 -0 -1.2 0
26.516 -2.096 14.248 -0 -1.2 0
26.494 -2.619 14.241 -0 -1.2 0
26.465 -3.141 14.23 -0 -1.2 0
26.12 -6.259 14.075 -0 -1.2 0
26.035 -6.774 14.034 -0 -1.2 0
25.942 -7.287 13.989 -0 -1.2 0
25.84 -7.798 13.939 -0 -1.2 0
25.732 -8.308 13.885 -0 -1.2 0
26.966 -3.151 13.254 -0 -1.2 0
26.927 -3.673 13.24 -0 -1.2 0
26.881 -4.195 13.223 -0 -1.2 0
26.826 -4.715 13.201 -0 -1.2 0
26.692 -5.752 13.146 -0 -1.2 0
26.613 -6.269 13.113 -0 -1.2 0
26.527 -6.784 13.075 -0 -1.2 0
26.432 -7.297 13.033 -0 -1.2 0
26.328 -7.808 12.988 -0 -1.2 0
26.098 -8.825 12.885 -0 -1.2 0
25.385 -11.322 12.561 -0 -1.2 0
25.219 -11.813 12.484 -0 -1.2 0
24.675 -13.264 12.233 -0 -1.2 0
24.479 -13.741 12.142 -0 -1.2 0
27.41 1.022 12.293 -0 -1.2 0
27.465 -1.592 12.345 -0 -1.2 0
27.451 -2.116 12.345 -0 -1.2 0
27.429 -2.639 12.34 -0 -1.2 0
27.399 -3.161 12.332 -0 -1.2 0
27.359 -3.683 12.32 -0 -1.2 0
27.312 -4.205 12.304 -0 -1.2 0
27.256 -4.725 12.284 -0 -1.2 0
27.193 -5.245 12.262 -0 -1.2 0
27.12 -5.762 12.234 -0 -1.2 0
27.04 -6.279 12.203 -0 -1.2 0
26.952 -6.794 12.17 -0 -1.2 0
26.855 -7.307 12.131 -0 -1.2 0
26.75 -7.818 12.089 -0 -1.2 0
26.637 -8.327 12.044 -0 -1.2 0
26.249 -9.841 11.886 -0 -1.2 0
23.996 -15.617 10.936 -0 -1.2 0
27.84 0.488 11.372 -0 -1.2 0
27.86 -0.034 11.386 -0 -1.2 0
27.87 -0.556 11.396 -0 -1.2 0
27.873 -1.079 11.403 -0 -1.2 0
27.867 -1.602 11.406 -0 -1.2 0
27.853 -2.127 11.406 -0 -1.2 0
27.831 -2.649 11.402 -0 -1.2 0
27.8 -3.172 11.395 -0 -1.2 0
27.759 -3.694 11.385 -0 -1.2 0
27.711 -4.216 11.37 -0 -1.2 0
27.516 -5.772 11.309 -0 -1.2 0
27.435 -6.289 11.281 -0 -1.2 0
27.247 -7.317 11.215 -0 -1.2 0
27.14 -7.828 11.177 -0 -1.2 0
27.026 -8.337 11.135 -0 -1.2 0
26.772 -9.349 11.043 -0 -1.2 0
25.021 -14.232 10.382 -0 -1.2 0
28.235 0.476 10.353 -0 -1.2 0
28.255 -0.045 10.367 -0 -1.2 0
28.265 -0.568 10.377 -0 -1.2 0
28.268 -1.091 10.384 -0 -1.2 0
28.262 -1.614 10.387 -0 -1.2 0
28.247 -2.139 10.388 -0 -1.2 0
28.224 -2.661 10.386 -0 -1.2 0
28.193 -3.184 10.379 -0 -1.2 0
28.152 -3.705 10.371 -0 -1.2 0
28.103 -4.227 10.359 -0 -1.2 0
28.046 -4.748 10.344 -0 -1.2 0
27.98 -5.267 10.326 -0 -1.2 0
27.905 -5.784 10.304 -0 -1.2 0
27.822 -6.301 10.28 -0 -1.2 0
27.731 -6.816 10.252 -0 -1.2 0
27.631 -7.328 10.221 -0 -1.2 0
27.523 -7.84 10.188 -0 -1.2 0
27.407 -8.349 10.151 -0 -1.2 0
27.282 -8.856 10.111 -0 -1.2 0
27.149 -9.361 10.068 -0 -1.2 0
24.923 -15.176 9.318 -0 -1.2 0
23.935 -16.99 8.977 -0 -1.2 0
28.565 0.465 9.403 -0 -1.2 0
28.585 -0.057 9.416 -0 -1.2 0
28.596 -0.58 9.425 -0 -1.2 0
28.598 -1.103 9.433 -0 -1.2 0
28.592 -1.626 9.437 -0 -1.2 0
28.578 -2.15 9.438 -0 -1.2 0
28.554 -2.673 9.437 -0 -1.2 0
28.522 -3.195 9.432 -0 -1.2 0
28.481 -3.717 9.425 -0 -1.2 0
28.431 -4.239 9.415 -0 -1.2 0
28.373 -4.759 9.402 -0 -1.2 0
28.307 -5.278 9.386 -0 -1.2 0
28.231 -5.796 9.367 -0 -1.2 0
28.147 -6.312 9.346 -0 -1.2 0
28.055 -6.827 9.322 -0 -1.2 0
27.953 -7.34 9.294 -0 -1.2 0
27.844 -7.851 9.264 -0 -1.2 0
27.727 -8.36 9.232 -0 -1.2 0
27.466 -9.372 9.158 -0 -1.2 0
27.322 -9.873 9.116 -0 -1.2 0
24.727 -16.102 8.337 -0 -1.2 0
24.474 -16.553 8.259 -0 -1.2 0
29.353 0.948 6.396 -0 -1.2 0
29.552 0.933 5.399 -0 -1.2 0
29.859 -4.901 -0.579 -0 -1.2 0
29.301 -2.405 -6.763 -0 -1.2 0
21.882 -20.988 -5.498 -0 -1.2 0
22.32 -20.207 -6.43 -0 -1.2 0
21.805 -20.239 -7.924 -0 -1.2 0
20.518 -21.803 -7.396 -0 -1.2 0
21.522 -20.254 -8.627 -0 -1.2 0
20.252 -21.817 -8.057 -0 -1.2 0
21.513 -19.864 -9.466 -0 -1.2 0
21.15 -19.881 -10.218 -0 -1.2 0
20.858 -20.286 -10.061 -0 -1.2 0
20.56 -20.686 -9.901 -0 -1.2 0
21.067 -19.486 -11.072 -0 -1.2 0
20.786 -19.897 -10.909 -0 -1.2 0
20.5 -20.302 -10.742 -0 -1.2 0
24.332 -11.774 -14.111 -0 -1.2 0
20.675 -19.502 -11.76 -0 -1.2 0
20.4 -19.913 -11.587 -0 -1.2 0
20.119 -20.318 -11.41 -0 -1.2 0
20.998 -18.257 -13.01 -0 -1.2 0
20.748 -18.683 -12.838 -0 -1.2 0
20.492 -19.105 -12.663 -0 -1.2 0
20.228 -19.52 -12.484 -0 -1.2 0
19.959 -19.931 -12.302 -0 -1.2 0
19.685 -20.335 -12.115 -0 -1.2 0
