# .PCD v.7 - Point Cloud Data file format
FIELDS x y z vp_x vp_y vp_z
SIZE 4 4 4 4 4 4
TYPE F F F F F F
COUNT 1 1 1 1 1 1
WIDTH 1668
HEIGHT 1
VIEWPOINT 0 -1.2001 0 1 0 0 0
POINTS 1668
DATA ascii
1.425 0.034 1.538 -0 -1.2 0
1.474 0.031 1.575 -0 -1.2 0
1.537 0.038 1.622 -0 -1.2 0
1.587 0.032 1.66 -0 -1.2 0
1.651 0.033 1.708 -0 -1.2 0
1.722 0.037 1.761 -0 -1.2 0
1.787 0.034 1.811 -0 -1.2 0
1.86 0.032 1.865 -0 -1.2 0
1.947 0.037 1.931 -0 -1.2 0
2.028 0.034 1.992 -0 -1.2 0
2.109 0.028 2.052 -0 -1.2 0
2.206 0.026 2.126 -0 -1.2 0
2.303 0.02 2.198 -0 -1.2 0
2.408 0.015 2.277 -0 -1.2 0
2.513 0.004 2.356 -0 -1.2 0
2.665 0.009 2.47 -0 -1.2 0
2.824 0.011 2.589 -0 -1.2 0
2.992 0.008 2.716 -0 -1.2 0
3.153 -0.002 2.837 -0 -1.2 0
3.376 0 3.005 -0 -1.2 0
3.624 0 3.191 -0 -1.2 0
3.911 0 3.407 -0 -1.2 0
4.263 0.004 3.671 -0 -1.2 0
4.685 0.011 3.989 -0 -1.2 0
5.181 0.015 4.361 -0 -1.2 0
5.771 0.015 4.806 -0 -1.2 0
6.491 0.013 5.346 -0 -1.2 0
7.41 0.01 6.037 -0 -1.2 0
7.975 -0.079 6.459 -0 -1.2 0
7.99 -0.251 6.465 -0 -1.2 0
7.995 -0.425 6.464 -0 -1.2 0
8.005 -0.597 6.467 -0 -1.2 0
8.014 -0.77 6.468 -0 -1.2 0
8.02 -0.943 6.467 -0 -1.2 0
8.023 -1.116 6.465 -0 -1.2 0
8.032 -1.289 6.466 -0 -1.2 0
8.039 -1.462 6.466 -0 -1.2 0
8.043 -1.636 6.465 -0 -1.2 0
8.052 -1.811 6.466 -0 -1.2 0
8.059 -1.986 6.467 -0 -1.2 0
8.072 -2.163 6.471 -0 -1.2 0
8.074 -2.339 6.467 -0 -1.2 0
8.082 -2.517 6.468 -0 -1.2 0
8.095 -2.697 6.473 -0 -1.2 0
8.105 -2.878 6.475 -0 -1.2 0
8.114 -3.06 6.476 -0 -1.2 0
8.119 -3.242 6.474 -0 -1.2 0
8.121 -3.426 6.471 -0 -1.2 0
8.129 -3.612 6.471 -0 -1.2 0
8.134 -3.799 6.469 -0 -1.2 0
8.136 -3.988 6.465 -0 -1.2 0
8.151 -4.182 6.47 -0 -1.2 0
8.162 -4.379 6.473 -0 -1.2 0
8.171 -4.575 6.474 -0 -1.2 0
8.177 -4.774 6.472 -0 -1.2 0
8.18 -4.974 6.468 -0 -1.2 0
8.186 -5.179 6.467 -0 -1.2 0
8.204 -5.393 6.475 -0 -1.2 0
8.204 -5.601 6.469 -0 -1.2 0
8.216 -5.818 6.471 -0 -1.2 0
8.223 -6.037 6.47 -0 -1.2 0
8.213 -6.249 6.456 -0 -1.2 0
8.235 -6.485 6.466 -0 -1.2 0
8.245 -6.719 6.467 -0 -1.2 0
8.35 -7.025 6.537 -0 -1.2 0
8.04 -7.031 6.303 -0 -1.2 0
8.041 -7.266 6.297 -0 -1.2 0
8.099 -7.551 6.331 -0 -1.2 0
8.076 -7.779 6.308 -0 -1.2 0
8.031 -7.991 6.268 -0 -1.2 0
8.269 -8.462 6.433 -0 -1.2 0
8.278 -8.738 6.431 -0 -1.2 0
8.249 -8.988 6.402 -0 -1.2 0
1.005 0.024 1.182 -0 -1.2 0
1.038 0.025 1.206 -0 -1.2 0
1.078 0.032 1.234 -0 -1.2 0
1.112 0.03 1.257 -0 -1.2 0
1.153 0.034 1.286 -0 -1.2 0
1.189 0.031 1.31 -0 -1.2 0
1.23 0.032 1.339 -0 -1.2 0
1.278 0.038 1.373 -0 -1.2 0
1.321 0.037 1.402 -0 -1.2 0
1.369 0.04 1.437 -0 -1.2 0
1.412 0.035 1.466 -0 -1.2 0
1.47 0.04 1.507 -0 -1.2 0
1.527 0.043 1.547 -0 -1.2 0
1.578 0.039 1.581 -0 -1.2 0
1.63 0.033 1.617 -0 -1.2 0
1.695 0.033 1.663 -0 -1.2 0
1.768 0.038 1.715 -0 -1.2 0
1.836 0.035 1.761 -0 -1.2 0
1.925 0.043 1.823 -0 -1.2 0
2 0.038 1.875 -0 -1.2 0
2.075 0.031 1.927 -0 -1.2 0
2.166 0.029 1.991 -0 -1.2 0
2.257 0.024 2.054 -0 -1.2 0
2.357 0.018 2.123 -0 -1.2 0
2.465 0.012 2.198 -0 -1.2 0
2.611 0.019 2.3 -0 -1.2 0
2.751 0.017 2.398 -0 -1.2 0
2.923 0.022 2.518 -0 -1.2 0
3.042 0 2.598 -0 -1.2 0
3.261 0.007 2.752 -0 -1.2 0
3.467 0.002 2.896 -0 -1.2 0
3.738 0.006 3.083 -0 -1.2 0
4.033 0.007 3.289 -0 -1.2 0
4.377 0.008 3.529 -0 -1.2 0
4.82 0.016 3.836 -0 -1.2 0
5.344 0.024 4.202 -0 -1.2 0
5.951 0.025 4.625 -0 -1.2 0
6.738 0.031 5.173 -0 -1.2 0
7.618 0.018 5.784 -0 -1.2 0
8.498 -0.032 6.396 -0 -1.2 0
8.506 -0.212 6.396 -0 -1.2 0
8.504 -0.392 6.39 -0 -1.2 0
8.516 -0.571 6.392 -0 -1.2 0
8.524 -0.751 6.393 -0 -1.2 0
8.539 -0.93 6.398 -0 -1.2 0
8.55 -1.109 6.4 -0 -1.2 0
8.559 -1.288 6.402 -0 -1.2 0
8.557 -1.468 6.395 -0 -1.2 0
8.561 -1.649 6.393 -0 -1.2 0
8.571 -1.83 6.394 -0 -1.2 0
8.586 -2.012 6.4 -0 -1.2 0
8.591 -2.195 6.398 -0 -1.2 0
8.593 -2.377 6.394 -0 -1.2 0
8.608 -2.563 6.399 -0 -1.2 0
8.612 -2.748 6.397 -0 -1.2 0
8.622 -2.935 6.398 -0 -1.2 0
8.63 -3.123 6.398 -0 -1.2 0
8.642 -3.314 6.401 -0 -1.2 0
8.659 -3.509 6.408 -0 -1.2 0
8.666 -3.702 6.406 -0 -1.2 0
8.67 -3.895 6.403 -0 -1.2 0
8.686 -4.095 6.409 -0 -1.2 0
8.684 -4.291 6.402 -0 -1.2 0
8.694 -4.494 6.403 -0 -1.2 0
8.701 -4.699 6.402 -0 -1.2 0
8.713 -4.907 6.404 -0 -1.2 0
8.721 -5.118 6.404 -0 -1.2 0
8.734 -5.333 6.406 -0 -1.2 0
8.735 -5.546 6.401 -0 -1.2 0
8.747 -5.769 6.403 -0 -1.2 0
8.764 -5.997 6.408 -0 -1.2 0
8.755 -6.215 6.395 -0 -1.2 0
8.77 -6.451 6.4 -0 -1.2 0
8.79 -6.694 6.407 -0 -1.2 0
8.871 -6.983 6.454 -0 -1.2 0
8.594 -7.032 6.26 -0 -1.2 0
8.595 -7.272 6.254 -0 -1.2 0
8.635 -7.545 6.273 -0 -1.2 0
8.591 -7.762 6.237 -0 -1.2 0
8.6 -8.024 6.236 -0 -1.2 0
8.814 -8.465 6.372 -0 -1.2 0
8.811 -8.736 6.361 -0 -1.2 0
1.03 0.026 1.161 -0 -1.2 0
1.059 0.02 1.18 -0 -1.2 0
1.1 0.027 1.205 -0 -1.2 0
1.134 0.025 1.228 -0 -1.2 0
1.183 0.035 1.259 -0 -1.2 0
1.218 0.032 1.282 -0 -1.2 0
1.254 0.027 1.304 -0 -1.2 0
1.297 0.027 1.332 -0 -1.2 0
1.354 0.038 1.369 -0 -1.2 0
1.398 0.035 1.397 -0 -1.2 0
1.449 0.036 1.429 -0 -1.2 0
1.5 0.036 1.462 -0 -1.2 0
1.559 0.039 1.5 -0 -1.2 0
1.618 0.04 1.538 -0 -1.2 0
1.671 0.034 1.572 -0 -1.2 0
1.739 0.035 1.614 -0 -1.2 0
1.807 0.035 1.659 -0 -1.2 0
1.882 0.037 1.707 -0 -1.2 0
1.974 0.045 1.766 -0 -1.2 0
2.051 0.04 1.815 -0 -1.2 0
2.129 0.033 1.865 -0 -1.2 0
2.222 0.031 1.924 -0 -1.2 0
2.308 0.022 1.979 -0 -1.2 0
2.426 0.024 2.054 -0 -1.2 0
2.528 0.015 2.12 -0 -1.2 0
2.671 0.019 2.211 -0 -1.2 0
2.83 0.024 2.314 -0 -1.2 0
2.967 0.013 2.4 -0 -1.2 0
3.12 0.003 2.498 -0 -1.2 0
3.337 0.009 2.638 -0 -1.2 0
3.566 0.008 2.783 -0 -1.2 0
3.809 0.004 2.939 -0 -1.2 0
4.137 0.011 3.15 -0 -1.2 0
4.483 0.01 3.37 -0 -1.2 0
4.944 0.021 3.667 -0 -1.2 0
5.499 0.033 4.022 -0 -1.2 0
6.131 0.037 4.426 -0 -1.2 0
6.922 0.041 4.932 -0 -1.2 0
7.816 0.026 5.504 -0 -1.2 0
9.063 0.019 6.302 -0 -1.2 0
9.055 -0.169 6.291 -0 -1.2 0
9.069 -0.355 6.295 -0 -1.2 0
9.09 -0.541 6.303 -0 -1.2 0
9.083 -0.728 6.293 -0 -1.2 0
9.114 -0.914 6.308 -0 -1.2 0
9.109 -1.1 6.3 -0 -1.2 0
9.119 -1.286 6.301 -0 -1.2 0
9.134 -1.474 6.305 -0 -1.2 0
9.146 -1.662 6.308 -0 -1.2 0
9.156 -1.851 6.308 -0 -1.2 0
9.163 -2.04 6.308 -0 -1.2 0
9.175 -2.23 6.31 -0 -1.2 0
9.184 -2.422 6.31 -0 -1.2 0
9.191 -2.613 6.31 -0 -1.2 0
9.203 -2.807 6.311 -0 -1.2 0
9.212 -3.002 6.311 -0 -1.2 0
9.226 -3.199 6.316 -0 -1.2 0
9.23 -3.396 6.312 -0 -1.2 0
9.246 -3.598 6.317 -0 -1.2 0
9.244 -3.796 6.309 -0 -1.2 0
9.254 -4 6.31 -0 -1.2 0
9.261 -4.205 6.309 -0 -1.2 0
9.265 -4.411 6.306 -0 -1.2 0
9.274 -4.621 6.305 -0 -1.2 0
9.286 -4.836 6.308 -0 -1.2 0
9.313 -5.059 6.317 -0 -1.2 0
9.31 -5.273 6.311 -0 -1.2 0
9.329 -5.5 6.316 -0 -1.2 0
9.35 -5.733 6.323 -0 -1.2 0
9.337 -5.951 6.309 -0 -1.2 0
9.352 -6.187 6.312 -0 -1.2 0
9.362 -6.424 6.311 -0 -1.2 0
9.383 -6.673 6.318 -0 -1.2 0
9.467 -6.966 6.362 -0 -1.2 0
9.174 -7.022 6.174 -0 -1.2 0
9.184 -7.273 6.172 -0 -1.2 0
9.224 -7.551 6.191 -0 -1.2 0
9.174 -7.769 6.153 -0 -1.2 0
9.177 -8.031 6.147 -0 -1.2 0
9.414 -8.484 6.286 -0 -1.2 0
9.397 -8.749 6.268 -0 -1.2 0
1.052 0.027 1.14 -0 -1.2 0
1.088 0.028 1.161 -0 -1.2 0
1.124 0.028 1.182 -0 -1.2 0
1.159 0.027 1.204 -0 -1.2 0
1.202 0.031 1.228 -0 -1.2 0
1.245 0.034 1.254 -0 -1.2 0
1.289 0.035 1.279 -0 -1.2 0
1.326 0.029 1.301 -0 -1.2 0
1.37 0.028 1.328 -0 -1.2 0
1.422 0.031 1.358 -0 -1.2 0
1.481 0.038 1.393 -0 -1.2 0
1.534 0.038 1.424 -0 -1.2 0
1.593 0.041 1.46 -0 -1.2 0
1.64 0.031 1.486 -0 -1.2 0
1.708 0.036 1.527 -0 -1.2 0
1.777 0.037 1.568 -0 -1.2 0
1.854 0.042 1.614 -0 -1.2 0
1.917 0.034 1.65 -0 -1.2 0
2.018 0.047 1.711 -0 -1.2 0
2.089 0.038 1.752 -0 -1.2 0
2.176 0.035 1.803 -0 -1.2 0
2.256 0.025 1.851 -0 -1.2 0
2.36 0.024 1.911 -0 -1.2 0
2.464 0.019 1.973 -0 -1.2 0
2.593 0.022 2.049 -0 -1.2 0
2.738 0.025 2.136 -0 -1.2 0
2.877 0.02 2.217 -0 -1.2 0
3.008 0.007 2.295 -0 -1.2 0
3.189 0.006 2.401 -0 -1.2 0
3.412 0.012 2.533 -0 -1.2 0
3.628 0.006 2.66 -0 -1.2 0
3.894 0.007 2.817 -0 -1.2 0
4.204 0.009 3.001 -0 -1.2 0
4.565 0.011 3.214 -0 -1.2 0
4.996 0.013 3.468 -0 -1.2 0
5.596 0.033 3.823 -0 -1.2 0
6.25 0.04 4.21 -0 -1.2 0
7.076 0.047 4.698 -0 -1.2 0
8.041 0.041 5.267 -0 -1.2 0
9.478 0.054 6.117 -0 -1.2 0
9.641 -0.121 6.209 -0 -1.2 0
9.649 -0.315 6.208 -0 -1.2 0
9.661 -0.509 6.21 -0 -1.2 0
9.671 -0.703 6.21 -0 -1.2 0
9.687 -0.897 6.214 -0 -1.2 0
9.699 -1.091 6.216 -0 -1.2 0
9.7 -1.285 6.211 -0 -1.2 0
9.715 -1.479 6.214 -0 -1.2 0
9.728 -1.675 6.217 -0 -1.2 0
9.737 -1.871 6.217 -0 -1.2 0
9.743 -2.068 6.215 -0 -1.2 0
9.765 -2.268 6.222 -0 -1.2 0
9.764 -2.465 6.217 -0 -1.2 0
9.787 -2.668 6.224 -0 -1.2 0
9.799 -2.87 6.225 -0 -1.2 0
9.816 -3.074 6.23 -0 -1.2 0
9.82 -3.278 6.227 -0 -1.2 0
9.84 -3.487 6.232 -0 -1.2 0
9.855 -3.697 6.236 -0 -1.2 0
9.859 -3.905 6.232 -0 -1.2 0
9.876 -4.12 6.236 -0 -1.2 0
9.89 -4.337 6.238 -0 -1.2 0
9.891 -4.551 6.234 -0 -1.2 0
9.906 -4.772 6.236 -0 -1.2 0
9.918 -4.995 6.237 -0 -1.2 0
9.924 -5.22 6.235 -0 -1.2 0
9.944 -5.453 6.24 -0 -1.2 0
9.952 -5.685 6.239 -0 -1.2 0
9.972 -5.926 6.243 -0 -1.2 0
9.972 -6.161 6.236 -0 -1.2 0
9.975 -6.401 6.232 -0 -1.2 0
10.005 -6.66 6.242 -0 -1.2 0
10.092 -6.959 6.286 -0 -1.2 0
9.767 -7.013 6.093 -0 -1.2 0
9.786 -7.275 6.096 -0 -1.2 0
9.627 -7.424 5.997 -0 -1.2 0
9.8 -7.799 6.09 -0 -1.2 0
9.782 -8.052 6.072 -0 -1.2 0
10.034 -8.511 6.209 -0 -1.2 0
10.01 -8.776 6.187 -0 -1.2 0
1.075 0.027 1.118 -0 -1.2 0
1.105 0.021 1.134 -0 -1.2 0
1.135 0.014 1.15 -0 -1.2 0
1.184 0.027 1.177 -0 -1.2 0
1.221 0.024 1.197 -0 -1.2 0
1.272 0.034 1.224 -0 -1.2 0
1.309 0.029 1.245 -0 -1.2 0
1.348 0.023 1.265 -0 -1.2 0
1.4 0.028 1.293 -0 -1.2 0
1.459 0.037 1.326 -0 -1.2 0
1.506 0.032 1.35 -0 -1.2 0
1.566 0.038 1.383 -0 -1.2 0
1.62 0.035 1.412 -0 -1.2 0
1.682 0.038 1.447 -0 -1.2 0
1.744 0.037 1.48 -0 -1.2 0
1.815 0.038 1.518 -0 -1.2 0
1.879 0.033 1.552 -0 -1.2 0
1.965 0.04 1.6 -0 -1.2 0
2.053 0.043 1.647 -0 -1.2 0
2.134 0.039 1.691 -0 -1.2 0
2.222 0.036 1.738 -0 -1.2 0
2.312 0.03 1.786 -0 -1.2 0
2.41 0.026 1.839 -0 -1.2 0
2.525 0.025 1.901 -0 -1.2 0
2.649 0.023 1.968 -0 -1.2 0
2.789 0.023 2.044 -0 -1.2 0
2.93 0.018 2.121 -0 -1.2 0
3.064 0.006 2.192 -0 -1.2 0
3.25 0.005 2.292 -0 -1.2 0
3.485 0.014 2.42 -0 -1.2 0
3.681 0.001 2.525 -0 -1.2 0
3.978 0.01 2.687 -0 -1.2 0
4.278 0.007 2.848 -0 -1.2 0
4.664 0.014 3.057 -0 -1.2 0
5.112 0.019 3.299 -0 -1.2 0
5.691 0.033 3.612 -0 -1.2 0
6.385 0.045 3.988 -0 -1.2 0
7.194 0.047 4.425 -0 -1.2 0
8.232 0.05 4.986 -0 -1.2 0
9.648 0.058 5.752 -0 -1.2 0
10.289 -0.068 6.094 -0 -1.2 0
10.305 -0.271 6.097 -0 -1.2 0
10.319 -0.473 6.099 -0 -1.2 0
10.329 -0.676 6.098 -0 -1.2 0
10.336 -0.879 6.097 -0 -1.2 0
10.349 -1.082 6.099 -0 -1.2 0
10.368 -1.285 6.103 -0 -1.2 0
10.383 -1.489 6.106 -0 -1.2 0
10.387 -1.694 6.102 -0 -1.2 0
10.404 -1.9 6.106 -0 -1.2 0
10.42 -2.106 6.109 -0 -1.2 0
10.431 -2.314 6.11 -0 -1.2 0
10.44 -2.522 6.108 -0 -1.2 0
10.453 -2.731 6.11 -0 -1.2 0
10.464 -2.942 6.11 -0 -1.2 0
10.479 -3.156 6.113 -0 -1.2 0
10.492 -3.37 6.114 -0 -1.2 0
10.501 -3.586 6.112 -0 -1.2 0
10.515 -3.805 6.114 -0 -1.2 0
10.534 -4.027 6.118 -0 -1.2 0
10.541 -4.248 6.116 -0 -1.2 0
10.562 -4.476 6.121 -0 -1.2 0
10.578 -4.706 6.124 -0 -1.2 0
10.582 -4.934 6.119 -0 -1.2 0
10.599 -5.17 6.122 -0 -1.2 0
10.62 -5.41 6.127 -0 -1.2 0
10.629 -5.649 6.125 -0 -1.2 0
10.634 -5.889 6.121 -0 -1.2 0
10.634 -6.132 6.115 -0 -1.2 0
10.663 -6.391 6.123 -0 -1.2 0
10.687 -6.654 6.129 -0 -1.2 0
10.746 -6.941 6.153 -0 -1.2 0
10.404 -7.004 5.966 -0 -1.2 0
10.424 -7.272 5.969 -0 -1.2 0
10.446 -7.547 5.974 -0 -1.2 0
10.478 -7.835 5.983 -0 -1.2 0
10.482 -8.11 5.978 -0 -1.2 0
10.737 -8.566 6.103 -0 -1.2 0
10.667 -8.807 6.059 -0 -1.2 0
12.093 -11.988 6.743 -0 -1.2 0
8.543 -9.04 4.905 -0 -1.2 0
1.094 0.027 1.098 -0 -1.2 0
1.137 0.035 1.12 -0 -1.2 0
1.175 0.035 1.138 -0 -1.2 0
1.212 0.034 1.157 -0 -1.2 0
1.249 0.032 1.176 -0 -1.2 0
1.294 0.035 1.198 -0 -1.2 0
1.34 0.036 1.221 -0 -1.2 0
1.371 0.024 1.237 -0 -1.2 0
1.424 0.029 1.263 -0 -1.2 0
1.478 0.032 1.29 -0 -1.2 0
1.54 0.039 1.321 -0 -1.2 0
1.594 0.039 1.348 -0 -1.2 0
1.649 0.036 1.375 -0 -1.2 0
1.705 0.032 1.403 -0 -1.2 0
1.768 0.031 1.434 -0 -1.2 0
1.855 0.044 1.478 -0 -1.2 0
1.912 0.034 1.506 -0 -1.2 0
1.993 0.036 1.546 -0 -1.2 0
2.073 0.035 1.587 -0 -1.2 0
2.171 0.04 1.635 -0 -1.2 0
2.262 0.037 1.68 -0 -1.2 0
2.344 0.027 1.721 -0 -1.2 0
2.444 0.022 1.771 -0 -1.2 0
2.569 0.026 1.833 -0 -1.2 0
2.695 0.024 1.896 -0 -1.2 0
2.847 0.027 1.972 -0 -1.2 0
2.974 0.016 2.035 -0 -1.2 0
3.127 0.01 2.111 -0 -1.2 0
3.314 0.009 2.205 -0 -1.2 0
3.546 0.015 2.321 -0 -1.2 0
3.78 0.013 2.437 -0 -1.2 0
4.039 0.008 2.566 -0 -1.2 0
4.335 0.003 2.713 -0 -1.2 0
4.745 0.015 2.918 -0 -1.2 0
5.209 0.022 3.15 -0 -1.2 0
5.764 0.029 3.426 -0 -1.2 0
6.505 0.047 3.796 -0 -1.2 0
7.319 0.048 4.202 -0 -1.2 0
8.376 0.052 4.729 -0 -1.2 0
9.781 0.055 5.429 -0 -1.2 0
10.975 -0.016 6.023 -0 -1.2 0
10.974 -0.23 6.017 -0 -1.2 0
10.998 -0.442 6.022 -0 -1.2 0
11.017 -0.654 6.026 -0 -1.2 0
11.025 -0.867 6.023 -0 -1.2 0
11.038 -1.079 6.024 -0 -1.2 0
11.058 -1.292 6.028 -0 -1.2 0
11.073 -1.506 6.028 -0 -1.2 0
11.086 -1.721 6.029 -0 -1.2 0
11.094 -1.937 6.027 -0 -1.2 0
11.109 -2.153 6.028 -0 -1.2 0
11.128 -2.372 6.032 -0 -1.2 0
11.145 -2.591 6.033 -0 -1.2 0
11.158 -2.811 6.034 -0 -1.2 0
11.176 -3.034 6.036 -0 -1.2 0
11.191 -3.258 6.037 -0 -1.2 0
11.203 -3.482 6.036 -0 -1.2 0
11.218 -3.71 6.037 -0 -1.2 0
11.231 -3.939 6.038 -0 -1.2 0
11.24 -4.169 6.035 -0 -1.2 0
11.253 -4.403 6.035 -0 -1.2 0
11.262 -4.639 6.033 -0 -1.2 0
11.276 -4.878 6.033 -0 -1.2 0
11.304 -5.126 6.039 -0 -1.2 0
11.31 -5.368 6.036 -0 -1.2 0
11.328 -5.62 6.038 -0 -1.2 0
11.343 -5.872 6.038 -0 -1.2 0
11.36 -6.13 6.039 -0 -1.2 0
11.374 -6.39 6.038 -0 -1.2 0
11.39 -6.657 6.039 -0 -1.2 0
11.55 -7.002 6.108 -0 -1.2 0
10.867 -6.903 5.771 -0 -1.2 0
10.897 -7.179 5.778 -0 -1.2 0
10.93 -7.462 5.786 -0 -1.2 0
11.218 -7.907 5.917 -0 -1.2 0
11.409 -8.312 6 -0 -1.2 0
11.445 -8.626 6.009 -0 -1.2 0
12.179 -10.779 6.314 -0 -1.2 0
12.333 -11.262 6.376 -0 -1.2 0
12.645 -11.903 6.513 -0 -1.2 0
9.698 -9.968 5.099 -0 -1.2 0
9.135 -9.746 4.825 -0 -1.2 0
8.489 -9.411 4.513 -0 -1.2 0
11.563 -12.859 5.946 -0 -1.2 0
7.683 -9.432 4.11 -0 -1.2 0
1.111 0.028 1.079 -0 -1.2 0
1.148 0.029 1.096 -0 -1.2 0
1.192 0.036 1.117 -0 -1.2 0
1.231 0.034 1.135 -0 -1.2 0
1.262 0.025 1.149 -0 -1.2 0
1.314 0.035 1.173 -0 -1.2 0
1.347 0.025 1.187 -0 -1.2 0
1.406 0.037 1.215 -0 -1.2 0
1.454 0.036 1.237 -0 -1.2 0
1.501 0.033 1.258 -0 -1.2 0
1.556 0.034 1.283 -0 -1.2 0
1.619 0.04 1.313 -0 -1.2 0
1.675 0.037 1.338 -0 -1.2 0
1.731 0.033 1.364 -0 -1.2 0
1.803 0.038 1.397 -0 -1.2 0
1.876 0.04 1.431 -0 -1.2 0
1.949 0.04 1.464 -0 -1.2 0
2.023 0.037 1.498 -0 -1.2 0
2.106 0.036 1.536 -0 -1.2 0
2.196 0.036 1.578 -0 -1.2 0
2.28 0.03 1.616 -0 -1.2 0
2.381 0.028 1.662 -0 -1.2 0
2.482 0.024 1.709 -0 -1.2 0
2.609 0.027 1.766 -0 -1.2 0
2.736 0.025 1.826 -0 -1.2 0
2.891 0.028 1.896 -0 -1.2 0
3.011 0.014 1.951 -0 -1.2 0
3.183 0.014 2.03 -0 -1.2 0
3.375 0.013 2.118 -0 -1.2 0
3.593 0.014 2.218 -0 -1.2 0
3.82 0.008 2.323 -0 -1.2 0
4.093 0.007 2.447 -0 -1.2 0
4.411 0.007 2.594 -0 -1.2 0
4.827 0.019 2.785 -0 -1.2 0
5.281 0.022 2.993 -0 -1.2 0
5.835 0.027 3.248 -0 -1.2 0
6.552 0.04 3.577 -0 -1.2 0
7.451 0.053 3.99 -0 -1.2 0
8.496 0.052 4.47 -0 -1.2 0
9.904 0.055 5.117 -0 -1.2 0
11.723 0.042 5.952 -0 -1.2 0
11.733 -0.181 5.949 -0 -1.2 0
11.748 -0.405 5.95 -0 -1.2 0
11.759 -0.628 5.948 -0 -1.2 0
11.777 -0.851 5.949 -0 -1.2 0
11.791 -1.075 5.949 -0 -1.2 0
11.819 -1.299 5.955 -0 -1.2 0
11.835 -1.525 5.956 -0 -1.2 0
11.838 -1.751 5.95 -0 -1.2 0
11.855 -1.978 5.951 -0 -1.2 0
11.869 -2.206 5.951 -0 -1.2 0
11.88 -2.434 5.949 -0 -1.2 0
11.905 -2.666 5.953 -0 -1.2 0
11.916 -2.898 5.952 -0 -1.2 0
11.943 -3.132 5.956 -0 -1.2 0
11.956 -3.367 5.956 -0 -1.2 0
11.975 -3.606 5.957 -0 -1.2 0
11.988 -3.845 5.957 -0 -1.2 0
12.008 -4.088 5.957 -0 -1.2 0
12.014 -4.33 5.954 -0 -1.2 0
12.043 -4.58 5.959 -0 -1.2 0
12.05 -4.828 5.955 -0 -1.2 0
12.07 -5.081 5.956 -0 -1.2 0
12.077 -5.334 5.952 -0 -1.2 0
12.106 -5.598 5.957 -0 -1.2 0
12.113 -5.857 5.952 -0 -1.2 0
12.132 -6.125 5.953 -0 -1.2 0
12.154 -6.399 5.955 -0 -1.2 0
12.172 -6.676 5.955 -0 -1.2 0
12.343 -7.03 6.023 -0 -1.2 0
11.877 -7.074 5.808 -0 -1.2 0
11.626 -7.214 5.688 -0 -1.2 0
11.685 -7.519 5.706 -0 -1.2 0
11.834 -7.885 5.764 -0 -1.2 0
12.208 -8.397 5.92 -0 -1.2 0
12.188 -8.687 5.902 -0 -1.2 0
13.073 -11.331 6.229 -0 -1.2 0
12.399 -11.524 5.913 -0 -1.2 0
12.384 -11.888 5.895 -0 -1.2 0
9.614 -9.753 4.687 -0 -1.2 0
9.894 -10.326 4.799 -0 -1.2 0
8.763 -9.549 4.304 -0 -1.2 0
8.548 -9.63 4.203 -0 -1.2 0
8.135 -9.498 4.017 -0 -1.2 0
7.814 -9.445 3.87 -0 -1.2 0
1.122 0.022 1.055 -0 -1.2 0
1.154 0.016 1.068 -0 -1.2 0
1.205 0.03 1.09 -0 -1.2 0
1.243 0.029 1.105 -0 -1.2 0
1.289 0.034 1.125 -0 -1.2 0
1.335 0.037 1.145 -0 -1.2 0
1.375 0.032 1.16 -0 -1.2 0
1.422 0.032 1.18 -0 -1.2 0
1.484 0.043 1.207 -0 -1.2 0
1.517 0.028 1.22 -0 -1.2 0
1.58 0.035 1.247 -0 -1.2 0
1.637 0.035 1.27 -0 -1.2 0
1.701 0.038 1.297 -0 -1.2 0
1.766 0.041 1.324 -0 -1.2 0
1.832 0.04 1.351 -0 -1.2 0
1.897 0.036 1.379 -0 -1.2 0
1.972 0.036 1.411 -0 -1.2 0
2.055 0.038 1.445 -0 -1.2 0
2.13 0.032 1.477 -0 -1.2 0
2.223 0.034 1.515 -0 -1.2 0
2.316 0.032 1.554 -0 -1.2 0
2.409 0.026 1.593 -0 -1.2 0
2.529 0.029 1.643 -0 -1.2 0
2.658 0.031 1.697 -0 -1.2 0
2.796 0.034 1.755 -0 -1.2 0
2.927 0.027 1.809 -0 -1.2 0
3.049 0.012 1.86 -0 -1.2 0
3.233 0.016 1.936 -0 -1.2 0
3.454 0.023 2.029 -0 -1.2 0
3.657 0.019 2.114 -0 -1.2 0
3.871 0.008 2.203 -0 -1.2 0
4.148 0.007 2.319 -0 -1.2 0
4.47 0.007 2.453 -0 -1.2 0
4.893 0.019 2.631 -0 -1.2 0
5.363 0.024 2.827 -0 -1.2 0
5.898 0.024 3.051 -0 -1.2 0
6.653 0.043 3.367 -0 -1.2 0
7.565 0.057 3.748 -0 -1.2 0
8.672 0.062 4.211 -0 -1.2 0
10.203 0.076 4.851 -0 -1.2 0
12.315 0.088 5.734 -0 -1.2 0
12.584 -0.123 5.84 -0 -1.2 0
12.6 -0.359 5.839 -0 -1.2 0
12.622 -0.596 5.841 -0 -1.2 0
12.65 -0.832 5.845 -0 -1.2 0
12.645 -1.069 5.835 -0 -1.2 0
12.665 -1.306 5.836 -0 -1.2 0
12.689 -1.545 5.839 -0 -1.2 0
12.701 -1.782 5.837 -0 -1.2 0
12.719 -2.022 5.836 -0 -1.2 0
12.742 -2.264 5.838 -0 -1.2 0
12.751 -2.506 5.835 -0 -1.2 0
12.766 -2.749 5.833 -0 -1.2 0
12.786 -2.995 5.833 -0 -1.2 0
12.802 -3.242 5.832 -0 -1.2 0
12.823 -3.491 5.832 -0 -1.2 0
12.848 -3.744 5.836 -0 -1.2 0
12.87 -3.998 5.837 -0 -1.2 0
12.887 -4.254 5.836 -0 -1.2 0
12.9 -4.511 5.833 -0 -1.2 0
12.926 -4.775 5.836 -0 -1.2 0
12.938 -5.038 5.832 -0 -1.2 0
12.956 -5.305 5.831 -0 -1.2 0
12.977 -5.577 5.832 -0 -1.2 0
12.993 -5.851 5.829 -0 -1.2 0
13.013 -6.131 5.829 -0 -1.2 0
13.019 -6.409 5.823 -0 -1.2 0
13.047 -6.7 5.825 -0 -1.2 0
13.273 -7.086 5.908 -0 -1.2 0
12.473 -6.997 5.576 -0 -1.2 0
12.488 -7.283 5.573 -0 -1.2 0
13.617 -8.156 6.018 -0 -1.2 0
13.023 -8.147 5.77 -0 -1.2 0
13.108 -8.501 5.793 -0 -1.2 0
13.038 -8.773 5.756 -0 -1.2 0
10.735 -8.482 4.803 -0 -1.2 0
9.555 -8.173 4.319 -0 -1.2 0
11.81 -10.189 5.198 -0 -1.2 0
13.065 -11.535 5.679 -0 -1.2 0
9.092 -8.87 4.104 -0 -1.2 0
8.967 -9.037 4.047 -0 -1.2 0
9.481 -9.797 4.238 -0 -1.2 0
9.238 -9.872 4.132 -0 -1.2 0
8.953 -9.898 4.013 -0 -1.2 0
8.664 -9.91 3.892 -0 -1.2 0
8.125 -9.645 3.675 -0 -1.2 0
1.137 0.022 1.035 -0 -1.2 0
1.182 0.03 1.052 -0 -1.2 0
1.22 0.031 1.067 -0 -1.2 0
1.26 0.03 1.082 -0 -1.2 0
1.306 0.034 1.1 -0 -1.2 0
1.345 0.03 1.114 -0 -1.2 0
1.4 0.038 1.135 -0 -1.2 0
1.44 0.032 1.151 -0 -1.2 0
1.495 0.037 1.172 -0 -1.2 0
1.551 0.04 1.194 -0 -1.2 0
1.608 0.042 1.216 -0 -1.2 0
1.658 0.036 1.234 -0 -1.2 0
1.73 0.045 1.262 -0 -1.2 0
1.781 0.035 1.281 -0 -1.2 0
1.855 0.04 1.31 -0 -1.2 0
1.922 0.036 1.335 -0 -1.2 0
2.005 0.042 1.366 -0 -1.2 0
2.065 0.03 1.388 -0 -1.2 0
2.158 0.033 1.424 -0 -1.2 0
2.251 0.034 1.46 -0 -1.2 0
2.346 0.032 1.495 -0 -1.2 0
2.44 0.027 1.532 -0 -1.2 0
2.57 0.034 1.581 -0 -1.2 0
2.692 0.032 1.627 -0 -1.2 0
2.824 0.031 1.677 -0 -1.2 0
2.956 0.024 1.728 -0 -1.2 0
3.115 0.023 1.788 -0 -1.2 0
3.302 0.026 1.859 -0 -1.2 0
3.516 0.03 1.941 -0 -1.2 0
3.714 0.022 2.015 -0 -1.2 0
3.939 0.015 2.101 -0 -1.2 0
4.228 0.016 2.211 -0 -1.2 0
4.537 0.011 2.329 -0 -1.2 0
4.965 0.023 2.492 -0 -1.2 0
5.451 0.03 2.677 -0 -1.2 0
5.965 0.025 2.873 -0 -1.2 0
6.692 0.038 3.151 -0 -1.2 0
7.635 0.056 3.51 -0 -1.2 0
8.849 0.075 3.973 -0 -1.2 0
10.409 0.089 4.567 -0 -1.2 0
12.53 0.099 5.375 -0 -1.2 0
13.519 -0.058 5.746 -0 -1.2 0
13.546 -0.307 5.748 -0 -1.2 0
13.559 -0.559 5.745 -0 -1.2 0
13.588 -0.81 5.747 -0 -1.2 0
13.602 -1.061 5.744 -0 -1.2 0
13.622 -1.313 5.744 -0 -1.2 0
13.638 -1.566 5.742 -0 -1.2 0
13.659 -1.819 5.741 -0 -1.2 0
13.685 -2.074 5.742 -0 -1.2 0
13.698 -2.33 5.739 -0 -1.2 0
13.716 -2.588 5.737 -0 -1.2 0
13.739 -2.847 5.738 -0 -1.2 0
13.757 -3.108 5.736 -0 -1.2 0
13.78 -3.371 5.736 -0 -1.2 0
13.8 -3.635 5.734 -0 -1.2 0
13.824 -3.903 5.735 -0 -1.2 0
13.842 -4.173 5.733 -0 -1.2 0
13.856 -4.444 5.73 -0 -1.2 0
13.885 -4.721 5.731 -0 -1.2 0
13.908 -4.999 5.73 -0 -1.2 0
13.917 -5.278 5.725 -0 -1.2 0
13.948 -5.566 5.727 -0 -1.2 0
13.966 -5.853 5.725 -0 -1.2 0
13.986 -6.146 5.722 -0 -1.2 0
14.011 -6.444 5.722 -0 -1.2 0
14.028 -6.744 5.719 -0 -1.2 0
13.414 -6.779 5.484 -0 -1.2 0
13.426 -7.072 5.479 -0 -1.2 0
13.433 -7.367 5.471 -0 -1.2 0
14.15 -8.016 5.723 -0 -1.2 0
9.36 -5.865 3.97 -0 -1.2 0
14.063 -8.61 5.67 -0 -1.2 0
9.801 -6.542 4.116 -0 -1.2 0
12.437 -8.616 5.051 -0 -1.2 0
12.323 -8.848 5 -0 -1.2 0
11.19 -8.408 4.583 -0 -1.2 0
10.73 -8.379 4.409 -0 -1.2 0
11.097 -8.92 4.531 -0 -1.2 0
9.841 -8.288 4.074 -0 -1.2 0
9.679 -8.432 4.007 -0 -1.2 0
10.691 -9.508 4.357 -0 -1.2 0
10.33 -9.519 4.22 -0 -1.2 0
9.562 -9.167 3.938 -0 -1.2 0
9.728 -9.603 3.987 -0 -1.2 0
7.969 -8.295 3.361 -0 -1.2 0
7.824 -8.413 3.302 -0 -1.2 0
9.748 -10.56 3.963 -0 -1.2 0
9.505 -10.646 3.867 -0 -1.2 0
8.405 -9.824 3.476 -0 -1.2 0
1.157 0.031 1.017 -0 -1.2 0
1.195 0.032 1.03 -0 -1.2 0
1.228 0.025 1.042 -0 -1.2 0
1.267 0.024 1.055 -0 -1.2 0
1.308 0.022 1.069 -0 -1.2 0
1.362 0.031 1.088 -0 -1.2 0
1.409 0.033 1.104 -0 -1.2 0
1.457 0.033 1.121 -0 -1.2 0
1.521 0.045 1.143 -0 -1.2 0
1.562 0.036 1.157 -0 -1.2 0
1.612 0.032 1.175 -0 -1.2 0
1.677 0.037 1.197 -0 -1.2 0
1.736 0.035 1.217 -0 -1.2 0
1.801 0.037 1.24 -0 -1.2 0
1.868 0.036 1.263 -0 -1.2 0
1.944 0.038 1.289 -0 -1.2 0
2.012 0.033 1.312 -0 -1.2 0
2.089 0.031 1.338 -0 -1.2 0
2.174 0.031 1.369 -0 -1.2 0
2.27 0.032 1.401 -0 -1.2 0
2.373 0.034 1.437 -0 -1.2 0
2.47 0.029 1.47 -0 -1.2 0
2.583 0.028 1.509 -0 -1.2 0
2.732 0.038 1.561 -0 -1.2 0
2.847 0.03 1.601 -0 -1.2 0
2.99 0.026 1.65 -0 -1.2 0
3.16 0.029 1.709 -0 -1.2 0
3.349 0.031 1.774 -0 -1.2 0
3.538 0.027 1.839 -0 -1.2 0
3.748 0.023 1.911 -0 -1.2 0
3.948 0.007 1.98 -0 -1.2 0
4.25 0.011 2.084 -0 -1.2 0
4.553 0.005 2.188 -0 -1.2 0
5.014 0.025 2.348 -0 -1.2 0
5.458 0.022 2.502 -0 -1.2 0
6.034 0.029 2.701 -0 -1.2 0
6.685 0.028 2.925 -0 -1.2 0
7.611 0.044 3.245 -0 -1.2 0
8.847 0.068 3.673 -0 -1.2 0
10.341 0.074 4.188 -0 -1.2 0
12.364 0.077 4.887 -0 -1.2 0
14.607 0.022 5.66 -0 -1.2 0
14.616 -0.246 5.653 -0 -1.2 0
14.659 -0.513 5.659 -0 -1.2 0
14.67 -0.782 5.653 -0 -1.2 0
14.685 -1.049 5.649 -0 -1.2 0
14.695 -1.318 5.643 -0 -1.2 0
14.731 -1.588 5.647 -0 -1.2 0
14.761 -1.86 5.647 -0 -1.2 0
14.796 -2.134 5.651 -0 -1.2 0
14.807 -2.406 5.645 -0 -1.2 0
14.778 -2.676 5.625 -0 -1.2 0
14.799 -2.952 5.623 -0 -1.2 0
14.825 -3.231 5.623 -0 -1.2 0
14.837 -3.51 5.617 -0 -1.2 0
14.863 -3.793 5.617 -0 -1.2 0
14.885 -4.077 5.614 -0 -1.2 0
14.911 -4.365 5.613 -0 -1.2 0
14.931 -4.655 5.61 -0 -1.2 0
14.956 -4.949 5.608 -0 -1.2 0
14.975 -5.244 5.605 -0 -1.2 0
15.062 -5.563 5.624 -0 -1.2 0
15.071 -5.864 5.617 -0 -1.2 0
15.029 -6.15 5.592 -0 -1.2 0
15.063 -6.466 5.593 -0 -1.2 0
15.064 -6.773 5.583 -0 -1.2 0
14.484 -6.852 5.379 -0 -1.2 0
14.486 -7.156 5.37 -0 -1.2 0
14.492 -7.466 5.361 -0 -1.2 0
14.491 -7.778 5.351 -0 -1.2 0
11.812 -7.052 4.451 -0 -1.2 0
10.722 -6.738 4.085 -0 -1.2 0
10.015 -6.591 3.847 -0 -1.2 0
9.5 -6.526 3.671 -0 -1.2 0
11.292 -7.832 4.244 -0 -1.2 0
10.169 -7.401 3.871 -0 -1.2 0
9.75 -7.624 3.72 -0 -1.2 0
10.972 -8.734 4.103 -0 -1.2 0
9.861 -8.213 3.737 -0 -1.2 0
11.166 -9.467 4.145 -0 -1.2 0
9.975 -8.841 3.755 -0 -1.2 0
10.247 -9.345 3.832 -0 -1.2 0
10.006 -9.442 3.745 -0 -1.2 0
10.03 -9.763 3.743 -0 -1.2 0
9.555 -9.642 3.583 -0 -1.2 0
7.843 -8.34 3.036 -0 -1.2 0
8.011 -8.759 3.08 -0 -1.2 0
10.104 -11.131 3.721 -0 -1.2 0
7.518 -8.796 2.908 -0 -1.2 0
1.161 0.025 0.998 -0 -1.2 0
1.194 0.019 1.007 -0 -1.2 0
1.24 0.026 1.022 -0 -1.2 0
1.279 0.025 1.034 -0 -1.2 0
1.32 0.023 1.047 -0 -1.2 0
1.36 0.021 1.06 -0 -1.2 0
1.408 0.022 1.074 -0 -1.2 0
1.471 0.035 1.095 -0 -1.2 0
1.52 0.034 1.11 -0 -1.2 0
1.57 0.031 1.126 -0 -1.2 0
1.628 0.034 1.144 -0 -1.2 0
1.686 0.033 1.162 -0 -1.2 0
1.752 0.037 1.183 -0 -1.2 0
1.811 0.033 1.201 -0 -1.2 0
1.87 0.027 1.22 -0 -1.2 0
1.955 0.035 1.246 -0 -1.2 0
2.015 0.026 1.265 -0 -1.2 0
2.1 0.028 1.292 -0 -1.2 0
2.178 0.024 1.316 -0 -1.2 0
2.274 0.025 1.346 -0 -1.2 0
2.379 0.027 1.379 -0 -1.2 0
2.484 0.027 1.412 -0 -1.2 0
2.599 0.026 1.448 -0 -1.2 0
2.723 0.026 1.487 -0 -1.2 0
2.858 0.024 1.528 -0 -1.2 0
3.01 0.026 1.577 -0 -1.2 0
3.163 0.021 1.624 -0 -1.2 0
3.354 0.025 1.685 -0 -1.2 0
3.564 0.028 1.75 -0 -1.2 0
3.737 0.011 1.804 -0 -1.2 0
3.967 0.005 1.876 -0 -1.2 0
4.226 -0.002 1.957 -0 -1.2 0
4.568 0.002 2.064 -0 -1.2 0
4.949 0.003 2.183 -0 -1.2 0
5.435 0.011 2.335 -0 -1.2 0
5.922 0.002 2.488 -0 -1.2 0
6.608 0.008 2.703 -0 -1.2 0
7.438 0.012 2.963 -0 -1.2 0
8.629 0.034 3.337 -0 -1.2 0
10.136 0.046 3.809 -0 -1.2 0
12.055 0.044 4.41 -0 -1.2 0
14.974 0.049 5.324 -0 -1.2 0
15.718 -0.18 5.549 -0 -1.2 0
15.743 -0.465 5.546 -0 -1.2 0
15.763 -0.75 5.543 -0 -1.2 0
15.789 -1.036 5.54 -0 -1.2 0
15.819 -1.323 5.539 -0 -1.2 0
15.845 -1.611 5.536 -0 -1.2 0
15.866 -1.899 5.533 -0 -1.2 0
15.966 -2.195 5.554 -0 -1.2 0
15.977 -2.487 5.547 -0 -1.2 0
15.926 -2.774 5.52 -0 -1.2 0
15.994 -3.074 5.531 -0 -1.2 0
15.98 -3.366 5.516 -0 -1.2 0
16.009 -3.666 5.515 -0 -1.2 0
16.033 -3.968 5.511 -0 -1.2 0
16.051 -4.271 5.505 -0 -1.2 0
16.083 -4.579 5.504 -0 -1.2 0
16.1 -4.888 5.499 -0 -1.2 0
16.121 -5.201 5.494 -0 -1.2 0
16.247 -5.545 5.522 -0 -1.2 0
16.256 -5.863 5.513 -0 -1.2 0
16.214 -6.168 5.489 -0 -1.2 0
16.239 -6.498 5.485 -0 -1.2 0
16.213 -6.813 5.465 -0 -1.2 0
9.611 -5.461 3.447 -0 -1.2 0
14.476 -8.01 4.878 -0 -1.2 0
11.822 -6.992 4.084 -0 -1.2 0
11.15 -6.901 3.877 -0 -1.2 0
9.933 -6.486 3.51 -0 -1.2 0
10.129 -6.828 3.56 -0 -1.2 0
12.542 -8.504 4.255 -0 -1.2 0
8.971 -6.59 3.205 -0 -1.2 0
10.137 -7.561 3.536 -0 -1.2 0
10.813 -8.267 3.722 -0 -1.2 0
17.035 -12.874 5.505 -0 -1.2 0
11.109 -9.038 3.787 -0 -1.2 0
10.251 -8.694 3.53 -0 -1.2 0
9.531 -8.415 3.316 -0 -1.2 0
9.189 -8.407 3.208 -0 -1.2 0
8.917 -8.446 3.122 -0 -1.2 0
8.64 -8.47 3.034 -0 -1.2 0
12.156 -11.882 4.013 -0 -1.2 0
8.816 -9.167 3.064 -0 -1.2 0
7.706 -8.386 2.745 -0 -1.2 0
9.366 -10.293 3.196 -0 -1.2 0
7.817 -9.024 2.757 -0 -1.2 0
1.16 0.012 0.974 -0 -1.2 0
1.213 0.028 0.99 -0 -1.2 0
1.252 0.028 1 -0 -1.2 0
1.271 0.007 1.006 -0 -1.2 0
1.326 0.018 1.021 -0 -1.2 0
1.373 0.022 1.034 -0 -1.2 0
1.415 0.017 1.045 -0 -1.2 0
1.471 0.025 1.062 -0 -1.2 0
1.528 0.03 1.078 -0 -1.2 0
1.577 0.027 1.091 -0 -1.2 0
1.635 0.029 1.108 -0 -1.2 0
1.702 0.035 1.127 -0 -1.2 0
1.761 0.033 1.143 -0 -1.2 0
1.821 0.03 1.16 -0 -1.2 0
1.889 0.03 1.179 -0 -1.2 0
1.957 0.027 1.197 -0 -1.2 0
2.026 0.023 1.216 -0 -1.2 0
2.104 0.02 1.239 -0 -1.2 0
2.191 0.021 1.263 -0 -1.2 0
2.287 0.023 1.29 -0 -1.2 0
2.376 0.018 1.315 -0 -1.2 0
2.481 0.017 1.344 -0 -1.2 0
2.606 0.021 1.379 -0 -1.2 0
2.74 0.024 1.416 -0 -1.2 0
2.858 0.017 1.449 -0 -1.2 0
3.012 0.019 1.492 -0 -1.2 0
3.166 0.015 1.535 -0 -1.2 0
3.359 0.019 1.589 -0 -1.2 0
3.542 0.013 1.64 -0 -1.2 0
3.764 0.012 1.701 -0 -1.2 0
3.958 -0.003 1.755 -0 -1.2 0
4.247 -0.002 1.836 -0 -1.2 0
4.546 -0.009 1.919 -0 -1.2 0
4.93 -0.007 2.027 -0 -1.2 0
5.373 -0.007 2.151 -0 -1.2 0
5.865 -0.014 2.287 -0 -1.2 0
6.519 -0.011 2.471 -0 -1.2 0
7.279 -0.015 2.683 -0 -1.2 0
8.376 -0.002 2.989 -0 -1.2 0
9.934 0.021 3.425 -0 -1.2 0
11.698 0.009 3.918 -0 -1.2 0
14.614 0.023 4.733 -0 -1.2 0
17.037 -0.098 5.405 -0 -1.2 0
17.063 -0.404 5.401 -0 -1.2 0
17.095 -0.711 5.398 -0 -1.2 0
17.111 -1.018 5.39 -0 -1.2 0
17.152 -1.325 5.39 -0 -1.2 0
17.186 -1.635 5.389 -0 -1.2 0
17.187 -1.945 5.377 -0 -1.2 0
17.327 -2.264 5.404 -0 -1.2 0
17.308 -2.576 5.387 -0 -1.2 0
17.264 -2.884 5.363 -0 -1.2 0
17.359 -3.209 5.377 -0 -1.2 0
17.353 -3.525 5.364 -0 -1.2 0
17.389 -3.849 5.362 -0 -1.2 0
17.409 -4.173 5.355 -0 -1.2 0
17.424 -4.498 5.348 -0 -1.2 0
13.238 -3.92 4.2 -0 -1.2 0
17.474 -5.162 5.337 -0 -1.2 0
17.622 -5.529 5.364 -0 -1.2 0
12.365 -4.432 3.937 -0 -1.2 0
12.002 -4.564 3.831 -0 -1.2 0
17.614 -6.543 5.325 -0 -1.2 0
13.18 -5.421 4.127 -0 -1.2 0
9.813 -4.499 3.222 -0 -1.2 0
14.352 -6.671 4.409 -0 -1.2 0
12.591 -6.501 3.923 -0 -1.2 0
9.737 -5.469 3.165 -0 -1.2 0
11.959 -6.994 3.728 -0 -1.2 0
11.531 -7.036 3.606 -0 -1.2 0
10.069 -6.501 3.218 -0 -1.2 0
9.172 -6.222 2.979 -0 -1.2 0
12.189 -8.216 3.746 -0 -1.2 0
9.23 -6.689 2.977 -0 -1.2 0
11.378 -8.282 3.517 -0 -1.2 0
10.524 -7.998 3.289 -0 -1.2 0
10.27 -8.089 3.215 -0 -1.2 0
9.818 -8.032 3.091 -0 -1.2 0
10.174 -8.555 3.171 -0 -1.2 0
10.112 -8.783 3.144 -0 -1.2 0
10.504 -9.378 3.232 -0 -1.2 0
9.123 -8.537 2.878 -0 -1.2 0
9.095 -8.781 2.861 -0 -1.2 0
8.672 -8.68 2.747 -0 -1.2 0
8.559 -8.846 2.708 -0 -1.2 0
8.664 -9.221 2.724 -0 -1.2 0
8.76 -9.601 2.736 -0 -1.2 0
8.368 -9.501 2.631 -0 -1.2 0
1.182 0.027 0.96 -0 -1.2 0
1.208 0.014 0.966 -0 -1.2 0
1.248 0.015 0.976 -0 -1.2 0
1.295 0.021 0.988 -0 -1.2 0
1.335 0.019 0.998 -0 -1.2 0
1.377 0.017 1.008 -0 -1.2 0
1.425 0.019 1.02 -0 -1.2 0
1.482 0.026 1.034 -0 -1.2 0
1.532 0.025 1.046 -0 -1.2 0
1.59 0.029 1.061 -0 -1.2 0
1.648 0.031 1.076 -0 -1.2 0
1.707 0.032 1.09 -0 -1.2 0
1.767 0.03 1.105 -0 -1.2 0
1.826 0.026 1.119 -0 -1.2 0
1.895 0.027 1.136 -0 -1.2 0
1.964 0.024 1.154 -0 -1.2 0
2.024 0.016 1.168 -0 -1.2 0
2.12 0.023 1.192 -0 -1.2 0
2.19 0.015 1.209 -0 -1.2 0
2.296 0.021 1.236 -0 -1.2 0
2.376 0.012 1.255 -0 -1.2 0
2.51 0.025 1.289 -0 -1.2 0
2.626 0.024 1.318 -0 -1.2 0
2.744 0.021 1.347 -0 -1.2 0
2.862 0.014 1.376 -0 -1.2 0
3.008 0.013 1.412 -0 -1.2 0
3.172 0.013 1.453 -0 -1.2 0
3.357 0.014 1.498 -0 -1.2 0
3.542 0.009 1.544 -0 -1.2 0
3.746 0.003 1.594 -0 -1.2 0
3.952 -0.009 1.644 -0 -1.2 0
4.252 -0.004 1.719 -0 -1.2 0
4.515 -0.018 1.783 -0 -1.2 0
4.893 -0.017 1.877 -0 -1.2 0
5.387 -0.005 2 -0 -1.2 0
5.853 -0.015 2.114 -0 -1.2 0
6.426 -0.024 2.256 -0 -1.2 0
7.259 -0.015 2.463 -0 -1.2 0
8.153 -0.028 2.684 -0 -1.2 0
9.713 0.004 3.071 -0 -1.2 0
11.557 0.006 3.528 -0 -1.2 0
14.216 0.008 4.185 -0 -1.2 0
18.477 0.009 5.24 -0 -1.2 0
18.584 -0.317 5.255 -0 -1.2 0
18.596 -0.649 5.246 -0 -1.2 0
18.634 -0.98 5.243 -0 -1.2 0
18.674 -1.313 5.241 -0 -1.2 0
18.709 -1.647 5.237 -0 -1.2 0
18.758 -1.984 5.237 -0 -1.2 0
18.811 -2.323 5.237 -0 -1.2 0
18.838 -2.663 5.232 -0 -1.2 0
18.85 -3.003 5.223 -0 -1.2 0
18.924 -3.352 5.228 -0 -1.2 0
18.944 -3.697 5.221 -0 -1.2 0
18.967 -4.045 5.213 -0 -1.2 0
19.004 -4.398 5.209 -0 -1.2 0
19.005 -4.748 5.197 -0 -1.2 0
19.029 -5.104 5.19 -0 -1.2 0
19.065 -5.467 5.185 -0 -1.2 0
12.326 -4.142 3.565 -0 -1.2 0
12.369 -4.386 3.568 -0 -1.2 0
12.033 -4.525 3.479 -0 -1.2 0
13.811 -5.302 3.89 -0 -1.2 0
14.282 -6.004 3.982 -0 -1.2 0
9.476 -4.527 2.846 -0 -1.2 0
14.12 -6.513 3.923 -0 -1.2 0
12.562 -6.165 3.55 -0 -1.2 0
12.931 -6.852 3.616 -0 -1.2 0
9.839 -5.672 2.894 -0 -1.2 0
13.628 -7.749 3.756 -0 -1.2 0
9.769 -6.062 2.862 -0 -1.2 0
12.016 -7.486 3.366 -0 -1.2 0
9.238 -6.203 2.726 -0 -1.2 0
12.788 -8.487 3.521 -0 -1.2 0
10.019 -7.107 2.885 -0 -1.2 0
9.942 -7.298 2.859 -0 -1.2 0
9.804 -7.452 2.82 -0 -1.2 0
11.085 -8.572 3.096 -0 -1.2 0
8.195 -6.811 2.446 -0 -1.2 0
9.884 -8.265 2.81 -0 -1.2 0
10.751 -9.19 2.99 -0 -1.2 0
9.924 -8.836 2.799 -0 -1.2 0
10.083 -9.246 2.823 -0 -1.2 0
9.705 -9.22 2.73 -0 -1.2 0
9.233 -9.096 2.618 -0 -1.2 0
8.373 -8.6 2.424 -0 -1.2 0
10.247 -10.629 2.812 -0 -1.2 0
9.462 -10.201 2.634 -0 -1.2 0
8.423 -9.474 2.404 -0 -1.2 0
1.169 0.007 0.937 -0 -1.2 0
1.222 0.022 0.948 -0 -1.2 0
1.256 0.016 0.956 -0 -1.2 0
1.297 0.016 0.965 -0 -1.2 0
1.337 0.014 0.973 -0 -1.2 0
1.393 0.025 0.986 -0 -1.2 0
1.435 0.02 0.995 -0 -1.2 0
1.477 0.015 1.003 -0 -1.2 0
1.534 0.021 1.016 -0 -1.2 0
1.584 0.019 1.027 -0 -1.2 0
1.642 0.022 1.04 -0 -1.2 0
1.71 0.027 1.054 -0 -1.2 0
1.77 0.027 1.068 -0 -1.2 0
1.83 0.023 1.081 -0 -1.2 0
1.898 0.024 1.095 -0 -1.2 0
1.969 0.021 1.11 -0 -1.2 0
2.038 0.018 1.126 -0 -1.2 0
2.117 0.017 1.143 -0 -1.2 0
2.196 0.013 1.159 -0 -1.2 0
2.294 0.015 1.181 -0 -1.2 0
2.401 0.019 1.205 -0 -1.2 0
2.517 0.024 1.229 -0 -1.2 0
2.626 0.02 1.253 -0 -1.2 0
2.735 0.013 1.276 -0 -1.2 0
2.871 0.013 1.306 -0 -1.2 0
2.991 0.002 1.331 -0 -1.2 0
3.166 0.007 1.369 -0 -1.2 0
3.342 0.006 1.407 -0 -1.2 0
3.538 0.005 1.45 -0 -1.2 0
3.734 -0.002 1.492 -0 -1.2 0
3.95 -0.011 1.539 -0 -1.2 0
4.223 -0.012 1.598 -0 -1.2 0
4.517 -0.018 1.662 -0 -1.2 0
4.85 -0.026 1.733 -0 -1.2 0
5.346 -0.012 1.841 -0 -1.2 0
5.796 -0.024 1.939 -0 -1.2 0
6.441 -0.019 2.079 -0 -1.2 0
7.106 -0.034 2.222 -0 -1.2 0
7.869 -0.059 2.387 -0 -1.2 0
9.362 -0.027 2.712 -0 -1.2 0
11.353 0 3.144 -0 -1.2 0
13.796 -0.008 3.674 -0 -1.2 0
20.445 0.154 5.121 -0 -1.2 0
20.437 -0.209 5.106 -0 -1.2 0
20.471 -0.572 5.101 -0 -1.2 0
20.5 -0.935 5.094 -0 -1.2 0
20.541 -1.298 5.09 -0 -1.2 0
20.576 -1.664 5.084 -0 -1.2 0
20.615 -2.031 5.079 -0 -1.2 0
20.735 -2.405 5.092 -0 -1.2 0
20.692 -2.771 5.07 -0 -1.2 0
20.771 -3.149 5.074 -0 -1.2 0
20.774 -3.521 5.061 -0 -1.2 0
20.81 -3.9 5.055 -0 -1.2 0
20.848 -4.282 5.05 -0 -1.2 0
20.871 -4.665 5.042 -0 -1.2 0
11.39 -3.241 3.036 -0 -1.2 0
11.373 -3.445 3.026 -0 -1.2 0
12.851 -3.991 3.326 -0 -1.2 0
20.987 -6.233 5.011 -0 -1.2 0
11.213 -4.036 2.97 -0 -1.2 0
10.144 -3.945 2.741 -0 -1.2 0
10.555 -4.262 2.819 -0 -1.2 0
9.793 -4.409 2.649 -0 -1.2 0
9.672 -4.557 2.617 -0 -1.2 0
9.649 -4.741 2.605 -0 -1.2 0
9.642 -4.932 2.597 -0 -1.2 0
9.676 -5.144 2.597 -0 -1.2 0
12.841 -6.751 3.226 -0 -1.2 0
9.364 -5.402 2.52 -0 -1.2 0
11.83 -6.804 3.005 -0 -1.2 0
10.969 -6.622 2.825 -0 -1.2 0
11.753 -7.281 2.971 -0 -1.2 0
9.44 -6.264 2.505 -0 -1.2 0
9.301 -6.4 2.471 -0 -1.2 0
9.506 -6.74 2.503 -0 -1.2 0
9.636 -7.047 2.521 -0 -1.2 0
9.973 -7.5 2.577 -0 -1.2 0
8.651 -6.857 2.314 -0 -1.2 0
8.286 -6.821 2.236 -0 -1.2 0
7.541 -6.494 2.086 -0 -1.2 0
10.006 -8.554 2.547 -0 -1.2 0
11.601 -10.074 2.838 -0 -1.2 0
13.246 -11.734 3.136 -0 -1.2 0
10.51 -9.821 2.611 -0 -1.2 0
11.668 -11.141 2.815 -0 -1.2 0
11.467 -11.318 2.765 -0 -1.2 0
8.537 -8.949 2.214 -0 -1.2 0
9.616 -10.268 2.401 -0 -1.2 0
9.789 -10.765 2.421 -0 -1.2 0
1.176 0.009 0.918 -0 -1.2 0
1.209 0.003 0.924 -0 -1.2 0
1.249 0.005 0.932 -0 -1.2 0
1.297 0.011 0.94 -0 -1.2 0
1.33 0.003 0.946 -0 -1.2 0
1.387 0.014 0.957 -0 -1.2 0
1.443 0.023 0.968 -0 -1.2 0
1.486 0.018 0.976 -0 -1.2 0
1.543 0.023 0.987 -0 -1.2 0
1.594 0.022 0.996 -0 -1.2 0
1.653 0.025 1.007 -0 -1.2 0
1.704 0.019 1.016 -0 -1.2 0
1.773 0.024 1.029 -0 -1.2 0
1.833 0.021 1.039 -0 -1.2 0
1.91 0.027 1.055 -0 -1.2 0
1.972 0.02 1.066 -0 -1.2 0
2.051 0.021 1.08 -0 -1.2 0
2.13 0.02 1.095 -0 -1.2 0
2.201 0.012 1.107 -0 -1.2 0
2.316 0.024 1.129 -0 -1.2 0
2.398 0.015 1.144 -0 -1.2 0
2.523 0.024 1.168 -0 -1.2 0
2.623 0.017 1.186 -0 -1.2 0
2.751 0.018 1.21 -0 -1.2 0
2.862 0.007 1.229 -0 -1.2 0
3.009 0.008 1.257 -0 -1.2 0
3.157 0.003 1.285 -0 -1.2 0
3.343 0.006 1.319 -0 -1.2 0
3.541 0.006 1.355 -0 -1.2 0
3.738 0 1.391 -0 -1.2 0
3.955 -0.009 1.431 -0 -1.2 0
4.211 -0.015 1.478 -0 -1.2 0
4.506 -0.02 1.533 -0 -1.2 0
4.86 -0.021 1.598 -0 -1.2 0
5.36 -0.007 1.691 -0 -1.2 0
5.774 -0.025 1.767 -0 -1.2 0
6.315 -0.035 1.866 -0 -1.2 0
6.993 -0.045 1.991 -0 -1.2 0
7.713 -0.073 2.123 -0 -1.2 0
8.98 -0.061 2.358 -0 -1.2 0
11.002 -0.021 2.734 -0 -1.2 0
13.588 -0.007 3.211 -0 -1.2 0
18.422 0.056 4.108 -0 -1.2 0
22.714 -0.075 4.897 -0 -1.2 0
22.73 -0.476 4.886 -0 -1.2 0
22.77 -0.877 4.879 -0 -1.2 0
22.792 -1.278 4.87 -0 -1.2 0
22.827 -1.682 4.862 -0 -1.2 0
22.904 -2.088 4.863 -0 -1.2 0
23.014 -2.499 4.868 -0 -1.2 0
22.96 -2.903 4.845 -0 -1.2 0
23.016 -3.316 4.841 -0 -1.2 0
23.055 -3.731 4.834 -0 -1.2 0
23.096 -4.149 4.827 -0 -1.2 0
23.111 -4.566 4.815 -0 -1.2 0
11.156 -2.962 2.66 -0 -1.2 0
23.254 -5.43 4.811 -0 -1.2 0
11.57 -3.451 2.72 -0 -1.2 0
12.856 -3.951 2.94 -0 -1.2 0
12.471 -4.095 2.865 -0 -1.2 0
13.716 -4.652 3.075 -0 -1.2 0
10.768 -4.083 2.549 -0 -1.2 0
9.904 -4.028 2.392 -0 -1.2 0
12.118 -4.924 2.77 -0 -1.2 0
11.594 -4.98 2.671 -0 -1.2 0
12.865 -5.662 2.883 -0 -1.2 0
9.683 -4.713 2.328 -0 -1.2 0
9.583 -4.867 2.304 -0 -1.2 0
9.701 -5.111 2.317 -0 -1.2 0
9.758 -5.335 2.32 -0 -1.2 0
9.631 -5.481 2.291 -0 -1.2 0
9.662 -5.7 2.289 -0 -1.2 0
12.797 -7.489 2.807 -0 -1.2 0
12.372 -7.546 2.726 -0 -1.2 0
8.469 -5.681 2.07 -0 -1.2 0
12.412 -8.128 2.714 -0 -1.2 0
10.248 -7.129 2.349 -0 -1.2 0
9.176 -6.706 2.165 -0 -1.2 0
8.655 -6.593 2.072 -0 -1.2 0
8.593 -6.765 2.055 -0 -1.2 0
13.307 -10.255 2.806 -0 -1.2 0
7.598 -6.487 1.881 -0 -1.2 0
7.633 -6.713 1.879 -0 -1.2 0
14.101 -11.932 2.895 -0 -1.2 0
11.74 -10.431 2.51 -0 -1.2 0
11.671 -10.71 2.488 -0 -1.2 0
13.965 -13.034 2.831 -0 -1.2 0
8.971 -9.002 2.048 -0 -1.2 0
10.593 -10.783 2.286 -0 -1.2 0
7.828 -8.478 1.854 -0 -1.2 0
1.188 0.017 0.901 -0 -1.2 0
1.229 0.018 0.908 -0 -1.2 0
1.269 0.019 0.913 -0 -1.2 0
1.302 0.012 0.919 -0 -1.2 0
1.351 0.018 0.927 -0 -1.2 0
1.393 0.015 0.933 -0 -1.2 0
1.442 0.018 0.941 -0 -1.2 0
1.485 0.012 0.947 -0 -1.2 0
1.542 0.019 0.956 -0 -1.2 0
1.593 0.017 0.964 -0 -1.2 0
1.66 0.026 0.975 -0 -1.2 0
1.712 0.021 0.983 -0 -1.2 0
1.78 0.025 0.993 -0 -1.2 0
1.841 0.023 1.003 -0 -1.2 0
1.911 0.024 1.014 -0 -1.2 0
1.981 0.022 1.025 -0 -1.2 0
2.051 0.018 1.036 -0 -1.2 0
2.132 0.017 1.048 -0 -1.2 0
2.203 0.01 1.059 -0 -1.2 0
2.301 0.013 1.074 -0 -1.2 0
2.409 0.018 1.091 -0 -1.2 0
2.517 0.019 1.108 -0 -1.2 0
2.627 0.016 1.125 -0 -1.2 0
2.737 0.009 1.142 -0 -1.2 0
2.866 0.008 1.161 -0 -1.2 0
3.015 0.007 1.184 -0 -1.2 0
3.163 0.003 1.208 -0 -1.2 0
3.35 0.007 1.237 -0 -1.2 0
3.528 0.001 1.265 -0 -1.2 0
3.727 -0.005 1.295 -0 -1.2 0
3.974 -0.004 1.334 -0 -1.2 0
4.202 -0.016 1.369 -0 -1.2 0
4.499 -0.02 1.415 -0 -1.2 0
4.864 -0.019 1.472 -0 -1.2 0
5.288 -0.019 1.538 -0 -1.2 0
5.772 -0.022 1.613 -0 -1.2 0
6.326 -0.029 1.699 -0 -1.2 0
6.891 -0.056 1.786 -0 -1.2 0
7.612 -0.08 1.897 -0 -1.2 0
8.738 -0.082 2.072 -0 -1.2 0
10.416 -0.068 2.334 -0 -1.2 0
13.052 -0.036 2.744 -0 -1.2 0
16.973 -0.013 3.356 -0 -1.2 0
25.439 0.082 4.676 -0 -1.2 0
25.506 -0.363 4.671 -0 -1.2 0
25.547 -0.81 4.662 -0 -1.2 0
25.57 -1.259 4.651 -0 -1.2 0
25.615 -1.709 4.643 -0 -1.2 0
25.702 -2.164 4.641 -0 -1.2 0
25.781 -2.621 4.638 -0 -1.2 0
25.792 -3.077 4.624 -0 -1.2 0
25.776 -3.532 4.607 -0 -1.2 0
25.831 -3.995 4.599 -0 -1.2 0
25.868 -4.459 4.59 -0 -1.2 0
13.167 -3.035 2.662 -0 -1.2 0
11.62 -3.013 2.423 -0 -1.2 0
26.073 -5.892 4.574 -0 -1.2 0
12.073 -3.524 2.476 -0 -1.2 0
11.847 -3.694 2.435 -0 -1.2 0
18.058 -5.402 3.343 -0 -1.2 0
12.625 -4.332 2.534 -0 -1.2 0
11.604 -4.284 2.377 -0 -1.2 0
12.432 -4.749 2.49 -0 -1.2 0
10.743 -4.452 2.238 -0 -1.2 0
9.379 -4.201 2.034 -0 -1.2 0
9.633 -4.473 2.064 -0 -1.2 0
13.138 -5.975 2.559 -0 -1.2 0
9.448 -4.781 2.025 -0 -1.2 0
12.149 -6.093 2.402 -0 -1.2 0
12.426 -6.463 2.432 -0 -1.2 0
9.635 -5.446 2.032 -0 -1.2 0
9.881 -5.767 2.059 -0 -1.2 0
9.871 -5.974 2.051 -0 -1.2 0
9.39 -5.938 1.978 -0 -1.2 0
8.513 -5.668 1.85 -0 -1.2 0
13.944 -8.943 2.585 -0 -1.2 0
9.959 -6.911 2.033 -0 -1.2 0
11.762 -8.254 2.269 -0 -1.2 0
8.18 -6.248 1.779 -0 -1.2 0
8.157 -6.433 1.769 -0 -1.2 0
8.792 -7.076 1.847 -0 -1.2 0
8.826 -7.326 1.843 -0 -1.2 0
7.624 -6.667 1.679 -0 -1.2 0
8.348 -7.428 1.765 -0 -1.2 0
8.308 -7.628 1.752 -0 -1.2 0
12.713 -11.504 2.308 -0 -1.2 0
13.26 -12.346 2.364 -0 -1.2 0
7.983 -8.071 1.687 -0 -1.2 0
8.016 -8.35 1.683 -0 -1.2 0
7.84 -8.439 1.652 -0 -1.2 0
8.295 -9.146 1.699 -0 -1.2 0
1.194 0.019 0.882 -0 -1.2 0
1.227 0.013 0.885 -0 -1.2 0
1.275 0.021 0.892 -0 -1.2 0
1.323 0.027 0.899 -0 -1.2 0
1.35 0.013 0.901 -0 -1.2 0
1.399 0.017 0.908 -0 -1.2 0
1.442 0.014 0.913 -0 -1.2 0
1.499 0.021 0.92 -0 -1.2 0
1.542 0.015 0.925 -0 -1.2 0
1.601 0.02 0.933 -0 -1.2 0
1.66 0.023 0.94 -0 -1.2 0
1.72 0.023 0.947 -0 -1.2 0
1.781 0.023 0.955 -0 -1.2 0
1.85 0.026 0.964 -0 -1.2 0
1.912 0.022 0.971 -0 -1.2 0
1.99 0.025 0.981 -0 -1.2 0
2.061 0.022 0.99 -0 -1.2 0
2.133 0.017 0.998 -0 -1.2 0
2.213 0.014 1.009 -0 -1.2 0
2.294 0.008 1.018 -0 -1.2 0
2.411 0.017 1.033 -0 -1.2 0
2.529 0.023 1.048 -0 -1.2 0
2.648 0.024 1.063 -0 -1.2 0
2.741 0.011 1.074 -0 -1.2 0
2.879 0.012 1.091 -0 -1.2 0
3.009 0.006 1.107 -0 -1.2 0
3.187 0.012 1.129 -0 -1.2 0
3.365 0.013 1.152 -0 -1.2 0
3.545 0.007 1.174 -0 -1.2 0
3.744 0.001 1.198 -0 -1.2 0
3.963 -0.005 1.225 -0 -1.2 0
4.241 -0.004 1.26 -0 -1.2 0
4.509 -0.016 1.293 -0 -1.2 0
4.886 -0.011 1.34 -0 -1.2 0
5.293 -0.013 1.39 -0 -1.2 0
5.72 -0.027 1.443 -0 -1.2 0
6.324 -0.024 1.518 -0 -1.2 0
6.853 -0.054 1.582 -0 -1.2 0
7.597 -0.074 1.675 -0 -1.2 0
8.668 -0.08 1.807 -0 -1.2 0
9.919 -0.106 1.962 -0 -1.2 0
11.912 -0.113 2.21 -0 -1.2 0
16.929 0.007 2.837 -0 -1.2 0
12.44 -2.898 2.185 -0 -1.2 0
12.418 -3.116 2.175 -0 -1.2 0
12.176 -3.294 2.139 -0 -1.2 0
12.337 -3.77 2.144 -0 -1.2 0
11.623 -3.825 2.054 -0 -1.2 0
11.835 -4.093 2.071 -0 -1.2 0
11.811 -4.307 2.061 -0 -1.2 0
18.049 -6.359 2.77 -0 -1.2 0
11.551 -4.671 2.017 -0 -1.2 0
12.781 -5.301 2.15 -0 -1.2 0
11.46 -5.084 1.993 -0 -1.2 0
9.142 -4.448 1.725 -0 -1.2 0
12.946 -6.117 2.144 -0 -1.2 0
12.987 -6.395 2.14 -0 -1.2 0
9.515 -5.159 1.749 -0 -1.2 0
9.489 -5.343 1.739 -0 -1.2 0
12.859 -7.141 2.1 -0 -1.2 0
10.033 -6.015 1.785 -0 -1.2 0
8.197 -5.281 1.58 -0 -1.2 0
8.334 -5.536 1.589 -0 -1.2 0
9.879 -6.594 1.747 -0 -1.2 0
8.34 -5.917 1.577 -0 -1.2 0
18.468 -12.291 2.63 -0 -1.2 0
8.11 -6.166 1.541 -0 -1.2 0
8.371 -6.535 1.562 -0 -1.2 0
8.522 -6.847 1.57 -0 -1.2 0
7.309 -6.203 1.44 -0 -1.2 0
8.696 -7.417 1.573 -0 -1.2 0
7.897 -7.039 1.487 -0 -1.2 0
7.278 -6.766 1.418 -0 -1.2 0
7.225 -6.929 1.406 -0 -1.2 0
7.275 -7.182 1.405 -0 -1.2 0
7.109 -7.253 1.382 -0 -1.2 0
7.644 -7.96 1.425 -0 -1.2 0
8.205 -8.735 1.47 -0 -1.2 0
7.687 -8.498 1.413 -0 -1.2 0
1.19 0.012 0.863 -0 -1.2 0
1.231 0.014 0.867 -0 -1.2 0
1.272 0.015 0.871 -0 -1.2 0
1.313 0.015 0.875 -0 -1.2 0
1.355 0.013 0.879 -0 -1.2 0
1.396 0.011 0.882 -0 -1.2 0
1.445 0.015 0.887 -0 -1.2 0
1.488 0.009 0.891 -0 -1.2 0
1.539 0.01 0.896 -0 -1.2 0
1.606 0.021 0.902 -0 -1.2 0
1.665 0.024 0.908 -0 -1.2 0
1.725 0.025 0.914 -0 -1.2 0
1.786 0.025 0.919 -0 -1.2 0
1.848 0.022 0.926 -0 -1.2 0
1.925 0.029 0.932 -0 -1.2 0
1.996 0.027 0.94 -0 -1.2 0
2.068 0.024 0.946 -0 -1.2 0
2.138 0.019 0.953 -0 -1.2 0
2.219 0.016 0.96 -0 -1.2 0
2.31 0.014 0.969 -0 -1.2 0
2.427 0.024 0.98 -0 -1.2 0
2.537 0.026 0.991 -0 -1.2 0
2.647 0.023 1.001 -0 -1.2 0
2.749 0.014 1.011 -0 -1.2 0
2.878 0.011 1.023 -0 -1.2 0
3.019 0.009 1.036 -0 -1.2 0
3.187 0.012 1.051 -0 -1.2 0
3.366 0.013 1.068 -0 -1.2 0
3.537 0.005 1.085 -0 -1.2 0
3.756 0.005 1.105 -0 -1.2 0
3.985 0.001 1.127 -0 -1.2 0
4.244 -0.002 1.152 -0 -1.2 0
4.514 -0.012 1.177 -0 -1.2 0
4.892 -0.008 1.212 -0 -1.2 0
5.329 -0.003 1.254 -0 -1.2 0
5.787 -0.01 1.297 -0 -1.2 0
6.227 -0.036 1.338 -0 -1.2 0
6.874 -0.045 1.4 -0 -1.2 0
7.611 -0.064 1.469 -0 -1.2 0
8.596 -0.08 1.562 -0 -1.2 0
9.92 -0.095 1.686 -0 -1.2 0
11.643 -0.122 1.849 -0 -1.2 0
12.513 -0.267 1.927 -0 -1.2 0
12.526 -0.484 1.921 -0 -1.2 0
12.545 -0.702 1.917 -0 -1.2 0
12.59 -0.918 1.914 -0 -1.2 0
12.642 -1.136 1.912 -0 -1.2 0
12.651 -1.356 1.906 -0 -1.2 0
12.645 -1.575 1.899 -0 -1.2 0
12.665 -1.797 1.894 -0 -1.2 0
12.671 -2.018 1.887 -0 -1.2 0
12.594 -2.232 1.873 -0 -1.2 0
12.564 -2.449 1.864 -0 -1.2 0
12.609 -2.899 1.854 -0 -1.2 0
13.096 -3.671 1.876 -0 -1.2 0
12.543 -3.788 1.82 -0 -1.2 0
12.505 -4.007 1.81 -0 -1.2 0
12.318 -4.189 1.786 -0 -1.2 0
13.389 -4.708 1.871 -0 -1.2 0
13.458 -4.979 1.869 -0 -1.2 0
13.332 -5.195 1.851 -0 -1.2 0
12.994 -5.338 1.814 -0 -1.2 0
13.089 -5.622 1.814 -0 -1.2 0
12.962 -5.831 1.796 -0 -1.2 0
9.468 -4.73 1.5 -0 -1.2 0
15.191 -7.259 1.962 -0 -1.2 0
8.998 -4.91 1.449 -0 -1.2 0
9.413 -5.282 1.477 -0 -1.2 0
11.442 -6.434 1.633 -0 -1.2 0
9.513 -5.727 1.472 -0 -1.2 0
8.961 -5.649 1.422 -0 -1.2 0
8.125 -5.397 1.351 -0 -1.2 0
8.669 -5.883 1.387 -0 -1.2 0
8.326 -5.881 1.355 -0 -1.2 0
8.48 -6.169 1.361 -0 -1.2 0
8.181 -6.181 1.331 -0 -1.2 0
8.651 -6.687 1.361 -0 -1.2 0
13.355 -10.104 1.7 -0 -1.2 0
13.312 -10.415 1.686 -0 -1.2 0
7.906 -6.803 1.286 -0 -1.2 0
7.401 -6.63 1.244 -0 -1.2 0
7.688 -7.059 1.258 -0 -1.2 0
7.459 -7.09 1.235 -0 -1.2 0
7.439 -7.288 1.227 -0 -1.2 0
7.375 -7.454 1.216 -0 -1.2 0
7.723 -7.996 1.231 -0 -1.2 0
11.068 -11.384 1.443 -0 -1.2 0
8.296 -9.052 1.253 -0 -1.2 0
1.126 0.022 -0.867 -0 -1.2 0
1.159 0.018 -0.871 -0 -1.2 0
1.2 0.019 -0.876 -0 -1.2 0
1.248 0.026 -0.88 -0 -1.2 0
1.289 0.025 -0.885 -0 -1.2 0
1.33 0.023 -0.889 -0 -1.2 0
1.38 0.026 -0.894 -0 -1.2 0
1.431 0.027 -0.9 -0 -1.2 0
1.473 0.022 -0.904 -0 -1.2 0
1.516 0.015 -0.909 -0 -1.2 0
1.575 0.018 -0.915 -0 -1.2 0
1.635 0.02 -0.922 -0 -1.2 0
1.703 0.025 -0.928 -0 -1.2 0
1.78 0.034 -0.937 -0 -1.2 0
1.842 0.03 -0.943 -0 -1.2 0
1.904 0.024 -0.95 -0 -1.2 0
1.991 0.031 -0.959 -0 -1.2 0
2.063 0.026 -0.967 -0 -1.2 0
2.144 0.023 -0.976 -0 -1.2 0
2.224 0.018 -0.984 -0 -1.2 0
2.333 0.024 -0.995 -0 -1.2 0
2.433 0.021 -1.006 -0 -1.2 0
2.552 0.024 -1.019 -0 -1.2 0
2.671 0.023 -1.032 -0 -1.2 0
2.792 0.017 -1.044 -0 -1.2 0
2.922 0.012 -1.058 -0 -1.2 0
3.071 0.009 -1.074 -0 -1.2 0
3.231 0.005 -1.091 -0 -1.2 0
3.411 0 -1.11 -0 -1.2 0
3.629 0.002 -1.133 -0 -1.2 0
3.838 -0.005 -1.156 -0 -1.2 0
4.097 -0.007 -1.183 -0 -1.2 0
4.394 -0.009 -1.215 -0 -1.2 0
4.732 -0.013 -1.25 -0 -1.2 0
5.139 -0.013 -1.293 -0 -1.2 0
5.616 -0.014 -1.345 -0 -1.2 0
6.154 -0.022 -1.401 -0 -1.2 0
6.771 -0.036 -1.467 -0 -1.2 0
7.418 -0.067 -1.537 -0 -1.2 0
8.086 -0.119 -1.608 -0 -1.2 0
9.051 -0.162 -1.712 -0 -1.2 0
10.77 -0.176 -1.894 -0 -1.2 0
13.651 -0.173 -2.2 -0 -1.2 0
18.443 -0.178 -2.707 -0 -1.2 0
23.475 -0.342 -3.244 -0 -1.2 0
11.135 -1.508 -1.959 -0 -1.2 0
11.036 -1.697 -1.952 -0 -1.2 0
10.974 -1.886 -1.949 -0 -1.2 0
10.918 -2.074 -1.947 -0 -1.2 0
10.889 -2.263 -1.947 -0 -1.2 0
12.356 -2.863 -2.115 -0 -1.2 0
12.686 -3.137 -2.155 -0 -1.2 0
12.706 -3.37 -2.162 -0 -1.2 0
12.644 -3.588 -2.159 -0 -1.2 0
12.56 -3.8 -2.155 -0 -1.2 0
12.829 -4.094 -2.189 -0 -1.2 0
11.03 -3.873 -1.994 -0 -1.2 0
7.144 -3.017 -1.565 -0 -1.2 0
7.291 -3.194 -1.584 -0 -1.2 0
7.033 -3.253 -1.558 -0 -1.2 0
7.665 -3.597 -1.632 -0 -1.2 0
7.619 -3.73 -1.63 -0 -1.2 0
9.549 -4.595 -1.851 -0 -1.2 0
12.432 -5.91 -2.183 -0 -1.2 0
6.872 -3.879 -1.553 -0 -1.2 0
12.731 -6.547 -2.227 -0 -1.2 0
11.301 -6.166 -2.067 -0 -1.2 0
7.364 -4.54 -1.619 -0 -1.2 0
21.813 -11.856 -3.294 -0 -1.2 0
10.852 -6.664 -2.03 -0 -1.2 0
7.663 -5.185 -1.663 -0 -1.2 0
7.816 -5.446 -1.684 -0 -1.2 0
7.765 -5.597 -1.682 -0 -1.2 0
13.053 -9.004 -2.309 -0 -1.2 0
9.561 -7.105 -1.901 -0 -1.2 0
8.631 -6.729 -1.795 -0 -1.2 0
7.422 -6.12 -1.656 -0 -1.2 0
9.582 -7.846 -1.918 -0 -1.2 0
6.962 -6.17 -1.608 -0 -1.2 0
7.418 -6.707 -1.667 -0 -1.2 0
10.16 -9.087 -2.004 -0 -1.2 0
6.603 -6.458 -1.575 -0 -1.2 0
7.729 -7.611 -1.718 -0 -1.2 0
8.906 -8.884 -1.867 -0 -1.2 0
6.284 -6.768 -1.547 -0 -1.2 0
6.263 -6.952 -1.549 -0 -1.2 0
6.538 -7.429 -1.587 -0 -1.2 0
1.129 0.031 -0.893 -0 -1.2 0
1.162 0.026 -0.898 -0 -1.2 0
1.202 0.027 -0.903 -0 -1.2 0
1.236 0.02 -0.908 -0 -1.2 0
1.285 0.026 -0.915 -0 -1.2 0
1.325 0.024 -0.92 -0 -1.2 0
1.375 0.027 -0.928 -0 -1.2 0
1.425 0.028 -0.935 -0 -1.2 0
1.468 0.023 -0.94 -0 -1.2 0
1.518 0.022 -0.947 -0 -1.2 0
1.577 0.026 -0.956 -0 -1.2 0
1.636 0.026 -0.964 -0 -1.2 0
1.696 0.026 -0.972 -0 -1.2 0
1.773 0.035 -0.984 -0 -1.2 0
1.835 0.031 -0.992 -0 -1.2 0
1.905 0.03 -1.002 -0 -1.2 0
1.984 0.032 -1.013 -0 -1.2 0
2.064 0.033 -1.024 -0 -1.2 0
2.143 0.03 -1.036 -0 -1.2 0
2.216 0.02 -1.046 -0 -1.2 0
2.332 0.029 -1.063 -0 -1.2 0
2.441 0.031 -1.078 -0 -1.2 0
2.559 0.034 -1.095 -0 -1.2 0
2.67 0.028 -1.11 -0 -1.2 0
2.789 0.023 -1.127 -0 -1.2 0
2.928 0.021 -1.146 -0 -1.2 0
3.077 0.017 -1.168 -0 -1.2 0
3.236 0.012 -1.19 -0 -1.2 0
3.424 0.011 -1.217 -0 -1.2 0
3.633 0.01 -1.246 -0 -1.2 0
3.861 0.006 -1.278 -0 -1.2 0
4.118 0.003 -1.315 -0 -1.2 0
4.405 -0.001 -1.356 -0 -1.2 0
4.761 0 -1.406 -0 -1.2 0
5.186 0.002 -1.465 -0 -1.2 0
5.651 -0.001 -1.531 -0 -1.2 0
6.196 -0.008 -1.609 -0 -1.2 0
6.84 -0.018 -1.7 -0 -1.2 0
7.554 -0.041 -1.8 -0 -1.2 0
8.475 -0.064 -1.931 -0 -1.2 0
9.348 -0.125 -2.055 -0 -1.2 0
10.873 -0.16 -2.271 -0 -1.2 0
13.604 -0.168 -2.656 -0 -1.2 0
18.534 -0.163 -3.351 -0 -1.2 0
10.731 -2.438 -2.298 -0 -1.2 0
10.627 -2.614 -2.287 -0 -1.2 0
10.52 -2.788 -2.276 -0 -1.2 0
