# .PCD v.7 - Point Cloud Data file format
FIELDS x y z vp_x vp_y vp_z
SIZE 4 4 4 4 4 4
TYPE F F F F F F
COUNT 1 1 1 1 1 1
WIDTH 1538
HEIGHT 1
VIEWPOINT 0 -1.20013 0 1 0 0 0
POINTS 1538
DATA ascii
-14.659 -7.716 25.256 -0 -1.2 0
-14.589 -8.225 25.158 -0 -1.2 0
-14.514 -8.732 25.052 -0 -1.2 0
-14.436 -9.238 24.939 -0 -1.2 0
-14.352 -9.741 24.819 -0 -1.2 0
-14.264 -10.24 24.69 -0 -1.2 0
-14.172 -10.738 24.555 -0 -1.2 0
-14.075 -11.231 24.411 -0 -1.2 0
-13.974 -11.723 24.26 -0 -1.2 0
-13.87 -12.211 24.102 -0 -1.2 0
-13.761 -12.695 23.936 -0 -1.2 0
-13.647 -13.177 23.764 -0 -1.2 0
-13.53 -13.654 23.583 -0 -1.2 0
-13.408 -14.127 23.396 -0 -1.2 0
-13.282 -14.596 23.201 -0 -1.2 0
-13.153 -15.062 23 -0 -1.2 0
-13.018 -15.523 22.79 -0 -1.2 0
-12.881 -15.981 22.575 -0 -1.2 0
-12.74 -16.433 22.352 -0 -1.2 0
-12.594 -16.88 22.123 -0 -1.2 0
-12.445 -17.323 21.886 -0 -1.2 0
-12.292 -17.76 21.644 -0 -1.2 0
-12.135 -18.194 21.395 -0 -1.2 0
-11.975 -18.621 21.139 -0 -1.2 0
-11.811 -19.043 20.876 -0 -1.2 0
-11.643 -19.46 20.607 -0 -1.2 0
-11.471 -19.871 20.331 -0 -1.2 0
-11.296 -20.276 20.05 -0 -1.2 0
-11.118 -20.676 19.763 -0 -1.2 0
-10.937 -21.069 19.469 -0 -1.2 0
-10.752 -21.457 19.17 -0 -1.2 0
-10.564 -21.839 18.864 -0 -1.2 0
-10.372 -22.214 18.553 -0 -1.2 0
-14.319 0.614 26.246 -0 -1.2 0
-14.286 -2 26.305 -0 -1.2 0
-14.267 -2.524 26.292 -0 -1.2 0
-14.243 -3.046 26.272 -0 -1.2 0
-14.215 -3.568 26.244 -0 -1.2 0
-13.951 -4.04 25.778 -0 -1.2 0
-14.146 -4.61 26.163 -0 -1.2 0
-14.104 -5.129 26.11 -0 -1.2 0
-14.059 -5.648 26.05 -0 -1.2 0
-14.009 -6.164 25.982 -0 -1.2 0
-13.955 -6.679 25.905 -0 -1.2 0
-13.897 -7.193 25.821 -0 -1.2 0
-13.835 -7.704 25.729 -0 -1.2 0
-13.768 -8.214 25.628 -0 -1.2 0
-13.697 -8.721 25.521 -0 -1.2 0
-13.622 -9.227 25.406 -0 -1.2 0
-13.543 -9.729 25.282 -0 -1.2 0
-13.46 -10.229 25.151 -0 -1.2 0
-13.372 -10.727 25.013 -0 -1.2 0
-13.281 -11.221 24.866 -0 -1.2 0
-13.186 -11.712 24.712 -0 -1.2 0
-13.086 -12.2 24.55 -0 -1.2 0
-12.983 -12.684 24.382 -0 -1.2 0
-12.875 -13.166 24.205 -0 -1.2 0
-12.763 -13.643 24.02 -0 -1.2 0
-12.649 -14.117 23.83 -0 -1.2 0
-12.53 -14.586 23.631 -0 -1.2 0
-12.407 -15.052 23.425 -0 -1.2 0
-12.281 -15.513 23.212 -0 -1.2 0
-12.15 -15.971 22.992 -0 -1.2 0
-12.016 -16.423 22.766 -0 -1.2 0
-11.878 -16.87 22.532 -0 -1.2 0
-11.737 -17.313 22.29 -0 -1.2 0
-11.592 -17.751 22.042 -0 -1.2 0
-11.444 -18.184 21.788 -0 -1.2 0
-11.292 -18.612 21.527 -0 -1.2 0
-11.137 -19.034 21.26 -0 -1.2 0
-10.978 -19.451 20.985 -0 -1.2 0
-10.816 -19.862 20.705 -0 -1.2 0
-10.65 -20.268 20.418 -0 -1.2 0
-10.482 -20.667 20.125 -0 -1.2 0
-10.31 -21.061 19.825 -0 -1.2 0
-10.136 -21.449 19.52 -0 -1.2 0
-9.957 -21.83 19.209 -0 -1.2 0
-9.776 -22.206 18.892 -0 -1.2 0
-13.349 -2.513 26.782 -0 -1.2 0
-13.326 -3.035 26.762 -0 -1.2 0
-13.3 -3.557 26.732 -0 -1.2 0
-13.269 -4.078 26.695 -0 -1.2 0
-13.233 -4.599 26.649 -0 -1.2 0
-13.195 -5.118 26.595 -0 -1.2 0
-13.152 -5.637 26.533 -0 -1.2 0
-13.105 -6.153 26.463 -0 -1.2 0
-12.94 -7.693 26.205 -0 -1.2 0
-12.878 -8.203 26.102 -0 -1.2 0
-12.419 -11.21 25.323 -0 -1.2 0
-12.038 -13.156 24.649 -0 -1.2 0
-11.933 -13.633 24.461 -0 -1.2 0
-11.825 -14.107 24.266 -0 -1.2 0
-11.714 -14.576 24.063 -0 -1.2 0
-11.598 -15.042 23.853 -0 -1.2 0
-11.479 -15.504 23.636 -0 -1.2 0
-11.357 -15.961 23.412 -0 -1.2 0
-11.231 -16.413 23.181 -0 -1.2 0
-11.102 -16.861 22.942 -0 -1.2 0
-10.97 -17.304 22.696 -0 -1.2 0
-10.834 -17.742 22.444 -0 -1.2 0
-10.695 -18.175 22.184 -0 -1.2 0
-10.552 -18.603 21.919 -0 -1.2 0
-10.406 -19.025 21.645 -0 -1.2 0
-10.257 -19.442 21.366 -0 -1.2 0
-10.106 -19.853 21.08 -0 -1.2 0
-9.95 -20.259 20.788 -0 -1.2 0
-9.792 -20.659 20.489 -0 -1.2 0
-9.631 -21.053 20.184 -0 -1.2 0
-9.468 -21.441 19.873 -0 -1.2 0
-9.3 -21.822 19.555 -0 -1.2 0
-9.13 -22.198 19.232 -0 -1.2 0
-12.55 1.156 27.119 -0 -1.2 0
-12.554 0.635 27.155 -0 -1.2 0
-12.556 0.111 27.183 -0 -1.2 0
-12.553 -0.411 27.203 -0 -1.2 0
-12.546 -0.934 27.215 -0 -1.2 0
-12.39 -1.453 26.899 -0 -1.2 0
-12.459 -1.975 27.076 -0 -1.2 0
-12.504 -2.504 27.198 -0 -1.2 0
-12.482 -3.026 27.176 -0 -1.2 0
-12.457 -3.548 27.146 -0 -1.2 0
-12.427 -4.069 27.108 -0 -1.2 0
-12.394 -4.59 27.061 -0 -1.2 0
-12.357 -5.109 27.006 -0 -1.2 0
-12.317 -5.628 26.943 -0 -1.2 0
-12.272 -6.144 26.871 -0 -1.2 0
-12.116 -7.685 26.608 -0 -1.2 0
-11.267 -13.148 25.024 -0 -1.2 0
-11.169 -13.625 24.834 -0 -1.2 0
-11.067 -14.099 24.636 -0 -1.2 0
-10.962 -14.568 24.429 -0 -1.2 0
-10.853 -15.035 24.216 -0 -1.2 0
-10.742 -15.496 23.996 -0 -1.2 0
-10.627 -15.953 23.767 -0 -1.2 0
-10.509 -16.406 23.532 -0 -1.2 0
-10.387 -16.853 23.289 -0 -1.2 0
-10.263 -17.297 23.04 -0 -1.2 0
-10.135 -17.734 22.783 -0 -1.2 0
-10.004 -18.168 22.519 -0 -1.2 0
-9.87 -18.595 22.25 -0 -1.2 0
-9.734 -19.018 21.972 -0 -1.2 0
-9.594 -19.435 21.688 -0 -1.2 0
-9.45 -19.847 21.398 -0 -1.2 0
-9.305 -20.252 21.101 -0 -1.2 0
-9.157 -20.652 20.797 -0 -1.2 0
-9.006 -21.046 20.487 -0 -1.2 0
-8.852 -21.434 20.171 -0 -1.2 0
-8.696 -21.816 19.848 -0 -1.2 0
-8.536 -22.192 19.521 -0 -1.2 0
-11.692 1.165 27.509 -0 -1.2 0
-11.695 0.643 27.546 -0 -1.2 0
-11.687 -0.926 27.605 -0 -1.2 0
-11.676 -1.448 27.607 -0 -1.2 0
-11.663 -1.971 27.602 -0 -1.2 0
-11.646 -2.495 27.588 -0 -1.2 0
-11.625 -3.018 27.565 -0 -1.2 0
-11.601 -3.54 27.533 -0 -1.2 0
-11.572 -4.061 27.494 -0 -1.2 0
-11.542 -4.582 27.446 -0 -1.2 0
-11.506 -5.101 27.39 -0 -1.2 0
-11.468 -5.62 27.326 -0 -1.2 0
-10.484 -13.14 25.376 -0 -1.2 0
-10.392 -13.618 25.183 -0 -1.2 0
-10.297 -14.092 24.981 -0 -1.2 0
-10.199 -14.561 24.772 -0 -1.2 0
-10.097 -15.028 24.555 -0 -1.2 0
-9.993 -15.489 24.331 -0 -1.2 0
-9.885 -15.946 24.1 -0 -1.2 0
-9.775 -16.399 23.861 -0 -1.2 0
-9.661 -16.846 23.614 -0 -1.2 0
-9.544 -17.29 23.361 -0 -1.2 0
-9.425 -17.728 23.1 -0 -1.2 0
-9.303 -18.161 22.834 -0 -1.2 0
-9.178 -18.589 22.559 -0 -1.2 0
-9.05 -19.012 22.278 -0 -1.2 0
-8.92 -19.429 21.989 -0 -1.2 0
-8.786 -19.84 21.694 -0 -1.2 0
-8.65 -20.246 21.393 -0 -1.2 0
-8.512 -20.646 21.085 -0 -1.2 0
-8.37 -21.04 20.77 -0 -1.2 0
-8.227 -21.428 20.45 -0 -1.2 0
-8.08 -21.81 20.123 -0 -1.2 0
-7.932 -22.187 19.79 -0 -1.2 0
-10.755 1.172 27.901 -0 -1.2 0
-10.758 0.651 27.937 -0 -1.2 0
-10.759 0.127 27.965 -0 -1.2 0
-10.755 -0.395 27.985 -0 -1.2 0
-10.749 -0.918 27.995 -0 -1.2 0
-10.739 -1.441 27.998 -0 -1.2 0
-10.726 -1.964 27.992 -0 -1.2 0
-10.709 -2.488 27.977 -0 -1.2 0
-10.69 -3.01 27.954 -0 -1.2 0
-10.668 -3.532 27.923 -0 -1.2 0
-10.641 -4.053 27.882 -0 -1.2 0
-10.612 -4.575 27.833 -0 -1.2 0
-10.579 -5.094 27.775 -0 -1.2 0
-10.543 -5.612 27.71 -0 -1.2 0
-10.504 -6.129 27.636 -0 -1.2 0
-10.416 -7.158 27.462 -0 -1.2 0
-10.368 -7.669 27.364 -0 -1.2 0
-9.545 -13.611 25.532 -0 -1.2 0
-9.456 -14.085 25.327 -0 -1.2 0
-9.366 -14.554 25.114 -0 -1.2 0
-9.273 -15.021 24.894 -0 -1.2 0
-9.176 -15.482 24.668 -0 -1.2 0
-9.077 -15.94 24.433 -0 -1.2 0
-8.974 -16.392 24.19 -0 -1.2 0
-8.869 -16.84 23.941 -0 -1.2 0
-8.761 -17.284 23.684 -0 -1.2 0
-8.652 -17.721 23.418 -0 -1.2 0
-8.538 -18.155 23.147 -0 -1.2 0
-8.424 -18.583 22.869 -0 -1.2 0
-8.305 -19.006 22.584 -0 -1.2 0
-8.185 -19.423 22.291 -0 -1.2 0
-8.061 -19.835 21.992 -0 -1.2 0
-7.936 -20.241 21.686 -0 -1.2 0
-7.808 -20.641 21.374 -0 -1.2 0
-7.678 -21.035 21.054 -0 -1.2 0
-7.546 -21.423 20.729 -0 -1.2 0
-7.411 -21.805 20.397 -0 -1.2 0
-7.273 -22.181 20.06 -0 -1.2 0
-9.861 1.179 28.24 -0 -1.2 0
-9.864 0.657 28.276 -0 -1.2 0
-9.863 0.133 28.305 -0 -1.2 0
-9.859 -0.389 28.324 -0 -1.2 0
-9.853 -0.911 28.334 -0 -1.2 0
-9.843 -1.434 28.337 -0 -1.2 0
-9.831 -1.957 28.33 -0 -1.2 0
-9.816 -2.481 28.315 -0 -1.2 0
-9.796 -3.003 28.291 -0 -1.2 0
-9.775 -3.526 28.258 -0 -1.2 0
-9.75 -4.047 28.218 -0 -1.2 0
-9.723 -4.568 28.168 -0 -1.2 0
-9.693 -5.087 28.109 -0 -1.2 0
-9.66 -5.606 28.043 -0 -1.2 0
-8.655 -14.079 25.626 -0 -1.2 0
-8.395 -15.477 24.958 -0 -1.2 0
-8.013 -17.278 23.961 -0 -1.2 0
-7.912 -17.716 23.694 -0 -1.2 0
-7.808 -18.15 23.419 -0 -1.2 0
-7.702 -18.578 23.137 -0 -1.2 0
-7.593 -19.001 22.847 -0 -1.2 0
-7.482 -19.418 22.551 -0 -1.2 0
-7.369 -19.83 22.249 -0 -1.2 0
-7.254 -20.236 21.939 -0 -1.2 0
-7.136 -20.636 21.622 -0 -1.2 0
-7.016 -21.03 21.299 -0 -1.2 0
-6.894 -21.418 20.97 -0 -1.2 0
-6.77 -21.801 20.634 -0 -1.2 0
-6.644 -22.177 20.292 -0 -1.2 0
-8.935 1.191 28.557 -0 -1.2 0
-8.937 0.669 28.593 -0 -1.2 0
-8.935 0.145 28.622 -0 -1.2 0
-8.932 -0.376 28.641 -0 -1.2 0
-8.924 -0.899 28.652 -0 -1.2 0
-8.915 -1.422 28.653 -0 -1.2 0
-8.902 -1.945 28.647 -0 -1.2 0
-8.888 -2.469 28.631 -0 -1.2 0
-8.87 -2.991 28.607 -0 -1.2 0
-8.85 -3.514 28.574 -0 -1.2 0
-8.826 -4.035 28.533 -0 -1.2 0
-8.801 -4.556 28.482 -0 -1.2 0
-8.773 -5.075 28.423 -0 -1.2 0
-8.742 -5.594 28.355 -0 -1.2 0
-6.947 -18.568 23.392 -0 -1.2 0
-6.849 -18.991 23.1 -0 -1.2 0
-6.748 -19.408 22.8 -0 -1.2 0
-6.645 -19.82 22.494 -0 -1.2 0
-6.539 -20.226 22.181 -0 -1.2 0
-6.431 -20.627 21.861 -0 -1.2 0
-6.322 -21.021 21.535 -0 -1.2 0
-6.211 -21.409 21.201 -0 -1.2 0
-6.099 -21.792 20.861 -0 -1.2 0
-5.984 -22.168 20.516 -0 -1.2 0
-7.926 1.208 28.866 -0 -1.2 0
-7.925 0.686 28.903 -0 -1.2 0
-7.923 0.162 28.931 -0 -1.2 0
-7.919 -0.359 28.95 -0 -1.2 0
-7.911 -0.882 28.962 -0 -1.2 0
-7.902 -1.405 28.963 -0 -1.2 0
-7.89 -1.928 28.956 -0 -1.2 0
-7.875 -2.452 28.941 -0 -1.2 0
-7.859 -2.974 28.916 -0 -1.2 0
-7.839 -3.497 28.883 -0 -1.2 0
-7.818 -4.018 28.84 -0 -1.2 0
-7.793 -4.539 28.79 -0 -1.2 0
-7.739 -5.577 28.661 -0 -1.2 0
-7.708 -6.094 28.585 -0 -1.2 0
-7.601 -7.635 28.301 -0 -1.2 0
-7.518 -8.652 28.069 -0 -1.2 0
-7.473 -9.158 27.94 -0 -1.2 0
-7.425 -9.661 27.802 -0 -1.2 0
-6.613 -15.909 25.264 -0 -1.2 0
-6.292 -17.692 24.215 -0 -1.2 0
-6.207 -18.126 23.935 -0 -1.2 0
-6.12 -18.554 23.646 -0 -1.2 0
-6.031 -18.977 23.351 -0 -1.2 0
-5.941 -19.394 23.049 -0 -1.2 0
-5.848 -19.807 22.739 -0 -1.2 0
-5.753 -20.213 22.423 -0 -1.2 0
-5.658 -20.614 22.1 -0 -1.2 0
-5.56 -21.008 21.77 -0 -1.2 0
-5.461 -21.397 21.433 -0 -1.2 0
-5.359 -21.779 21.089 -0 -1.2 0
-5.257 -22.156 20.74 -0 -1.2 0
-6.979 1.224 29.12 -0 -1.2 0
-6.977 0.703 29.158 -0 -1.2 0
-6.872 0.16 28.758 -0 -1.2 0
-6.907 -0.35 28.943 -0 -1.2 0
-6.919 -0.867 29.042 -0 -1.2 0
-6.915 -1.387 29.063 -0 -1.2 0
-6.919 -1.909 29.124 -0 -1.2 0
-6.912 -2.432 29.137 -0 -1.2 0
-6.903 -2.956 29.142 -0 -1.2 0
-6.892 -3.48 29.137 -0 -1.2 0
-6.872 -4.001 29.094 -0 -1.2 0
-6.849 -4.523 29.043 -0 -1.2 0
-6.826 -5.042 28.983 -0 -1.2 0
-6.673 -7.619 28.55 -0 -1.2 0
-6.598 -8.636 28.315 -0 -1.2 0
-5.344 -18.541 23.856 -0 -1.2 0
-5.265 -18.964 23.558 -0 -1.2 0
-5.184 -19.381 23.253 -0 -1.2 0
-5.101 -19.794 22.941 -0 -1.2 0
-5.018 -20.2 22.621 -0 -1.2 0
-4.932 -20.601 22.296 -0 -1.2 0
-4.846 -20.996 21.963 -0 -1.2 0
-4.757 -21.384 21.624 -0 -1.2 0
-4.667 -21.767 21.278 -0 -1.2 0
-4.576 -22.144 20.925 -0 -1.2 0
-6.005 0.72 29.386 -0 -1.2 0
-5.923 -0.335 29.081 -0 -1.2 0
-5.915 -0.852 29.092 -0 -1.2 0
-5.907 -1.368 29.104 -0 -1.2 0
-5.912 -1.888 29.175 -0 -1.2 0
-5.907 -2.409 29.198 -0 -1.2 0
-5.897 -2.928 29.203 -0 -1.2 0
-5.889 -3.45 29.208 -0 -1.2 0
-5.884 -3.976 29.233 -0 -1.2 0
-5.873 -4.501 29.231 -0 -1.2 0
-5.858 -5.025 29.209 -0 -1.2 0
-5.751 -7.09 28.877 -0 -1.2 0
-5.72 -7.602 28.772 -0 -1.2 0
-5.688 -8.112 28.659 -0 -1.2 0
-4.548 -18.526 24.044 -0 -1.2 0
-4.478 -18.95 23.744 -0 -1.2 0
-4.407 -19.368 23.436 -0 -1.2 0
-4.336 -19.78 23.122 -0 -1.2 0
-4.263 -20.187 22.8 -0 -1.2 0
-4.188 -20.588 22.472 -0 -1.2 0
-4.112 -20.983 22.137 -0 -1.2 0
-4.035 -21.372 21.795 -0 -1.2 0
-3.957 -21.755 21.446 -0 -1.2 0
-3.877 -22.132 21.091 -0 -1.2 0
-4.944 0.739 29.595 -0 -1.2 0
-4.841 -0.834 29.161 -0 -1.2 0
-4.833 -1.349 29.172 -0 -1.2 0
-4.837 -1.866 29.255 -0 -1.2 0
-4.826 -2.382 29.248 -0 -1.2 0
-4.817 -2.9 29.253 -0 -1.2 0
-4.811 -3.42 29.278 -0 -1.2 0
-4.801 -3.94 29.275 -0 -1.2 0
-4.622 -8.601 28.74 -0 -1.2 0
-4.523 -10.111 28.319 -0 -1.2 0
-3.736 -18.082 24.511 -0 -1.2 0
-3.62 -18.934 23.914 -0 -1.2 0
-3.561 -19.352 23.605 -0 -1.2 0
-3.5 -19.765 23.289 -0 -1.2 0
-3.439 -20.172 22.965 -0 -1.2 0
-3.376 -20.573 22.634 -0 -1.2 0
-3.312 -20.968 22.297 -0 -1.2 0
-3.247 -21.357 21.953 -0 -1.2 0
-3.181 -21.741 21.602 -0 -1.2 0
-3.115 -22.118 21.244 -0 -1.2 0
-3.757 -6.539 29.338 -0 -1.2 0
-3.659 -8.583 28.896 -0 -1.2 0
-3.604 -9.593 28.622 -0 -1.2 0
-3.544 -10.592 28.314 -0 -1.2 0
-3.18 -15.388 26.264 -0 -1.2 0
-2.868 -18.496 24.35 -0 -1.2 0
-2.819 -18.92 24.047 -0 -1.2 0
-2.77 -19.338 23.735 -0 -1.2 0
-2.72 -19.751 23.417 -0 -1.2 0
-2.669 -20.158 23.092 -0 -1.2 0
-2.618 -20.559 22.76 -0 -1.2 0
-2.566 -20.954 22.421 -0 -1.2 0
-2.512 -21.344 22.075 -0 -1.2 0
-2.459 -21.727 21.722 -0 -1.2 0
-2.404 -22.105 21.363 -0 -1.2 0
-2.867 -1.311 29.387 -0 -1.2 0
-2.881 -1.831 29.639 -0 -1.2 0
-2.873 -2.35 29.652 -0 -1.2 0
-2.861 -2.868 29.627 -0 -1.2 0
-2.873 -3.406 29.861 -0 -1.2 0
-2.819 -3.888 29.401 -0 -1.2 0
-2.809 -4.407 29.399 -0 -1.2 0
-2.798 -4.927 29.387 -0 -1.2 0
-2.811 -5.488 29.633 -0 -1.2 0
-2.793 -6.004 29.553 -0 -1.2 0
-2.692 -8.565 29.02 -0 -1.2 0
-2.267 -15.83 26.126 -0 -1.2 0
-2.198 -16.732 25.6 -0 -1.2 0
-2.052 -18.48 24.456 -0 -1.2 0
-2.013 -18.904 24.151 -0 -1.2 0
-1.975 -19.322 23.839 -0 -1.2 0
-1.936 -19.736 23.519 -0 -1.2 0
-1.896 -20.143 23.193 -0 -1.2 0
-1.855 -20.545 22.859 -0 -1.2 0
-1.814 -20.94 22.519 -0 -1.2 0
-1.773 -21.33 22.172 -0 -1.2 0
-1.73 -21.713 21.818 -0 -1.2 0
-1.688 -22.091 21.457 -0 -1.2 0
-1.857 0.798 29.984 -0 -1.2 0
-1.773 -1.802 29.42 -0 -1.2 0
-1.764 -2.316 29.435 -0 -1.2 0
-1.754 -2.83 29.439 -0 -1.2 0
-1.745 -3.346 29.445 -0 -1.2 0
-1.735 -3.863 29.451 -0 -1.2 0
-1.725 -4.383 29.46 -0 -1.2 0
-1.716 -4.904 29.467 -0 -1.2 0
-1.706 -5.428 29.477 -0 -1.2 0
-1.697 -5.955 29.486 -0 -1.2 0
-1.257 -16.714 25.69 -0 -1.2 0
-1.205 -17.598 25.131 -0 -1.2 0
-1.179 -18.033 24.841 -0 -1.2 0
-1.153 -18.463 24.542 -0 -1.2 0
-1.127 -18.887 24.236 -0 -1.2 0
-1.099 -19.306 23.923 -0 -1.2 0
-1.071 -19.719 23.603 -0 -1.2 0
-1.044 -20.127 23.275 -0 -1.2 0
-1.015 -20.528 22.941 -0 -1.2 0
-0.987 -20.924 22.6 -0 -1.2 0
-0.958 -21.314 22.252 -0 -1.2 0
-0.929 -21.698 21.896 -0 -1.2 0
-0.899 -22.076 21.535 -0 -1.2 0
-0.78 -1.269 29.484 -0 -1.2 0
-0.776 -1.787 29.717 -0 -1.2 0
-0.767 -2.304 29.711 -0 -1.2 0
-0.757 -2.822 29.705 -0 -1.2 0
-0.746 -3.34 29.701 -0 -1.2 0
-0.731 -3.841 29.499 -0 -1.2 0
-0.722 -4.36 29.506 -0 -1.2 0
-0.711 -4.881 29.505 -0 -1.2 0
-0.708 -5.438 29.741 -0 -1.2 0
-0.697 -5.963 29.71 -0 -1.2 0
-0.398 -16.247 26.009 -0 -1.2 0
-0.383 -16.696 25.74 -0 -1.2 0
-0.367 -17.141 25.465 -0 -1.2 0
-0.351 -17.581 25.181 -0 -1.2 0
-0.335 -18.016 24.89 -0 -1.2 0
-0.318 -18.445 24.592 -0 -1.2 0
-0.302 -18.87 24.285 -0 -1.2 0
-0.285 -19.289 23.972 -0 -1.2 0
-0.268 -19.702 23.651 -0 -1.2 0
-0.252 -20.11 23.323 -0 -1.2 0
-0.235 -20.512 22.988 -0 -1.2 0
-0.218 -20.908 22.646 -0 -1.2 0
-0.2 -21.298 22.297 -0 -1.2 0
-0.183 -21.682 21.941 -0 -1.2 0
-0.166 -22.06 21.58 -0 -1.2 0
0.214 -1.765 29.53 -0 -1.2 0
0.224 -2.279 29.535 -0 -1.2 0
0.234 -2.794 29.539 -0 -1.2 0
0.243 -3.31 29.555 -0 -1.2 0
0.253 -3.828 29.572 -0 -1.2 0
0.263 -4.346 29.559 -0 -1.2 0
0.273 -4.871 29.587 -0 -1.2 0
0.283 -5.396 29.596 -0 -1.2 0
0.302 -6.454 29.605 -0 -1.2 0
0.311 -6.975 29.546 -0 -1.2 0
0.346 -9.013 29.065 -0 -1.2 0
0.463 -16.232 26.03 -0 -1.2 0
0.469 -16.681 25.761 -0 -1.2 0
0.476 -17.126 25.486 -0 -1.2 0
0.482 -17.566 25.202 -0 -1.2 0
0.489 -18.001 24.911 -0 -1.2 0
0.495 -18.431 24.613 -0 -1.2 0
0.501 -18.856 24.306 -0 -1.2 0
0.507 -19.275 23.992 -0 -1.2 0
0.513 -19.689 23.671 -0 -1.2 0
0.518 -20.097 23.343 -0 -1.2 0
0.523 -20.499 23.008 -0 -1.2 0
0.528 -20.895 22.666 -0 -1.2 0
0.534 -21.285 22.317 -0 -1.2 0
0.539 -21.669 21.961 -0 -1.2 0
0.544 -22.048 21.599 -0 -1.2 0
1.252 -0.208 29.522 -0 -1.2 0
1.261 -0.721 29.513 -0 -1.2 0
1.272 -1.233 29.564 -0 -1.2 0
1.305 -1.759 30.107 -0 -1.2 0
1.303 -2.274 29.86 -0 -1.2 0
1.313 -2.794 29.855 -0 -1.2 0
1.325 -3.319 29.901 -0 -1.2 0
1.321 -3.815 29.608 -0 -1.2 0
1.331 -4.337 29.625 -0 -1.2 0
1.341 -4.86 29.634 -0 -1.2 0
1.358 -5.41 29.8 -0 -1.2 0
1.365 -5.927 29.721 -0 -1.2 0
1.369 -6.443 29.631 -0 -1.2 0
1.375 -6.957 29.533 -0 -1.2 0
1.401 -14.839 26.776 -0 -1.2 0
1.394 -16.216 26.02 -0 -1.2 0
1.391 -16.665 25.752 -0 -1.2 0
1.387 -17.111 25.476 -0 -1.2 0
1.384 -17.55 25.193 -0 -1.2 0
1.379 -17.986 24.902 -0 -1.2 0
1.374 -18.416 24.603 -0 -1.2 0
1.369 -18.841 24.297 -0 -1.2 0
1.363 -19.26 23.983 -0 -1.2 0
1.357 -19.674 23.664 -0 -1.2 0
1.351 -20.082 23.335 -0 -1.2 0
1.344 -20.484 23 -0 -1.2 0
1.337 -20.881 22.658 -0 -1.2 0
1.329 -21.271 22.31 -0 -1.2 0
1.321 -21.656 21.954 -0 -1.2 0
1.313 -22.035 21.592 -0 -1.2 0
2.268 1.394 29.966 -0 -1.2 0
2.274 -0.703 29.545 -0 -1.2 0
2.283 -1.217 29.557 -0 -1.2 0
2.299 -1.734 29.64 -0 -1.2 0
2.308 -2.25 29.644 -0 -1.2 0
2.319 -2.768 29.658 -0 -1.2 0
2.329 -3.287 29.664 -0 -1.2 0
2.338 -3.809 29.68 -0 -1.2 0
2.348 -4.331 29.677 -0 -1.2 0
2.357 -4.855 29.676 -0 -1.2 0
2.368 -5.383 29.694 -0 -1.2 0
2.376 -5.91 29.672 -0 -1.2 0
2.378 -8.979 29.006 -0 -1.2 0
2.297 -15.287 26.491 -0 -1.2 0
2.286 -15.747 26.239 -0 -1.2 0
2.262 -16.651 25.712 -0 -1.2 0
2.249 -17.096 25.437 -0 -1.2 0
2.235 -17.536 25.154 -0 -1.2 0
2.221 -17.972 24.864 -0 -1.2 0
2.205 -18.402 24.565 -0 -1.2 0
2.189 -18.827 24.261 -0 -1.2 0
2.173 -19.246 23.948 -0 -1.2 0
2.156 -19.661 23.628 -0 -1.2 0
2.138 -20.069 23.301 -0 -1.2 0
2.119 -20.472 22.966 -0 -1.2 0
2.1 -20.868 22.625 -0 -1.2 0
2.081 -21.259 22.278 -0 -1.2 0
2.06 -21.644 21.922 -0 -1.2 0
2.038 -22.023 21.561 -0 -1.2 0
3.293 -4.757 28.952 -0 -1.2 0
3.302 -5.273 28.961 -0 -1.2 0
3.311 -5.791 28.962 -0 -1.2 0
3.32 -6.31 28.954 -0 -1.2 0
3.329 -6.836 28.965 -0 -1.2 0
3.359 -8.436 28.98 -0 -1.2 0
3.362 -8.963 28.925 -0 -1.2 0
3.211 -14.809 26.66 -0 -1.2 0
3.192 -15.273 26.418 -0 -1.2 0
3.173 -15.732 26.167 -0 -1.2 0
3.151 -16.187 25.909 -0 -1.2 0
3.129 -16.637 25.642 -0 -1.2 0
3.106 -17.082 25.367 -0 -1.2 0
3.083 -17.522 25.086 -0 -1.2 0
3.058 -17.958 24.796 -0 -1.2 0
3.033 -18.389 24.499 -0 -1.2 0
3.006 -18.814 24.195 -0 -1.2 0
2.979 -19.233 23.883 -0 -1.2 0
2.95 -19.648 23.564 -0 -1.2 0
2.921 -20.056 23.238 -0 -1.2 0
2.891 -20.459 22.905 -0 -1.2 0
2.86 -20.856 22.565 -0 -1.2 0
2.828 -21.247 22.218 -0 -1.2 0
2.795 -21.632 21.865 -0 -1.2 0
2.762 -22.011 21.504 -0 -1.2 0
4.338 -0.672 29.207 -0 -1.2 0
4.346 -1.184 29.199 -0 -1.2 0
4.355 -1.696 29.202 -0 -1.2 0
4.358 -3.732 28.997 -0 -1.2 0
4.367 -4.245 28.995 -0 -1.2 0
4.38 -4.765 29.023 -0 -1.2 0
4.388 -5.284 29.023 -0 -1.2 0
4.393 -5.8 28.994 -0 -1.2 0
4.404 -9.45 28.66 -0 -1.2 0
4.39 -9.951 28.51 -0 -1.2 0
4.322 -11.929 27.826 -0 -1.2 0
4.279 -12.899 27.432 -0 -1.2 0
4.233 -13.854 27.005 -0 -1.2 0
4.18 -14.794 26.547 -0 -1.2 0
4.152 -15.258 26.305 -0 -1.2 0
4.122 -15.717 26.056 -0 -1.2 0
4.092 -16.172 25.798 -0 -1.2 0
4.06 -16.622 25.533 -0 -1.2 0
4.026 -17.068 25.261 -0 -1.2 0
3.992 -17.508 24.98 -0 -1.2 0
3.957 -17.944 24.692 -0 -1.2 0
3.92 -18.375 24.396 -0 -1.2 0
3.882 -18.8 24.093 -0 -1.2 0
3.843 -19.22 23.783 -0 -1.2 0
3.803 -19.634 23.465 -0 -1.2 0
3.761 -20.043 23.141 -0 -1.2 0
3.719 -20.446 22.81 -0 -1.2 0
3.676 -20.843 22.471 -0 -1.2 0
3.631 -21.234 22.126 -0 -1.2 0
3.585 -21.619 21.774 -0 -1.2 0
3.538 -21.999 21.415 -0 -1.2 0
5.415 -0.124 29.689 -0 -1.2 0
5.34 -0.654 29.237 -0 -1.2 0
5.353 -1.169 29.258 -0 -1.2 0
5.358 -1.684 29.241 -0 -1.2 0
5.322 -2.191 28.999 -0 -1.2 0
5.332 -2.704 29.004 -0 -1.2 0
5.341 -3.218 29.011 -0 -1.2 0
5.353 -3.734 29.027 -0 -1.2 0
5.358 -4.249 29.015 -0 -1.2 0
5.371 -4.77 29.033 -0 -1.2 0
5.383 -5.295 29.052 -0 -1.2 0
5.389 -5.817 29.042 -0 -1.2 0
5.401 -6.348 29.061 -0 -1.2 0
5.407 -6.875 29.043 -0 -1.2 0
5.412 -7.405 29.024 -0 -1.2 0
5.385 -8.425 28.787 -0 -1.2 0
5.352 -9.436 28.515 -0 -1.2 0
5.333 -9.937 28.366 -0 -1.2 0
5.289 -10.932 28.043 -0 -1.2 0
5.266 -11.426 27.869 -0 -1.2 0
5.24 -11.915 27.686 -0 -1.2 0
5.213 -12.401 27.494 -0 -1.2 0
5.185 -12.885 27.295 -0 -1.2 0
5.155 -13.365 27.087 -0 -1.2 0
5.123 -13.841 26.87 -0 -1.2 0
5.089 -14.312 26.647 -0 -1.2 0
5.055 -14.781 26.415 -0 -1.2 0
5.018 -15.245 26.174 -0 -1.2 0
4.98 -15.704 25.927 -0 -1.2 0
4.941 -16.159 25.67 -0 -1.2 0
4.901 -16.609 25.406 -0 -1.2 0
4.858 -17.055 25.135 -0 -1.2 0
4.814 -17.496 24.856 -0 -1.2 0
4.768 -17.932 24.57 -0 -1.2 0
4.722 -18.363 24.276 -0 -1.2 0
4.674 -18.788 23.974 -0 -1.2 0
4.624 -19.208 23.666 -0 -1.2 0
4.573 -19.623 23.351 -0 -1.2 0
4.52 -20.032 23.027 -0 -1.2 0
4.467 -20.435 22.698 -0 -1.2 0
4.412 -20.832 22.361 -0 -1.2 0
4.356 -21.223 22.018 -0 -1.2 0
4.298 -21.609 21.668 -0 -1.2 0
4.239 -21.988 21.311 -0 -1.2 0
6.251 -0.642 28.965 -0 -1.2 0
6.264 -1.155 28.986 -0 -1.2 0
6.281 -1.67 29.028 -0 -1.2 0
6.292 -2.186 29.042 -0 -1.2 0
6.302 -2.703 29.047 -0 -1.2 0
6.311 -3.22 29.052 -0 -1.2 0
6.323 -3.74 29.068 -0 -1.2 0
6.331 -4.26 29.066 -0 -1.2 0
6.344 -4.787 29.093 -0 -1.2 0
6.353 -5.312 29.092 -0 -1.2 0
6.361 -5.84 29.091 -0 -1.2 0
6.361 -6.365 29.052 -0 -1.2 0
6.348 -6.879 28.956 -0 -1.2 0
6.334 -7.392 28.852 -0 -1.2 0
6.318 -7.902 28.738 -0 -1.2 0
6.299 -8.411 28.616 -0 -1.2 0
6.279 -8.918 28.486 -0 -1.2 0
6.256 -9.423 28.346 -0 -1.2 0
6.233 -9.924 28.198 -0 -1.2 0
6.206 -10.423 28.042 -0 -1.2 0
6.179 -10.919 27.877 -0 -1.2 0
6.149 -11.413 27.704 -0 -1.2 0
6.118 -11.903 27.522 -0 -1.2 0
6.084 -12.389 27.332 -0 -1.2 0
6.049 -12.873 27.134 -0 -1.2 0
6.012 -13.352 26.927 -0 -1.2 0
5.974 -13.828 26.713 -0 -1.2 0
5.933 -14.3 26.489 -0 -1.2 0
5.89 -14.769 26.259 -0 -1.2 0
5.846 -15.232 26.02 -0 -1.2 0
5.8 -15.692 25.774 -0 -1.2 0
5.752 -16.147 25.519 -0 -1.2 0
5.702 -16.598 25.257 -0 -1.2 0
5.651 -17.044 24.988 -0 -1.2 0
5.598 -17.484 24.711 -0 -1.2 0
5.543 -17.921 24.426 -0 -1.2 0
5.487 -18.351 24.134 -0 -1.2 0
5.429 -18.777 23.835 -0 -1.2 0
5.369 -19.197 23.528 -0 -1.2 0
5.309 -19.612 23.214 -0 -1.2 0
5.246 -20.021 22.894 -0 -1.2 0
5.181 -20.424 22.566 -0 -1.2 0
5.115 -20.822 22.231 -0 -1.2 0
5.048 -21.213 21.891 -0 -1.2 0
4.978 -21.599 21.543 -0 -1.2 0
4.908 -21.978 21.189 -0 -1.2 0
7.327 1.47 29.203 -0 -1.2 0
7.384 -0.619 29.299 -0 -1.2 0
7.392 -1.142 29.301 -0 -1.2 0
7.398 -1.665 29.294 -0 -1.2 0
7.403 -2.189 29.278 -0 -1.2 0
7.404 -2.712 29.253 -0 -1.2 0
7.404 -3.234 29.22 -0 -1.2 0
7.401 -3.756 29.177 -0 -1.2 0
7.396 -4.278 29.126 -0 -1.2 0
7.389 -4.798 29.066 -0 -1.2 0
7.379 -5.317 28.997 -0 -1.2 0
7.354 -6.351 28.833 -0 -1.2 0
7.338 -6.865 28.738 -0 -1.2 0
7.32 -7.378 28.634 -0 -1.2 0
7.299 -7.889 28.522 -0 -1.2 0
7.276 -8.398 28.401 -0 -1.2 0
7.252 -8.905 28.271 -0 -1.2 0
7.056 -11.889 27.316 -0 -1.2 0
7.015 -12.376 27.127 -0 -1.2 0
6.973 -12.86 26.93 -0 -1.2 0
6.928 -13.339 26.726 -0 -1.2 0
6.883 -13.816 26.512 -0 -1.2 0
6.834 -14.287 26.292 -0 -1.2 0
6.783 -14.756 26.063 -0 -1.2 0
6.73 -15.22 25.826 -0 -1.2 0
6.676 -15.68 25.582 -0 -1.2 0
6.619 -16.135 25.329 -0 -1.2 0
6.56 -16.586 25.069 -0 -1.2 0
6.5 -17.032 24.802 -0 -1.2 0
6.436 -17.472 24.527 -0 -1.2 0
6.372 -17.909 24.244 -0 -1.2 0
6.305 -18.34 23.955 -0 -1.2 0
6.237 -18.766 23.658 -0 -1.2 0
6.166 -19.186 23.354 -0 -1.2 0
6.095 -19.601 23.043 -0 -1.2 0
6.021 -20.01 22.725 -0 -1.2 0
5.945 -20.414 22.4 -0 -1.2 0
5.867 -20.811 22.069 -0 -1.2 0
5.787 -21.203 21.73 -0 -1.2 0
5.706 -21.588 21.385 -0 -1.2 0
5.623 -21.968 21.034 -0 -1.2 0
8.316 -0.607 29.06 -0 -1.2 0
8.324 -1.13 29.061 -0 -1.2 0
8.33 -1.653 29.054 -0 -1.2 0
8.333 -2.177 29.039 -0 -1.2 0
8.333 -2.699 29.014 -0 -1.2 0
8.332 -3.222 28.981 -0 -1.2 0
8.328 -3.744 28.939 -0 -1.2 0
8.32 -4.266 28.888 -0 -1.2 0
8.3 -5.305 28.761 -0 -1.2 0
8.176 -8.386 28.17 -0 -1.2 0
8.146 -8.893 28.04 -0 -1.2 0
7.919 -11.878 27.093 -0 -1.2 0
7.873 -12.364 26.907 -0 -1.2 0
7.824 -12.848 26.711 -0 -1.2 0
7.772 -13.328 26.509 -0 -1.2 0
7.72 -13.805 26.297 -0 -1.2 0
7.664 -14.276 26.079 -0 -1.2 0
7.605 -14.745 25.852 -0 -1.2 0
7.545 -15.209 25.617 -0 -1.2 0
7.482 -15.669 25.375 -0 -1.2 0
7.417 -16.125 25.125 -0 -1.2 0
7.35 -16.575 24.867 -0 -1.2 0
7.281 -17.021 24.602 -0 -1.2 0
7.208 -17.462 24.329 -0 -1.2 0
7.135 -17.899 24.049 -0 -1.2 0
7.059 -18.33 23.762 -0 -1.2 0
6.98 -18.756 23.468 -0 -1.2 0
6.901 -19.176 23.166 -0 -1.2 0
6.818 -19.591 22.858 -0 -1.2 0
6.733 -20.001 22.543 -0 -1.2 0
6.648 -20.404 22.221 -0 -1.2 0
6.559 -20.802 21.892 -0 -1.2 0
6.469 -21.193 21.557 -0 -1.2 0
6.375 -21.579 21.214 -0 -1.2 0
6.281 -21.959 20.866 -0 -1.2 0
9.255 -0.596 28.786 -0 -1.2 0
9.264 -1.119 28.787 -0 -1.2 0
9.269 -1.642 28.781 -0 -1.2 0
9.272 -2.166 28.766 -0 -1.2 0
9.272 -2.689 28.741 -0 -1.2 0
9.268 -3.211 28.708 -0 -1.2 0
9.262 -3.733 28.666 -0 -1.2 0
9.253 -4.255 28.616 -0 -1.2 0
9.228 -5.294 28.489 -0 -1.2 0
9.191 -6.328 28.329 -0 -1.2 0
9.114 -7.866 28.023 -0 -1.2 0
9.049 -8.883 27.778 -0 -1.2 0
8.366 -15.2 25.378 -0 -1.2 0
8.295 -15.66 25.138 -0 -1.2 0
8.222 -16.115 24.891 -0 -1.2 0
8.146 -16.566 24.635 -0 -1.2 0
8.068 -17.013 24.373 -0 -1.2 0
7.987 -17.453 24.103 -0 -1.2 0
7.903 -17.89 23.826 -0 -1.2 0
7.818 -18.321 23.541 -0 -1.2 0
7.731 -18.747 23.25 -0 -1.2 0
7.64 -19.168 22.952 -0 -1.2 0
7.547 -19.583 22.646 -0 -1.2 0
7.453 -19.993 22.334 -0 -1.2 0
7.355 -20.396 22.015 -0 -1.2 0
7.256 -20.794 21.69 -0 -1.2 0
7.154 -21.186 21.358 -0 -1.2 0
7.051 -21.572 21.019 -0 -1.2 0
6.945 -21.952 20.674 -0 -1.2 0
10.272 -0.585 28.45 -0 -1.2 0
10.281 -1.108 28.452 -0 -1.2 0
10.285 -1.631 28.446 -0 -1.2 0
10.287 -2.156 28.43 -0 -1.2 0
10.285 -2.678 28.406 -0 -1.2 0
10.281 -3.201 28.374 -0 -1.2 0
10.262 -4.244 28.283 -0 -1.2 0
10.249 -4.764 28.225 -0 -1.2 0
9.985 -9.377 27.321 -0 -1.2 0
9.892 -10.378 27.028 -0 -1.2 0
9.332 -14.726 25.314 -0 -1.2 0
9.255 -15.19 25.085 -0 -1.2 0
9.175 -15.651 24.848 -0 -1.2 0
9.093 -16.106 24.603 -0 -1.2 0
9.008 -16.557 24.351 -0 -1.2 0
8.92 -17.004 24.092 -0 -1.2 0
8.828 -17.444 23.826 -0 -1.2 0
8.735 -17.881 23.551 -0 -1.2 0
8.64 -18.312 23.271 -0 -1.2 0
8.541 -18.739 22.983 -0 -1.2 0
8.44 -19.159 22.688 -0 -1.2 0
8.336 -19.575 22.387 -0 -1.2 0
8.23 -19.984 22.078 -0 -1.2 0
8.121 -20.388 21.763 -0 -1.2 0
8.01 -20.786 21.442 -0 -1.2 0
7.896 -21.178 21.114 -0 -1.2 0
7.781 -21.564 20.78 -0 -1.2 0
7.662 -21.944 20.439 -0 -1.2 0
11.206 -0.576 28.107 -0 -1.2 0
11.214 -1.099 28.109 -0 -1.2 0
11.218 -1.622 28.102 -0 -1.2 0
11.22 -2.146 28.087 -0 -1.2 0
11.217 -2.669 28.063 -0 -1.2 0
11.211 -3.191 28.031 -0 -1.2 0
11.201 -3.713 27.991 -0 -1.2 0
11.189 -4.235 27.942 -0 -1.2 0
11.042 -7.336 27.471 -0 -1.2 0
10.155 -14.718 25.011 -0 -1.2 0
10.07 -15.182 24.785 -0 -1.2 0
9.982 -15.643 24.551 -0 -1.2 0
9.891 -16.098 24.309 -0 -1.2 0
9.798 -16.549 24.061 -0 -1.2 0
9.701 -16.996 23.805 -0 -1.2 0
9.602 -17.437 23.541 -0 -1.2 0
9.499 -17.874 23.271 -0 -1.2 0
9.394 -18.305 22.994 -0 -1.2 0
9.286 -18.731 22.71 -0 -1.2 0
9.175 -19.152 22.419 -0 -1.2 0
9.061 -19.567 22.121 -0 -1.2 0
8.945 -19.977 21.816 -0 -1.2 0
8.825 -20.381 21.505 -0 -1.2 0
8.703 -20.779 21.188 -0 -1.2 0
8.579 -21.171 20.865 -0 -1.2 0
8.452 -21.557 20.534 -0 -1.2 0
8.322 -21.938 20.198 -0 -1.2 0
12.081 1.001 27.677 -0 -1.2 0
12.126 -0.567 27.732 -0 -1.2 0
12.134 -1.09 27.734 -0 -1.2 0
12.138 -1.613 27.728 -0 -1.2 0
12.138 -2.138 27.713 -0 -1.2 0
12.134 -2.66 27.69 -0 -1.2 0
12.128 -3.183 27.658 -0 -1.2 0
12.116 -3.704 27.618 -0 -1.2 0
12.084 -4.746 27.514 -0 -1.2 0
12.037 -5.783 27.375 -0 -1.2 0
11.975 -6.814 27.204 -0 -1.2 0
11.938 -7.327 27.107 -0 -1.2 0
11.898 -7.838 27 -0 -1.2 0
11.644 -10.361 26.349 -0 -1.2 0
10.874 -15.175 24.457 -0 -1.2 0
10.778 -15.635 24.226 -0 -1.2 0
10.679 -16.091 23.988 -0 -1.2 0
10.577 -16.542 23.742 -0 -1.2 0
10.472 -16.988 23.49 -0 -1.2 0
10.364 -17.429 23.231 -0 -1.2 0
10.252 -17.867 22.964 -0 -1.2 0
10.138 -18.298 22.691 -0 -1.2 0
10.019 -18.724 22.411 -0 -1.2 0
9.899 -19.145 22.124 -0 -1.2 0
9.776 -19.561 21.831 -0 -1.2 0
9.648 -19.97 21.53 -0 -1.2 0
9.518 -20.374 21.223 -0 -1.2 0
9.386 -20.772 20.91 -0 -1.2 0
9.251 -21.165 20.591 -0 -1.2 0
9.112 -21.551 20.266 -0 -1.2 0
8.971 -21.931 19.934 -0 -1.2 0
13.119 -0.558 27.289 -0 -1.2 0
13.126 -1.081 27.29 -0 -1.2 0
13.129 -1.604 27.284 -0 -1.2 0
13.129 -2.129 27.27 -0 -1.2 0
13.124 -2.651 27.247 -0 -1.2 0
13.116 -3.174 27.216 -0 -1.2 0
13.103 -3.696 27.177 -0 -1.2 0
13.086 -4.218 27.129 -0 -1.2 0
13.041 -5.257 27.01 -0 -1.2 0
13.013 -5.774 26.938 -0 -1.2 0
12.859 -7.83 26.569 -0 -1.2 0
12.704 -9.351 26.209 -0 -1.2 0
12.514 -10.849 25.777 -0 -1.2 0
11.529 -16.083 23.608 -0 -1.2 0
11.418 -16.534 23.367 -0 -1.2 0
11.303 -16.981 23.119 -0 -1.2 0
11.185 -17.422 22.864 -0 -1.2 0
11.064 -17.859 22.601 -0 -1.2 0
10.938 -18.291 22.333 -0 -1.2 0
10.81 -18.717 22.057 -0 -1.2 0
10.679 -19.138 21.775 -0 -1.2 0
10.544 -19.554 21.486 -0 -1.2 0
10.407 -19.964 21.191 -0 -1.2 0
10.266 -20.368 20.89 -0 -1.2 0
10.122 -20.766 20.582 -0 -1.2 0
9.975 -21.158 20.268 -0 -1.2 0
9.825 -21.545 19.948 -0 -1.2 0
9.671 -21.925 19.622 -0 -1.2 0
13.999 0.494 26.814 -0 -1.2 0
14.015 -0.028 26.832 -0 -1.2 0
14.027 -0.551 26.842 -0 -1.2 0
14.034 -1.074 26.844 -0 -1.2 0
14.036 -1.597 26.838 -0 -1.2 0
14.035 -2.121 26.823 -0 -1.2 0
14.029 -2.644 26.801 -0 -1.2 0
14.02 -3.166 26.771 -0 -1.2 0
14.006 -3.688 26.732 -0 -1.2 0
13.965 -4.73 26.631 -0 -1.2 0
13.938 -5.25 26.569 -0 -1.2 0
13.572 -9.344 25.781 -0 -1.2 0
13.439 -10.346 25.507 -0 -1.2 0
12.533 -15.161 23.679 -0 -1.2 0
12.421 -15.621 23.455 -0 -1.2 0
12.306 -16.077 23.226 -0 -1.2 0
12.187 -16.528 22.988 -0 -1.2 0
12.064 -16.975 22.745 -0 -1.2 0
11.937 -17.416 22.494 -0 -1.2 0
11.806 -17.853 22.237 -0 -1.2 0
11.672 -18.285 21.972 -0 -1.2 0
11.535 -18.711 21.701 -0 -1.2 0
11.394 -19.132 21.424 -0 -1.2 0
11.249 -19.548 21.14 -0 -1.2 0
11.102 -19.958 20.85 -0 -1.2 0
10.95 -20.362 20.554 -0 -1.2 0
10.796 -20.76 20.252 -0 -1.2 0
10.638 -21.153 19.942 -0 -1.2 0
10.477 -21.539 19.628 -0 -1.2 0
10.312 -21.92 19.307 -0 -1.2 0
14.846 1.545 26.278 -0 -1.2 0
14.871 1.024 26.312 -0 -1.2 0
14.891 0.5 26.338 -0 -1.2 0
14.907 -0.021 26.356 -0 -1.2 0
14.918 -0.544 26.366 -0 -1.2 0
14.657 -7.305 25.774 -0 -1.2 0
14.355 -9.839 25.195 -0 -1.2 0
12.811 -16.969 22.346 -0 -1.2 0
12.676 -17.41 22.1 -0 -1.2 0
12.536 -17.848 21.847 -0 -1.2 0
12.393 -18.279 21.587 -0 -1.2 0
12.246 -18.706 21.321 -0 -1.2 0
12.096 -19.127 21.049 -0 -1.2 0
11.941 -19.543 20.771 -0 -1.2 0
11.784 -19.953 20.486 -0 -1.2 0
11.622 -20.357 20.196 -0 -1.2 0
11.458 -20.756 19.898 -0 -1.2 0
11.289 -21.148 19.596 -0 -1.2 0
11.118 -21.535 19.287 -0 -1.2 0
10.943 -21.915 18.973 -0 -1.2 0
15.761 2.079 25.689 -0 -1.2 0
15.792 1.558 25.729 -0 -1.2 0
15.818 1.036 25.762 -0 -1.2 0
15.839 0.513 25.788 -0 -1.2 0
15.855 -0.009 25.805 -0 -1.2 0
15.867 -0.531 25.815 -0 -1.2 0
15.873 -1.054 25.817 -0 -1.2 0
15.876 -1.578 25.812 -0 -1.2 0
15.873 -2.102 25.798 -0 -1.2 0
15.865 -2.624 25.776 -0 -1.2 0
15.853 -3.147 25.748 -0 -1.2 0
15.835 -3.669 25.711 -0 -1.2 0
15.813 -4.191 25.667 -0 -1.2 0
15.58 -7.292 25.239 -0 -1.2 0
15.525 -7.804 25.14 -0 -1.2 0
15.007 -11.318 24.244 -0 -1.2 0
14.141 -15.143 22.784 -0 -1.2 0
14.014 -15.604 22.569 -0 -1.2 0
13.605 -16.958 21.887 -0 -1.2 0
13.46 -17.4 21.647 -0 -1.2 0
13.312 -17.837 21.4 -0 -1.2 0
13.159 -18.269 21.146 -0 -1.2 0
13.003 -18.696 20.886 -0 -1.2 0
12.842 -19.117 20.62 -0 -1.2 0
12.678 -19.533 20.348 -0 -1.2 0
12.509 -19.943 20.069 -0 -1.2 0
12.337 -20.347 19.785 -0 -1.2 0
12.161 -20.746 19.495 -0 -1.2 0
11.982 -21.138 19.198 -0 -1.2 0
11.799 -21.525 18.896 -0 -1.2 0
11.612 -21.906 18.588 -0 -1.2 0
16.615 2.097 25.15 -0 -1.2 0
16.647 1.576 25.19 -0 -1.2 0
16.675 1.055 25.223 -0 -1.2 0
16.697 0.532 25.249 -0 -1.2 0
16.713 0.009 25.266 -0 -1.2 0
16.725 -0.513 25.276 -0 -1.2 0
16.731 -1.036 25.278 -0 -1.2 0
16.733 -1.559 25.273 -0 -1.2 0
16.73 -2.083 25.26 -0 -1.2 0
16.721 -2.606 25.239 -0 -1.2 0
16.707 -3.128 25.211 -0 -1.2 0
16.689 -3.65 25.175 -0 -1.2 0
16.665 -4.172 25.132 -0 -1.2 0
16.563 -5.73 24.958 -0 -1.2 0
16.52 -6.246 24.885 -0 -1.2 0
15.808 -11.3 23.745 -0 -1.2 0
15.387 -13.243 23.087 -0 -1.2 0
14.758 -15.588 22.109 -0 -1.2 0
14.618 -16.044 21.894 -0 -1.2 0
14.474 -16.495 21.672 -0 -1.2 0
14.326 -16.943 21.443 -0 -1.2 0
14.172 -17.384 21.208 -0 -1.2 0
14.015 -17.822 20.967 -0 -1.2 0
13.854 -18.254 20.719 -0 -1.2 0
13.688 -18.681 20.464 -0 -1.2 0
13.519 -19.102 20.205 -0 -1.2 0
13.346 -19.518 19.939 -0 -1.2 0
13.167 -19.929 19.666 -0 -1.2 0
12.985 -20.333 19.388 -0 -1.2 0
12.8 -20.732 19.104 -0 -1.2 0
12.611 -21.125 18.815 -0 -1.2 0
12.417 -21.512 18.519 -0 -1.2 0
12.22 -21.893 18.219 -0 -1.2 0
17.534 0.549 24.679 -0 -1.2 0
17.552 0.027 24.696 -0 -1.2 0
17.564 -0.495 24.706 -0 -1.2 0
17.571 -1.018 24.709 -0 -1.2 0
17.571 -1.541 24.704 -0 -1.2 0
17.567 -2.066 24.692 -0 -1.2 0
17.558 -2.588 24.673 -0 -1.2 0
17.543 -3.111 24.645 -0 -1.2 0
17.523 -3.633 24.611 -0 -1.2 0
17.498 -4.155 24.569 -0 -1.2 0
17.467 -4.675 24.519 -0 -1.2 0
17.431 -5.195 24.464 -0 -1.2 0
17.031 -8.786 23.863 -0 -1.2 0
15.897 -14.177 22.216 -0 -1.2 0
15.337 -16.029 21.414 -0 -1.2 0
15.186 -16.48 21.197 -0 -1.2 0
15.03 -16.928 20.974 -0 -1.2 0
14.868 -17.37 20.744 -0 -1.2 0
14.703 -17.808 20.509 -0 -1.2 0
14.534 -18.24 20.267 -0 -1.2 0
14.359 -18.667 20.019 -0 -1.2 0
14.181 -19.088 19.766 -0 -1.2 0
13.998 -19.505 19.506 -0 -1.2 0
13.81 -19.915 19.24 -0 -1.2 0
13.62 -20.32 18.969 -0 -1.2 0
13.424 -20.719 18.692 -0 -1.2 0
13.225 -21.112 18.409 -0 -1.2 0
13.021 -21.499 18.121 -0 -1.2 0
12.814 -21.88 17.827 -0 -1.2 0
18.416 0.567 24.034 -0 -1.2 0
18.434 0.044 24.052 -0 -1.2 0
18.446 -0.478 24.062 -0 -1.2 0
18.452 -1.001 24.065 -0 -1.2 0
18.453 -1.524 24.06 -0 -1.2 0
18.449 -2.048 24.049 -0 -1.2 0
18.438 -2.571 24.03 -0 -1.2 0
18.422 -3.093 24.005 -0 -1.2 0
18.401 -3.615 23.971 -0 -1.2 0
18.373 -4.138 23.931 -0 -1.2 0
18.34 -4.658 23.884 -0 -1.2 0
18.303 -5.177 23.829 -0 -1.2 0
18.258 -5.695 23.767 -0 -1.2 0
17.879 -8.769 23.247 -0 -1.2 0
17.797 -9.274 23.136 -0 -1.2 0
16.398 -15.096 21.272 -0 -1.2 0
16.249 -15.557 21.074 -0 -1.2 0
16.094 -16.014 20.87 -0 -1.2 0
15.934 -16.465 20.659 -0 -1.2 0
15.769 -16.913 20.443 -0 -1.2 0
15.6 -17.355 20.219 -0 -1.2 0
15.426 -17.793 19.99 -0 -1.2 0
15.248 -18.225 19.756 -0 -1.2 0
15.064 -18.653 19.514 -0 -1.2 0
14.877 -19.074 19.268 -0 -1.2 0
14.684 -19.491 19.015 -0 -1.2 0
14.487 -19.902 18.758 -0 -1.2 0
14.286 -20.307 18.494 -0 -1.2 0
14.08 -20.706 18.224 -0 -1.2 0
13.87 -21.099 17.95 -0 -1.2 0
13.656 -21.486 17.67 -0 -1.2 0
13.438 -21.868 17.384 -0 -1.2 0
19.217 0.582 23.404 -0 -1.2 0
19.235 0.059 23.421 -0 -1.2 0
19.253 -0.986 23.434 -0 -1.2 0
19.253 -1.509 23.431 -0 -1.2 0
19.249 -2.033 23.42 -0 -1.2 0
19.237 -2.556 23.402 -0 -1.2 0
19.22 -3.078 23.377 -0 -1.2 0
19.198 -3.6 23.346 -0 -1.2 0
19.168 -4.123 23.306 -0 -1.2 0
19.134 -4.643 23.261 -0 -1.2 0
19.094 -5.162 23.208 -0 -1.2 0
18.375 -10.262 22.302 -0 -1.2 0
17.538 -13.675 21.267 -0 -1.2 0
17.397 -14.148 21.094 -0 -1.2 0
17.251 -14.618 20.913 -0 -1.2 0
17.099 -15.083 20.728 -0 -1.2 0
16.943 -15.544 20.535 -0 -1.2 0
16.78 -16.001 20.336 -0 -1.2 0
16.614 -16.453 20.133 -0 -1.2 0
16.442 -16.9 19.922 -0 -1.2 0
16.264 -17.343 19.705 -0 -1.2 0
16.083 -17.781 19.483 -0 -1.2 0
15.896 -18.213 19.255 -0 -1.2 0
15.704 -18.641 19.02 -0 -1.2 0
15.508 -19.062 18.781 -0 -1.2 0
15.307 -19.479 18.536 -0 -1.2 0
15.101 -19.89 18.284 -0 -1.2 0
14.891 -20.295 18.029 -0 -1.2 0
14.676 -20.694 17.767 -0 -1.2 0
14.457 -21.088 17.499 -0 -1.2 0
14.233 -21.475 17.227 -0 -1.2 0
14.005 -21.857 16.95 -0 -1.2 0
20.013 0.596 22.73 -0 -1.2 0
20.031 0.073 22.747 -0 -1.2 0
20.043 -0.449 22.757 -0 -1.2 0
20.049 -0.972 22.761 -0 -1.2 0
20.049 -1.495 22.758 -0 -1.2 0
20.044 -2.019 22.748 -0 -1.2 0
20.031 -2.542 22.731 -0 -1.2 0
20.013 -3.065 22.708 -0 -1.2 0
19.988 -3.587 22.677 -0 -1.2 0
19.959 -4.109 22.64 -0 -1.2 0
19.922 -4.629 22.595 -0 -1.2 0
19.777 -6.183 22.423 -0 -1.2 0
19.578 -7.723 22.189 -0 -1.2 0
19.415 -8.741 22.001 -0 -1.2 0
19.127 -10.249 21.668 -0 -1.2 0
18.906 -11.24 21.415 -0 -1.2 0
18.662 -12.219 21.135 -0 -1.2 0
18.531 -12.704 20.986 -0 -1.2 0
18.395 -13.185 20.83 -0 -1.2 0
18.254 -13.662 20.668 -0 -1.2 0
18.106 -14.135 20.5 -0 -1.2 0
17.954 -14.605 20.326 -0 -1.2 0
17.796 -15.071 20.146 -0 -1.2 0
17.632 -15.532 19.959 -0 -1.2 0
17.463 -15.989 19.767 -0 -1.2 0
17.289 -16.441 19.569 -0 -1.2 0
17.109 -16.889 19.365 -0 -1.2 0
16.925 -17.331 19.155 -0 -1.2 0
16.735 -17.769 18.94 -0 -1.2 0
16.54 -18.202 18.718 -0 -1.2 0
16.341 -18.629 18.492 -0 -1.2 0
16.136 -19.051 18.259 -0 -1.2 0
15.926 -19.468 18.022 -0 -1.2 0
15.712 -19.879 17.778 -0 -1.2 0
15.493 -20.285 17.53 -0 -1.2 0
15.268 -20.684 17.277 -0 -1.2 0
15.039 -21.078 17.018 -0 -1.2 0
14.807 -21.465 16.754 -0 -1.2 0
14.568 -21.847 16.486 -0 -1.2 0
20.818 1.132 21.951 -0 -1.2 0
20.843 0.609 21.975 -0 -1.2 0
20.862 0.087 21.992 -0 -1.2 0
20.88 -0.958 22.006 -0 -1.2 0
20.88 -1.481 22.003 -0 -1.2 0
20.873 -2.006 21.995 -0 -1.2 0
20.86 -2.528 21.979 -0 -1.2 0
20.84 -3.051 21.956 -0 -1.2 0
20.815 -3.573 21.927 -0 -1.2 0
20.783 -4.095 21.892 -0 -1.2 0
20.745 -4.616 21.85 -0 -1.2 0
20.701 -5.135 21.801 -0 -1.2 0
20.65 -5.653 21.746 -0 -1.2 0
20.592 -6.17 21.684 -0 -1.2 0
20.529 -6.685 21.616 -0 -1.2 0
20.46 -7.199 21.542 -0 -1.2 0
20.384 -7.71 21.46 -0 -1.2 0
20.302 -8.22 21.373 -0 -1.2 0
20.214 -8.728 21.279 -0 -1.2 0
20.119 -9.233 21.179 -0 -1.2 0
20.02 -9.735 21.072 -0 -1.2 0
19.913 -10.236 20.96 -0 -1.2 0
19.801 -10.733 20.84 -0 -1.2 0
19.682 -11.228 20.716 -0 -1.2 0
19.558 -11.719 20.584 -0 -1.2 0
19.427 -12.206 20.446 -0 -1.2 0
19.291 -12.692 20.302 -0 -1.2 0
19.149 -13.172 20.153 -0 -1.2 0
19.001 -13.65 19.997 -0 -1.2 0
18.847 -14.123 19.835 -0 -1.2 0
18.688 -14.593 19.667 -0 -1.2 0
18.523 -15.059 19.492 -0 -1.2 0
18.352 -15.52 19.313 -0 -1.2 0
18.176 -15.977 19.128 -0 -1.2 0
17.994 -16.429 18.938 -0 -1.2 0
17.807 -16.877 18.74 -0 -1.2 0
17.614 -17.32 18.539 -0 -1.2 0
17.416 -17.758 18.331 -0 -1.2 0
17.213 -18.191 18.117 -0 -1.2 0
17.005 -18.618 17.899 -0 -1.2 0
16.791 -19.04 17.675 -0 -1.2 0
16.573 -19.458 17.446 -0 -1.2 0
16.349 -19.869 17.212 -0 -1.2 0
16.121 -20.274 16.971 -0 -1.2 0
15.886 -20.674 16.727 -0 -1.2 0
15.648 -21.068 16.478 -0 -1.2 0
15.405 -21.455 16.223 -0 -1.2 0
15.157 -21.837 15.964 -0 -1.2 0
21.529 1.665 21.193 -0 -1.2 0
21.605 0.098 21.262 -0 -1.2 0
21.618 -0.424 21.273 -0 -1.2 0
21.623 -0.947 21.277 -0 -1.2 0
21.624 -1.47 21.275 -0 -1.2 0
21.616 -1.995 21.267 -0 -1.2 0
21.602 -2.517 21.252 -0 -1.2 0
21.582 -3.04 21.231 -0 -1.2 0
21.555 -3.562 21.203 -0 -1.2 0
21.522 -4.084 21.169 -0 -1.2 0
21.482 -4.605 21.129 -0 -1.2 0
21.436 -5.124 21.083 -0 -1.2 0
21.383 -5.642 21.03 -0 -1.2 0
21.323 -6.159 20.971 -0 -1.2 0
21.257 -6.674 20.905 -0 -1.2 0
21.185 -7.188 20.834 -0 -1.2 0
21.106 -7.699 20.756 -0 -1.2 0
21.021 -8.209 20.672 -0 -1.2 0
20.929 -8.717 20.582 -0 -1.2 0
20.831 -9.222 20.485 -0 -1.2 0
20.727 -9.725 20.383 -0 -1.2 0
20.617 -10.225 20.274 -0 -1.2 0
20.5 -10.722 20.159 -0 -1.2 0
20.377 -11.217 20.039 -0 -1.2 0
20.248 -11.708 19.912 -0 -1.2 0
20.112 -12.196 19.78 -0 -1.2 0
19.971 -12.681 19.641 -0 -1.2 0
19.823 -13.162 19.497 -0 -1.2 0
19.67 -13.64 19.347 -0 -1.2 0
19.511 -14.113 19.191 -0 -1.2 0
19.345 -14.584 19.029 -0 -1.2 0
19.174 -15.049 18.861 -0 -1.2 0
18.996 -15.511 18.688 -0 -1.2 0
18.814 -15.968 18.51 -0 -1.2 0
18.625 -16.42 18.326 -0 -1.2 0
18.432 -16.868 18.137 -0 -1.2 0
18.232 -17.31 17.942 -0 -1.2 0
18.026 -17.749 17.741 -0 -1.2 0
17.815 -18.182 17.536 -0 -1.2 0
17.599 -18.61 17.325 -0 -1.2 0
17.378 -19.032 17.11 -0 -1.2 0
17.151 -19.449 16.888 -0 -1.2 0
16.919 -19.86 16.662 -0 -1.2 0
16.683 -20.266 16.431 -0 -1.2 0
16.44 -20.665 16.195 -0 -1.2 0
16.193 -21.059 15.955 -0 -1.2 0
15.941 -21.447 15.71 -0 -1.2 0
15.685 -21.83 15.459 -0 -1.2 0
22.342 -0.414 20.512 -0 -1.2 0
22.347 -0.937 20.516 -0 -1.2 0
22.346 -1.461 20.515 -0 -1.2 0
22.339 -1.985 20.508 -0 -1.2 0
22.324 -2.508 20.493 -0 -1.2 0
22.303 -3.03 20.474 -0 -1.2 0
22.275 -3.552 20.447 -0 -1.2 0
22.24 -4.075 20.416 -0 -1.2 0
22.199 -4.595 20.377 -0 -1.2 0
22.15 -5.115 20.333 -0 -1.2 0
22.096 -5.632 20.283 -0 -1.2 0
22.034 -6.15 20.226 -0 -1.2 0
21.965 -6.665 20.164 -0 -1.2 0
21.89 -7.178 20.095 -0 -1.2 0
21.808 -7.69 20.021 -0 -1.2 0
21.72 -8.2 19.94 -0 -1.2 0
21.625 -8.708 19.853 -0 -1.2 0
21.524 -9.213 19.762 -0 -1.2 0
21.416 -9.716 19.664 -0 -1.2 0
21.301 -10.216 19.56 -0 -1.2 0
21.18 -10.713 19.449 -0 -1.2 0
21.053 -11.208 19.333 -0 -1.2 0
20.919 -11.699 19.212 -0 -1.2 0
20.779 -12.187 19.085 -0 -1.2 0
20.632 -12.673 18.952 -0 -1.2 0
20.479 -13.153 18.813 -0 -1.2 0
20.321 -13.631 18.669 -0 -1.2 0
20.156 -14.105 18.519 -0 -1.2 0
19.984 -14.575 18.365 -0 -1.2 0
19.808 -15.041 18.204 -0 -1.2 0
19.624 -15.502 18.037 -0 -1.2 0
19.435 -15.959 17.865 -0 -1.2 0
19.24 -16.411 17.689 -0 -1.2 0
19.039 -16.86 17.506 -0 -1.2 0
18.832 -17.302 17.319 -0 -1.2 0
18.62 -17.741 17.127 -0 -1.2 0
18.402 -18.174 16.93 -0 -1.2 0
18.178 -18.602 16.727 -0 -1.2 0
17.948 -19.024 16.519 -0 -1.2 0
17.714 -19.441 16.307 -0 -1.2 0
17.474 -19.853 16.09 -0 -1.2 0
17.228 -20.258 15.867 -0 -1.2 0
16.978 -20.658 15.64 -0 -1.2 0
16.722 -21.052 15.409 -0 -1.2 0
16.462 -21.44 15.173 -0 -1.2 0
16.196 -21.823 14.933 -0 -1.2 0
23.087 -0.936 19.68 -0 -1.2 0
23.085 -1.459 19.68 -0 -1.2 0
23.077 -1.983 19.673 -0 -1.2 0
23.061 -2.506 19.661 -0 -1.2 0
23.039 -3.029 19.642 -0 -1.2 0
23.009 -3.551 19.617 -0 -1.2 0
22.972 -4.073 19.587 -0 -1.2 0
22.929 -4.593 19.552 -0 -1.2 0
22.878 -5.113 19.509 -0 -1.2 0
22.822 -5.631 19.462 -0 -1.2 0
22.758 -6.148 19.408 -0 -1.2 0
22.686 -6.663 19.349 -0 -1.2 0
22.608 -7.177 19.283 -0 -1.2 0
22.523 -7.688 19.213 -0 -1.2 0
22.432 -8.198 19.136 -0 -1.2 0
22.333 -8.706 19.054 -0 -1.2 0
22.228 -9.212 18.967 -0 -1.2 0
22.116 -9.714 18.873 -0 -1.2 0
21.997 -10.215 18.774 -0 -1.2 0
21.871 -10.712 18.669 -0 -1.2 0
21.739 -11.207 18.558 -0 -1.2 0
21.601 -11.698 18.443 -0 -1.2 0
21.456 -12.185 18.321 -0 -1.2 0
21.303 -12.671 18.195 -0 -1.2 0
21.145 -13.152 18.062 -0 -1.2 0
20.981 -13.63 17.925 -0 -1.2 0
20.809 -14.103 17.781 -0 -1.2 0
20.633 -14.573 17.633 -0 -1.2 0
20.449 -15.039 17.48 -0 -1.2 0
20.26 -15.501 17.322 -0 -1.2 0
20.063 -15.958 17.158 -0 -1.2 0
19.861 -16.41 16.988 -0 -1.2 0
19.653 -16.858 16.814 -0 -1.2 0
19.439 -17.301 16.636 -0 -1.2 0
19.22 -17.739 16.452 -0 -1.2 0
18.994 -18.172 16.263 -0 -1.2 0
18.762 -18.6 16.069 -0 -1.2 0
18.525 -19.022 15.871 -0 -1.2 0
18.282 -19.44 15.668 -0 -1.2 0
18.035 -19.851 15.46 -0 -1.2 0
17.78 -20.257 15.248 -0 -1.2 0
17.522 -20.657 15.031 -0 -1.2 0
17.257 -21.051 14.809 -0 -1.2 0
16.987 -21.439 14.584 -0 -1.2 0
16.712 -21.821 14.354 -0 -1.2 0
23.737 -0.415 18.878 -0 -1.2 0
23.742 -0.938 18.883 -0 -1.2 0
23.74 -1.461 18.883 -0 -1.2 0
23.731 -1.986 18.877 -0 -1.2 0
23.714 -2.508 18.865 -0 -1.2 0
23.69 -3.031 18.848 -0 -1.2 0
23.66 -3.553 18.825 -0 -1.2 0
23.622 -4.075 18.796 -0 -1.2 0
23.412 -4.57 18.634 -0 -1.2 0
23.525 -5.115 18.723 -0 -1.2 0
23.465 -5.633 18.678 -0 -1.2 0
23.399 -6.15 18.627 -0 -1.2 0
23.325 -6.665 18.571 -0 -1.2 0
23.245 -7.179 18.509 -0 -1.2 0
23.157 -7.69 18.442 -0 -1.2 0
23.062 -8.2 18.369 -0 -1.2 0
22.96 -8.708 18.291 -0 -1.2 0
22.851 -9.214 18.207 -0 -1.2 0
22.736 -9.716 18.118 -0 -1.2 0
22.614 -10.217 18.023 -0 -1.2 0
22.483 -10.714 17.923 -0 -1.2 0
22.347 -11.209 17.818 -0 -1.2 0
22.205 -11.7 17.707 -0 -1.2 0
22.054 -12.187 17.592 -0 -1.2 0
21.898 -12.673 17.471 -0 -1.2 0
21.735 -13.154 17.345 -0 -1.2 0
21.565 -13.632 17.214 -0 -1.2 0
21.389 -14.105 17.077 -0 -1.2 0
21.207 -14.575 16.936 -0 -1.2 0
21.017 -15.041 16.789 -0 -1.2 0
20.821 -15.503 16.638 -0 -1.2 0
20.62 -15.96 16.481 -0 -1.2 0
20.412 -16.412 16.32 -0 -1.2 0
20.197 -16.86 16.153 -0 -1.2 0
19.977 -17.303 15.982 -0 -1.2 0
19.751 -17.741 15.807 -0 -1.2 0
19.518 -18.174 15.627 -0 -1.2 0
19.28 -18.602 15.442 -0 -1.2 0
19.035 -19.024 15.252 -0 -1.2 0
18.785 -19.441 15.058 -0 -1.2 0
18.53 -19.853 14.859 -0 -1.2 0
18.268 -20.259 14.656 -0 -1.2 0
18.002 -20.658 14.449 -0 -1.2 0
17.729 -21.052 14.238 -0 -1.2 0
17.451 -21.441 14.022 -0 -1.2 0
17.168 -21.823 13.801 -0 -1.2 0
24.364 -0.419 18.056 -0 -1.2 0
24.37 -0.942 18.062 -0 -1.2 0
24.368 -1.465 18.063 -0 -1.2 0
24.357 -1.99 18.057 -0 -1.2 0
24.34 -2.512 18.047 -0 -1.2 0
24.316 -3.035 18.031 -0 -1.2 0
24.283 -3.557 18.009 -0 -1.2 0
24.01 -4.05 17.813 -0 -1.2 0
23.951 -5.087 17.774 -0 -1.2 0
23.402 -5.508 17.377 -0 -1.2 0
24.013 -6.154 17.823 -0 -1.2 0
23.412 -6.547 17.389 -0 -1.2 0
23.751 -7.157 17.637 -0 -1.2 0
23.566 -7.64 17.505 -0 -1.2 0
23.619 -8.191 17.545 -0 -1.2 0
23.561 -8.712 17.505 -0 -1.2 0
23.402 -9.201 17.392 -0 -1.2 0
23.33 -9.72 17.34 -0 -1.2 0
23.204 -10.221 17.251 -0 -1.2 0
23.07 -10.717 17.156 -0 -1.2 0
22.93 -11.212 17.056 -0 -1.2 0
22.782 -11.704 16.951 -0 -1.2 0
22.629 -12.191 16.841 -0 -1.2 0
22.467 -12.677 16.726 -0 -1.2 0
22.3 -13.158 16.606 -0 -1.2 0
22.125 -13.635 16.482 -0 -1.2 0
21.944 -14.109 16.352 -0 -1.2 0
21.756 -14.579 16.217 -0 -1.2 0
21.562 -15.045 16.078 -0 -1.2 0
21.36 -15.506 15.933 -0 -1.2 0
21.153 -15.963 15.785 -0 -1.2 0
20.939 -16.415 15.631 -0 -1.2 0
20.718 -16.864 15.473 -0 -1.2 0
20.492 -17.306 15.31 -0 -1.2 0
20.259 -17.745 15.143 -0 -1.2 0
20.02 -18.177 14.971 -0 -1.2 0
19.775 -18.605 14.794 -0 -1.2 0
19.524 -19.027 14.614 -0 -1.2 0
19.004 -19.856 14.24 -0 -1.2 0
18.736 -20.262 14.047 -0 -1.2 0
17.897 -21.443 13.442 -0 -1.2 0
17.606 -21.826 13.232 -0 -1.2 0
24.994 0.096 17.139 -0 -1.2 0
25.006 -0.426 17.151 -0 -1.2 0
24.928 -0.949 17.101 -0 -1.2 0
24.916 -1.471 17.096 -0 -1.2 0
24.931 -1.993 17.109 -0 -1.2 0
24.946 -2.517 17.121 -0 -1.2 0
24.954 -3.042 17.129 -0 -1.2 0
24.92 -3.564 17.11 -0 -1.2 0
24.103 -3.992 16.564 -0 -1.2 0
24.117 -5.018 16.579 -0 -1.2 0
24.113 -5.533 16.579 -0 -1.2 0
24.469 -6.125 16.821 -0 -1.2 0
24.472 -6.655 16.827 -0 -1.2 0
24.168 -7.113 16.625 -0 -1.2 0
24.084 -7.62 16.571 -0 -1.2 0
23.565 -8 16.225 -0 -1.2 0
24.15 -8.71 16.622 -0 -1.2 0
24.059 -9.224 16.564 -0 -1.2 0
23.936 -9.726 16.484 -0 -1.2 0
23.806 -10.227 16.4 -0 -1.2 0
23.669 -10.724 16.31 -0 -1.2 0
23.525 -11.219 16.216 -0 -1.2 0
23.373 -11.71 16.118 -0 -1.2 0
23.215 -12.197 16.014 -0 -1.2 0
23.049 -12.683 15.905 -0 -1.2 0
22.876 -13.164 15.792 -0 -1.2 0
22.697 -13.641 15.675 -0 -1.2 0
22.511 -14.115 15.552 -0 -1.2 0
22.317 -14.585 15.425 -0 -1.2 0
22.117 -15.05 15.294 -0 -1.2 0
21.91 -15.512 15.157 -0 -1.2 0
21.697 -15.969 15.016 -0 -1.2 0
21.477 -16.421 14.872 -0 -1.2 0
21.018 -17.311 14.569 -0 -1.2 0
20.778 -17.75 14.411 -0 -1.2 0
20.281 -18.611 14.081 -0 -1.2 0
20.022 -19.033 13.911 -0 -1.2 0
19.213 -20.267 13.375 -0 -1.2 0
18.643 -21.06 12.997 -0 -1.2 0
18.35 -21.448 12.803 -0 -1.2 0
18.051 -21.83 12.605 -0 -1.2 0
25.558 0.088 16.277 -0 -1.2 0
25.571 -0.434 16.288 -0 -1.2 0
25.575 -0.957 16.294 -0 -1.2 0
25.572 -1.48 16.296 -0 -1.2 0
25.56 -2.004 16.293 -0 -1.2 0
25.542 -2.527 16.284 -0 -1.2 0
25.515 -3.05 16.271 -0 -1.2 0
25.48 -3.572 16.253 -0 -1.2 0
25.439 -4.094 16.231 -0 -1.2 0
25.331 -5.134 16.171 -0 -1.2 0
25.266 -5.652 16.135 -0 -1.2 0
25.193 -6.169 16.093 -0 -1.2 0
25.113 -6.684 16.046 -0 -1.2 0
25.024 -7.197 15.995 -0 -1.2 0
24.399 -7.568 15.609 -0 -1.2 0
24.289 -8.065 15.544 -0 -1.2 0
24.714 -8.727 15.813 -0 -1.2 0
24.596 -9.232 15.742 -0 -1.2 0
24.47 -9.734 15.668 -0 -1.2 0
24.336 -10.235 15.589 -0 -1.2 0
24.196 -10.731 15.504 -0 -1.2 0
24.048 -11.226 15.415 -0 -1.2 0
23.893 -11.717 15.323 -0 -1.2 0
23.73 -12.205 15.225 -0 -1.2 0
23.56 -12.69 15.123 -0 -1.2 0
23.383 -13.171 15.016 -0 -1.2 0
23.2 -13.649 14.905 -0 -1.2 0
23.009 -14.122 14.79 -0 -1.2 0
22.811 -14.592 14.671 -0 -1.2 0
22.606 -15.058 14.546 -0 -1.2 0
21.95 -16.428 14.148 -0 -1.2 0
21.718 -16.876 14.007 -0 -1.2 0
21.234 -17.757 13.713 -0 -1.2 0
20.983 -18.189 13.559 -0 -1.2 0
20.725 -18.617 13.402 -0 -1.2 0
19.632 -20.273 12.734 -0 -1.2 0
18.443 -21.836 12.006 -0 -1.2 0
26.105 -0.444 15.407 -0 -1.2 0
26.109 -0.967 15.414 -0 -1.2 0
26.106 -1.49 15.416 -0 -1.2 0
26.095 -2.015 15.414 -0 -1.2 0
26.075 -2.537 15.406 -0 -1.2 0
26.047 -3.06 15.395 -0 -1.2 0
26.011 -3.582 15.379 -0 -1.2 0
25.968 -4.104 15.358 -0 -1.2 0
25.916 -4.624 15.333 -0 -1.2 0
25.858 -5.144 15.303 -0 -1.2 0
25.791 -5.662 15.269 -0 -1.2 0
25.716 -6.179 15.23 -0 -1.2 0
25.633 -6.694 15.187 -0 -1.2 0
25.542 -7.207 15.14 -0 -1.2 0
25.445 -7.719 15.088 -0 -1.2 0
25.339 -8.228 15.031 -0 -1.2 0
25.225 -8.736 14.97 -0 -1.2 0
25.104 -9.241 14.905 -0 -1.2 0
24.975 -9.744 14.834 -0 -1.2 0
24.838 -10.244 14.76 -0 -1.2 0
24.695 -10.741 14.682 -0 -1.2 0
24.544 -11.236 14.599 -0 -1.2 0
24.385 -11.727 14.511 -0 -1.2 0
24.219 -12.214 14.42 -0 -1.2 0
24.045 -12.7 14.324 -0 -1.2 0
23.864 -13.18 14.224 -0 -1.2 0
23.676 -13.658 14.12 -0 -1.2 0
23.481 -14.131 14.012 -0 -1.2 0
23.068 -15.066 13.783 -0 -1.2 0
