# .PCD v.7 - Point Cloud Data file format
FIELDS x y z vp_x vp_y vp_z
SIZE 4 4 4 4 4 4
TYPE F F F F F F
COUNT 1 1 1 1 1 1
WIDTH 1607
HEIGHT 1
VIEWPOINT 0 -1.20013 0 1 0 0 0
POINTS 1607
DATA ascii
-3.654 -0.539 3.688 -0 -1.2 0
-3.739 -0.623 3.785 -0 -1.2 0
-3.977 -0.695 4.051 -0 -1.2 0
-4.066 -0.79 4.153 -0 -1.2 0
-10.1 -0.585 10.857 -0 -1.2 0
-10.361 -0.841 11.155 -0 -1.2 0
-10.547 -1.11 11.368 -0 -1.2 0
-13.496 -1.462 14.655 -0 -1.2 0
-13.479 -1.812 14.645 -0 -1.2 0
-13.432 -2.16 14.6 -0 -1.2 0
-13.792 -2.55 15.011 -0 -1.2 0
-13.783 -2.909 15.008 -0 -1.2 0
-13.762 -3.269 14.994 -0 -1.2 0
-8.976 -2.748 9.659 -0 -1.2 0
-8.51 -2.888 9.144 -0 -1.2 0
-8.004 -2.994 8.585 -0 -1.2 0
-13.459 -4.656 14.69 -0 -1.2 0
-8.31 -3.514 8.937 -0 -1.2 0
-13.431 -5.379 14.677 -0 -1.2 0
-13.434 -5.749 14.688 -0 -1.2 0
-13.367 -6.096 14.622 -0 -1.2 0
-7.852 -4.245 8.445 -0 -1.2 0
-7.773 -4.432 8.362 -0 -1.2 0
-7.572 -4.562 8.141 -0 -1.2 0
-8.318 -5.145 8.985 -0 -1.2 0
-7.514 -4.97 8.086 -0 -1.2 0
-7.952 -5.432 8.585 -0 -1.2 0
-7.928 -5.657 8.564 -0 -1.2 0
-7.582 -5.687 8.18 -0 -1.2 0
-7.488 -5.86 8.08 -0 -1.2 0
-7.248 -5.933 7.814 -0 -1.2 0
-7.116 -6.071 7.67 -0 -1.2 0
-8.145 -7.059 8.838 -0 -1.2 0
-3.851 -4.022 3.991 -0 -1.2 0
-9.095 -8.364 9.926 -0 -1.2 0
-3.779 -4.22 3.914 -0 -1.2 0
-8.519 -8.491 9.288 -0 -1.2 0
-7.153 -7.554 7.747 -0 -1.2 0
-7.585 -8.222 8.243 -0 -1.2 0
-7.404 -8.327 8.045 -0 -1.2 0
-8.986 -10.227 9.849 -0 -1.2 0
-9.221 -10.828 10.125 -0 -1.2 0
-3.274 -4.646 3.365 -0 -1.2 0
-3.363 -4.882 3.469 -0 -1.2 0
-3.344 -4.999 3.45 -0 -1.2 0
-0.785 -0.024 0.562 -0 -1.2 0
-0.811 -0.023 0.593 -0 -1.2 0
-0.828 -0.037 0.614 -0 -1.2 0
-0.858 -0.032 0.65 -0 -1.2 0
-0.885 -0.033 0.682 -0 -1.2 0
-0.918 -0.031 0.721 -0 -1.2 0
-0.949 -0.029 0.758 -0 -1.2 0
-0.972 -0.042 0.785 -0 -1.2 0
-1.009 -0.037 0.83 -0 -1.2 0
-1.047 -0.034 0.875 -0 -1.2 0
-1.081 -0.039 0.915 -0 -1.2 0
-1.12 -0.039 0.961 -0 -1.2 0
-1.159 -0.041 1.007 -0 -1.2 0
-1.204 -0.04 1.061 -0 -1.2 0
-1.249 -0.041 1.115 -0 -1.2 0
-1.294 -0.044 1.169 -0 -1.2 0
-1.34 -0.05 1.223 -0 -1.2 0
-1.398 -0.047 1.291 -0 -1.2 0
-1.45 -0.053 1.353 -0 -1.2 0
-1.514 -0.052 1.43 -0 -1.2 0
-1.578 -0.055 1.507 -0 -1.2 0
-1.642 -0.062 1.583 -0 -1.2 0
-1.72 -0.063 1.674 -0 -1.2 0
-1.804 -0.065 1.774 -0 -1.2 0
-1.893 -0.067 1.882 -0 -1.2 0
-1.997 -0.068 2.003 -0 -1.2 0
-2.087 -0.081 2.112 -0 -1.2 0
-2.209 -0.083 2.256 -0 -1.2 0
-2.344 -0.087 2.417 -0 -1.2 0
-2.491 -0.092 2.593 -0 -1.2 0
-2.653 -0.099 2.784 -0 -1.2 0
-2.814 -0.115 2.976 -0 -1.2 0
-3.025 -0.123 3.228 -0 -1.2 0
-3.257 -0.137 3.504 -0 -1.2 0
-3.324 -0.208 3.585 -0 -1.2 0
-3.338 -0.294 3.604 -0 -1.2 0
-3.448 -0.361 3.737 -0 -1.2 0
-3.59 -0.427 3.905 -0 -1.2 0
-3.595 -0.523 3.916 -0 -1.2 0
-3.722 -0.603 4.068 -0 -1.2 0
-3.578 -0.718 3.9 -0 -1.2 0
-8.601 -0.404 9.861 -0 -1.2 0
-8.592 -0.637 9.856 -0 -1.2 0
-8.664 -0.866 9.947 -0 -1.2 0
-10.297 -1.099 11.894 -0 -1.2 0
-13.626 -1.466 15.859 -0 -1.2 0
-13.609 -1.832 15.849 -0 -1.2 0
-13.548 -2.197 15.787 -0 -1.2 0
-13.658 -2.577 15.926 -0 -1.2 0
-13.647 -2.947 15.923 -0 -1.2 0
-13.632 -3.319 15.916 -0 -1.2 0
-8.799 -2.77 10.159 -0 -1.2 0
-7.601 -2.75 8.733 -0 -1.2 0
-7.863 -3.025 9.053 -0 -1.2 0
-8.95 -3.543 10.357 -0 -1.2 0
-7.42 -3.33 8.533 -0 -1.2 0
-13.549 -5.571 15.876 -0 -1.2 0
-13.536 -5.953 15.87 -0 -1.2 0
-13.5 -6.329 15.837 -0 -1.2 0
-7.334 -4.144 8.453 -0 -1.2 0
-7.37 -4.375 8.502 -0 -1.2 0
-8.774 -5.263 10.193 -0 -1.2 0
-6.897 -4.575 7.945 -0 -1.2 0
-6.728 -4.692 7.747 -0 -1.2 0
-6.871 -4.98 7.924 -0 -1.2 0
-6.746 -5.119 7.779 -0 -1.2 0
-7.396 -5.743 8.568 -0 -1.2 0
-7.394 -5.978 8.571 -0 -1.2 0
-7.032 -5.967 8.141 -0 -1.2 0
-7.667 -6.663 8.915 -0 -1.2 0
-14.473 -12.125 17.144 -0 -1.2 0
-7.924 -7.389 9.238 -0 -1.2 0
-3.67 -4.118 4.098 -0 -1.2 0
-8.72 -8.64 10.216 -0 -1.2 0
-3.615 -4.328 4.037 -0 -1.2 0
-3.587 -4.437 4.008 -0 -1.2 0
-3.575 -4.559 3.996 -0 -1.2 0
-8.07 -9.288 9.462 -0 -1.2 0
-7.652 -9.477 8.97 -0 -1.2 0
-0.756 -0.023 0.603 -0 -1.2 0
-0.781 -0.023 0.634 -0 -1.2 0
-0.801 -0.029 0.661 -0 -1.2 0
-0.832 -0.024 0.699 -0 -1.2 0
-0.858 -0.027 0.731 -0 -1.2 0
-0.883 -0.03 0.764 -0 -1.2 0
-0.915 -0.028 0.803 -0 -1.2 0
-0.936 -0.041 0.83 -0 -1.2 0
-0.978 -0.03 0.883 -0 -1.2 0
-1.009 -0.033 0.923 -0 -1.2 0
-1.042 -0.038 0.963 -0 -1.2 0
-1.079 -0.038 1.011 -0 -1.2 0
-1.122 -0.035 1.065 -0 -1.2 0
-1.159 -0.039 1.113 -0 -1.2 0
-1.203 -0.04 1.168 -0 -1.2 0
-1.246 -0.043 1.224 -0 -1.2 0
-1.291 -0.048 1.28 -0 -1.2 0
-1.341 -0.051 1.343 -0 -1.2 0
-1.396 -0.051 1.413 -0 -1.2 0
-1.458 -0.051 1.491 -0 -1.2 0
-1.52 -0.053 1.57 -0 -1.2 0
-1.583 -0.06 1.649 -0 -1.2 0
-1.663 -0.057 1.751 -0 -1.2 0
-1.749 -0.056 1.859 -0 -1.2 0
-1.824 -0.066 1.954 -0 -1.2 0
-1.911 -0.073 2.065 -0 -1.2 0
-2.016 -0.076 2.198 -0 -1.2 0
-2.139 -0.075 2.354 -0 -1.2 0
-2.264 -0.081 2.511 -0 -1.2 0
-2.406 -0.086 2.692 -0 -1.2 0
-2.554 -0.096 2.88 -0 -1.2 0
-2.722 -0.108 3.092 -0 -1.2 0
-2.921 -0.118 3.343 -0 -1.2 0
-3.156 -0.127 3.641 -0 -1.2 0
-3.38 -0.153 3.924 -0 -1.2 0
-3.394 -0.246 3.945 -0 -1.2 0
-3.433 -0.333 3.996 -0 -1.2 0
-3.464 -0.423 4.038 -0 -1.2 0
-3.573 -0.501 4.18 -0 -1.2 0
-3.745 -0.575 4.399 -0 -1.2 0
-7.418 -0.262 9.035 -0 -1.2 0
-8.192 -0.404 10.018 -0 -1.2 0
-8.188 -0.633 10.02 -0 -1.2 0
-8.301 -0.858 10.169 -0 -1.2 0
-10.563 -1.088 13.036 -0 -1.2 0
-13.787 -1.47 17.125 -0 -1.2 0
-13.769 -1.855 17.113 -0 -1.2 0
-13.735 -2.24 17.08 -0 -1.2 0
-13.827 -2.638 17.208 -0 -1.2 0
-13.809 -3.027 17.196 -0 -1.2 0
-13.793 -3.417 17.187 -0 -1.2 0
-7.289 -2.527 8.936 -0 -1.2 0
-7.447 -2.772 9.143 -0 -1.2 0
-13.75 -4.593 17.166 -0 -1.2 0
-9.075 -3.663 11.225 -0 -1.2 0
-13.723 -5.384 17.153 -0 -1.2 0
-7.237 -3.564 8.899 -0 -1.2 0
-6.966 -3.677 8.559 -0 -1.2 0
-6.581 -3.731 8.075 -0 -1.2 0
-6.561 -3.92 8.055 -0 -1.2 0
-6.995 -4.321 8.615 -0 -1.2 0
-8.371 -5.216 10.379 -0 -1.2 0
-7.472 -5.005 9.237 -0 -1.2 0
-13.585 -8.651 17.071 -0 -1.2 0
-7.551 -5.526 9.351 -0 -1.2 0
-8.337 -6.26 10.366 -0 -1.2 0
-7.182 -5.777 8.892 -0 -1.2 0
-6.936 -5.845 8.582 -0 -1.2 0
-6.959 -6.097 8.619 -0 -1.2 0
-3.518 -4.232 4.215 -0 -1.2 0
-8.405 -8.963 10.53 -0 -1.2 0
-8.306 -9.19 10.409 -0 -1.2 0
-7.791 -9.307 9.761 -0 -1.2 0
-3.461 -4.858 4.16 -0 -1.2 0
-3.383 -4.915 4.063 -0 -1.2 0
-0.726 -0.022 0.641 -0 -1.2 0
-0.754 -0.015 0.679 -0 -1.2 0
-0.769 -0.028 0.7 -0 -1.2 0
-0.803 -0.016 0.745 -0 -1.2 0
-0.824 -0.026 0.772 -0 -1.2 0
-0.843 -0.035 0.8 -0 -1.2 0
-0.878 -0.027 0.847 -0 -1.2 0
-0.903 -0.034 0.881 -0 -1.2 0
-0.943 -0.023 0.934 -0 -1.2 0
-0.968 -0.031 0.969 -0 -1.2 0
-1.004 -0.03 1.016 -0 -1.2 0
-1.041 -0.03 1.065 -0 -1.2 0
-1.071 -0.038 1.107 -0 -1.2 0
-1.118 -0.032 1.17 -0 -1.2 0
-1.155 -0.038 1.219 -0 -1.2 0
-1.202 -0.037 1.283 -0 -1.2 0
-1.244 -0.042 1.341 -0 -1.2 0
-1.287 -0.049 1.398 -0 -1.2 0
-1.34 -0.049 1.47 -0 -1.2 0
-1.4 -0.049 1.551 -0 -1.2 0
-1.459 -0.051 1.631 -0 -1.2 0
-1.525 -0.054 1.719 -0 -1.2 0
-1.596 -0.055 1.815 -0 -1.2 0
-1.674 -0.057 1.919 -0 -1.2 0
-1.757 -0.06 2.032 -0 -1.2 0
-1.847 -0.064 2.152 -0 -1.2 0
-1.942 -0.07 2.281 -0 -1.2 0
-2.061 -0.069 2.441 -0 -1.2 0
-2.18 -0.076 2.602 -0 -1.2 0
-2.323 -0.077 2.793 -0 -1.2 0
-2.466 -0.088 2.987 -0 -1.2 0
-2.621 -0.102 3.196 -0 -1.2 0
-2.823 -0.108 3.469 -0 -1.2 0
-3.067 -0.112 3.797 -0 -1.2 0
-3.324 -0.127 4.143 -0 -1.2 0
-3.515 -0.173 4.402 -0 -1.2 0
-3.872 -0.191 4.883 -0 -1.2 0
-4.644 -0.144 5.923 -0 -1.2 0
-5.288 -0.165 6.79 -0 -1.2 0
-6.109 -0.196 7.898 -0 -1.2 0
-7.241 -0.239 9.423 -0 -1.2 0
-8.587 -0.327 11.238 -0 -1.2 0
-10.194 -0.479 13.407 -0 -1.2 0
-10.273 -0.773 13.522 -0 -1.2 0
-11.17 -1.07 14.74 -0 -1.2 0
-13.112 -1.447 17.367 -0 -1.2 0
-14 -1.879 18.576 -0 -1.2 0
-14.026 -2.291 18.623 -0 -1.2 0
-14.029 -2.703 18.64 -0 -1.2 0
-14.009 -3.114 18.627 -0 -1.2 0
-13.992 -3.526 18.617 -0 -1.2 0
-6.778 -2.471 8.868 -0 -1.2 0
-13.974 -4.355 18.617 -0 -1.2 0
-7.356 -3.029 9.662 -0 -1.2 0
-6.986 -3.141 9.169 -0 -1.2 0
-6.95 -3.341 9.126 -0 -1.2 0
-13.868 -6.013 18.526 -0 -1.2 0
-13.918 -6.461 18.607 -0 -1.2 0
-6.59 -3.834 8.657 -0 -1.2 0
-6.433 -3.97 8.449 -0 -1.2 0
-13.896 -7.767 18.617 -0 -1.2 0
-8.385 -5.383 11.12 -0 -1.2 0
-5.836 -4.263 7.655 -0 -1.2 0
-13.741 -9.033 18.447 -0 -1.2 0
-13.372 -9.266 17.958 -0 -1.2 0
-7.333 -5.813 9.718 -0 -1.2 0
-6.973 -5.819 9.233 -0 -1.2 0
-6.915 -6.019 9.161 -0 -1.2 0
-8.242 -9.12 11.045 -0 -1.2 0
-0.693 -0.02 0.681 -0 -1.2 0
-0.716 -0.02 0.715 -0 -1.2 0
-0.735 -0.026 0.742 -0 -1.2 0
-0.762 -0.021 0.782 -0 -1.2 0
-0.786 -0.024 0.816 -0 -1.2 0
-0.81 -0.027 0.85 -0 -1.2 0
-0.838 -0.025 0.892 -0 -1.2 0
-0.867 -0.026 0.933 -0 -1.2 0
-0.896 -0.027 0.975 -0 -1.2 0
-0.925 -0.029 1.017 -0 -1.2 0
-0.959 -0.028 1.067 -0 -1.2 0
-0.989 -0.034 1.109 -0 -1.2 0
-1.029 -0.031 1.166 -0 -1.2 0
-1.063 -0.035 1.216 -0 -1.2 0
-1.103 -0.036 1.274 -0 -1.2 0
-1.144 -0.039 1.332 -0 -1.2 0
-1.189 -0.039 1.398 -0 -1.2 0
-1.24 -0.037 1.471 -0 -1.2 0
-1.281 -0.046 1.53 -0 -1.2 0
-1.343 -0.042 1.619 -0 -1.2 0
-1.395 -0.048 1.694 -0 -1.2 0
-1.452 -0.054 1.777 -0 -1.2 0
-1.531 -0.047 1.891 -0 -1.2 0
-1.6 -0.053 1.991 -0 -1.2 0
-1.684 -0.052 2.113 -0 -1.2 0
-1.764 -0.059 2.229 -0 -1.2 0
-1.855 -0.065 2.36 -0 -1.2 0
-1.969 -0.064 2.524 -0 -1.2 0
-2.089 -0.067 2.697 -0 -1.2 0
-2.225 -0.069 2.893 -0 -1.2 0
-2.35 -0.084 3.075 -0 -1.2 0
-2.516 -0.091 3.313 -0 -1.2 0
-2.709 -0.097 3.592 -0 -1.2 0
-2.954 -0.097 3.945 -0 -1.2 0
-3.226 -0.102 4.339 -0 -1.2 0
-3.568 -0.105 4.831 -0 -1.2 0
-3.954 -0.118 5.39 -0 -1.2 0
-4.456 -0.128 6.112 -0 -1.2 0
-5.081 -0.146 7.016 -0 -1.2 0
-5.884 -0.173 8.175 -0 -1.2 0
-6.925 -0.219 9.68 -0 -1.2 0
-8.634 -0.263 12.145 -0 -1.2 0
-10.277 -0.416 14.522 -0 -1.2 0
-10.494 -0.721 14.845 -0 -1.2 0
-10.657 -1.04 15.09 -0 -1.2 0
-12.381 -1.408 17.591 -0 -1.2 0
-14.174 -1.886 20.194 -0 -1.2 0
-14.509 -2.349 20.693 -0 -1.2 0
-14.51 -2.795 20.709 -0 -1.2 0
-14.5 -3.241 20.712 -0 -1.2 0
-14.481 -3.687 20.699 -0 -1.2 0
-14.492 -4.14 20.729 -0 -1.2 0
-7.058 -2.796 9.96 -0 -1.2 0
-6.813 -2.951 9.611 -0 -1.2 0
-7.142 -3.266 10.097 -0 -1.2 0
-14.078 -5.83 20.192 -0 -1.2 0
-14.205 -6.33 20.391 -0 -1.2 0
-14.431 -6.881 20.737 -0 -1.2 0
-14.436 -7.354 20.759 -0 -1.2 0
-14.435 -7.83 20.775 -0 -1.2 0
-6.138 -4.154 8.678 -0 -1.2 0
-7.887 -5.296 11.242 -0 -1.2 0
-8.072 -5.67 11.521 -0 -1.2 0
-13.528 -9.241 19.514 -0 -1.2 0
-0.666 -0.013 0.724 -0 -1.2 0
-0.684 -0.02 0.751 -0 -1.2 0
-0.702 -0.026 0.78 -0 -1.2 0
-0.729 -0.021 0.821 -0 -1.2 0
-0.746 -0.029 0.848 -0 -1.2 0
-0.773 -0.027 0.89 -0 -1.2 0
-0.801 -0.025 0.932 -0 -1.2 0
-0.828 -0.025 0.974 -0 -1.2 0
-0.856 -0.026 1.017 -0 -1.2 0
-0.883 -0.029 1.06 -0 -1.2 0
-0.916 -0.028 1.11 -0 -1.2 0
-0.949 -0.027 1.161 -0 -1.2 0
-0.982 -0.03 1.212 -0 -1.2 0
-1.016 -0.034 1.264 -0 -1.2 0
-1.059 -0.029 1.329 -0 -1.2 0
-1.097 -0.033 1.389 -0 -1.2 0
-1.135 -0.038 1.449 -0 -1.2 0
-1.184 -0.036 1.523 -0 -1.2 0
-1.229 -0.042 1.592 -0 -1.2 0
-1.288 -0.037 1.683 -0 -1.2 0
-1.337 -0.043 1.76 -0 -1.2 0
-1.392 -0.05 1.845 -0 -1.2 0
-1.457 -0.05 1.945 -0 -1.2 0
-1.538 -0.046 2.07 -0 -1.2 0
-1.614 -0.048 2.187 -0 -1.2 0
-1.696 -0.052 2.313 -0 -1.2 0
-1.788 -0.055 2.455 -0 -1.2 0
-1.886 -0.061 2.606 -0 -1.2 0
-1.995 -0.066 2.774 -0 -1.2 0
-2.13 -0.066 2.984 -0 -1.2 0
-2.256 -0.078 3.177 -0 -1.2 0
-2.419 -0.083 3.429 -0 -1.2 0
-2.609 -0.087 3.721 -0 -1.2 0
-2.837 -0.089 4.073 -0 -1.2 0
-3.114 -0.09 4.501 -0 -1.2 0
-3.44 -0.094 5.003 -0 -1.2 0
-3.815 -0.106 5.582 -0 -1.2 0
-4.293 -0.117 6.32 -0 -1.2 0
-4.875 -0.139 7.217 -0 -1.2 0
-5.713 -0.155 8.509 -0 -1.2 0
-6.763 -0.196 10.128 -0 -1.2 0
-8.612 -0.222 12.979 -0 -1.2 0
-10.346 -0.375 15.658 -0 -1.2 0
-10.607 -0.695 16.072 -0 -1.2 0
-10.914 -1.032 16.557 -0 -1.2 0
-14.4 -1.47 21.946 -0 -1.2 0
-14.349 -1.927 21.883 -0 -1.2 0
-14.928 -2.441 22.795 -0 -1.2 0
-14.71 -3.369 22.493 -0 -1.2 0
-14.7 -3.845 22.495 -0 -1.2 0
-14.47 -4.273 22.156 -0 -1.2 0
-14.36 -4.72 22.003 -0 -1.2 0
-14.338 -5.186 21.984 -0 -1.2 0
-14.326 -5.658 21.983 -0 -1.2 0
-14.316 -6.133 21.985 -0 -1.2 0
-14.369 -6.636 22.086 -0 -1.2 0
-14.333 -7.108 22.047 -0 -1.2 0
-14.319 -7.593 22.043 -0 -1.2 0
-14.283 -8.071 22.005 -0 -1.2 0
-14.197 -8.524 21.889 -0 -1.2 0
-14.127 -8.987 21.798 -0 -1.2 0
-13.71 -9.242 21.162 -0 -1.2 0
-0.633 -0.013 0.759 -0 -1.2 0
-0.654 -0.012 0.795 -0 -1.2 0
-0.668 -0.026 0.817 -0 -1.2 0
-0.697 -0.013 0.865 -0 -1.2 0
-0.719 -0.016 0.901 -0 -1.2 0
-0.741 -0.02 0.937 -0 -1.2 0
-0.762 -0.024 0.972 -0 -1.2 0
-0.789 -0.025 1.016 -0 -1.2 0
-0.815 -0.026 1.059 -0 -1.2 0
-0.846 -0.022 1.11 -0 -1.2 0
-0.873 -0.027 1.154 -0 -1.2 0
-0.904 -0.027 1.206 -0 -1.2 0
-0.935 -0.03 1.258 -0 -1.2 0
-0.972 -0.029 1.317 -0 -1.2 0
-1.003 -0.035 1.37 -0 -1.2 0
-1.045 -0.033 1.439 -0 -1.2 0
-1.086 -0.033 1.507 -0 -1.2 0
-1.132 -0.031 1.583 -0 -1.2 0
-1.174 -0.036 1.653 -0 -1.2 0
-1.226 -0.037 1.739 -0 -1.2 0
-1.278 -0.039 1.824 -0 -1.2 0
-1.339 -0.037 1.926 -0 -1.2 0
-1.397 -0.042 2.021 -0 -1.2 0
-1.47 -0.041 2.139 -0 -1.2 0
-1.542 -0.044 2.26 -0 -1.2 0
-1.62 -0.048 2.388 -0 -1.2 0
-1.712 -0.047 2.541 -0 -1.2 0
-1.806 -0.054 2.695 -0 -1.2 0
-1.91 -0.06 2.867 -0 -1.2 0
-2.033 -0.062 3.072 -0 -1.2 0
-2.163 -0.07 3.286 -0 -1.2 0
-2.323 -0.073 3.551 -0 -1.2 0
-2.494 -0.081 3.833 -0 -1.2 0
-2.712 -0.084 4.192 -0 -1.2 0
-2.986 -0.081 4.643 -0 -1.2 0
-3.307 -0.083 5.173 -0 -1.2 0
-3.674 -0.093 5.78 -0 -1.2 0
-4.136 -0.104 6.541 -0 -1.2 0
-4.731 -0.119 7.524 -0 -1.2 0
-5.575 -0.129 8.917 -0 -1.2 0
-6.554 -0.177 10.535 -0 -1.2 0
-8.346 -0.203 13.493 -0 -1.2 0
-10.485 -0.324 17.026 -0 -1.2 0
-10.583 -0.672 17.201 -0 -1.2 0
-12.305 -1.014 20.056 -0 -1.2 0
-14.675 -1.49 23.984 -0 -1.2 0
-14.599 -1.979 23.877 -0 -1.2 0
-14.674 -2.478 24.019 -0 -1.2 0
-14.655 -2.972 24.008 -0 -1.2 0
-14.633 -3.466 23.99 -0 -1.2 0
-14.617 -3.961 23.982 -0 -1.2 0
-14.596 -4.457 23.966 -0 -1.2 0
-14.575 -4.954 23.951 -0 -1.2 0
-14.55 -5.451 23.929 -0 -1.2 0
-9.218 -4.174 15.083 -0 -1.2 0
-8.02 -4.054 13.101 -0 -1.2 0
-14.494 -6.961 23.893 -0 -1.2 0
-14.475 -7.47 23.882 -0 -1.2 0
-8.98 -6.024 14.76 -0 -1.2 0
-13.925 -9.265 23.043 -0 -1.2 0
-0.599 -0.012 0.798 -0 -1.2 0
-0.619 -0.012 0.833 -0 -1.2 0
-0.635 -0.018 0.862 -0 -1.2 0
-0.659 -0.013 0.905 -0 -1.2 0
-0.679 -0.016 0.941 -0 -1.2 0
-0.699 -0.019 0.978 -0 -1.2 0
-0.724 -0.018 1.022 -0 -1.2 0
-0.745 -0.024 1.058 -0 -1.2 0
-0.77 -0.025 1.103 -0 -1.2 0
-0.799 -0.022 1.155 -0 -1.2 0
-0.824 -0.027 1.2 -0 -1.2 0
-0.858 -0.022 1.26 -0 -1.2 0
-0.884 -0.029 1.306 -0 -1.2 0
-0.918 -0.028 1.367 -0 -1.2 0
-0.956 -0.023 1.435 -0 -1.2 0
-0.987 -0.032 1.49 -0 -1.2 0
-1.026 -0.032 1.559 -0 -1.2 0
-1.07 -0.03 1.637 -0 -1.2 0
-1.114 -0.032 1.716 -0 -1.2 0
-1.163 -0.031 1.803 -0 -1.2 0
-1.211 -0.034 1.891 -0 -1.2 0
-1.27 -0.032 1.994 -0 -1.2 0
-1.325 -0.039 2.091 -0 -1.2 0
-1.393 -0.036 2.213 -0 -1.2 0
-1.457 -0.043 2.327 -0 -1.2 0
-1.535 -0.044 2.465 -0 -1.2 0
-1.628 -0.041 2.63 -0 -1.2 0
-1.716 -0.046 2.788 -0 -1.2 0
-1.819 -0.05 2.971 -0 -1.2 0
-1.94 -0.051 3.189 -0 -1.2 0
-2.053 -0.064 3.39 -0 -1.2 0
-2.205 -0.067 3.66 -0 -1.2 0
-2.376 -0.072 3.965 -0 -1.2 0
-2.582 -0.075 4.33 -0 -1.2 0
-2.841 -0.074 4.791 -0 -1.2 0
-3.154 -0.072 5.348 -0 -1.2 0
-3.511 -0.08 5.984 -0 -1.2 0
-3.951 -0.092 6.769 -0 -1.2 0
-4.568 -0.096 7.867 -0 -1.2 0
-5.366 -0.109 9.287 -0 -1.2 0
-6.472 -0.133 11.258 -0 -1.2 0
-8.352 -0.147 14.605 -0 -1.2 0
-11.918 -0.161 20.95 -0 -1.2 0
-11.818 -0.588 20.791 -0 -1.2 0
-12.304 -1.004 21.672 -0 -1.2 0
-13.485 -1.474 23.793 -0 -1.2 0
-8.344 -3.429 14.722 -0 -1.2 0
-8.424 -3.759 14.878 -0 -1.2 0
-8.438 -4.075 14.915 -0 -1.2 0
-7.746 -4.117 13.686 -0 -1.2 0
-7.919 -4.481 14.008 -0 -1.2 0
-8.05 -4.841 14.256 -0 -1.2 0
-6.946 -4.59 12.281 -0 -1.2 0
-7.45 -5.132 13.2 -0 -1.2 0
-7.891 -5.678 14.006 -0 -1.2 0
-8.43 -6.324 14.992 -0 -1.2 0
-8.527 -6.723 15.18 -0 -1.2 0
-8.005 -7.027 14.264 -0 -1.2 0
-7.363 -8.452 13.18 -0 -1.2 0
-0.568 -0.005 0.837 -0 -1.2 0
-0.587 -0.005 0.874 -0 -1.2 0
-0.603 -0.012 0.904 -0 -1.2 0
-0.622 -0.013 0.941 -0 -1.2 0
-0.641 -0.015 0.977 -0 -1.2 0
-0.661 -0.019 1.015 -0 -1.2 0
-0.684 -0.017 1.059 -0 -1.2 0
-0.708 -0.017 1.104 -0 -1.2 0
-0.73 -0.019 1.149 -0 -1.2 0
-0.75 -0.027 1.187 -0 -1.2 0
-0.783 -0.02 1.247 -0 -1.2 0
-0.806 -0.026 1.294 -0 -1.2 0
-0.839 -0.023 1.355 -0 -1.2 0
-0.871 -0.022 1.417 -0 -1.2 0
-0.903 -0.023 1.479 -0 -1.2 0
-0.932 -0.032 1.534 -0 -1.2 0
-0.969 -0.032 1.605 -0 -1.2 0
-1.011 -0.03 1.685 -0 -1.2 0
-1.052 -0.031 1.765 -0 -1.2 0
-1.098 -0.03 1.853 -0 -1.2 0
-1.144 -0.034 1.942 -0 -1.2 0
-1.2 -0.031 2.048 -0 -1.2 0
-1.256 -0.034 2.154 -0 -1.2 0
-1.316 -0.036 2.27 -0 -1.2 0
-1.38 -0.039 2.394 -0 -1.2 0
-1.459 -0.037 2.544 -0 -1.2 0
-1.537 -0.04 2.694 -0 -1.2 0
-1.62 -0.046 2.855 -0 -1.2 0
-1.718 -0.049 3.041 -0 -1.2 0
-1.838 -0.047 3.271 -0 -1.2 0
-1.949 -0.058 3.484 -0 -1.2 0
-2.092 -0.061 3.758 -0 -1.2 0
-2.259 -0.064 4.077 -0 -1.2 0
-2.452 -0.069 4.449 -0 -1.2 0
-2.688 -0.071 4.901 -0 -1.2 0
-2.997 -0.065 5.494 -0 -1.2 0
-3.331 -0.074 6.131 -0 -1.2 0
-3.779 -0.077 6.991 -0 -1.2 0
-4.362 -0.082 8.107 -0 -1.2 0
-5.079 -0.105 9.482 -0 -1.2 0
-5.786 -0.183 10.839 -0 -1.2 0
-5.724 -0.407 10.73 -0 -1.2 0
-5.739 -0.62 10.768 -0 -1.2 0
-11.841 -0.553 22.454 -0 -1.2 0
-11.84 -0.998 22.472 -0 -1.2 0
-8.903 -3.385 16.949 -0 -1.2 0
-8.403 -3.581 16 -0 -1.2 0
-8.026 -3.781 15.286 -0 -1.2 0
-8.224 -4.168 15.682 -0 -1.2 0
-7.476 -4.478 14.262 -0 -1.2 0
-6.704 -4.397 12.78 -0 -1.2 0
-6.917 -4.78 13.204 -0 -1.2 0
-6.633 -4.9 12.666 -0 -1.2 0
-7.258 -5.559 13.891 -0 -1.2 0
-8.013 -6.358 15.372 -0 -1.2 0
-7.739 -7.169 14.881 -0 -1.2 0
-7.721 -7.496 14.863 -0 -1.2 0
-7.855 -8.312 15.153 -0 -1.2 0
-7.079 -8.254 13.665 -0 -1.2 0
-0.531 -0.012 0.865 -0 -1.2 0
-0.549 -0.011 0.901 -0 -1.2 0
-0.567 -0.012 0.938 -0 -1.2 0
-0.585 -0.012 0.975 -0 -1.2 0
-0.603 -0.015 1.013 -0 -1.2 0
-0.621 -0.018 1.051 -0 -1.2 0
-0.643 -0.017 1.096 -0 -1.2 0
-0.665 -0.017 1.141 -0 -1.2 0
-0.687 -0.018 1.187 -0 -1.2 0
-0.705 -0.027 1.227 -0 -1.2 0
-0.732 -0.026 1.28 -0 -1.2 0
-0.758 -0.025 1.335 -0 -1.2 0
-0.784 -0.028 1.39 -0 -1.2 0
-0.815 -0.027 1.452 -0 -1.2 0
-0.842 -0.033 1.507 -0 -1.2 0
-0.876 -0.031 1.579 -0 -1.2 0
-0.915 -0.026 1.659 -0 -1.2 0
-0.95 -0.029 1.732 -0 -1.2 0
-0.985 -0.034 1.805 -0 -1.2 0
-1.037 -0.026 1.911 -0 -1.2 0
-1.081 -0.028 2.001 -0 -1.2 0
-1.124 -0.035 2.093 -0 -1.2 0
-1.176 -0.037 2.2 -0 -1.2 0
-1.237 -0.035 2.326 -0 -1.2 0
-1.298 -0.038 2.452 -0 -1.2 0
-1.367 -0.039 2.596 -0 -1.2 0
-1.441 -0.042 2.749 -0 -1.2 0
-1.524 -0.045 2.92 -0 -1.2 0
-1.611 -0.052 3.1 -0 -1.2 0
-1.728 -0.046 3.342 -0 -1.2 0
-1.829 -0.06 3.55 -0 -1.2 0
-1.964 -0.063 3.829 -0 -1.2 0
-2.119 -0.066 4.153 -0 -1.2 0
-2.306 -0.068 4.539 -0 -1.2 0
-2.528 -0.069 4.997 -0 -1.2 0
-2.798 -0.071 5.556 -0 -1.2 0
-3.124 -0.076 6.23 -0 -1.2 0
-3.554 -0.076 7.12 -0 -1.2 0
-4.089 -0.084 8.228 -0 -1.2 0
-4.72 -0.115 9.533 -0 -1.2 0
-5.233 -0.216 10.598 -0 -1.2 0
-5.23 -0.425 10.604 -0 -1.2 0
-5.274 -0.629 10.704 -0 -1.2 0
-8.349 -3.72 17.205 -0 -1.2 0
-7.351 -3.709 15.142 -0 -1.2 0
-8.536 -4.844 17.643 -0 -1.2 0
-7.03 -4.478 14.511 -0 -1.2 0
-6.139 -4.31 12.663 -0 -1.2 0
-6.419 -4.733 13.262 -0 -1.2 0
-6.499 -5.346 13.457 -0 -1.2 0
-5.989 -5.276 12.395 -0 -1.2 0
-7.387 -6.926 15.366 -0 -1.2 0
-7.002 -6.944 14.569 -0 -1.2 0
-7.066 -7.663 14.733 -0 -1.2 0
-6.808 -7.752 14.205 -0 -1.2 0
-6.756 -8.032 14.109 -0 -1.2 0
-7.178 -9.19 15.036 -0 -1.2 0
-6.524 -8.788 13.665 -0 -1.2 0
-0.494 -0.011 0.899 -0 -1.2 0
-0.51 -0.011 0.936 -0 -1.2 0
-0.53 -0.004 0.981 -0 -1.2 0
-0.543 -0.012 1.012 -0 -1.2 0
-0.56 -0.014 1.05 -0 -1.2 0
-0.577 -0.018 1.088 -0 -1.2 0
-0.597 -0.017 1.135 -0 -1.2 0
-0.621 -0.01 1.188 -0 -1.2 0
-0.638 -0.018 1.228 -0 -1.2 0
-0.663 -0.015 1.281 -0 -1.2 0
-0.683 -0.019 1.329 -0 -1.2 0
-0.704 -0.025 1.376 -0 -1.2 0
-0.729 -0.028 1.432 -0 -1.2 0
-0.757 -0.027 1.495 -0 -1.2 0
-0.786 -0.027 1.56 -0 -1.2 0
-0.818 -0.026 1.633 -0 -1.2 0
-0.847 -0.031 1.698 -0 -1.2 0
-0.88 -0.034 1.771 -0 -1.2 0
-0.92 -0.03 1.862 -0 -1.2 0
-0.96 -0.029 1.953 -0 -1.2 0
-1.008 -0.024 2.062 -0 -1.2 0
-1.045 -0.034 2.146 -0 -1.2 0
-1.097 -0.033 2.265 -0 -1.2 0
-1.151 -0.034 2.383 -0 -1.2 0
-1.207 -0.037 2.511 -0 -1.2 0
-1.276 -0.035 2.666 -0 -1.2 0
-1.34 -0.042 2.813 -0 -1.2 0
-1.413 -0.047 2.977 -0 -1.2 0
-1.507 -0.045 3.188 -0 -1.2 0
-1.607 -0.045 3.415 -0 -1.2 0
-1.705 -0.056 3.635 -0 -1.2 0
-1.83 -0.059 3.918 -0 -1.2 0
-1.975 -0.062 4.247 -0 -1.2 0
-2.158 -0.06 4.657 -0 -1.2 0
-2.364 -0.063 5.123 -0 -1.2 0
-2.603 -0.069 5.662 -0 -1.2 0
-2.915 -0.071 6.366 -0 -1.2 0
-3.32 -0.071 7.278 -0 -1.2 0
-3.825 -0.077 8.421 -0 -1.2 0
-4.416 -0.107 9.757 -0 -1.2 0
-4.93 -0.203 10.92 -0 -1.2 0
-4.915 -0.416 10.898 -0 -1.2 0
-4.968 -0.621 11.028 -0 -1.2 0
-8.241 -3.513 18.555 -0 -1.2 0
-5.646 -3 12.675 -0 -1.2 0
-7.111 -3.811 16.02 -0 -1.2 0
-8.122 -4.927 18.358 -0 -1.2 0
-6.451 -4.727 14.575 -0 -1.2 0
-6.22 -4.885 14.064 -0 -1.2 0
-6.048 -5.062 13.685 -0 -1.2 0
-5.948 -5.278 13.471 -0 -1.2 0
-5.469 -5.203 12.387 -0 -1.2 0
-5.747 -5.69 13.037 -0 -1.2 0
-6.593 -6.691 14.996 -0 -1.2 0
-6.54 -6.971 14.889 -0 -1.2 0
-6.499 -7.263 14.813 -0 -1.2 0
-6.441 -7.873 14.713 -0 -1.2 0
-6.54 -8.323 14.958 -0 -1.2 0
-6.317 -8.416 14.459 -0 -1.2 0
-6.091 -8.487 13.954 -0 -1.2 0
-6.591 -9.465 15.132 -0 -1.2 0
-0.461 -0.004 0.937 -0 -1.2 0
-0.474 -0.01 0.969 -0 -1.2 0
-0.492 -0.004 1.013 -0 -1.2 0
-0.505 -0.011 1.045 -0 -1.2 0
-0.523 -0.008 1.091 -0 -1.2 0
-0.539 -0.012 1.129 -0 -1.2 0
-0.555 -0.016 1.168 -0 -1.2 0
-0.574 -0.016 1.216 -0 -1.2 0
-0.593 -0.017 1.263 -0 -1.2 0
-0.609 -0.026 1.303 -0 -1.2 0
-0.635 -0.019 1.366 -0 -1.2 0
-0.655 -0.025 1.415 -0 -1.2 0
-0.677 -0.027 1.47 -0 -1.2 0
-0.704 -0.026 1.535 -0 -1.2 0
-0.73 -0.026 1.6 -0 -1.2 0
-0.757 -0.03 1.666 -0 -1.2 0
-0.784 -0.035 1.732 -0 -1.2 0
-0.824 -0.023 1.831 -0 -1.2 0
-0.855 -0.029 1.906 -0 -1.2 0
-0.896 -0.025 2.007 -0 -1.2 0
-0.933 -0.027 2.1 -0 -1.2 0
-0.972 -0.033 2.194 -0 -1.2 0
-1.016 -0.036 2.305 -0 -1.2 0
-1.069 -0.034 2.434 -0 -1.2 0
-1.118 -0.04 2.555 -0 -1.2 0
-1.189 -0.031 2.73 -0 -1.2 0
-1.246 -0.041 2.87 -0 -1.2 0
-1.317 -0.043 3.045 -0 -1.2 0
-1.4 -0.044 3.248 -0 -1.2 0
-1.494 -0.044 3.479 -0 -1.2 0
-1.592 -0.051 3.72 -0 -1.2 0
-1.705 -0.057 3.999 -0 -1.2 0
-1.848 -0.056 4.35 -0 -1.2 0
-2.01 -0.057 4.748 -0 -1.2 0
-2.205 -0.058 5.228 -0 -1.2 0
-2.431 -0.064 5.784 -0 -1.2 0
-2.713 -0.068 6.478 -0 -1.2 0
-3.093 -0.066 7.413 -0 -1.2 0
-3.553 -0.076 8.543 -0 -1.2 0
-4.147 -0.096 10.006 -0 -1.2 0
-5.067 -0.105 12.266 -0 -1.2 0
-6.354 -0.145 15.434 -0 -1.2 0
-9.111 -0.15 22.213 -0 -1.2 0
-9.096 -0.571 22.201 -0 -1.2 0
-9.091 -0.991 22.209 -0 -1.2 0
-9.074 -1.411 22.192 -0 -1.2 0
-9.037 -1.827 22.122 -0 -1.2 0
-4.911 -2.876 12.034 -0 -1.2 0
-6.506 -3.767 16.002 -0 -1.2 0
-6.436 -4.361 15.865 -0 -1.2 0
-6.358 -4.633 15.685 -0 -1.2 0
-5.851 -4.932 14.457 -0 -1.2 0
-5.547 -5.011 13.712 -0 -1.2 0
-5.251 -5.07 12.987 -0 -1.2 0
-5.287 -5.369 13.092 -0 -1.2 0
-5.179 -5.553 12.838 -0 -1.2 0
-6.414 -7.302 15.968 -0 -1.2 0
-6.359 -7.597 15.85 -0 -1.2 0
-5.634 -7.165 14.045 -0 -1.2 0
-5.735 -7.596 14.315 -0 -1.2 0
-5.316 -7.423 13.274 -0 -1.2 0
-5.278 -7.685 13.197 -0 -1.2 0
-5.778 -8.654 14.48 -0 -1.2 0
-5.782 -9.007 14.508 -0 -1.2 0
-0.424 -0.003 0.967 -0 -1.2 0
-0.437 -0.01 0.999 -0 -1.2 0
-0.451 -0.01 1.037 -0 -1.2 0
-0.465 -0.011 1.076 -0 -1.2 0
-0.476 -0.02 1.108 -0 -1.2 0
-0.493 -0.017 1.154 -0 -1.2 0
-0.508 -0.022 1.194 -0 -1.2 0
-0.525 -0.022 1.242 -0 -1.2 0
-0.547 -0.017 1.296 -0 -1.2 0
-0.565 -0.02 1.345 -0 -1.2 0
-0.582 -0.024 1.393 -0 -1.2 0
-0.603 -0.024 1.449 -0 -1.2 0
-0.627 -0.021 1.515 -0 -1.2 0
-0.648 -0.026 1.572 -0 -1.2 0
-0.67 -0.032 1.63 -0 -1.2 0
-0.697 -0.03 1.704 -0 -1.2 0
-0.725 -0.03 1.78 -0 -1.2 0
-0.756 -0.028 1.863 -0 -1.2 0
-0.788 -0.029 1.948 -0 -1.2 0
-0.826 -0.024 2.05 -0 -1.2 0
-0.857 -0.031 2.136 -0 -1.2 0
-0.895 -0.033 2.239 -0 -1.2 0
-0.931 -0.042 2.334 -0 -1.2 0
-0.982 -0.037 2.474 -0 -1.2 0
-1.03 -0.04 2.605 -0 -1.2 0
-1.086 -0.041 2.755 -0 -1.2 0
-1.145 -0.043 2.914 -0 -1.2 0
-1.211 -0.045 3.093 -0 -1.2 0
-1.287 -0.046 3.298 -0 -1.2 0
-1.373 -0.046 3.532 -0 -1.2 0
-1.467 -0.05 3.785 -0 -1.2 0
-1.568 -0.058 4.057 -0 -1.2 0
-1.689 -0.063 4.385 -0 -1.2 0
-1.842 -0.062 4.796 -0 -1.2 0
-2.022 -0.062 5.284 -0 -1.2 0
-2.231 -0.067 5.846 -0 -1.2 0
-2.494 -0.07 6.558 -0 -1.2 0
-2.831 -0.072 7.466 -0 -1.2 0
-3.227 -0.09 8.535 -0 -1.2 0
-3.778 -0.105 10.027 -0 -1.2 0
-4.611 -0.116 12.276 -0 -1.2 0
-5.833 -0.146 15.577 -0 -1.2 0
-8.256 -0.162 22.121 -0 -1.2 0
-8.239 -0.576 22.098 -0 -1.2 0
-8.201 -0.989 22.023 -0 -1.2 0
-8.217 -1.401 22.089 -0 -1.2 0
-5.995 -2.226 16.136 -0 -1.2 0
-5.986 -3.141 16.167 -0 -1.2 0
-4.505 -2.867 12.152 -0 -1.2 0
-4.462 -3.082 12.05 -0 -1.2 0
-4.628 -3.399 12.517 -0 -1.2 0
-4.562 -3.607 12.349 -0 -1.2 0
-4.564 -3.851 12.372 -0 -1.2 0
-4.77 -4.232 12.95 -0 -1.2 0
-5.315 -4.879 14.459 -0 -1.2 0
-5.157 -5.05 14.042 -0 -1.2 0
-5.671 -6.4 15.509 -0 -1.2 0
-4.857 -5.918 13.285 -0 -1.2 0
-5.717 -7.792 15.717 -0 -1.2 0
-6.265 -8.817 17.256 -0 -1.2 0
-5.876 -8.703 16.2 -0 -1.2 0
-5.679 -8.808 15.673 -0 -1.2 0
-5.662 -9.15 15.648 -0 -1.2 0
-0.385 -0.003 0.998 -0 -1.2 0
-0.396 -0.009 1.03 -0 -1.2 0
-0.409 -0.01 1.07 -0 -1.2 0
-0.421 -0.01 1.109 -0 -1.2 0
-0.435 -0.013 1.148 -0 -1.2 0
-0.451 -0.01 1.195 -0 -1.2 0
-0.464 -0.015 1.236 -0 -1.2 0
-0.479 -0.014 1.284 -0 -1.2 0
-0.493 -0.022 1.324 -0 -1.2 0
-0.511 -0.018 1.38 -0 -1.2 0
-0.529 -0.023 1.43 -0 -1.2 0
-0.548 -0.023 1.487 -0 -1.2 0
-0.566 -0.026 1.544 -0 -1.2 0
-0.585 -0.029 1.603 -0 -1.2 0
-0.607 -0.03 1.669 -0 -1.2 0
-0.633 -0.028 1.745 -0 -1.2 0
-0.653 -0.038 1.804 -0 -1.2 0
-0.683 -0.031 1.898 -0 -1.2 0
-0.715 -0.027 1.991 -0 -1.2 0
-0.743 -0.031 2.078 -0 -1.2 0
-0.774 -0.034 2.173 -0 -1.2 0
-0.812 -0.031 2.286 -0 -1.2 0
-0.845 -0.04 2.382 -0 -1.2 0
-0.885 -0.042 2.505 -0 -1.2 0
-0.932 -0.041 2.647 -0 -1.2 0
-0.982 -0.041 2.799 -0 -1.2 0
-1.03 -0.05 2.942 -0 -1.2 0
-1.093 -0.05 3.131 -0 -1.2 0
-1.162 -0.049 3.339 -0 -1.2 0
-1.241 -0.048 3.576 -0 -1.2 0
-1.319 -0.056 3.813 -0 -1.2 0
-1.42 -0.057 4.117 -0 -1.2 0
-1.527 -0.063 4.439 -0 -1.2 0
-1.659 -0.066 4.837 -0 -1.2 0
-1.817 -0.068 5.311 -0 -1.2 0
-2.002 -0.074 5.87 -0 -1.2 0
-2.232 -0.079 6.562 -0 -1.2 0
-2.531 -0.082 7.463 -0 -1.2 0
-2.885 -0.098 8.526 -0 -1.2 0
-3.363 -0.116 9.968 -0 -1.2 0
-4.06 -0.136 12.065 -0 -1.2 0
-5.135 -0.163 15.3 -0 -1.2 0
-7.392 -0.157 22.093 -0 -1.2 0
-7.378 -0.566 22.079 -0 -1.2 0
-7.366 -0.974 22.068 -0 -1.2 0
-7.339 -1.379 22.013 -0 -1.2 0
-4.034 -2.837 12.168 -0 -1.2 0
-4.072 -3.086 12.298 -0 -1.2 0
-4.148 -3.363 12.546 -0 -1.2 0
-4.072 -3.56 12.33 -0 -1.2 0
-4.737 -4.24 14.373 -0 -1.2 0
-4.334 -4.23 13.162 -0 -1.2 0
-4.895 -4.929 14.892 -0 -1.2 0
-4.51 -5.178 13.753 -0 -1.2 0
-4.511 -5.46 13.776 -0 -1.2 0
-4.481 -5.714 13.703 -0 -1.2 0
-4.299 -5.799 13.159 -0 -1.2 0
-4.171 -5.929 12.785 -0 -1.2 0
-4.316 -6.38 13.246 -0 -1.2 0
-5.029 -7.591 15.476 -0 -1.2 0
-5.414 -8.457 16.693 -0 -1.2 0
-5.104 -8.385 15.752 -0 -1.2 0
-4.714 -8.497 14.586 -0 -1.2 0
-0.346 -0.008 1.019 -0 -1.2 0
-0.358 -0.008 1.058 -0 -1.2 0
-0.369 -0.008 1.097 -0 -1.2 0
-0.381 -0.009 1.137 -0 -1.2 0
-0.391 -0.018 1.169 -0 -1.2 0
-0.407 -0.009 1.225 -0 -1.2 0
-0.417 -0.019 1.258 -0 -1.2 0
-0.431 -0.02 1.306 -0 -1.2 0
-0.448 -0.014 1.362 -0 -1.2 0
-0.46 -0.023 1.405 -0 -1.2 0
-0.48 -0.016 1.469 -0 -1.2 0
-0.493 -0.027 1.511 -0 -1.2 0
-0.51 -0.029 1.569 -0 -1.2 0
-0.527 -0.032 1.629 -0 -1.2 0
-0.547 -0.033 1.695 -0 -1.2 0
-0.567 -0.036 1.763 -0 -1.2 0
-0.589 -0.036 1.84 -0 -1.2 0
-0.618 -0.029 1.934 -0 -1.2 0
-0.641 -0.034 2.011 -0 -1.2 0
-0.672 -0.029 2.116 -0 -1.2 0
-0.701 -0.031 2.211 -0 -1.2 0
-0.732 -0.032 2.317 -0 -1.2 0
-0.763 -0.038 2.423 -0 -1.2 0
-0.798 -0.043 2.539 -0 -1.2 0
-0.84 -0.042 2.682 -0 -1.2 0
-0.883 -0.045 2.826 -0 -1.2 0
-0.929 -0.05 2.98 -0 -1.2 0
-0.986 -0.049 3.171 -0 -1.2 0
-1.049 -0.049 3.381 -0 -1.2 0
-1.123 -0.045 3.629 -0 -1.2 0
-1.188 -0.057 3.85 -0 -1.2 0
-1.279 -0.057 4.156 -0 -1.2 0
-1.379 -0.061 4.491 -0 -1.2 0
-1.493 -0.067 4.874 -0 -1.2 0
-1.63 -0.072 5.334 -0 -1.2 0
-1.803 -0.073 5.918 -0 -1.2 0
-2.006 -0.08 6.598 -0 -1.2 0
-2.259 -0.088 7.45 -0 -1.2 0
-2.582 -0.1 8.533 -0 -1.2 0
-3.024 -0.113 10.018 -0 -1.2 0
-3.648 -0.131 12.116 -0 -1.2 0
-4.638 -0.149 15.441 -0 -1.2 0
-5.041 -3.806 17.067 -0 -1.2 0
-3.789 -3.376 12.831 -0 -1.2 0
-3.739 -3.587 12.679 -0 -1.2 0
-3.655 -3.77 12.411 -0 -1.2 0
-3.7 -4.046 12.582 -0 -1.2 0
-4.28 -4.794 14.584 -0 -1.2 0
-4.946 -5.703 16.89 -0 -1.2 0
-4.442 -5.536 15.185 -0 -1.2 0
-4.028 -5.4 13.785 -0 -1.2 0
-3.762 -5.378 12.889 -0 -1.2 0
-3.709 -5.58 12.725 -0 -1.2 0
-3.751 -5.902 12.895 -0 -1.2 0
-4.682 -7.785 16.159 -0 -1.2 0
-4.429 -7.759 15.31 -0 -1.2 0
-4.374 -8.354 15.168 -0 -1.2 0
-4.183 -8.37 14.526 -0 -1.2 0
-0.308 0 1.055 -0 -1.2 0
-0.316 -0.007 1.088 -0 -1.2 0
-0.327 -0.007 1.127 -0 -1.2 0
-0.335 -0.014 1.16 -0 -1.2 0
-0.346 -0.017 1.2 -0 -1.2 0
-0.358 -0.013 1.248 -0 -1.2 0
-0.37 -0.018 1.289 -0 -1.2 0
-0.384 -0.011 1.346 -0 -1.2 0
-0.397 -0.013 1.395 -0 -1.2 0
-0.406 -0.027 1.429 -0 -1.2 0
-0.421 -0.026 1.487 -0 -1.2 0
-0.438 -0.019 1.553 -0 -1.2 0
-0.451 -0.027 1.603 -0 -1.2 0
-0.466 -0.031 1.663 -0 -1.2 0
-0.486 -0.026 1.739 -0 -1.2 0
-0.503 -0.034 1.799 -0 -1.2 0
-0.52 -0.038 1.867 -0 -1.2 0
-0.544 -0.031 1.963 -0 -1.2 0
-0.567 -0.032 2.05 -0 -1.2 0
-0.593 -0.031 2.146 -0 -1.2 0
-0.619 -0.033 2.243 -0 -1.2 0
-0.646 -0.034 2.349 -0 -1.2 0
-0.677 -0.035 2.465 -0 -1.2 0
-0.707 -0.04 2.582 -0 -1.2 0
-0.744 -0.039 2.726 -0 -1.2 0
-0.782 -0.042 2.872 -0 -1.2 0
-0.82 -0.051 3.017 -0 -1.2 0
-0.869 -0.052 3.201 -0 -1.2 0
-0.926 -0.048 3.423 -0 -1.2 0
-0.99 -0.046 3.664 -0 -1.2 0
-1.051 -0.056 3.896 -0 -1.2 0
-1.129 -0.057 4.196 -0 -1.2 0
-1.217 -0.06 4.534 -0 -1.2 0
-1.315 -0.067 4.911 -0 -1.2 0
-1.437 -0.072 5.375 -0 -1.2 0
-1.585 -0.074 5.945 -0 -1.2 0
-1.762 -0.081 6.622 -0 -1.2 0
-1.987 -0.088 7.482 -0 -1.2 0
-2.271 -0.099 8.566 -0 -1.2 0
-2.649 -0.113 10.016 -0 -1.2 0
-3.1 -0.158 11.739 -0 -1.2 0
-4.69 0.003 17.807 -0 -1.2 0
-3.345 -2.874 12.914 -0 -1.2 0
-3.465 -3.188 13.4 -0 -1.2 0
-3.362 -3.369 13.02 -0 -1.2 0
-3.214 -3.506 12.467 -0 -1.2 0
-3.189 -3.722 12.387 -0 -1.2 0
-3.371 -4.123 13.118 -0 -1.2 0
-3.48 -4.485 13.565 -0 -1.2 0
-3.385 -4.65 13.217 -0 -1.2 0
-3.69 -5.256 14.435 -0 -1.2 0
-3.654 -5.501 14.318 -0 -1.2 0
-4.144 -6.423 16.275 -0 -1.2 0
-3.481 -5.85 13.685 -0 -1.2 0
-3.474 -6.126 13.686 -0 -1.2 0
-4.071 -7.671 16.099 -0 -1.2 0
-3.855 -7.992 15.301 -0 -1.2 0
-4.133 -8.856 16.437 -0 -1.2 0
-3.648 -8.28 14.537 -0 -1.2 0
-3.84 -9.015 15.335 -0 -1.2 0
-0.267 -0.013 1.066 -0 -1.2 0
-0.277 -0.012 1.106 -0 -1.2 0
-0.287 -0.006 1.153 -0 -1.2 0
-0.297 -0.006 1.193 -0 -1.2 0
-0.306 -0.009 1.234 -0 -1.2 0
-0.314 -0.019 1.267 -0 -1.2 0
-0.324 -0.016 1.316 -0 -1.2 0
-0.336 -0.017 1.365 -0 -1.2 0
-0.347 -0.017 1.414 -0 -1.2 0
-0.359 -0.02 1.464 -0 -1.2 0
-0.37 -0.024 1.515 -0 -1.2 0
-0.381 -0.03 1.566 -0 -1.2 0
-0.399 -0.02 1.641 -0 -1.2 0
-0.411 -0.029 1.692 -0 -1.2 0
-0.424 -0.034 1.752 -0 -1.2 0
-0.441 -0.032 1.829 -0 -1.2 0
-0.459 -0.032 1.908 -0 -1.2 0
-0.478 -0.034 1.986 -0 -1.2 0
-0.498 -0.033 2.073 -0 -1.2 0
-0.522 -0.028 2.179 -0 -1.2 0
-0.542 -0.034 2.268 -0 -1.2 0
-0.566 -0.036 2.376 -0 -1.2 0
-0.591 -0.04 2.483 -0 -1.2 0
-0.622 -0.037 2.618 -0 -1.2 0
-0.653 -0.04 2.755 -0 -1.2 0
-0.686 -0.042 2.901 -0 -1.2 0
-0.724 -0.044 3.067 -0 -1.2 0
-0.764 -0.048 3.242 -0 -1.2 0
-0.811 -0.05 3.447 -0 -1.2 0
-0.865 -0.05 3.68 -0 -1.2 0
-0.921 -0.057 3.924 -0 -1.2 0
-0.984 -0.062 4.206 -0 -1.2 0
-1.068 -0.059 4.566 -0 -1.2 0
-1.149 -0.071 4.927 -0 -1.2 0
-1.259 -0.071 5.404 -0 -1.2 0
-1.386 -0.076 5.959 -0 -1.2 0
-1.537 -0.084 6.622 -0 -1.2 0
-1.742 -0.085 7.517 -0 -1.2 0
-1.81 -0.187 7.824 -0 -1.2 0
-1.785 -0.337 7.733 -0 -1.2 0
-1.756 -0.486 7.619 -0 -1.2 0
-1.729 -0.63 7.513 -0 -1.2 0
-1.698 -0.77 7.393 -0 -1.2 0
-1.673 -0.906 7.301 -0 -1.2 0
-1.649 -1.037 7.207 -0 -1.2 0
-1.626 -1.165 7.119 -0 -1.2 0
-1.614 -1.29 7.078 -0 -1.2 0
-1.63 -1.421 7.163 -0 -1.2 0
-1.856 -1.613 8.169 -0 -1.2 0
-2.909 -2.843 12.895 -0 -1.2 0
-3.145 -3.243 13.964 -0 -1.2 0
-3.263 -3.593 14.513 -0 -1.2 0
-3.077 -3.708 13.712 -0 -1.2 0
-3.555 -4.414 15.875 -0 -1.2 0
-3.532 -4.693 15.799 -0 -1.2 0
-3.009 -4.421 13.488 -0 -1.2 0
-3.837 -5.669 17.229 -0 -1.2 0
-3.178 -5.166 14.3 -0 -1.2 0
-3.329 -5.658 15.006 -0 -1.2 0
-2.958 -5.419 13.364 -0 -1.2 0
-3.075 -5.874 13.92 -0 -1.2 0
-3.28 -6.499 14.877 -0 -1.2 0
-3.325 -6.89 15.114 -0 -1.2 0
-3.61 -7.735 16.441 -0 -1.2 0
-3.301 -8.51 15.17 -0 -1.2 0
-0.235 0.001 1.105 -0 -1.2 0
-0.239 -0.011 1.131 -0 -1.2 0
-0.248 -0.011 1.171 -0 -1.2 0
-0.255 -0.012 1.211 -0 -1.2 0
-0.263 -0.014 1.252 -0 -1.2 0
-0.272 -0.018 1.293 -0 -1.2 0
-0.279 -0.022 1.334 -0 -1.2 0
-0.291 -0.015 1.391 -0 -1.2 0
-0.3 -0.016 1.441 -0 -1.2 0
-0.309 -0.024 1.484 -0 -1.2 0
-0.32 -0.023 1.542 -0 -1.2 0
-0.33 -0.028 1.593 -0 -1.2 0
-0.342 -0.03 1.652 -0 -1.2 0
-0.355 -0.027 1.721 -0 -1.2 0
-0.369 -0.028 1.79 -0 -1.2 0
-0.382 -0.03 1.859 -0 -1.2 0
-0.395 -0.034 1.929 -0 -1.2 0
-0.411 -0.036 2.008 -0 -1.2 0
-0.429 -0.036 2.096 -0 -1.2 0
-0.449 -0.03 2.202 -0 -1.2 0
-0.469 -0.032 2.301 -0 -1.2 0
-0.492 -0.029 2.418 -0 -1.2 0
-0.513 -0.034 2.526 -0 -1.2 0
-0.536 -0.039 2.644 -0 -1.2 0
-0.563 -0.04 2.781 -0 -1.2 0
-0.592 -0.043 2.929 -0 -1.2 0
-0.623 -0.047 3.086 -0 -1.2 0
-0.659 -0.048 3.272 -0 -1.2 0
-0.699 -0.049 3.478 -0 -1.2 0
-0.747 -0.046 3.722 -0 -1.2 0
-0.796 -0.052 3.968 -0 -1.2 0
-0.849 -0.06 4.242 -0 -1.2 0
-0.917 -0.061 4.586 -0 -1.2 0
-0.994 -0.066 4.977 -0 -1.2 0
-1.078 -0.075 5.409 -0 -1.2 0
-1.194 -0.074 5.997 -0 -1.2 0
-1.319 -0.085 6.634 -0 -1.2 0
-1.49 -0.087 7.507 -0 -1.2 0
-1.558 -0.181 7.864 -0 -1.2 0
-1.532 -0.334 7.753 -0 -1.2 0
-1.511 -0.48 7.658 -0 -1.2 0
-1.49 -0.623 7.57 -0 -1.2 0
-1.468 -0.762 7.47 -0 -1.2 0
-1.448 -0.897 7.387 -0 -1.2 0
-1.428 -1.029 7.301 -0 -1.2 0
-1.406 -1.158 7.204 -0 -1.2 0
-1.376 -1.281 7.065 -0 -1.2 0
-1.397 -1.412 7.189 -0 -1.2 0
-1.573 -1.597 8.104 -0 -1.2 0
-2.756 -3.002 14.293 -0 -1.2 0
-2.615 -3.406 13.62 -0 -1.2 0
-3.509 -4.535 18.302 -0 -1.2 0
-2.949 -4.278 15.422 -0 -1.2 0
-2.657 -4.228 13.927 -0 -1.2 0
-2.604 -4.429 13.682 -0 -1.2 0
-2.681 -4.8 14.118 -0 -1.2 0
-2.6 -4.957 13.722 -0 -1.2 0
-2.953 -6.104 15.656 -0 -1.2 0
-0.192 -0.011 1.115 -0 -1.2 0
-0.198 -0.01 1.155 -0 -1.2 0
-0.204 -0.009 1.195 -0 -1.2 0
-0.211 -0.011 1.236 -0 -1.2 0
-0.219 -0.006 1.284 -0 -1.2 0
-0.223 -0.022 1.311 -0 -1.2 0
-0.232 -0.014 1.368 -0 -1.2 0
-0.242 -0.007 1.425 -0 -1.2 0
-0.249 -0.014 1.467 -0 -1.2 0
-0.255 -0.023 1.51 -0 -1.2 0
-0.265 -0.021 1.569 -0 -1.2 0
-0.271 -0.031 1.612 -0 -1.2 0
-0.282 -0.033 1.672 -0 -1.2 0
-0.294 -0.025 1.748 -0 -1.2 0
-0.304 -0.031 1.809 -0 -1.2 0
-0.315 -0.033 1.88 -0 -1.2 0
-0.329 -0.028 1.967 -0 -1.2 0
-0.342 -0.029 2.046 -0 -1.2 0
-0.357 -0.029 2.135 -0 -1.2 0
-0.369 -0.036 2.215 -0 -1.2 0
-0.388 -0.029 2.332 -0 -1.2 0
-0.405 -0.035 2.431 -0 -1.2 0
-0.424 -0.035 2.549 -0 -1.2 0
-0.444 -0.036 2.677 -0 -1.2 0
-0.463 -0.044 2.798 -0 -1.2 0
-0.489 -0.043 2.955 -0 -1.2 0
-0.516 -0.044 3.122 -0 -1.2 0
-0.547 -0.044 3.309 -0 -1.2 0
-0.578 -0.049 3.506 -0 -1.2 0
-0.617 -0.048 3.743 -0 -1.2 0
-0.655 -0.056 3.98 -0 -1.2 0
-0.7 -0.063 4.256 -0 -1.2 0
-0.756 -0.061 4.611 -0 -1.2 0
-0.819 -0.066 4.996 -0 -1.2 0
-0.893 -0.071 5.449 -0 -1.2 0
-0.982 -0.075 6.001 -0 -1.2 0
-1.092 -0.08 6.682 -0 -1.2 0
-1.229 -0.085 7.53 -0 -1.2 0
-1.289 -0.175 7.91 -0 -1.2 0
-1.267 -0.327 7.797 -0 -1.2 0
-1.246 -0.475 7.692 -0 -1.2 0
-1.23 -0.615 7.613 -0 -1.2 0
-1.211 -0.754 7.513 -0 -1.2 0
-1.194 -0.89 7.429 -0 -1.2 0
-1.176 -1.021 7.334 -0 -1.2 0
-1.158 -1.149 7.245 -0 -1.2 0
-1.131 -1.272 7.095 -0 -1.2 0
-1.134 -1.4 7.131 -0 -1.2 0
-1.282 -1.582 8.072 -0 -1.2 0
-2.101 -3.087 13.337 -0 -1.2 0
-2.48 -4.029 15.808 -0 -1.2 0
-2.839 -4.791 18.129 -0 -1.2 0
-2.341 -5.608 15.179 -0 -1.2 0
-0.156 -0.003 1.144 -0 -1.2 0
-0.159 -0.009 1.177 -0 -1.2 0
-0.164 -0.015 1.21 -0 -1.2 0
-0.171 -0.009 1.258 -0 -1.2 0
-0.176 -0.012 1.3 -0 -1.2 0
-0.18 -0.021 1.334 -0 -1.2 0
-0.187 -0.012 1.391 -0 -1.2 0
-0.194 -0.012 1.441 -0 -1.2 0
-0.201 -0.013 1.491 -0 -1.2 0
-0.206 -0.021 1.534 -0 -1.2 0
-0.214 -0.019 1.593 -0 -1.2 0
-0.221 -0.025 1.644 -0 -1.2 0
-0.228 -0.026 1.705 -0 -1.2 0
-0.237 -0.023 1.774 -0 -1.2 0
-0.246 -0.029 1.835 -0 -1.2 0
-0.254 -0.031 1.905 -0 -1.2 0
-0.265 -0.03 1.984 -0 -1.2 0
-0.275 -0.032 2.064 -0 -1.2 0
-0.287 -0.032 2.153 -0 -1.2 0
-0.302 -0.021 2.269 -0 -1.2 0
-0.314 -0.027 2.36 -0 -1.2 0
-0.328 -0.029 2.469 -0 -1.2 0
-0.343 -0.028 2.588 -0 -1.2 0
-0.36 -0.033 2.707 -0 -1.2 0
-0.376 -0.038 2.836 -0 -1.2 0
-0.398 -0.033 3.004 -0 -1.2 0
-0.417 -0.041 3.153 -0 -1.2 0
-0.444 -0.038 3.351 -0 -1.2 0
-0.469 -0.042 3.55 -0 -1.2 0
-0.5 -0.041 3.787 -0 -1.2 0
-0.532 -0.047 4.035 -0 -1.2 0
-0.567 -0.055 4.303 -0 -1.2 0
-0.611 -0.058 4.639 -0 -1.2 0
-0.665 -0.057 5.055 -0 -1.2 0
-0.724 -0.064 5.501 -0 -1.2 0
-0.797 -0.066 6.065 -0 -1.2 0
-0.885 -0.071 6.74 -0 -1.2 0
-0.998 -0.074 7.601 -0 -1.2 0
-1.038 -0.172 7.923 -0 -1.2 0
-1.021 -0.322 7.821 -0 -1.2 0
-1.006 -0.467 7.734 -0 -1.2 0
-0.99 -0.609 7.636 -0 -1.2 0
-0.973 -0.749 7.534 -0 -1.2 0
-0.96 -0.883 7.451 -0 -1.2 0
-0.945 -1.014 7.364 -0 -1.2 0
-0.925 -1.142 7.226 -0 -1.2 0
-0.907 -1.265 7.115 -0 -1.2 0
-0.919 -1.395 7.231 -0 -1.2 0
-1.027 -1.571 8.086 -0 -1.2 0
-0.118 -0.009 1.157 -0 -1.2 0
-0.122 -0.008 1.198 -0 -1.2 0
-0.126 -0.007 1.238 -0 -1.2 0
-0.128 -0.015 1.272 -0 -1.2 0
-0.134 -0.003 1.328 -0 -1.2 0
-0.138 -0.014 1.363 -0 -1.2 0
-0.143 -0.011 1.412 -0 -1.2 0
-0.148 -0.011 1.462 -0 -1.2 0
-0.152 -0.017 1.505 -0 -1.2 0
-0.157 -0.019 1.556 -0 -1.2 0
-0.163 -0.018 1.615 -0 -1.2 0
-0.168 -0.023 1.667 -0 -1.2 0
-0.175 -0.018 1.736 -0 -1.2 0
-0.18 -0.027 1.788 -0 -1.2 0
-0.187 -0.027 1.858 -0 -1.2 0
-0.194 -0.024 1.937 -0 -1.2 0
-0.202 -0.028 2.007 -0 -1.2 0
-0.211 -0.025 2.096 -0 -1.2 0
-0.22 -0.025 2.185 -0 -1.2 0
-0.231 -0.019 2.293 -0 -1.2 0
-0.24 -0.021 2.393 -0 -1.2 0
-0.251 -0.021 2.503 -0 -1.2 0
-0.262 -0.03 2.604 -0 -1.2 0
-0.274 -0.03 2.733 -0 -1.2 0
-0.288 -0.031 2.872 -0 -1.2 0
-0.302 -0.034 3.021 -0 -1.2 0
-0.32 -0.034 3.19 -0 -1.2 0
-0.339 -0.034 3.378 -0 -1.2 0
-0.359 -0.035 3.587 -0 -1.2 0
-0.382 -0.038 3.816 -0 -1.2 0
-0.407 -0.043 4.064 -0 -1.2 0
-0.434 -0.051 4.334 -0 -1.2 0
-0.467 -0.054 4.672 -0 -1.2 0
-0.512 -0.045 5.118 -0 -1.2 0
-0.556 -0.054 5.556 -0 -1.2 0
-0.612 -0.056 6.122 -0 -1.2 0
-0.679 -0.061 6.798 -0 -1.2 0
-0.767 -0.062 7.673 -0 -1.2 0
-0.793 -0.165 7.957 -0 -1.2 0
-0.779 -0.315 7.854 -0 -1.2 0
-0.766 -0.461 7.757 -0 -1.2 0
-0.752 -0.603 7.659 -0 -1.2 0
-0.739 -0.742 7.558 -0 -1.2 0
-0.727 -0.875 7.473 -0 -1.2 0
-0.711 -1.008 7.327 -0 -1.2 0
-0.701 -1.134 7.258 -0 -1.2 0
-0.688 -1.258 7.167 -0 -1.2 0
-0.697 -1.387 7.283 -0 -1.2 0
-0.781 -1.566 8.171 -0 -1.2 0
-0.077 -0.007 1.179 -0 -1.2 0
-0.08 -0.007 1.219 -0 -1.2 0
-0.082 -0.013 1.253 -0 -1.2 0
-0.085 -0.007 1.301 -0 -1.2 0
-0.088 -0.009 1.343 -0 -1.2 0
-0.091 -0.005 1.392 -0 -1.2 0
-0.094 -0.009 1.434 -0 -1.2 0
-0.097 -0.016 1.477 -0 -1.2 0
-0.101 -0.01 1.536 -0 -1.2 0
-0.104 -0.018 1.579 -0 -1.2 0
-0.108 -0.016 1.638 -0 -1.2 0
-0.11 -0.021 1.69 -0 -1.2 0
-0.114 -0.023 1.751 -0 -1.2 0
-0.119 -0.02 1.82 -0 -1.2 0
-0.124 -0.02 1.89 -0 -1.2 0
-0.129 -0.023 1.96 -0 -1.2 0
-0.133 -0.026 2.031 -0 -1.2 0
-0.139 -0.023 2.12 -0 -1.2 0
-0.146 -0.019 2.219 -0 -1.2 0
-0.153 -0.017 2.318 -0 -1.2 0
-0.159 -0.022 2.409 -0 -1.2 0
-0.167 -0.019 2.528 -0 -1.2 0
-0.174 -0.023 2.639 -0 -1.2 0
-0.183 -0.024 2.768 -0 -1.2 0
-0.191 -0.025 2.908 -0 -1.2 0
-0.201 -0.027 3.057 -0 -1.2 0
-0.213 -0.027 3.227 -0 -1.2 0
-0.225 -0.028 3.416 -0 -1.2 0
-0.238 -0.035 3.606 -0 -1.2 0
-0.254 -0.034 3.845 -0 -1.2 0
-0.27 -0.036 4.104 -0 -1.2 0
-0.29 -0.04 4.393 -0 -1.2 0
-0.313 -0.04 4.742 -0 -1.2 0
-0.342 -0.036 5.17 -0 -1.2 0
-0.372 -0.04 5.639 -0 -1.2 0
-0.411 -0.042 6.207 -0 -1.2 0
-0.454 -0.05 6.865 -0 -1.2 0
-0.514 -0.045 7.782 -0 -1.2 0
-0.526 -0.158 7.988 -0 -1.2 0
-0.516 -0.308 7.894 -0 -1.2 0
-0.506 -0.453 7.797 -0 -1.2 0
-0.497 -0.596 7.699 -0 -1.2 0
-0.487 -0.734 7.606 -0 -1.2 0
-0.477 -0.868 7.512 -0 -1.2 0
-0.468 -1 7.416 -0 -1.2 0
-0.459 -1.127 7.326 -0 -1.2 0
-0.447 -1.251 7.185 -0 -1.2 0
-0.452 -1.379 7.292 -0 -1.2 0
-0.512 -1.561 8.272 -0 -1.2 0
-0.039 -0.007 1.196 -0 -1.2 0
-0.041 -0.006 1.236 -0 -1.2 0
-0.042 -0.005 1.277 -0 -1.2 0
-0.044 -0.006 1.318 -0 -1.2 0
-0.045 -0.001 1.369 -0 -1.2 0
-0.047 -0.011 1.402 -0 -1.2 0
-0.048 -0.009 1.452 -0 -1.2 0
-0.05 -0.009 1.502 -0 -1.2 0
-0.052 -0.003 1.562 -0 -1.2 0
-0.053 -0.017 1.596 -0 -1.2 0
-0.055 -0.015 1.656 -0 -1.2 0
-0.057 -0.014 1.716 -0 -1.2 0
-0.059 -0.022 1.768 -0 -1.2 0
-0.062 -0.014 1.846 -0 -1.2 0
-0.064 -0.019 1.908 -0 -1.2 0
-0.067 -0.016 1.987 -0 -1.2 0
-0.07 -0.016 2.067 -0 -1.2 0
-0.072 -0.017 2.148 -0 -1.2 0
-0.075 -0.017 2.238 -0 -1.2 0
-0.079 -0.016 2.337 -0 -1.2 0
-0.083 -0.013 2.446 -0 -1.2 0
-0.086 -0.013 2.556 -0 -1.2 0
-0.09 -0.018 2.667 -0 -1.2 0
-0.094 -0.022 2.788 -0 -1.2 0
-0.099 -0.02 2.937 -0 -1.2 0
-0.105 -0.022 3.087 -0 -1.2 0
-0.111 -0.02 3.266 -0 -1.2 0
-0.117 -0.023 3.446 -0 -1.2 0
-0.124 -0.024 3.656 -0 -1.2 0
-0.132 -0.026 3.886 -0 -1.2 0
-0.141 -0.029 4.145 -0 -1.2 0
-0.152 -0.028 4.454 -0 -1.2 0
-0.164 -0.027 4.814 -0 -1.2 0
-0.179 -0.023 5.242 -0 -1.2 0
-0.195 -0.027 5.712 -0 -1.2 0
-0.215 -0.028 6.291 -0 -1.2 0
-0.239 -0.034 6.971 -0 -1.2 0
-0.27 -0.033 7.869 -0 -1.2 0
-0.276 -0.139 8.135 -0 -1.2 0
-0.266 -0.302 7.943 -0 -1.2 0
-0.258 -0.449 7.825 -0 -1.2 0
-0.25 -0.595 7.676 -0 -1.2 0
-0.244 -0.731 7.605 -0 -1.2 0
-0.236 -0.866 7.49 -0 -1.2 0
-0.23 -0.996 7.393 -0 -1.2 0
-0.224 -1.123 7.314 -0 -1.2 0
-0.219 -1.247 7.222 -0 -1.2 0
-0.223 -1.378 7.419 -0 -1.2 0
-0.253 -1.564 8.44 -0 -1.2 0
-0.002 -0.006 1.215 -0 -1.2 0
-0.002 -0.005 1.255 -0 -1.2 0
-0.002 -0.011 1.288 -0 -1.2 0
-0.002 0.001 1.345 -0 -1.2 0
-0.002 -0.001 1.386 -0 -1.2 0
-0.003 -0.011 1.42 -0 -1.2 0
-0.003 -0.008 1.471 -0 -1.2 0
-0.003 -0.001 1.529 -0 -1.2 0
-0.003 -0.008 1.572 -0 -1.2 0
-0.003 -0.01 1.623 -0 -1.2 0
-0.003 -0.008 1.683 -0 -1.2 0
-0.003 -0.014 1.734 -0 -1.2 0
-0.003 -0.015 1.795 -0 -1.2 0
-0.004 -0.013 1.864 -0 -1.2 0
-0.004 -0.018 1.926 -0 -1.2 0
-0.004 -0.02 1.997 -0 -1.2 0
-0.004 -0.015 2.085 -0 -1.2 0
-0.004 -0.012 2.175 -0 -1.2 0
-0.004 -0.016 2.256 -0 -1.2 0
-0.005 -0.014 2.355 -0 -1.2 0
-0.005 -0.012 2.465 -0 -1.2 0
-0.005 -0.012 2.575 -0 -1.2 0
-0.006 -0.012 2.695 -0 -1.2 0
-0.007 -0.014 2.825 -0 -1.2 0
-0.007 -0.014 2.965 -0 -1.2 0
-0.007 -0.011 3.135 -0 -1.2 0
-0.008 -0.011 3.305 -0 -1.2 0
-0.008 -0.018 3.475 -0 -1.2 0
-0.009 -0.016 3.694 -0 -1.2 0
-0.009 -0.019 3.924 -0 -1.2 0
-0.011 -0.019 4.194 -0 -1.2 0
-0.011 -0.018 4.503 -0 -1.2 0
-0.012 -0.017 4.863 -0 -1.2 0
-0.013 -0.017 5.282 -0 -1.2 0
-0.015 -0.022 5.742 -0 -1.2 0
-0.016 -0.027 6.302 -0 -1.2 0
-0.018 -0.031 6.992 -0 -1.2 0
-0.021 -0.03 7.881 -0 -1.2 0
-0.024 -0.028 9.05 -0 -1.2 0
-0.029 -0.028 10.6 -0 -1.2 0
-0.034 -0.04 12.64 -0 -1.2 0
-0.06 0.209 19.651 -0 -1.2 0
-0.079 -0.18 28.81 -0 -1.2 0
-0.068 -0.679 28.902 -0 -1.2 0
0.036 0.001 1.239 -0 -1.2 0
0.038 0.002 1.28 -0 -1.2 0
0.039 -0.003 1.313 -0 -1.2 0
0.04 0.001 1.362 -0 -1.2 0
0.041 -0.007 1.396 -0 -1.2 0
0.043 -0.01 1.438 -0 -1.2 0
0.045 -0.001 1.496 -0 -1.2 0
0.046 -0.007 1.538 -0 -1.2 0
0.048 -0.007 1.589 -0 -1.2 0
0.048 -0.009 1.64 -0 -1.2 0
0.051 -0.013 1.692 -0 -1.2 0
0.052 -0.007 1.761 -0 -1.2 0
0.054 -0.009 1.821 -0 -1.2 0
0.056 -0.012 1.883 -0 -1.2 0
0.059 -0.012 1.953 -0 -1.2 0
0.061 -0.009 2.032 -0 -1.2 0
0.064 -0.008 2.112 -0 -1.2 0
0.066 -0.011 2.193 -0 -1.2 0
0.069 -0.01 2.283 -0 -1.2 0
0.072 -0.009 2.382 -0 -1.2 0
0.075 -0.001 2.501 -0 -1.2 0
0.079 -0.006 2.602 -0 -1.2 0
0.083 -0.008 2.722 -0 -1.2 0
0.087 -0.012 2.842 -0 -1.2 0
0.09 -0.009 2.992 -0 -1.2 0
0.096 -0.005 3.161 -0 -1.2 0
0.101 -0.009 3.321 -0 -1.2 0
0.107 -0.01 3.511 -0 -1.2 0
0.113 -0.011 3.721 -0 -1.2 0
0.121 -0.011 3.96 -0 -1.2 0
0.129 -0.014 4.22 -0 -1.2 0
0.138 -0.014 4.53 -0 -1.2 0
0.149 -0.017 4.869 -0 -1.2 0
0.162 -0.014 5.298 -0 -1.2 0
0.176 -0.023 5.739 -0 -1.2 0
0.195 -0.021 6.328 -0 -1.2 0
0.216 -0.022 7.037 -0 -1.2 0
0.243 -0.025 7.906 -0 -1.2 0
0.28 -0.02 9.084 -0 -1.2 0
0.329 -0.017 10.663 -0 -1.2 0
0.4 -0.006 12.961 -0 -1.2 0
0.607 0.233 19.839 -0 -1.2 0
1.071 -11.621 25.994 -0 -1.2 0
0.075 0.001 1.253 -0 -1.2 0
0.077 0.002 1.294 -0 -1.2 0
0.079 0.002 1.335 -0 -1.2 0
0.082 0.002 1.376 -0 -1.2 0
0.085 0 1.418 -0 -1.2 0
0.087 -0.002 1.459 -0 -1.2 0
0.09 -0.006 1.502 -0 -1.2 0
0.093 -0.006 1.552 -0 -1.2 0
0.097 0 1.611 -0 -1.2 0
0.1 -0.002 1.662 -0 -1.2 0
0.104 -0.006 1.714 -0 -1.2 0
0.108 -0.006 1.774 -0 -1.2 0
0.111 -0.002 1.843 -0 -1.2 0
0.115 -0.006 1.904 -0 -1.2 0
0.12 -0.005 1.974 -0 -1.2 0
0.124 -0.008 2.045 -0 -1.2 0
0.13 -0.002 2.134 -0 -1.2 0
0.135 -0.004 2.214 -0 -1.2 0
0.141 0 2.313 -0 -1.2 0
0.147 0 2.413 -0 -1.2 0
0.155 0.007 2.531 -0 -1.2 0
0.16 0.002 2.632 -0 -1.2 0
0.167 -0.002 2.743 -0 -1.2 0
0.176 -0.003 2.873 -0 -1.2 0
0.186 -0.001 3.022 -0 -1.2 0
0.195 0 3.181 -0 -1.2 0
0.206 -0.001 3.351 -0 -1.2 0
0.218 -0.005 3.531 -0 -1.2 0
0.23 -0.006 3.74 -0 -1.2 0
0.246 -0.007 3.98 -0 -1.2 0
0.262 -0.007 4.249 -0 -1.2 0
0.281 -0.007 4.558 -0 -1.2 0
0.302 -0.012 4.888 -0 -1.2 0
0.33 -0.007 5.326 -0 -1.2 0
0.36 -0.009 5.804 -0 -1.2 0
0.393 -0.015 6.353 -0 -1.2 0
0.438 -0.016 7.053 -0 -1.2 0
0.495 -0.014 7.96 -0 -1.2 0
0.567 -0.013 9.117 -0 -1.2 0
0.666 -0.006 10.713 -0 -1.2 0
0.82 0.018 13.177 -0 -1.2 0
1.118 0.116 17.974 -0 -1.2 0
1.118 -0.2 17.873 -0 -1.2 0
1.874 -9.26 26.618 -0 -1.2 0
1.87 -9.693 26.385 -0 -1.2 0
1.774 -10.107 24.71 -0 -1.2 0
0.113 0.009 1.274 -0 -1.2 0
0.116 0.003 1.307 -0 -1.2 0
0.12 0.003 1.348 -0 -1.2 0
0.123 -0.003 1.382 -0 -1.2 0
0.129 0.007 1.439 -0 -1.2 0
0.133 0.011 1.488 -0 -1.2 0
0.137 0 1.523 -0 -1.2 0
0.141 0.001 1.573 -0 -1.2 0
0.147 0.006 1.632 -0 -1.2 0
0.151 -0.001 1.675 -0 -1.2 0
0.157 0 1.734 -0 -1.2 0
0.163 0 1.795 -0 -1.2 0
0.169 0.003 1.864 -0 -1.2 0
0.175 0.005 1.933 -0 -1.2 0
0.181 0 1.995 -0 -1.2 0
0.188 -0.002 2.065 -0 -1.2 0
0.197 0.003 2.154 -0 -1.2 0
0.203 0.001 2.234 -0 -1.2 0
0.212 0.001 2.324 -0 -1.2 0
0.223 0.007 2.432 -0 -1.2 0
0.232 0.008 2.541 -0 -1.2 0
0.243 0.007 2.651 -0 -1.2 0
0.253 -0.001 2.753 -0 -1.2 0
0.265 -0.001 2.882 -0 -1.2 0
0.28 0.004 3.04 -0 -1.2 0
0.295 0.008 3.209 -0 -1.2 0
0.31 0 3.36 -0 -1.2 0
0.327 -0.003 3.54 -0 -1.2 0
0.348 0.001 3.768 -0 -1.2 0
0.369 -0.004 3.987 -0 -1.2 0
0.394 -0.007 4.246 -0 -1.2 0
0.424 -0.004 4.564 -0 -1.2 0
0.457 -0.005 4.912 -0 -1.2 0
0.497 0 5.349 -0 -1.2 0
0.54 -0.007 5.798 -0 -1.2 0
0.592 -0.012 6.355 -0 -1.2 0
0.66 -0.009 7.072 -0 -1.2 0
0.746 -0.006 7.987 -0 -1.2 0
0.858 0 9.171 -0 -1.2 0
0.999 -0.003 10.674 -0 -1.2 0
1.233 0.025 13.161 -0 -1.2 0
1.435 -0.056 15.295 -0 -1.2 0
1.435 -0.326 15.22 -0 -1.2 0
2.522 -8.239 24.831 -0 -1.2 0
0.156 0.01 1.287 -0 -1.2 0
0.159 -0.002 1.313 -0 -1.2 0
0.166 0.011 1.368 -0 -1.2 0
0.171 0.004 1.402 -0 -1.2 0
0.177 0.008 1.451 -0 -1.2 0
0.181 0 1.485 -0 -1.2 0
0.188 0.001 1.535 -0 -1.2 0
0.195 0.002 1.585 -0 -1.2 0
0.201 0.001 1.635 -0 -1.2 0
0.208 0.005 1.694 -0 -1.2 0
0.216 0.006 1.754 -0 -1.2 0
0.223 0 1.805 -0 -1.2 0
0.234 0.01 1.882 -0 -1.2 0
0.241 0.001 1.935 -0 -1.2 0
0.25 0.006 2.014 -0 -1.2 0
0.26 0.003 2.085 -0 -1.2 0
0.27 0.004 2.164 -0 -1.2 0
0.28 0.002 2.244 -0 -1.2 0
0.292 0.002 2.334 -0 -1.2 0
0.306 0.008 2.441 -0 -1.2 0
0.319 0.006 2.541 -0 -1.2 0
0.334 0.005 2.65 -0 -1.2 0
0.349 0.004 2.77 -0 -1.2 0
0.366 0.004 2.899 -0 -1.2 0
0.384 0.002 3.037 -0 -1.2 0
0.405 0.002 3.196 -0 -1.2 0
0.427 0.001 3.364 -0 -1.2 0
0.45 -0.001 3.543 -0 -1.2 0
0.479 0 3.761 -0 -1.2 0
0.51 0 3.999 -0 -1.2 0
0.542 -0.004 4.248 -0 -1.2 0
0.581 -0.007 4.545 -0 -1.2 0
0.625 -0.009 4.882 -0 -1.2 0
0.681 -0.005 5.307 -0 -1.2 0
0.742 -0.005 5.783 -0 -1.2 0
0.816 -0.008 6.348 -0 -1.2 0
0.906 -0.008 7.042 -0 -1.2 0
1.023 -0.006 7.933 -0 -1.2 0
1.178 0 9.123 -0 -1.2 0
1.375 0 10.63 -0 -1.2 0
1.504 -0.1 11.605 -0 -1.2 0
1.509 -0.302 11.6 -0 -1.2 0
1.529 -0.498 11.721 -0 -1.2 0
1.931 -0.595 14.792 -0 -1.2 0
1.945 -0.851 14.847 -0 -1.2 0
2.258 -1.11 17.198 -0 -1.2 0
3.161 -8.954 22.739 -0 -1.2 0
0.196 0.017 1.305 -0 -1.2 0
0.202 0.005 1.331 -0 -1.2 0
0.207 -0.001 1.364 -0 -1.2 0
0.214 0.004 1.412 -0 -1.2 0
0.221 0.002 1.453 -0 -1.2 0
0.231 0.012 1.51 -0 -1.2 0
0.238 0.007 1.552 -0 -1.2 0
0.244 0.002 1.594 -0 -1.2 0
0.254 0.007 1.652 -0 -1.2 0
0.263 0.005 1.703 -0 -1.2 0
0.271 0.001 1.754 -0 -1.2 0
0.28 0.001 1.814 -0 -1.2 0
