# .PCD v.7 - Point Cloud Data file format
FIELDS x y z vp_x vp_y vp_z
SIZE 4 4 4 4 4 4
TYPE F F F F F F
COUNT 1 1 1 1 1 1
WIDTH 1603
HEIGHT 1
VIEWPOINT 0 -1.20011 0 1 0 0 0
POINTS 1603
DATA ascii
1.111 -1.531 -0.929 -0 -1.2 0
1.113 -1.553 -0.93 -0 -1.2 0
1.149 -1.591 -0.942 -0 -1.2 0
1.141 -1.61 -0.939 -0 -1.2 0
1.522 -1.829 -1.076 -0 -1.2 0
1.552 -1.878 -1.087 -0 -1.2 0
1.132 -0.017 -1.007 -0 -1.2 0
1.169 -0.016 -1.023 -0 -1.2 0
1.207 -0.015 -1.038 -0 -1.2 0
1.238 -0.023 -1.051 -0 -1.2 0
1.243 -0.057 -1.053 -0 -1.2 0
1.239 -0.098 -1.05 -0 -1.2 0
1.226 -0.144 -1.044 -0 -1.2 0
1.227 -0.178 -1.043 -0 -1.2 0
1.228 -0.211 -1.042 -0 -1.2 0
1.228 -0.244 -1.042 -0 -1.2 0
1.227 -0.276 -1.04 -0 -1.2 0
1.226 -0.308 -1.039 -0 -1.2 0
1.231 -0.335 -1.041 -0 -1.2 0
1.227 -0.366 -1.038 -0 -1.2 0
1.224 -0.398 -1.036 -0 -1.2 0
1.228 -0.424 -1.037 -0 -1.2 0
1.231 -0.449 -1.037 -0 -1.2 0
1.217 -0.484 -1.032 -0 -1.2 0
1.211 -0.514 -1.028 -0 -1.2 0
1.204 -0.544 -1.024 -0 -1.2 0
1.222 -0.56 -1.032 -0 -1.2 0
1.206 -0.593 -1.024 -0 -1.2 0
1.214 -0.613 -1.027 -0 -1.2 0
1.213 -0.638 -1.026 -0 -1.2 0
1.213 -0.662 -1.025 -0 -1.2 0
1.211 -0.686 -1.024 -0 -1.2 0
1.218 -0.707 -1.026 -0 -1.2 0
1.181 -0.743 -1.01 -0 -1.2 0
1.214 -0.754 -1.024 -0 -1.2 0
1.202 -0.78 -1.018 -0 -1.2 0
1.207 -0.8 -1.019 -0 -1.2 0
1.203 -0.823 -1.017 -0 -1.2 0
1.199 -0.846 -1.015 -0 -1.2 0
1.203 -0.866 -1.016 -0 -1.2 0
1.199 -0.888 -1.014 -0 -1.2 0
1.202 -0.909 -1.014 -0 -1.2 0
1.196 -0.93 -1.012 -0 -1.2 0
1.208 -0.949 -1.016 -0 -1.2 0
1.201 -0.971 -1.013 -0 -1.2 0
1.195 -0.992 -1.01 -0 -1.2 0
1.187 -1.013 -1.006 -0 -1.2 0
1.18 -1.034 -1.003 -0 -1.2 0
1.191 -1.053 -1.007 -0 -1.2 0
1.174 -1.074 -0.999 -0 -1.2 0
1.183 -1.094 -1.003 -0 -1.2 0
1.183 -1.113 -1.002 -0 -1.2 0
1.193 -1.133 -1.005 -0 -1.2 0
1.193 -1.153 -1.005 -0 -1.2 0
1.192 -1.173 -1.005 -0 -1.2 0
1.191 -1.193 -1.003 -0 -1.2 0
1.189 -1.213 -1.002 -0 -1.2 0
1.179 -1.232 -0.997 -0 -1.2 0
1.177 -1.251 -0.996 -0 -1.2 0
1.184 -1.273 -0.998 -0 -1.2 0
1.173 -1.291 -0.993 -0 -1.2 0
1.17 -1.31 -0.991 -0 -1.2 0
1.167 -1.33 -0.99 -0 -1.2 0
1.181 -1.354 -0.995 -0 -1.2 0
1.168 -1.371 -0.989 -0 -1.2 0
1.173 -1.393 -0.99 -0 -1.2 0
1.169 -1.413 -0.988 -0 -1.2 0
1.173 -1.435 -0.99 -0 -1.2 0
1.132 -1.443 -0.973 -0 -1.2 0
1.127 -1.462 -0.97 -0 -1.2 0
1.113 -1.477 -0.963 -0 -1.2 0
1.115 -1.499 -0.964 -0 -1.2 0
1.117 -1.521 -0.965 -0 -1.2 0
1.102 -1.536 -0.958 -0 -1.2 0
1.121 -1.566 -0.965 -0 -1.2 0
1.148 -1.601 -0.976 -0 -1.2 0
1.115 -1.607 -0.962 -0 -1.2 0
1.524 -1.844 -1.126 -0 -1.2 0
1.52 -1.874 -1.124 -0 -1.2 0
1.114 -0.017 -1.029 -0 -1.2 0
1.151 -0.016 -1.046 -0 -1.2 0
1.188 -0.015 -1.063 -0 -1.2 0
1.225 -0.016 -1.08 -0 -1.2 0
1.235 -0.044 -1.085 -0 -1.2 0
1.232 -0.085 -1.081 -0 -1.2 0
1.221 -0.132 -1.075 -0 -1.2 0
1.222 -0.165 -1.075 -0 -1.2 0
1.223 -0.199 -1.074 -0 -1.2 0
1.223 -0.232 -1.074 -0 -1.2 0
1.222 -0.265 -1.072 -0 -1.2 0
1.213 -0.303 -1.067 -0 -1.2 0
1.219 -0.329 -1.069 -0 -1.2 0
1.223 -0.356 -1.07 -0 -1.2 0
1.204 -0.398 -1.06 -0 -1.2 0
1.207 -0.424 -1.062 -0 -1.2 0
1.219 -0.444 -1.067 -0 -1.2 0
1.221 -0.47 -1.067 -0 -1.2 0
1.207 -0.505 -1.06 -0 -1.2 0
1.209 -0.53 -1.06 -0 -1.2 0
1.193 -0.564 -1.052 -0 -1.2 0
1.203 -0.585 -1.056 -0 -1.2 0
1.211 -0.606 -1.059 -0 -1.2 0
1.21 -0.63 -1.059 -0 -1.2 0
1.201 -0.658 -1.053 -0 -1.2 0
1.209 -0.679 -1.056 -0 -1.2 0
1.181 -0.713 -1.042 -0 -1.2 0
1.188 -0.733 -1.045 -0 -1.2 0
1.177 -0.76 -1.039 -0 -1.2 0
1.209 -0.772 -1.054 -0 -1.2 0
1.205 -0.795 -1.052 -0 -1.2 0
1.193 -0.821 -1.045 -0 -1.2 0
1.206 -0.839 -1.051 -0 -1.2 0
1.201 -0.862 -1.048 -0 -1.2 0
1.196 -0.885 -1.045 -0 -1.2 0
1.201 -0.905 -1.047 -0 -1.2 0
1.186 -0.929 -1.039 -0 -1.2 0
1.18 -0.951 -1.036 -0 -1.2 0
1.174 -0.972 -1.033 -0 -1.2 0
1.176 -0.992 -1.033 -0 -1.2 0
1.177 -1.012 -1.034 -0 -1.2 0
1.189 -1.032 -1.038 -0 -1.2 0
1.171 -1.053 -1.029 -0 -1.2 0
1.182 -1.073 -1.033 -0 -1.2 0
1.182 -1.093 -1.034 -0 -1.2 0
1.182 -1.113 -1.034 -0 -1.2 0
1.183 -1.133 -1.033 -0 -1.2 0
1.192 -1.153 -1.036 -0 -1.2 0
1.182 -1.173 -1.031 -0 -1.2 0
1.19 -1.194 -1.035 -0 -1.2 0
1.179 -1.214 -1.03 -0 -1.2 0
1.178 -1.234 -1.028 -0 -1.2 0
1.167 -1.253 -1.023 -0 -1.2 0
1.165 -1.273 -1.021 -0 -1.2 0
1.162 -1.292 -1.019 -0 -1.2 0
1.178 -1.316 -1.026 -0 -1.2 0
1.174 -1.336 -1.024 -0 -1.2 0
1.162 -1.354 -1.018 -0 -1.2 0
1.176 -1.378 -1.024 -0 -1.2 0
1.172 -1.398 -1.022 -0 -1.2 0
1.159 -1.415 -1.015 -0 -1.2 0
1.163 -1.438 -1.016 -0 -1.2 0
1.131 -1.449 -1.001 -0 -1.2 0
1.117 -1.465 -0.994 -0 -1.2 0
1.094 -1.477 -0.983 -0 -1.2 0
1.106 -1.502 -0.988 -0 -1.2 0
1.1 -1.521 -0.985 -0 -1.2 0
1.111 -1.547 -0.989 -0 -1.2 0
1.128 -1.576 -0.996 -0 -1.2 0
1.13 -1.6 -0.997 -0 -1.2 0
1.54 -1.865 -1.18 -0 -1.2 0
1.099 -0.011 -1.052 -0 -1.2 0
1.129 -0.017 -1.067 -0 -1.2 0
1.173 -0.01 -1.089 -0 -1.2 0
1.203 -0.017 -1.104 -0 -1.2 0
1.227 -0.032 -1.116 -0 -1.2 0
1.231 -0.067 -1.117 -0 -1.2 0
1.226 -0.108 -1.113 -0 -1.2 0
1.214 -0.154 -1.106 -0 -1.2 0
1.214 -0.188 -1.105 -0 -1.2 0
1.215 -0.221 -1.104 -0 -1.2 0
1.214 -0.254 -1.104 -0 -1.2 0
1.213 -0.287 -1.102 -0 -1.2 0
1.212 -0.319 -1.101 -0 -1.2 0
1.209 -0.351 -1.098 -0 -1.2 0
1.213 -0.378 -1.099 -0 -1.2 0
1.209 -0.41 -1.097 -0 -1.2 0
1.205 -0.441 -1.094 -0 -1.2 0
1.207 -0.467 -1.095 -0 -1.2 0
1.202 -0.497 -1.091 -0 -1.2 0
1.212 -0.518 -1.096 -0 -1.2 0
1.196 -0.552 -1.087 -0 -1.2 0
1.189 -0.582 -1.083 -0 -1.2 0
1.205 -0.599 -1.09 -0 -1.2 0
1.197 -0.628 -1.085 -0 -1.2 0
1.205 -0.649 -1.089 -0 -1.2 0
1.204 -0.673 -1.088 -0 -1.2 0
1.194 -0.701 -1.082 -0 -1.2 0
1.184 -0.728 -1.076 -0 -1.2 0
1.181 -0.752 -1.074 -0 -1.2 0
1.178 -0.775 -1.072 -0 -1.2 0
1.192 -0.794 -1.078 -0 -1.2 0
1.197 -0.815 -1.081 -0 -1.2 0
1.185 -0.84 -1.074 -0 -1.2 0
1.189 -0.861 -1.075 -0 -1.2 0
1.192 -0.882 -1.077 -0 -1.2 0
1.188 -0.904 -1.073 -0 -1.2 0
1.183 -0.927 -1.07 -0 -1.2 0
1.185 -0.947 -1.072 -0 -1.2 0
1.188 -0.968 -1.072 -0 -1.2 0
1.172 -0.991 -1.063 -0 -1.2 0
1.183 -1.011 -1.068 -0 -1.2 0
1.175 -1.032 -1.064 -0 -1.2 0
1.178 -1.053 -1.065 -0 -1.2 0
1.178 -1.073 -1.065 -0 -1.2 0
1.17 -1.094 -1.06 -0 -1.2 0
1.189 -1.114 -1.068 -0 -1.2 0
1.188 -1.134 -1.068 -0 -1.2 0
1.188 -1.155 -1.067 -0 -1.2 0
1.179 -1.175 -1.062 -0 -1.2 0
1.169 -1.195 -1.057 -0 -1.2 0
1.167 -1.215 -1.055 -0 -1.2 0
1.174 -1.237 -1.058 -0 -1.2 0
1.173 -1.257 -1.057 -0 -1.2 0
1.171 -1.278 -1.056 -0 -1.2 0
1.16 -1.297 -1.049 -0 -1.2 0
1.157 -1.317 -1.048 -0 -1.2 0
1.154 -1.337 -1.046 -0 -1.2 0
1.159 -1.359 -1.048 -0 -1.2 0
1.163 -1.381 -1.049 -0 -1.2 0
1.16 -1.401 -1.047 -0 -1.2 0
1.155 -1.421 -1.044 -0 -1.2 0
1.159 -1.444 -1.045 -0 -1.2 0
1.12 -1.453 -1.025 -0 -1.2 0
1.097 -1.466 -1.014 -0 -1.2 0
1.101 -1.488 -1.014 -0 -1.2 0
1.095 -1.507 -1.011 -0 -1.2 0
1.089 -1.526 -1.008 -0 -1.2 0
1.082 -1.544 -1.004 -0 -1.2 0
1.134 -1.59 -1.029 -0 -1.2 0
1.109 -1.602 -1.017 -0 -1.2 0
1.521 -1.872 -1.218 -0 -1.2 0
1.077 -0.012 -1.075 -0 -1.2 0
1.112 -0.011 -1.095 -0 -1.2 0
1.148 -0.011 -1.115 -0 -1.2 0
1.178 -0.018 -1.13 -0 -1.2 0
1.208 -0.026 -1.147 -0 -1.2 0
1.212 -0.061 -1.148 -0 -1.2 0
1.221 -0.09 -1.153 -0 -1.2 0
1.202 -0.143 -1.141 -0 -1.2 0
1.203 -0.177 -1.141 -0 -1.2 0
1.211 -0.204 -1.144 -0 -1.2 0
1.21 -0.238 -1.143 -0 -1.2 0
1.217 -0.266 -1.145 -0 -1.2 0
1.208 -0.304 -1.14 -0 -1.2 0
1.198 -0.342 -1.134 -0 -1.2 0
1.195 -0.374 -1.131 -0 -1.2 0
1.207 -0.396 -1.136 -0 -1.2 0
1.203 -0.427 -1.134 -0 -1.2 0
1.213 -0.449 -1.139 -0 -1.2 0
1.2 -0.484 -1.131 -0 -1.2 0
1.202 -0.511 -1.131 -0 -1.2 0
1.172 -0.553 -1.113 -0 -1.2 0
1.181 -0.575 -1.117 -0 -1.2 0
1.189 -0.596 -1.121 -0 -1.2 0
1.196 -0.617 -1.125 -0 -1.2 0
1.188 -0.646 -1.12 -0 -1.2 0
1.195 -0.667 -1.124 -0 -1.2 0
1.186 -0.696 -1.117 -0 -1.2 0
1.176 -0.723 -1.111 -0 -1.2 0
1.181 -0.744 -1.114 -0 -1.2 0
1.17 -0.771 -1.107 -0 -1.2 0
1.184 -0.789 -1.115 -0 -1.2 0
1.181 -0.813 -1.111 -0 -1.2 0
1.185 -0.834 -1.114 -0 -1.2 0
1.173 -0.86 -1.106 -0 -1.2 0
1.186 -0.879 -1.113 -0 -1.2 0
1.181 -0.902 -1.109 -0 -1.2 0
1.157 -0.928 -1.096 -0 -1.2 0
1.169 -0.947 -1.102 -0 -1.2 0
1.163 -0.969 -1.098 -0 -1.2 0
1.174 -0.989 -1.103 -0 -1.2 0
1.159 -1.012 -1.094 -0 -1.2 0
1.178 -1.031 -1.104 -0 -1.2 0
1.162 -1.053 -1.094 -0 -1.2 0
1.171 -1.074 -1.1 -0 -1.2 0
1.172 -1.095 -1.099 -0 -1.2 0
1.163 -1.115 -1.094 -0 -1.2 0
1.163 -1.135 -1.094 -0 -1.2 0
1.164 -1.156 -1.093 -0 -1.2 0
1.163 -1.177 -1.092 -0 -1.2 0
1.171 -1.198 -1.096 -0 -1.2 0
1.161 -1.218 -1.09 -0 -1.2 0
1.151 -1.238 -1.084 -0 -1.2 0
1.157 -1.26 -1.088 -0 -1.2 0
1.164 -1.282 -1.09 -0 -1.2 0
1.153 -1.301 -1.084 -0 -1.2 0
1.15 -1.321 -1.082 -0 -1.2 0
1.147 -1.342 -1.079 -0 -1.2 0
1.143 -1.362 -1.077 -0 -1.2 0
1.14 -1.382 -1.074 -0 -1.2 0
1.153 -1.407 -1.081 -0 -1.2 0
1.157 -1.43 -1.082 -0 -1.2 0
1.126 -1.443 -1.065 -0 -1.2 0
1.105 -1.457 -1.053 -0 -1.2 0
1.1 -1.476 -1.049 -0 -1.2 0
1.094 -1.495 -1.046 -0 -1.2 0
1.105 -1.522 -1.051 -0 -1.2 0
1.09 -1.537 -1.043 -0 -1.2 0
1.092 -1.56 -1.044 -0 -1.2 0
1.126 -1.599 -1.061 -0 -1.2 0
1.102 -1.611 -1.047 -0 -1.2 0
1.522 -1.89 -1.273 -0 -1.2 0
1.054 -0.013 -1.095 -0 -1.2 0
1.089 -0.012 -1.117 -0 -1.2 0
1.118 -0.019 -1.134 -0 -1.2 0
1.154 -0.02 -1.154 -0 -1.2 0
1.19 -0.022 -1.177 -0 -1.2 0
1.212 -0.038 -1.189 -0 -1.2 0
1.216 -0.073 -1.19 -0 -1.2 0
1.205 -0.12 -1.183 -0 -1.2 0
1.199 -0.161 -1.178 -0 -1.2 0
1.2 -0.195 -1.178 -0 -1.2 0
1.2 -0.228 -1.177 -0 -1.2 0
1.199 -0.262 -1.175 -0 -1.2 0
1.205 -0.29 -1.179 -0 -1.2 0
1.196 -0.328 -1.171 -0 -1.2 0
1.193 -0.36 -1.169 -0 -1.2 0
1.189 -0.393 -1.166 -0 -1.2 0
1.201 -0.415 -1.172 -0 -1.2 0
1.196 -0.446 -1.169 -0 -1.2 0
1.191 -0.477 -1.164 -0 -1.2 0
1.193 -0.504 -1.165 -0 -1.2 0
1.186 -0.534 -1.161 -0 -1.2 0
1.179 -0.564 -1.156 -0 -1.2 0
1.181 -0.59 -1.156 -0 -1.2 0
1.18 -0.616 -1.155 -0 -1.2 0
1.188 -0.637 -1.158 -0 -1.2 0
1.179 -0.666 -1.152 -0 -1.2 0
1.178 -0.691 -1.152 -0 -1.2 0
1.176 -0.716 -1.149 -0 -1.2 0
1.166 -0.742 -1.142 -0 -1.2 0
1.163 -0.766 -1.141 -0 -1.2 0
1.168 -0.788 -1.143 -0 -1.2 0
1.174 -0.809 -1.146 -0 -1.2 0
1.178 -0.831 -1.148 -0 -1.2 0
1.174 -0.855 -1.145 -0 -1.2 0
1.17 -0.878 -1.141 -0 -1.2 0
1.165 -0.901 -1.138 -0 -1.2 0
1.159 -0.924 -1.134 -0 -1.2 0
1.154 -0.947 -1.131 -0 -1.2 0
1.157 -0.968 -1.131 -0 -1.2 0
1.151 -0.99 -1.127 -0 -1.2 0
1.161 -1.01 -1.133 -0 -1.2 0
1.162 -1.031 -1.134 -0 -1.2 0
1.164 -1.053 -1.133 -0 -1.2 0
1.165 -1.074 -1.134 -0 -1.2 0
1.166 -1.095 -1.133 -0 -1.2 0
1.157 -1.116 -1.128 -0 -1.2 0
1.157 -1.137 -1.128 -0 -1.2 0
1.157 -1.158 -1.126 -0 -1.2 0
1.165 -1.179 -1.131 -0 -1.2 0
1.156 -1.2 -1.125 -0 -1.2 0
1.163 -1.222 -1.129 -0 -1.2 0
1.145 -1.241 -1.116 -0 -1.2 0
1.159 -1.264 -1.125 -0 -1.2 0
1.149 -1.284 -1.118 -0 -1.2 0
1.155 -1.306 -1.121 -0 -1.2 0
1.144 -1.326 -1.114 -0 -1.2 0
1.149 -1.348 -1.117 -0 -1.2 0
1.146 -1.369 -1.114 -0 -1.2 0
1.15 -1.392 -1.116 -0 -1.2 0
1.146 -1.413 -1.113 -0 -1.2 0
1.133 -1.431 -1.105 -0 -1.2 0
1.12 -1.449 -1.097 -0 -1.2 0
1.107 -1.466 -1.089 -0 -1.2 0
1.085 -1.48 -1.075 -0 -1.2 0
1.089 -1.503 -1.077 -0 -1.2 0
1.083 -1.523 -1.073 -0 -1.2 0
1.085 -1.546 -1.073 -0 -1.2 0
1.094 -1.573 -1.078 -0 -1.2 0
1.111 -1.604 -1.088 -0 -1.2 0
20.84 -11.865 -12.642 -0 -1.2 0
1.511 -1.869 -1.319 -0 -1.2 0
1.03 -0.014 -1.114 -0 -1.2 0
1.058 -0.02 -1.132 -0 -1.2 0
1.092 -0.019 -1.154 -0 -1.2 0
1.127 -0.02 -1.177 -0 -1.2 0
1.162 -0.022 -1.199 -0 -1.2 0
1.198 -0.025 -1.222 -0 -1.2 0
1.207 -0.054 -1.227 -0 -1.2 0
1.203 -0.096 -1.224 -0 -1.2 0
1.185 -0.149 -1.21 -0 -1.2 0
1.193 -0.177 -1.214 -0 -1.2 0
1.192 -0.211 -1.214 -0 -1.2 0
1.192 -0.245 -1.213 -0 -1.2 0
1.191 -0.279 -1.212 -0 -1.2 0
1.189 -0.312 -1.209 -0 -1.2 0
1.186 -0.345 -1.206 -0 -1.2 0
1.183 -0.378 -1.204 -0 -1.2 0
1.187 -0.405 -1.205 -0 -1.2 0
1.183 -0.437 -1.202 -0 -1.2 0
1.185 -0.464 -1.203 -0 -1.2 0
1.195 -0.486 -1.208 -0 -1.2 0
1.189 -0.517 -1.204 -0 -1.2 0
1.183 -0.548 -1.198 -0 -1.2 0
1.176 -0.578 -1.193 -0 -1.2 0
1.176 -0.604 -1.193 -0 -1.2 0
1.168 -0.634 -1.186 -0 -1.2 0
1.176 -0.656 -1.191 -0 -1.2 0
1.167 -0.684 -1.184 -0 -1.2 0
1.173 -0.707 -1.188 -0 -1.2 0
1.17 -0.732 -1.186 -0 -1.2 0
1.177 -0.754 -1.188 -0 -1.2 0
1.166 -0.781 -1.181 -0 -1.2 0
1.163 -0.805 -1.178 -0 -1.2 0
1.159 -0.83 -1.176 -0 -1.2 0
1.163 -0.851 -1.178 -0 -1.2 0
1.159 -0.875 -1.174 -0 -1.2 0
1.163 -0.897 -1.176 -0 -1.2 0
1.158 -0.92 -1.172 -0 -1.2 0
1.153 -0.944 -1.168 -0 -1.2 0
1.147 -0.966 -1.164 -0 -1.2 0
1.149 -0.988 -1.165 -0 -1.2 0
1.142 -1.01 -1.16 -0 -1.2 0
1.144 -1.032 -1.16 -0 -1.2 0
1.154 -1.053 -1.166 -0 -1.2 0
1.147 -1.075 -1.16 -0 -1.2 0
1.147 -1.096 -1.161 -0 -1.2 0
1.147 -1.117 -1.16 -0 -1.2 0
1.148 -1.138 -1.16 -0 -1.2 0
1.156 -1.16 -1.164 -0 -1.2 0
1.155 -1.181 -1.164 -0 -1.2 0
1.146 -1.202 -1.157 -0 -1.2 0
1.136 -1.223 -1.15 -0 -1.2 0
1.152 -1.246 -1.16 -0 -1.2 0
1.15 -1.268 -1.157 -0 -1.2 0
1.139 -1.288 -1.15 -0 -1.2 0
1.145 -1.31 -1.154 -0 -1.2 0
1.142 -1.332 -1.151 -0 -1.2 0
1.139 -1.353 -1.148 -0 -1.2 0
1.135 -1.374 -1.146 -0 -1.2 0
1.131 -1.395 -1.143 -0 -1.2 0
1.136 -1.419 -1.145 -0 -1.2 0
1.115 -1.434 -1.13 -0 -1.2 0
1.103 -1.452 -1.122 -0 -1.2 0
1.082 -1.466 -1.108 -0 -1.2 0
1.085 -1.489 -1.11 -0 -1.2 0
1.087 -1.513 -1.11 -0 -1.2 0
1.081 -1.533 -1.106 -0 -1.2 0
1.083 -1.556 -1.106 -0 -1.2 0
1.109 -1.591 -1.122 -0 -1.2 0
1.093 -1.608 -1.112 -0 -1.2 0
1.499 -1.882 -1.368 -0 -1.2 0
1.002 -0.015 -1.136 -0 -1.2 0
1.03 -0.021 -1.155 -0 -1.2 0
1.063 -0.02 -1.179 -0 -1.2 0
1.097 -0.021 -1.203 -0 -1.2 0
1.131 -0.023 -1.226 -0 -1.2 0
1.172 -0.02 -1.256 -0 -1.2 0
1.187 -0.043 -1.265 -0 -1.2 0
1.191 -0.079 -1.267 -0 -1.2 0
1.205 -0.102 -1.276 -0 -1.2 0
1.174 -0.167 -1.252 -0 -1.2 0
1.181 -0.196 -1.257 -0 -1.2 0
1.181 -0.23 -1.256 -0 -1.2 0
1.18 -0.264 -1.254 -0 -1.2 0
1.178 -0.298 -1.252 -0 -1.2 0
1.176 -0.331 -1.249 -0 -1.2 0
1.173 -0.365 -1.246 -0 -1.2 0
1.184 -0.387 -1.253 -0 -1.2 0
1.181 -0.42 -1.25 -0 -1.2 0
1.183 -0.448 -1.251 -0 -1.2 0
1.178 -0.479 -1.247 -0 -1.2 0
1.172 -0.511 -1.242 -0 -1.2 0
1.174 -0.537 -1.242 -0 -1.2 0
1.168 -0.568 -1.236 -0 -1.2 0
1.168 -0.594 -1.236 -0 -1.2 0
1.168 -0.62 -1.235 -0 -1.2 0
1.167 -0.647 -1.234 -0 -1.2 0
1.167 -0.672 -1.233 -0 -1.2 0
1.165 -0.698 -1.231 -0 -1.2 0
1.156 -0.727 -1.224 -0 -1.2 0
1.161 -0.749 -1.227 -0 -1.2 0
1.151 -0.777 -1.219 -0 -1.2 0
1.14 -0.804 -1.211 -0 -1.2 0
1.153 -0.824 -1.219 -0 -1.2 0
1.157 -0.846 -1.221 -0 -1.2 0
1.152 -0.87 -1.218 -0 -1.2 0
1.156 -0.893 -1.219 -0 -1.2 0
1.16 -0.915 -1.222 -0 -1.2 0
1.155 -0.939 -1.217 -0 -1.2 0
1.157 -0.961 -1.218 -0 -1.2 0
1.143 -0.986 -1.208 -0 -1.2 0
1.137 -1.009 -1.203 -0 -1.2 0
1.146 -1.03 -1.209 -0 -1.2 0
1.139 -1.053 -1.204 -0 -1.2 0
1.141 -1.075 -1.204 -0 -1.2 0
1.134 -1.097 -1.198 -0 -1.2 0
1.142 -1.118 -1.203 -0 -1.2 0
1.134 -1.139 -1.197 -0 -1.2 0
1.133 -1.161 -1.196 -0 -1.2 0
1.132 -1.183 -1.195 -0 -1.2 0
1.14 -1.205 -1.2 -0 -1.2 0
1.131 -1.226 -1.193 -0 -1.2 0
1.129 -1.248 -1.191 -0 -1.2 0
1.135 -1.271 -1.194 -0 -1.2 0
1.125 -1.291 -1.186 -0 -1.2 0
1.123 -1.313 -1.184 -0 -1.2 0
1.12 -1.335 -1.182 -0 -1.2 0
1.125 -1.358 -1.185 -0 -1.2 0
1.122 -1.379 -1.182 -0 -1.2 0
1.126 -1.403 -1.184 -0 -1.2 0
1.122 -1.425 -1.181 -0 -1.2 0
1.117 -1.446 -1.178 -0 -1.2 0
1.09 -1.459 -1.157 -0 -1.2 0
1.076 -1.477 -1.148 -0 -1.2 0
1.08 -1.501 -1.149 -0 -1.2 0
1.074 -1.521 -1.145 -0 -1.2 0
1.084 -1.548 -1.151 -0 -1.2 0
1.077 -1.569 -1.146 -0 -1.2 0
1.11 -1.608 -1.167 -0 -1.2 0
1.488 -1.831 -1.428 -0 -1.2 0
1.493 -1.868 -1.43 -0 -1.2 0
1.49 -1.901 -1.428 -0 -1.2 0
0.97 -0.023 -1.149 -0 -1.2 0
1.008 -0.015 -1.178 -0 -1.2 0
1.035 -0.021 -1.199 -0 -1.2 0
1.068 -0.023 -1.223 -0 -1.2 0
1.107 -0.018 -1.253 -0 -1.2 0
1.14 -0.021 -1.279 -0 -1.2 0
1.168 -0.032 -1.299 -0 -1.2 0
1.208 -0.031 -1.33 -0 -1.2 0
1.255 -0.026 -1.365 -0 -1.2 0
1.212 -0.104 -1.331 -0 -1.2 0
1.194 -0.157 -1.316 -0 -1.2 0
1.175 -0.209 -1.299 -0 -1.2 0
1.174 -0.244 -1.299 -0 -1.2 0
1.18 -0.273 -1.302 -0 -1.2 0
1.172 -0.312 -1.294 -0 -1.2 0
1.176 -0.341 -1.297 -0 -1.2 0
1.166 -0.379 -1.288 -0 -1.2 0
1.163 -0.412 -1.285 -0 -1.2 0
1.166 -0.44 -1.286 -0 -1.2 0
1.168 -0.467 -1.287 -0 -1.2 0
1.17 -0.495 -1.288 -0 -1.2 0
1.165 -0.527 -1.282 -0 -1.2 0
1.158 -0.558 -1.277 -0 -1.2 0
1.166 -0.581 -1.282 -0 -1.2 0
1.151 -0.615 -1.27 -0 -1.2 0
1.166 -0.635 -1.28 -0 -1.2 0
1.158 -0.665 -1.274 -0 -1.2 0
1.149 -0.694 -1.265 -0 -1.2 0
1.155 -0.717 -1.27 -0 -1.2 0
1.145 -0.746 -1.261 -0 -1.2 0
1.151 -0.769 -1.265 -0 -1.2 0
1.148 -0.794 -1.262 -0 -1.2 0
1.145 -0.819 -1.259 -0 -1.2 0
1.149 -0.842 -1.261 -0 -1.2 0
1.145 -0.867 -1.258 -0 -1.2 0
1.149 -0.89 -1.26 -0 -1.2 0
1.144 -0.914 -1.256 -0 -1.2 0
1.132 -0.94 -1.246 -0 -1.2 0
1.134 -0.962 -1.246 -0 -1.2 0
1.136 -0.985 -1.248 -0 -1.2 0
1.13 -1.008 -1.243 -0 -1.2 0
1.14 -1.03 -1.25 -0 -1.2 0
1.133 -1.053 -1.244 -0 -1.2 0
1.134 -1.075 -1.244 -0 -1.2 0
1.135 -1.098 -1.244 -0 -1.2 0
1.135 -1.12 -1.243 -0 -1.2 0
1.135 -1.142 -1.243 -0 -1.2 0
1.127 -1.164 -1.236 -0 -1.2 0
1.127 -1.186 -1.235 -0 -1.2 0
1.126 -1.209 -1.234 -0 -1.2 0
1.124 -1.231 -1.232 -0 -1.2 0
1.13 -1.254 -1.237 -0 -1.2 0
1.121 -1.274 -1.229 -0 -1.2 0
1.119 -1.297 -1.226 -0 -1.2 0
1.117 -1.319 -1.224 -0 -1.2 0
1.129 -1.345 -1.233 -0 -1.2 0
1.119 -1.365 -1.224 -0 -1.2 0
1.115 -1.387 -1.22 -0 -1.2 0
1.119 -1.411 -1.223 -0 -1.2 0
1.123 -1.435 -1.225 -0 -1.2 0
1.088 -1.447 -1.198 -0 -1.2 0
1.076 -1.466 -1.188 -0 -1.2 0
1.056 -1.481 -1.173 -0 -1.2 0
1.058 -1.505 -1.174 -0 -1.2 0
1.061 -1.529 -1.175 -0 -1.2 0
1.055 -1.549 -1.171 -0 -1.2 0
1.093 -1.592 -1.198 -0 -1.2 0
1.095 -1.617 -1.199 -0 -1.2 0
6.752 -4.678 -5.413 -0 -1.2 0
6.872 -4.917 -5.497 -0 -1.2 0
6.66 -4.97 -5.334 -0 -1.2 0
6.817 -5.24 -5.445 -0 -1.2 0
6.202 -6.663 -4.938 -0 -1.2 0
5.902 -6.582 -4.712 -0 -1.2 0
5.795 -6.676 -4.628 -0 -1.2 0
0.948 -0.016 -1.168 -0 -1.2 0
0.979 -0.015 -1.194 -0 -1.2 0
1.011 -0.016 -1.22 -0 -1.2 0
1.038 -0.023 -1.242 -0 -1.2 0
1.076 -0.018 -1.272 -0 -1.2 0
1.102 -0.028 -1.294 -0 -1.2 0
1.142 -0.026 -1.326 -0 -1.2 0
1.175 -0.032 -1.352 -0 -1.2 0
1.226 -0.02 -1.395 -0 -1.2 0
1.259 -0.028 -1.422 -0 -1.2 0
1.306 -0.027 -1.46 -0 -1.2 0
1.352 -0.026 -1.499 -0 -1.2 0
1.4 -0.029 -1.537 -0 -1.2 0
1.454 -0.027 -1.581 -0 -1.2 0
1.508 -0.026 -1.626 -0 -1.2 0
1.563 -0.03 -1.67 -0 -1.2 0
1.618 -0.034 -1.715 -0 -1.2 0
1.681 -0.036 -1.766 -0 -1.2 0
1.757 -0.031 -1.829 -0 -1.2 0
1.828 -0.035 -1.886 -0 -1.2 0
1.912 -0.033 -1.955 -0 -1.2 0
1.132 -0.527 -1.303 -0 -1.2 0
1.133 -0.554 -1.304 -0 -1.2 0
1.126 -0.585 -1.297 -0 -1.2 0
1.134 -0.608 -1.303 -0 -1.2 0
1.133 -0.635 -1.301 -0 -1.2 0
1.14 -0.658 -1.306 -0 -1.2 0
1.131 -0.688 -1.298 -0 -1.2 0
1.138 -0.711 -1.302 -0 -1.2 0
1.15 -0.732 -1.313 -0 -1.2 0
1.141 -0.761 -1.304 -0 -1.2 0
1.138 -0.787 -1.301 -0 -1.2 0
1.136 -0.812 -1.298 -0 -1.2 0
1.14 -0.836 -1.301 -0 -1.2 0
1.136 -0.861 -1.297 -0 -1.2 0
1.132 -0.886 -1.293 -0 -1.2 0
1.135 -0.909 -1.295 -0 -1.2 0
1.131 -0.934 -1.29 -0 -1.2 0
1.126 -0.958 -1.286 -0 -1.2 0
1.12 -0.983 -1.28 -0 -1.2 0
1.122 -1.005 -1.282 -0 -1.2 0
1.131 -1.028 -1.288 -0 -1.2 0
1.124 -1.051 -1.283 -0 -1.2 0
1.117 -1.075 -1.277 -0 -1.2 0
1.126 -1.097 -1.283 -0 -1.2 0
1.127 -1.12 -1.282 -0 -1.2 0
1.126 -1.143 -1.282 -0 -1.2 0
1.127 -1.166 -1.28 -0 -1.2 0
1.118 -1.188 -1.273 -0 -1.2 0
1.109 -1.21 -1.266 -0 -1.2 0
1.109 -1.233 -1.264 -0 -1.2 0
1.107 -1.255 -1.262 -0 -1.2 0
1.113 -1.279 -1.267 -0 -1.2 0
1.111 -1.302 -1.264 -0 -1.2 0
1.101 -1.323 -1.255 -0 -1.2 0
1.098 -1.345 -1.253 -0 -1.2 0
1.095 -1.368 -1.249 -0 -1.2 0
1.107 -1.394 -1.258 -0 -1.2 0
1.111 -1.419 -1.261 -0 -1.2 0
1.106 -1.441 -1.256 -0 -1.2 0
1.08 -1.456 -1.234 -0 -1.2 0
1.076 -1.478 -1.23 -0 -1.2 0
1.064 -1.496 -1.22 -0 -1.2 0
1.066 -1.52 -1.221 -0 -1.2 0
1.061 -1.542 -1.216 -0 -1.2 0
1.062 -1.567 -1.217 -0 -1.2 0
1.078 -1.6 -1.228 -0 -1.2 0
6.571 -4.517 -5.631 -0 -1.2 0
6.798 -4.812 -5.808 -0 -1.2 0
6.927 -5.064 -5.907 -0 -1.2 0
6.507 -4.993 -5.566 -0 -1.2 0
5.971 -6.61 -5.081 -0 -1.2 0
5.91 -6.751 -5.027 -0 -1.2 0
5.587 -6.829 -4.761 -0 -1.2 0
0.921 -0.017 -1.183 -0 -1.2 0
0.952 -0.016 -1.21 -0 -1.2 0
0.982 -0.017 -1.237 -0 -1.2 0
1.008 -0.024 -1.259 -0 -1.2 0
1.045 -0.019 -1.292 -0 -1.2 0
1.083 -0.017 -1.324 -0 -1.2 0
1.115 -0.021 -1.353 -0 -1.2 0
1.147 -0.027 -1.381 -0 -1.2 0
1.19 -0.022 -1.419 -0 -1.2 0
1.235 -0.018 -1.459 -0 -1.2 0
1.268 -0.028 -1.487 -0 -1.2 0
1.32 -0.023 -1.532 -0 -1.2 0
1.365 -0.024 -1.573 -0 -1.2 0
1.412 -0.029 -1.613 -0 -1.2 0
1.471 -0.023 -1.666 -0 -1.2 0
1.524 -0.027 -1.712 -0 -1.2 0
1.578 -0.031 -1.759 -0 -1.2 0
1.639 -0.034 -1.812 -0 -1.2 0
1.706 -0.033 -1.872 -0 -1.2 0
1.782 -0.033 -1.937 -0 -1.2 0
1.871 -0.026 -2.015 -0 -1.2 0
1.939 -0.035 -2.076 -0 -1.2 0
2.036 -0.033 -2.161 -0 -1.2 0
2.128 -0.038 -2.241 -0 -1.2 0
2.226 -0.043 -2.327 -0 -1.2 0
2.332 -0.049 -2.42 -0 -1.2 0
2.452 -0.054 -2.525 -0 -1.2 0
2.602 -0.051 -2.657 -0 -1.2 0
2.752 -0.056 -2.788 -0 -1.2 0
2.954 -0.048 -2.965 -0 -1.2 0
3.157 -0.048 -3.143 -0 -1.2 0
3.36 -0.059 -3.321 -0 -1.2 0
3.601 -0.067 -3.533 -0 -1.2 0
3.923 -0.064 -3.815 -0 -1.2 0
4.262 -0.072 -4.112 -0 -1.2 0
4.867 -0.036 -4.644 -0 -1.2 0
5.757 0.028 -5.426 -0 -1.2 0
6.495 0.024 -6.072 -0 -1.2 0
7.249 -0.01 -6.732 -0 -1.2 0
8.325 -0.037 -7.675 -0 -1.2 0
8.527 -0.208 -7.848 -0 -1.2 0
8.428 -0.414 -7.755 -0 -1.2 0
1.1 -1.052 -1.31 -0 -1.2 0
1.101 -1.075 -1.31 -0 -1.2 0
1.102 -1.098 -1.31 -0 -1.2 0
1.11 -1.121 -1.316 -0 -1.2 0
1.11 -1.144 -1.316 -0 -1.2 0
1.095 -1.167 -1.301 -0 -1.2 0
1.101 -1.19 -1.307 -0 -1.2 0
1.1 -1.213 -1.306 -0 -1.2 0
1.107 -1.237 -1.31 -0 -1.2 0
1.113 -1.262 -1.315 -0 -1.2 0
1.111 -1.285 -1.313 -0 -1.2 0
1.109 -1.308 -1.31 -0 -1.2 0
1.106 -1.332 -1.307 -0 -1.2 0
1.112 -1.357 -1.31 -0 -1.2 0
1.101 -1.378 -1.301 -0 -1.2 0
1.105 -1.403 -1.304 -0 -1.2 0
1.108 -1.429 -1.306 -0 -1.2 0
1.097 -1.45 -1.296 -0 -1.2 0
1.072 -1.465 -1.273 -0 -1.2 0
1.059 -1.484 -1.262 -0 -1.2 0
1.041 -1.501 -1.244 -0 -1.2 0
1.05 -1.528 -1.252 -0 -1.2 0
1.044 -1.55 -1.247 -0 -1.2 0
1.075 -1.589 -1.272 -0 -1.2 0
1.069 -1.611 -1.266 -0 -1.2 0
6.437 -4.555 -5.887 -0 -1.2 0
6.469 -4.744 -5.91 -0 -1.2 0
6.713 -5.063 -6.114 -0 -1.2 0
6.543 -6.686 -5.917 -0 -1.2 0
5.762 -6.581 -5.235 -0 -1.2 0
5.433 -6.644 -4.945 -0 -1.2 0
5.51 -6.923 -5.003 -0 -1.2 0
5.352 -6.955 -4.865 -0 -1.2 0
5.647 -7.724 -5.1 -0 -1.2 0
0.894 -0.018 -1.196 -0 -1.2 0
0.924 -0.017 -1.223 -0 -1.2 0
0.954 -0.018 -1.252 -0 -1.2 0
0.984 -0.018 -1.28 -0 -1.2 0
1.019 -0.014 -1.314 -0 -1.2 0
1.045 -0.024 -1.337 -0 -1.2 0
1.082 -0.022 -1.371 -0 -1.2 0
1.113 -0.028 -1.4 -0 -1.2 0
1.155 -0.023 -1.441 -0 -1.2 0
1.199 -0.019 -1.481 -0 -1.2 0
1.231 -0.03 -1.511 -0 -1.2 0
1.281 -0.024 -1.558 -0 -1.2 0
1.326 -0.026 -1.599 -0 -1.2 0
1.37 -0.03 -1.642 -0 -1.2 0
1.422 -0.03 -1.69 -0 -1.2 0
1.479 -0.028 -1.744 -0 -1.2 0
1.538 -0.028 -1.798 -0 -1.2 0
1.597 -0.03 -1.854 -0 -1.2 0
1.663 -0.031 -1.916 -0 -1.2 0
1.743 -0.026 -1.99 -0 -1.2 0
1.809 -0.033 -2.052 -0 -1.2 0
1.889 -0.033 -2.127 -0 -1.2 0
1.97 -0.038 -2.203 -0 -1.2 0
2.058 -0.043 -2.286 -0 -1.2 0
2.161 -0.045 -2.381 -0 -1.2 0
2.27 -0.048 -2.484 -0 -1.2 0
2.395 -0.05 -2.6 -0 -1.2 0
2.526 -0.054 -2.723 -0 -1.2 0
2.686 -0.053 -2.873 -0 -1.2 0
2.868 -0.051 -3.043 -0 -1.2 0
3.072 -0.05 -3.234 -0 -1.2 0
3.277 -0.058 -3.425 -0 -1.2 0
3.517 -0.064 -3.651 -0 -1.2 0
3.824 -0.065 -3.938 -0 -1.2 0
4.174 -0.068 -4.265 -0 -1.2 0
4.662 -0.056 -4.721 -0 -1.2 0
5.54 0.012 -5.546 -0 -1.2 0
6.32 0.02 -6.276 -0 -1.2 0
7.067 -0.012 -6.975 -0 -1.2 0
8.119 -0.04 -7.959 -0 -1.2 0
9.333 -0.102 -9.094 -0 -1.2 0
8.394 -0.404 -8.206 -0 -1.2 0
8.369 -0.605 -8.176 -0 -1.2 0
8.363 -0.804 -8.164 -0 -1.2 0
16.769 -1.684 -16.007 -0 -1.2 0
16.838 -2.086 -16.06 -0 -1.2 0
16.815 -2.485 -16.025 -0 -1.2 0
16.728 -2.876 -15.932 -0 -1.2 0
15.988 -3.178 -15.231 -0 -1.2 0
16.743 -3.677 -15.922 -0 -1.2 0
15.247 -3.812 -14.519 -0 -1.2 0
16.346 -4.401 -15.529 -0 -1.2 0
15.662 -5.405 -14.859 -0 -1.2 0
1.08 -1.455 -1.327 -0 -1.2 0
1.076 -1.479 -1.322 -0 -1.2 0
1.057 -1.496 -1.305 -0 -1.2 0
1.045 -1.516 -1.293 -0 -1.2 0
1.047 -1.542 -1.294 -0 -1.2 0
1.049 -1.568 -1.294 -0 -1.2 0
1.071 -1.604 -1.314 -0 -1.2 0
6.154 -4.674 -5.981 -0 -1.2 0
6.278 -4.921 -6.089 -0 -1.2 0
6.043 -4.946 -5.869 -0 -1.2 0
6.531 -5.83 -6.298 -0 -1.2 0
6.677 -6.55 -6.414 -0 -1.2 0
6.341 -6.474 -6.101 -0 -1.2 0
6.298 -6.643 -6.056 -0 -1.2 0
4.619 -5.454 -4.52 -0 -1.2 0
4.627 -5.785 -4.517 -0 -1.2 0
5.823 -7.234 -5.593 -0 -1.2 0
5.793 -7.418 -5.559 -0 -1.2 0
5.798 -7.648 -5.558 -0 -1.2 0
5.526 -7.557 -5.306 -0 -1.2 0
5.396 -7.622 -5.182 -0 -1.2 0
5.303 -7.731 -5.091 -0 -1.2 0
0.867 -0.019 -1.206 -0 -1.2 0
0.896 -0.018 -1.235 -0 -1.2 0
0.925 -0.019 -1.264 -0 -1.2 0
0.954 -0.019 -1.293 -0 -1.2 0
0.989 -0.015 -1.327 -0 -1.2 0
1.013 -0.025 -1.352 -0 -1.2 0
1.049 -0.023 -1.387 -0 -1.2 0
1.084 -0.023 -1.423 -0 -1.2 0
1.12 -0.024 -1.459 -0 -1.2 0
1.157 -0.026 -1.495 -0 -1.2 0
1.193 -0.031 -1.532 -0 -1.2 0
1.242 -0.025 -1.581 -0 -1.2 0
1.285 -0.027 -1.623 -0 -1.2 0
1.328 -0.031 -1.667 -0 -1.2 0
1.378 -0.031 -1.717 -0 -1.2 0
1.434 -0.03 -1.773 -0 -1.2 0
1.485 -0.034 -1.823 -0 -1.2 0
1.548 -0.032 -1.886 -0 -1.2 0
1.612 -0.033 -1.95 -0 -1.2 0
1.689 -0.028 -2.027 -0 -1.2 0
1.76 -0.03 -2.098 -0 -1.2 0
1.832 -0.035 -2.169 -0 -1.2 0
1.904 -0.044 -2.241 -0 -1.2 0
1.995 -0.045 -2.333 -0 -1.2 0
2.101 -0.044 -2.439 -0 -1.2 0
2.207 -0.047 -2.545 -0 -1.2 0
2.321 -0.052 -2.657 -0 -1.2 0
2.455 -0.054 -2.791 -0 -1.2 0
2.611 -0.053 -2.947 -0 -1.2 0
2.786 -0.051 -3.123 -0 -1.2 0
2.977 -0.053 -3.313 -0 -1.2 0
3.19 -0.057 -3.525 -0 -1.2 0
3.43 -0.061 -3.765 -0 -1.2 0
3.719 -0.065 -4.055 -0 -1.2 0
4.052 -0.071 -4.387 -0 -1.2 0
4.483 -0.07 -4.817 -0 -1.2 0
5.229 -0.023 -5.564 -0 -1.2 0
6.132 0.016 -6.467 -0 -1.2 0
6.911 -0.01 -7.245 -0 -1.2 0
7.861 -0.05 -8.193 -0 -1.2 0
9.2 -0.095 -9.529 -0 -1.2 0
8.361 -0.394 -8.681 -0 -1.2 0
8.344 -0.599 -8.658 -0 -1.2 0
8.344 -0.803 -8.652 -0 -1.2 0
8.33 -1.007 -8.631 -0 -1.2 0
15.648 -1.297 -15.935 -0 -1.2 0
15.65 -1.68 -15.925 -0 -1.2 0
15.668 -2.065 -15.93 -0 -1.2 0
15.673 -2.449 -15.925 -0 -1.2 0
15.681 -2.835 -15.92 -0 -1.2 0
13.589 -2.938 -13.827 -0 -1.2 0
15.676 -3.607 -15.891 -0 -1.2 0
15.691 -3.997 -15.894 -0 -1.2 0
14.557 -4.149 -14.757 -0 -1.2 0
14.662 -4.537 -14.85 -0 -1.2 0
15.068 -5.39 -15.229 -0 -1.2 0
14.473 -5.957 -14.617 -0 -1.2 0
1.05 -1.483 -1.344 -0 -1.2 0
1.039 -1.503 -1.332 -0 -1.2 0
1.035 -1.526 -1.327 -0 -1.2 0
1.043 -1.556 -1.335 -0 -1.2 0
1.044 -1.583 -1.336 -0 -1.2 0
1.046 -1.609 -1.336 -0 -1.2 0
5.852 -4.287 -6.057 -0 -1.2 0
5.828 -4.434 -6.027 -0 -1.2 0
6.044 -4.729 -6.233 -0 -1.2 0
5.656 -4.654 -5.848 -0 -1.2 0
5.587 -4.772 -5.776 -0 -1.2 0
5.594 -4.941 -5.778 -0 -1.2 0
6.306 -5.817 -6.463 -0 -1.2 0
6.136 -6.27 -6.28 -0 -1.2 0
6.165 -6.497 -6.301 -0 -1.2 0
4.659 -5.476 -4.828 -0 -1.2 0
4.513 -5.493 -4.681 -0 -1.2 0
4.494 -5.636 -4.658 -0 -1.2 0
5.233 -6.587 -5.367 -0 -1.2 0
5.403 -6.972 -5.525 -0 -1.2 0
5.445 -7.446 -5.553 -0 -1.2 0
4.979 -7.098 -5.098 -0 -1.2 0
4.891 -7.195 -5.006 -0 -1.2 0
5.099 -7.682 -5.2 -0 -1.2 0
0.84 -0.012 -1.223 -0 -1.2 0
0.869 -0.011 -1.253 -0 -1.2 0
0.897 -0.012 -1.283 -0 -1.2 0
0.92 -0.019 -1.308 -0 -1.2 0
0.948 -0.022 -1.338 -0 -1.2 0
0.977 -0.025 -1.369 -0 -1.2 0
1.017 -0.017 -1.412 -0 -1.2 0
1.045 -0.023 -1.442 -0 -1.2 0
1.08 -0.024 -1.48 -0 -1.2 0
1.121 -0.021 -1.524 -0 -1.2 0
1.156 -0.025 -1.561 -0 -1.2 0
1.192 -0.031 -1.599 -0 -1.2 0
1.239 -0.027 -1.65 -0 -1.2 0
1.281 -0.032 -1.695 -0 -1.2 0
1.328 -0.032 -1.746 -0 -1.2 0
1.383 -0.03 -1.804 -0 -1.2 0
1.432 -0.035 -1.856 -0 -1.2 0
1.493 -0.033 -1.922 -0 -1.2 0
1.56 -0.029 -1.994 -0 -1.2 0
1.635 -0.024 -2.074 -0 -1.2 0
1.703 -0.027 -2.147 -0 -1.2 0
1.779 -0.029 -2.228 -0 -1.2 0
1.854 -0.035 -2.31 -0 -1.2 0
1.936 -0.04 -2.397 -0 -1.2 0
2.032 -0.042 -2.5 -0 -1.2 0
2.141 -0.043 -2.617 -0 -1.2 0
2.251 -0.048 -2.734 -0 -1.2 0
2.381 -0.05 -2.872 -0 -1.2 0
2.53 -0.049 -3.033 -0 -1.2 0
2.7 -0.048 -3.215 -0 -1.2 0
2.878 -0.053 -3.405 -0 -1.2 0
3.089 -0.054 -3.632 -0 -1.2 0
3.327 -0.059 -3.887 -0 -1.2 0
3.607 -0.062 -4.187 -0 -1.2 0
3.948 -0.064 -4.551 -0 -1.2 0
4.344 -0.069 -4.976 -0 -1.2 0
4.888 -0.062 -5.559 -0 -1.2 0
5.934 0.013 -6.682 -0 -1.2 0
6.773 0.001 -7.581 -0 -1.2 0
7.696 -0.043 -8.57 -0 -1.2 0
8.254 -0.175 -9.163 -0 -1.2 0
8.247 -0.386 -9.148 -0 -1.2 0
8.401 -0.586 -9.307 -0 -1.2 0
8.307 -0.803 -9.199 -0 -1.2 0
14.616 -0.937 -15.956 -0 -1.2 0
14.621 -1.308 -15.95 -0 -1.2 0
14.642 -1.68 -15.961 -0 -1.2 0
14.653 -2.052 -15.961 -0 -1.2 0
14.653 -2.425 -15.948 -0 -1.2 0
14.654 -2.797 -15.938 -0 -1.2 0
14.657 -3.172 -15.931 -0 -1.2 0
14.664 -3.548 -15.926 -0 -1.2 0
14.673 -3.925 -15.923 -0 -1.2 0
14.656 -4.3 -15.894 -0 -1.2 0
7.83 -3.824 -8.594 -0 -1.2 0
7.37 -4.056 -8.094 -0 -1.2 0
5.544 -3.922 -6.142 -0 -1.2 0
5.3 -3.944 -5.88 -0 -1.2 0
4.569 -3.675 -5.105 -0 -1.2 0
5.177 -4.172 -5.739 -0 -1.2 0
6.156 -5.308 -6.753 -0 -1.2 0
6.378 -5.657 -6.981 -0 -1.2 0
6.144 -5.871 -6.723 -0 -1.2 0
5.998 -5.949 -6.565 -0 -1.2 0
5.692 -5.885 -6.238 -0 -1.2 0
5.507 -5.911 -6.039 -0 -1.2 0
5.618 -6.396 -6.143 -0 -1.2 0
6.259 -7.231 -6.805 -0 -1.2 0
4.433 -5.578 -4.899 -0 -1.2 0
4.386 -5.693 -4.845 -0 -1.2 0
4.382 -5.856 -4.836 -0 -1.2 0
4.768 -6.659 -5.225 -0 -1.2 0
3.947 -5.847 -4.37 -0 -1.2 0
5.33 -7.773 -5.792 -0 -1.2 0
4.554 -6.983 -4.985 -0 -1.2 0
4.94 -7.714 -5.376 -0 -1.2 0
0.811 -0.013 -1.233 -0 -1.2 0
0.833 -0.019 -1.259 -0 -1.2 0
0.865 -0.013 -1.295 -0 -1.2 0
0.893 -0.014 -1.326 -0 -1.2 0
0.92 -0.017 -1.358 -0 -1.2 0
0.948 -0.02 -1.389 -0 -1.2 0
0.98 -0.019 -1.427 -0 -1.2 0
1.009 -0.024 -1.46 -0 -1.2 0
1.042 -0.025 -1.498 -0 -1.2 0
1.082 -0.022 -1.542 -0 -1.2 0
1.115 -0.027 -1.582 -0 -1.2 0
1.155 -0.027 -1.628 -0 -1.2 0
1.196 -0.029 -1.673 -0 -1.2 0
1.242 -0.028 -1.726 -0 -1.2 0
1.283 -0.033 -1.772 -0 -1.2 0
1.335 -0.032 -1.832 -0 -1.2 0
1.387 -0.032 -1.892 -0 -1.2 0
1.44 -0.035 -1.953 -0 -1.2 0
1.505 -0.031 -2.028 -0 -1.2 0
1.577 -0.026 -2.109 -0 -1.2 0
1.643 -0.029 -2.186 -0 -1.2 0
1.716 -0.031 -2.268 -0 -1.2 0
1.783 -0.041 -2.345 -0 -1.2 0
1.874 -0.038 -2.45 -0 -1.2 0
1.973 -0.038 -2.563 -0 -1.2 0
2.072 -0.041 -2.675 -0 -1.2 0
2.171 -0.051 -2.789 -0 -1.2 0
2.297 -0.052 -2.932 -0 -1.2 0
2.441 -0.052 -3.098 -0 -1.2 0
2.605 -0.051 -3.285 -0 -1.2 0
2.776 -0.056 -3.481 -0 -1.2 0
2.98 -0.058 -3.714 -0 -1.2 0
3.21 -0.062 -3.977 -0 -1.2 0
3.492 -0.063 -4.3 -0 -1.2 0
3.834 -0.061 -4.692 -0 -1.2 0
4.203 -0.07 -5.113 -0 -1.2 0
4.735 -0.062 -5.722 -0 -1.2 0
5.658 -0.005 -6.781 -0 -1.2 0
6.553 -0.003 -7.804 -0 -1.2 0
7.43 -0.05 -8.808 -0 -1.2 0
8.564 -0.113 -10.103 -0 -1.2 0
8.303 -0.363 -9.795 -0 -1.2 0
8.301 -0.582 -9.786 -0 -1.2 0
8.335 -0.8 -9.818 -0 -1.2 0
14.229 -0.951 -16.558 -0 -1.2 0
14.221 -1.326 -16.537 -0 -1.2 0
14.21 -1.699 -16.512 -0 -1.2 0
14.2 -2.073 -16.489 -0 -1.2 0
14.205 -2.448 -16.483 -0 -1.2 0
14.201 -2.822 -16.466 -0 -1.2 0
14.205 -3.198 -16.458 -0 -1.2 0
14.191 -3.572 -16.43 -0 -1.2 0
14.186 -3.949 -16.413 -0 -1.2 0
14.157 -4.32 -16.368 -0 -1.2 0
7.891 -3.526 -9.223 -0 -1.2 0
7.419 -3.784 -8.675 -0 -1.2 0
7.187 -4.096 -8.398 -0 -1.2 0
7.199 -4.302 -8.406 -0 -1.2 0
5.505 -3.853 -6.481 -0 -1.2 0
5.293 -3.897 -6.238 -0 -1.2 0
4.554 -3.633 -5.401 -0 -1.2 0
6.534 -4.945 -7.625 -0 -1.2 0
5.289 -4.361 -6.219 -0 -1.2 0
6.25 -5.343 -7.287 -0 -1.2 0
6.094 -5.427 -7.107 -0 -1.2 0
6.988 -6.29 -8.101 -0 -1.2 0
5.828 -5.797 -6.79 -0 -1.2 0
5.642 -5.833 -6.576 -0 -1.2 0
5.682 -6.059 -6.614 -0 -1.2 0
5.344 -6.324 -6.218 -0 -1.2 0
4.453 -5.604 -5.223 -0 -1.2 0
6.009 -7.433 -6.944 -0 -1.2 0
4.324 -5.799 -5.068 -0 -1.2 0
5.09 -6.848 -5.911 -0 -1.2 0
4.122 -5.905 -4.835 -0 -1.2 0
3.831 -5.715 -4.507 -0 -1.2 0
4.529 -6.769 -5.272 -0 -1.2 0
3.746 -5.934 -4.403 -0 -1.2 0
3.474 -5.731 -4.098 -0 -1.2 0
0.78 -0.014 -1.241 -0 -1.2 0
0.806 -0.013 -1.273 -0 -1.2 0
0.832 -0.014 -1.305 -0 -1.2 0
0.858 -0.015 -1.337 -0 -1.2 0
0.884 -0.018 -1.369 -0 -1.2 0
0.912 -0.021 -1.402 -0 -1.2 0
0.943 -0.02 -1.441 -0 -1.2 0
0.97 -0.025 -1.474 -0 -1.2 0
1.003 -0.027 -1.513 -0 -1.2 0
1.041 -0.023 -1.559 -0 -1.2 0
1.073 -0.028 -1.599 -0 -1.2 0
1.111 -0.029 -1.646 -0 -1.2 0
1.15 -0.03 -1.693 -0 -1.2 0
1.194 -0.029 -1.747 -0 -1.2 0
1.233 -0.035 -1.795 -0 -1.2 0
1.284 -0.033 -1.856 -0 -1.2 0
1.329 -0.038 -1.912 -0 -1.2 0
1.385 -0.036 -1.981 -0 -1.2 0
1.448 -0.032 -2.057 -0 -1.2 0
1.516 -0.027 -2.142 -0 -1.2 0
1.58 -0.03 -2.22 -0 -1.2 0
1.656 -0.029 -2.312 -0 -1.2 0
1.715 -0.043 -2.384 -0 -1.2 0
1.797 -0.044 -2.484 -0 -1.2 0
1.892 -0.043 -2.6 -0 -1.2 0
1.987 -0.047 -2.716 -0 -1.2 0
2.1 -0.046 -2.855 -0 -1.2 0
2.209 -0.055 -2.987 -0 -1.2 0
2.341 -0.057 -3.15 -0 -1.2 0
2.493 -0.059 -3.335 -0 -1.2 0
2.664 -0.062 -3.544 -0 -1.2 0
2.86 -0.064 -3.783 -0 -1.2 0
3.081 -0.068 -4.054 -0 -1.2 0
3.348 -0.07 -4.378 -0 -1.2 0
3.664 -0.073 -4.765 -0 -1.2 0
4.037 -0.077 -5.221 -0 -1.2 0
4.536 -0.073 -5.832 -0 -1.2 0
5.144 -0.074 -6.575 -0 -1.2 0
6.267 -0.017 -7.95 -0 -1.2 0
7.004 -0.08 -8.849 -0 -1.2 0
8.138 -0.136 -10.235 -0 -1.2 0
9.912 -0.193 -12.402 -0 -1.2 0
14.293 -0.57 -17.747 -0 -1.2 0
14.291 -0.961 -17.73 -0 -1.2 0
14.284 -1.352 -17.709 -0 -1.2 0
14.272 -1.742 -17.683 -0 -1.2 0
14.276 -2.134 -17.674 -0 -1.2 0
14.275 -2.524 -17.66 -0 -1.2 0
14.264 -2.914 -17.633 -0 -1.2 0
14.248 -3.305 -17.601 -0 -1.2 0
14.253 -3.698 -17.594 -0 -1.2 0
14.242 -4.089 -17.567 -0 -1.2 0
7.29 -3.233 -9.095 -0 -1.2 0
6.927 -3.711 -8.637 -0 -1.2 0
6.931 -3.911 -8.636 -0 -1.2 0
6.811 -4.058 -8.483 -0 -1.2 0
5.318 -3.713 -6.669 -0 -1.2 0
6.297 -4.574 -7.837 -0 -1.2 0
4.986 -3.994 -6.254 -0 -1.2 0
4.391 -3.777 -5.534 -0 -1.2 0
4.823 -4.195 -6.048 -0 -1.2 0
5.101 -4.535 -6.377 -0 -1.2 0
5.152 -4.734 -6.433 -0 -1.2 0
4.912 -4.72 -6.139 -0 -1.2 0
6.891 -6.428 -8.503 -0 -1.2 0
5.669 -5.662 -7.034 -0 -1.2 0
5.558 -5.76 -6.896 -0 -1.2 0
5.43 -5.839 -6.737 -0 -1.2 0
5.905 -6.468 -7.297 -0 -1.2 0
5.159 -6.347 -6.388 -0 -1.2 0
4.345 -5.672 -5.414 -0 -1.2 0
5.343 -6.95 -6.594 -0 -1.2 0
5.249 -7.057 -6.475 -0 -1.2 0
5.19 -7.202 -6.398 -0 -1.2 0
5.805 -8.181 -7.118 -0 -1.2 0
3.613 -5.625 -4.521 -0 -1.2 0
3.485 -5.615 -4.366 -0 -1.2 0
3.683 -6.045 -4.593 -0 -1.2 0
3.586 -6.08 -4.474 -0 -1.2 0
3.246 -5.752 -4.069 -0 -1.2 0
4.729 -8.168 -5.804 -0 -1.2 0
4.671 -8.32 -5.727 -0 -1.2 0
0.746 -0.014 -1.25 -0 -1.2 0
0.77 -0.013 -1.282 -0 -1.2 0
0.795 -0.014 -1.316 -0 -1.2 0
0.821 -0.015 -1.349 -0 -1.2 0
0.846 -0.018 -1.382 -0 -1.2 0
0.871 -0.021 -1.416 -0 -1.2 0
0.902 -0.02 -1.456 -0 -1.2 0
0.928 -0.025 -1.49 -0 -1.2 0
0.958 -0.027 -1.53 -0 -1.2 0
0.989 -0.03 -1.57 -0 -1.2 0
1.02 -0.034 -1.612 -0 -1.2 0
1.057 -0.034 -1.66 -0 -1.2 0
1.099 -0.031 -1.714 -0 -1.2 0
1.136 -0.035 -1.764 -0 -1.2 0
1.179 -0.035 -1.82 -0 -1.2 0
1.226 -0.034 -1.883 -0 -1.2 0
1.271 -0.039 -1.939 -0 -1.2 0
1.324 -0.037 -2.01 -0 -1.2 0
1.379 -0.038 -2.082 -0 -1.2 0
1.445 -0.033 -2.169 -0 -1.2 0
1.5 -0.04 -2.242 -0 -1.2 0
1.567 -0.042 -2.33 -0 -1.2 0
1.634 -0.047 -2.417 -0 -1.2 0
1.712 -0.049 -2.521 -0 -1.2 0
1.797 -0.051 -2.632 -0 -1.2 0
1.899 -0.049 -2.767 -0 -1.2 0
2.002 -0.051 -2.902 -0 -1.2 0
2.106 -0.06 -3.038 -0 -1.2 0
2.227 -0.065 -3.198 -0 -1.2 0
2.372 -0.067 -3.388 -0 -1.2 0
2.535 -0.069 -3.603 -0 -1.2 0
2.723 -0.071 -3.849 -0 -1.2 0
2.941 -0.073 -4.135 -0 -1.2 0
3.183 -0.079 -4.453 -0 -1.2 0
3.468 -0.087 -4.826 -0 -1.2 0
3.842 -0.086 -5.319 -0 -1.2 0
4.283 -0.09 -5.9 -0 -1.2 0
4.846 -0.095 -6.639 -0 -1.2 0
5.884 -0.044 -8.006 -0 -1.2 0
6.613 -0.101 -8.962 -0 -1.2 0
7.595 -0.168 -10.251 -0 -1.2 0
9.086 -0.243 -12.209 -0 -1.2 0
9.098 -0.503 -12.216 -0 -1.2 0
9.264 -0.757 -12.427 -0 -1.2 0
14.318 -0.972 -19.065 -0 -1.2 0
14.306 -1.381 -19.036 -0 -1.2 0
14.477 -1.799 -19.247 -0 -1.2 0
14.76 -2.235 -19.603 -0 -1.2 0
14.752 -2.657 -19.579 -0 -1.2 0
14.383 -3.031 -19.082 -0 -1.2 0
14.283 -3.429 -18.937 -0 -1.2 0
14.275 -3.839 -18.912 -0 -1.2 0
14.268 -4.25 -18.89 -0 -1.2 0
6.887 -3.215 -9.219 -0 -1.2 0
7.118 -3.495 -9.512 -0 -1.2 0
6.922 -3.633 -9.251 -0 -1.2 0
7.081 -3.901 -9.451 -0 -1.2 0
7.259 -4.408 -9.668 -0 -1.2 0
6.362 -4.189 -8.495 -0 -1.2 0
5.086 -3.719 -6.833 -0 -1.2 0
6.223 -4.504 -8.303 -0 -1.2 0
6.155 -4.659 -8.208 -0 -1.2 0
5.999 -4.758 -7.999 -0 -1.2 0
5.587 -4.683 -7.46 -0 -1.2 0
4.353 -4.023 -5.86 -0 -1.2 0
4.391 -4.191 -5.905 -0 -1.2 0
4.544 -4.451 -6.096 -0 -1.2 0
4.615 -4.66 -6.183 -0 -1.2 0
4.573 -4.785 -6.124 -0 -1.2 0
6.335 -6.447 -8.386 -0 -1.2 0
5.279 -5.733 -7.019 -0 -1.2 0
5.167 -5.82 -6.87 -0 -1.2 0
5.033 -6.07 -6.685 -0 -1.2 0
4.971 -6.199 -6.6 -0 -1.2 0
4.509 -5.893 -6.002 -0 -1.2 0
4.246 -5.778 -5.661 -0 -1.2 0
5.937 -8.166 -7.804 -0 -1.2 0
5.538 -8.168 -7.281 -0 -1.2 0
3.508 -5.698 -4.693 -0 -1.2 0
3.498 -5.847 -4.675 -0 -1.2 0
3.43 -5.915 -4.584 -0 -1.2 0
3.339 -5.948 -4.463 -0 -1.2 0
3.308 -6.066 -4.417 -0 -1.2 0
4.412 -8.232 -5.797 -0 -1.2 0
0.709 -0.022 -1.253 -0 -1.2 0
0.732 -0.021 -1.286 -0 -1.2 0
0.759 -0.015 -1.325 -0 -1.2 0
0.779 -0.022 -1.353 -0 -1.2 0
0.808 -0.019 -1.393 -0 -1.2 0
0.832 -0.022 -1.427 -0 -1.2 0
0.857 -0.027 -1.462 -0 -1.2 0
0.881 -0.033 -1.496 -0 -1.2 0
0.915 -0.028 -1.544 -0 -1.2 0
0.945 -0.031 -1.586 -0 -1.2 0
0.98 -0.029 -1.635 -0 -1.2 0
1.01 -0.035 -1.678 -0 -1.2 0
1.046 -0.038 -1.728 -0 -1.2 0
1.091 -0.031 -1.791 -0 -1.2 0
1.127 -0.037 -1.842 -0 -1.2 0
1.168 -0.04 -1.9 -0 -1.2 0
1.209 -0.045 -1.958 -0 -1.2 0
1.26 -0.043 -2.03 -0 -1.2 0
1.312 -0.044 -2.104 -0 -1.2 0
1.375 -0.039 -2.193 -0 -1.2 0
1.433 -0.042 -2.275 -0 -1.2 0
1.502 -0.04 -2.372 -0 -1.2 0
1.561 -0.049 -2.455 -0 -1.2 0
1.636 -0.051 -2.56 -0 -1.2 0
1.717 -0.053 -2.675 -0 -1.2 0
1.804 -0.057 -2.798 -0 -1.2 0
1.908 -0.057 -2.944 -0 -1.2 0
2.012 -0.062 -3.09 -0 -1.2 0
2.128 -0.068 -3.254 -0 -1.2 0
2.267 -0.07 -3.45 -0 -1.2 0
2.406 -0.08 -3.646 -0 -1.2 0
2.573 -0.086 -3.882 -0 -1.2 0
2.77 -0.091 -4.159 -0 -1.2 0
3.017 -0.091 -4.509 -0 -1.2 0
3.295 -0.097 -4.9 -0 -1.2 0
3.647 -0.097 -5.397 -0 -1.2 0
4.057 -0.105 -5.976 -0 -1.2 0
4.498 -0.13 -6.596 -0 -1.2 0
5.133 -0.145 -7.493 -0 -1.2 0
6.258 -0.119 -9.082 -0 -1.2 0
7.099 -0.198 -10.266 -0 -1.2 0
8.724 -0.249 -12.557 -0 -1.2 0
8.741 -0.51 -12.573 -0 -1.2 0
8.861 -0.768 -12.731 -0 -1.2 0
14.382 -0.984 -20.516 -0 -1.2 0
14.376 -1.415 -20.494 -0 -1.2 0
14.371 -1.845 -20.473 -0 -1.2 0
14.369 -2.276 -20.455 -0 -1.2 0
14.367 -2.707 -20.439 -0 -1.2 0
14.35 -3.136 -20.4 -0 -1.2 0
14.352 -3.569 -20.388 -0 -1.2 0
14.343 -4.001 -20.361 -0 -1.2 0
14.313 -4.428 -20.304 -0 -1.2 0
6.99 -2.932 -10.02 -0 -1.2 0
7.243 -3.662 -10.352 -0 -1.2 0
6.476 -3.589 -9.271 -0 -1.2 0
6.459 -3.782 -9.241 -0 -1.2 0
6.059 -4.189 -8.665 -0 -1.2 0
4.886 -3.741 -7.023 -0 -1.2 0
6.132 -4.621 -8.752 -0 -1.2 0
6.323 -4.94 -9.012 -0 -1.2 0
4.473 -4.102 -6.428 -0 -1.2 0
4.191 -4.051 -6.032 -0 -1.2 0
5.228 -4.973 -7.466 -0 -1.2 0
5.084 -5.042 -7.26 -0 -1.2 0
4.271 -4.553 -6.128 -0 -1.2 0
4.305 -4.736 -6.171 -0 -1.2 0
3.684 -4.336 -5.306 -0 -1.2 0
4.913 -5.62 -6.999 -0 -1.2 0
5.334 -6.42 -7.566 -0 -1.2 0
5.407 -6.707 -7.659 -0 -1.2 0
5.446 -6.966 -7.706 -0 -1.2 0
4.204 -5.781 -5.992 -0 -1.2 0
5.615 -7.617 -7.923 -0 -1.2 0
4.647 -6.676 -6.588 -0 -1.2 0
3.835 -5.856 -5.47 -0 -1.2 0
3.755 -5.923 -5.356 -0 -1.2 0
3.404 -5.618 -4.87 -0 -1.2 0
3.655 -6.131 -5.207 -0 -1.2 0
3.503 -6.085 -4.993 -0 -1.2 0
3.167 -5.753 -4.529 -0 -1.2 0
3.199 -5.965 -4.568 -0 -1.2 0
4.27 -7.86 -6.017 -0 -1.2 0
2.971 -5.928 -4.248 -0 -1.2 0
2.931 -6.026 -4.188 -0 -1.2 0
0.673 -0.022 -1.257 -0 -1.2 0
0.699 -0.015 -1.297 -0 -1.2 0
0.723 -0.016 -1.331 -0 -1.2 0
0.741 -0.023 -1.36 -0 -1.2 0
0.764 -0.026 -1.395 -0 -1.2 0
0.787 -0.029 -1.43 -0 -1.2 0
0.819 -0.022 -1.478 -0 -1.2 0
0.843 -0.028 -1.514 -0 -1.2 0
0.866 -0.035 -1.549 -0 -1.2 0
0.899 -0.032 -1.599 -0 -1.2 0
0.932 -0.031 -1.649 -0 -1.2 0
0.961 -0.036 -1.692 -0 -1.2 0
0.999 -0.033 -1.75 -0 -1.2 0
1.033 -0.038 -1.802 -0 -1.2 0
1.072 -0.038 -1.861 -0 -1.2 0
1.111 -0.042 -1.919 -0 -1.2 0
1.15 -0.047 -1.979 -0 -1.2 0
1.199 -0.045 -2.053 -0 -1.2 0
1.249 -0.045 -2.129 -0 -1.2 0
1.308 -0.041 -2.22 -0 -1.2 0
1.364 -0.044 -2.303 -0 -1.2 0
1.419 -0.049 -2.387 -0 -1.2 0
1.49 -0.048 -2.496 -0 -1.2 0
1.551 -0.056 -2.589 -0 -1.2 0
1.633 -0.055 -2.713 -0 -1.2 0
1.717 -0.059 -2.838 -0 -1.2 0
1.81 -0.062 -2.98 -0 -1.2 0
1.919 -0.062 -3.147 -0 -1.2 0
2.019 -0.073 -3.297 -0 -1.2 0
2.156 -0.073 -3.506 -0 -1.2 0
2.289 -0.083 -3.706 -0 -1.2 0
2.448 -0.09 -3.948 -0 -1.2 0
2.619 -0.102 -4.207 -0 -1.2 0
2.855 -0.101 -4.566 -0 -1.2 0
3.115 -0.107 -4.957 -0 -1.2 0
3.455 -0.106 -5.474 -0 -1.2 0
3.856 -0.111 -6.082 -0 -1.2 0
4.205 -0.153 -6.609 -0 -1.2 0
4.782 -0.172 -7.485 -0 -1.2 0
5.782 -0.155 -9.003 -0 -1.2 0
6.703 -0.214 -10.397 -0 -1.2 0
8.321 -0.258 -12.851 -0 -1.2 0
8.989 -0.757 -13.848 -0 -1.2 0
8.935 -1.041 -13.756 -0 -1.2 0
8.79 -1.317 -13.527 -0 -1.2 0
8.824 -1.595 -13.569 -0 -1.2 0
14.448 -2.362 -22.075 -0 -1.2 0
14.447 -2.817 -22.058 -0 -1.2 0
14.435 -3.272 -22.025 -0 -1.2 0
14.408 -3.723 -21.968 -0 -1.2 0
14.409 -4.181 -21.956 -0 -1.2 0
6.847 -2.777 -10.53 -0 -1.2 0
7.007 -3.04 -10.766 -0 -1.2 0
6.882 -3.224 -10.57 -0 -1.2 0
6.539 -3.327 -10.044 -0 -1.2 0
6.114 -3.776 -9.386 -0 -1.2 0
6.129 -3.984 -9.4 -0 -1.2 0
6.487 -4.369 -9.932 -0 -1.2 0
5.714 -4.167 -8.765 -0 -1.2 0
4.676 -3.762 -7.205 -0 -1.2 0
4.831 -4.015 -7.432 -0 -1.2 0
4.685 -4.087 -7.206 -0 -1.2 0
4.57 -4.171 -7.028 -0 -1.2 0
4.619 -4.367 -7.097 -0 -1.2 0
4.08 -4.125 -6.289 -0 -1.2 0
4.14 -4.32 -6.372 -0 -1.2 0
4.08 -4.421 -6.277 -0 -1.2 0
6.014 -6.244 -9.15 -0 -1.2 0
3.554 -4.251 -5.486 -0 -1.2 0
3.55 -4.383 -5.474 -0 -1.2 0
3.583 -4.553 -5.52 -0 -1.2 0
3.512 -4.623 -5.41 -0 -1.2 0
3.128 -4.357 -4.836 -0 -1.2 0
4.1 -5.729 -6.264 -0 -1.2 0
3.865 -5.626 -5.911 -0 -1.2 0
3.971 -5.926 -6.062 -0 -1.2 0
4.373 -6.618 -6.647 -0 -1.2 0
3.781 -6.033 -5.77 -0 -1.2 0
3.37 -5.646 -5.159 -0 -1.2 0
5.377 -8.67 -8.102 -0 -1.2 0
5.349 -8.897 -8.053 -0 -1.2 0
3.056 -5.665 -4.683 -0 -1.2 0
5.299 -9.372 -7.96 -0 -1.2 0
2.927 -5.779 -4.484 -0 -1.2 0
2.949 -5.978 -4.51 -0 -1.2 0
2.912 -6.08 -4.45 -0 -1.2 0
3.639 -7.57 -5.503 -0 -1.2 0
0.64 -0.016 -1.271 -0 -1.2 0
0.661 -0.016 -1.305 -0 -1.2 0
0.679 -0.023 -1.335 -0 -1.2 0
0.704 -0.018 -1.376 -0 -1.2 0
0.727 -0.021 -1.411 -0 -1.2 0
0.748 -0.024 -1.447 -0 -1.2 0
0.77 -0.029 -1.484 -0 -1.2 0
0.796 -0.029 -1.527 -0 -1.2 0
0.819 -0.036 -1.563 -0 -1.2 0
0.849 -0.033 -1.614 -0 -1.2 0
0.881 -0.032 -1.665 -0 -1.2 0
0.908 -0.038 -1.71 -0 -1.2 0
0.94 -0.04 -1.762 -0 -1.2 0
0.976 -0.039 -1.821 -0 -1.2 0
1.013 -0.039 -1.881 -0 -1.2 0
1.054 -0.038 -1.95 -0 -1.2 0
1.091 -0.043 -2.01 -0 -1.2 0
1.133 -0.046 -2.079 -0 -1.2 0
1.184 -0.043 -2.164 -0 -1.2 0
1.241 -0.038 -2.257 -0 -1.2 0
1.283 -0.049 -2.326 -0 -1.2 0
1.341 -0.051 -2.421 -0 -1.2 0
1.404 -0.053 -2.524 -0 -1.2 0
1.466 -0.058 -2.627 -0 -1.2 0
1.539 -0.061 -2.745 -0 -1.2 0
1.622 -0.061 -2.882 -0 -1.2 0
1.71 -0.065 -3.027 -0 -1.2 0
1.809 -0.067 -3.189 -0 -1.2 0
1.918 -0.07 -3.368 -0 -1.2 0
2.037 -0.075 -3.565 -0 -1.2 0
2.168 -0.083 -3.778 -0 -1.2 0
2.314 -0.093 -4.018 -0 -1.2 0
2.476 -0.105 -4.283 -0 -1.2 0
2.688 -0.109 -4.632 -0 -1.2 0
2.937 -0.113 -5.041 -0 -1.2 0
3.264 -0.111 -5.578 -0 -1.2 0
3.638 -0.118 -6.193 -0 -1.2 0
3.906 -0.175 -6.63 -0 -1.2 0
4.302 -0.223 -7.279 -0 -1.2 0
5.386 -0.177 -9.062 -0 -1.2 0
6.234 -0.236 -10.453 -0 -1.2 0
7.281 -0.332 -12.17 -0 -1.2 0
7.28 -0.576 -12.16 -0 -1.2 0
7.303 -0.817 -12.19 -0 -1.2 0
8.228 -1.054 -13.702 -0 -1.2 0
8.138 -1.324 -13.545 -0 -1.2 0
8.253 -1.601 -13.725 -0 -1.2 0
14.528 -2.463 -24.006 -0 -1.2 0
14.527 -2.947 -23.986 -0 -1.2 0
14.447 -3.42 -23.84 -0 -1.2 0
14.437 -3.903 -23.806 -0 -1.2 0
14.427 -4.385 -23.774 -0 -1.2 0
6.774 -2.866 -11.251 -0 -1.2 0
6.641 -3.055 -11.028 -0 -1.2 0
6.466 -3.221 -10.735 -0 -1.2 0
6.249 -3.361 -10.373 -0 -1.2 0
6.196 -3.766 -10.272 -0 -1.2 0
5.613 -3.902 -9.31 -0 -1.2 0
4.369 -3.429 -7.282 -0 -1.2 0
5.414 -4.183 -8.973 -0 -1.2 0
4.453 -3.79 -7.408 -0 -1.2 0
6.418 -5.223 -10.589 -0 -1.2 0
4.47 -4.123 -7.425 -0 -1.2 0
5.614 -5.113 -9.271 -0 -1.2 0
6.39 -5.913 -10.519 -0 -1.2 0
3.981 -4.232 -6.618 -0 -1.2 0
3.603 -4.067 -6.002 -0 -1.2 0
3.668 -4.263 -6.102 -0 -1.2 0
3.442 -4.199 -5.732 -0 -1.2 0
3.358 -4.255 -5.593 -0 -1.2 0
3.293 -4.327 -5.484 -0 -1.2 0
3.269 -4.438 -5.442 -0 -1.2 0
3.268 -4.573 -5.435 -0 -1.2 0
3.038 -4.453 -5.061 -0 -1.2 0
4.021 -5.735 -6.632 -0 -1.2 0
4.011 -5.902 -6.611 -0 -1.2 0
3.678 -5.664 -6.072 -0 -1.2 0
2.611 -4.437 -4.359 -0 -1.2 0
3.395 -5.625 -5.608 -0 -1.2 0
4.087 -6.763 -6.706 -0 -1.2 0
3.02 -5.564 -4.992 -0 -1.2 0
2.935 -5.59 -4.853 -0 -1.2 0
4.844 -8.838 -7.88 -0 -1.2 0
2.914 -5.874 -4.81 -0 -1.2 0
4.329 -8.493 -7.047 -0 -1.2 0
2.779 -5.967 -4.584 -0 -1.2 0
4.215 -9.065 -6.838 -0 -1.2 0
0.604 -0.016 -1.274 -0 -1.2 0
0.62 -0.023 -1.303 -0 -1.2 0
0.641 -0.023 -1.339 -0 -1.2 0
0.661 -0.024 -1.375 -0 -1.2 0
0.685 -0.021 -1.417 -0 -1.2 0
0.706 -0.024 -1.455 -0 -1.2 0
0.73 -0.023 -1.498 -0 -1.2 0
0.747 -0.035 -1.528 -0 -1.2 0
0.776 -0.03 -1.58 -0 -1.2 0
0.801 -0.033 -1.625 -0 -1.2 0
0.827 -0.038 -1.67 -0 -1.2 0
0.856 -0.038 -1.722 -0 -1.2 0
0.887 -0.04 -1.775 -0 -1.2 0
0.917 -0.044 -1.828 -0 -1.2 0
0.952 -0.045 -1.889 -0 -1.2 0
0.99 -0.043 -1.959 -0 -1.2 0
1.026 -0.048 -2.021 -0 -1.2 0
1.069 -0.047 -2.099 -0 -1.2 0
1.113 -0.047 -2.177 -0 -1.2 0
1.166 -0.043 -2.272 -0 -1.2 0
1.212 -0.05 -2.351 -0 -1.2 0
1.261 -0.055 -2.439 -0 -1.2 0
1.32 -0.057 -2.543 -0 -1.2 0
1.384 -0.059 -2.656 -0 -1.2 0
1.448 -0.066 -2.77 -0 -1.2 0
1.522 -0.069 -2.901 -0 -1.2 0
1.605 -0.071 -3.048 -0 -1.2 0
1.693 -0.077 -3.206 -0 -1.2 0
1.806 -0.074 -3.404 -0 -1.2 0
1.918 -0.079 -3.605 -0 -1.2 0
2.042 -0.087 -3.823 -0 -1.2 0
2.184 -0.094 -4.075 -0 -1.2 0
2.341 -0.104 -4.354 -0 -1.2 0
2.533 -0.113 -4.693 -0 -1.2 0
2.758 -0.121 -5.094 -0 -1.2 0
3.063 -0.12 -5.633 -0 -1.2 0
3.411 -0.128 -6.25 -0 -1.2 0
3.658 -0.187 -6.688 -0 -1.2 0
3.94 -0.254 -7.185 -0 -1.2 0
5.119 -0.176 -9.28 -0 -1.2 0
5.911 -0.24 -10.683 -0 -1.2 0
6.835 -0.345 -12.32 -0 -1.2 0
6.84 -0.586 -12.32 -0 -1.2 0
6.847 -0.827 -12.324 -0 -1.2 0
7.647 -1.063 -13.735 -0 -1.2 0
7.542 -1.329 -13.54 -0 -1.2 0
7.621 -1.599 -13.672 -0 -1.2 0
6.271 -3.287 -11.219 -0 -1.2 0
6.201 -3.485 -11.089 -0 -1.2 0
5.92 -4.022 -10.572 -0 -1.2 0
4.223 -3.333 -7.584 -0 -1.2 0
4.053 -3.392 -7.281 -0 -1.2 0
3.855 -3.422 -6.928 -0 -1.2 0
4.219 -3.802 -7.561 -0 -1.2 0
4.16 -3.923 -7.452 -0 -1.2 0
4.627 -4.422 -8.264 -0 -1.2 0
4.109 -4.205 -7.352 -0 -1.2 0
3.765 -4.091 -6.746 -0 -1.2 0
4.323 -4.713 -7.714 -0 -1.2 0
4.784 -5.297 -8.515 -0 -1.2 0
3.373 -4.182 -6.047 -0 -1.2 0
3.298 -4.25 -5.912 -0 -1.2 0
3.001 -4.088 -5.39 -0 -1.2 0
2.933 -4.142 -5.267 -0 -1.2 0
2.943 -4.282 -5.28 -0 -1.2 0
4.32 -5.992 -7.666 -0 -1.2 0
4.386 -6.269 -7.775 -0 -1.2 0
3.171 -4.963 -5.664 -0 -1.2 0
2.577 -4.345 -4.629 -0 -1.2 0
3.402 -5.574 -6.052 -0 -1.2 0
3.851 -6.362 -6.821 -0 -1.2 0
4.982 -8.185 -8.767 -0 -1.2 0
4.075 -7.091 -7.195 -0 -1.2 0
4.03 -7.235 -7.109 -0 -1.2 0
3.007 -5.817 -5.343 -0 -1.2 0
3.064 -6.078 -5.436 -0 -1.2 0
4.569 -8.835 -8.013 -0 -1.2 0
2.782 -5.93 -4.938 -0 -1.2 0
2.637 -5.833 -4.686 -0 -1.2 0
2.66 -6.039 -4.719 -0 -1.2 0
3.969 -8.785 -6.951 -0 -1.2 0
3.302 -7.693 -5.804 -0 -1.2 0
0.569 -0.017 -1.276 -0 -1.2 0
0.584 -0.023 -1.305 -0 -1.2 0
0.603 -0.024 -1.342 -0 -1.2 0
0.622 -0.025 -1.378 -0 -1.2 0
0.645 -0.021 -1.423 -0 -1.2 0
0.661 -0.031 -1.453 -0 -1.2 0
0.687 -0.024 -1.504 -0 -1.2 0
0.708 -0.029 -1.542 -0 -1.2 0
0.731 -0.031 -1.587 -0 -1.2 0
0.758 -0.028 -1.64 -0 -1.2 0
0.779 -0.039 -1.679 -0 -1.2 0
0.806 -0.038 -1.732 -0 -1.2 0
0.835 -0.041 -1.786 -0 -1.2 0
0.867 -0.04 -1.848 -0 -1.2 0
0.899 -0.04 -1.91 -0 -1.2 0
0.936 -0.04 -1.98 -0 -1.2 0
0.965 -0.05 -2.036 -0 -1.2 0
1.006 -0.048 -2.115 -0 -1.2 0
1.044 -0.053 -2.187 -0 -1.2 0
1.094 -0.049 -2.284 -0 -1.2 0
1.141 -0.051 -2.372 -0 -1.2 0
1.192 -0.053 -2.47 -0 -1.2 0
1.243 -0.059 -2.568 -0 -1.2 0
1.299 -0.064 -2.675 -0 -1.2 0
1.363 -0.067 -2.799 -0 -1.2 0
1.432 -0.071 -2.932 -0 -1.2 0
1.506 -0.077 -3.074 -0 -1.2 0
1.598 -0.076 -3.251 -0 -1.2 0
1.692 -0.082 -3.428 -0 -1.2 0
1.802 -0.084 -3.64 -0 -1.2 0
1.922 -0.09 -3.871 -0 -1.2 0
2.052 -0.099 -4.119 -0 -1.2 0
2.204 -0.107 -4.412 -0 -1.2 0
2.375 -0.119 -4.74 -0 -1.2 0
2.597 -0.124 -5.165 -0 -1.2 0
2.873 -0.127 -5.696 -0 -1.2 0
3.206 -0.133 -6.334 -0 -1.2 0
3.426 -0.195 -6.752 -0 -1.2 0
3.709 -0.258 -7.293 -0 -1.2 0
3.721 -0.396 -7.314 -0 -1.2 0
3.729 -0.535 -7.323 -0 -1.2 0
3.739 -0.673 -7.338 -0 -1.2 0
3.748 -0.811 -7.352 -0 -1.2 0
3.753 -0.951 -7.354 -0 -1.2 0
3.764 -1.091 -7.373 -0 -1.2 0
3.775 -1.23 -7.389 -0 -1.2 0
3.78 -1.37 -7.394 -0 -1.2 0
3.794 -1.512 -7.413 -0 -1.2 0
3.805 -1.654 -7.432 -0 -1.2 0
3.807 -1.796 -7.43 -0 -1.2 0
3.817 -1.94 -7.444 -0 -1.2 0
3.843 -2.09 -7.49 -0 -1.2 0
3.846 -2.234 -7.491 -0 -1.2 0
3.857 -2.382 -7.506 -0 -1.2 0
3.866 -2.531 -7.52 -0 -1.2 0
3.875 -2.682 -7.53 -0 -1.2 0
