# .PCD v.7 - Point Cloud Data file format
FIELDS x y z vp_x vp_y vp_z
SIZE 4 4 4 4 4 4
TYPE F F F F F F
COUNT 1 1 1 1 1 1
WIDTH 1600
HEIGHT 1
VIEWPOINT 0 -1.20013 0 1 0 0 0
POINTS 1600
DATA ascii
6.731 0.019 -4.665 -0 -1.2 0
7.612 0.008 -5.238 -0 -1.2 0
8.936 0.018 -6.098 -0 -1.2 0
10.313 -0.022 -6.993 -0 -1.2 0
9.461 -0.309 -6.432 -0 -1.2 0
9.356 -0.513 -6.359 -0 -1.2 0
9.6 -0.695 -6.514 -0 -1.2 0
13.059 -0.815 -8.76 -0 -1.2 0
13.148 -1.085 -8.812 -0 -1.2 0
13.258 -1.359 -8.877 -0 -1.2 0
18.718 -7.421 -12.293 -0 -1.2 0
17.419 -7.37 -11.449 -0 -1.2 0
17.072 -7.631 -11.217 -0 -1.2 0
15.64 -7.437 -10.291 -0 -1.2 0
17.961 -9.642 -11.751 -0 -1.2 0
20.297 -11.739 -13.223 -0 -1.2 0
15.684 -9.7 -10.27 -0 -1.2 0
10.78 -7.269 -7.137 -0 -1.2 0
10.556 -7.407 -6.988 -0 -1.2 0
9.166 -6.809 -6.098 -0 -1.2 0
8.98 -6.928 -5.974 -0 -1.2 0
11.916 -9.829 -7.818 -0 -1.2 0
6.859 -6.296 -4.61 -0 -1.2 0
7.317 -6.859 -4.895 -0 -1.2 0
7.96 -7.608 -5.297 -0 -1.2 0
7.709 -7.635 -5.132 -0 -1.2 0
7.356 -7.563 -4.905 -0 -1.2 0
6.842 -7.325 -4.576 -0 -1.2 0
8.26 -8.901 -5.462 -0 -1.2 0
6.989 -7.927 -4.659 -0 -1.2 0
8.203 -9.41 -5.414 -0 -1.2 0
6.662 -8.074 -4.442 -0 -1.2 0
8.293 -10.108 -5.457 -0 -1.2 0
6.879 -8.819 -4.567 -0 -1.2 0
8.185 -10.623 -5.376 -0 -1.2 0
0.971 -0.011 -0.955 -0 -1.2 0
1.009 -0.003 -0.983 -0 -1.2 0
1.037 -0.008 -1.002 -0 -1.2 0
1.071 -0.009 -1.025 -0 -1.2 0
1.105 -0.011 -1.049 -0 -1.2 0
1.14 -0.014 -1.073 -0 -1.2 0
1.175 -0.018 -1.097 -0 -1.2 0
1.209 -0.023 -1.122 -0 -1.2 0
1.258 -0.017 -1.155 -0 -1.2 0
1.293 -0.025 -1.179 -0 -1.2 0
1.341 -0.022 -1.213 -0 -1.2 0
1.384 -0.027 -1.242 -0 -1.2 0
1.434 -0.028 -1.278 -0 -1.2 0
1.47 -0.041 -1.303 -0 -1.2 0
1.535 -0.035 -1.347 -0 -1.2 0
1.593 -0.037 -1.387 -0 -1.2 0
1.651 -0.04 -1.428 -0 -1.2 0
1.716 -0.04 -1.474 -0 -1.2 0
1.79 -0.039 -1.525 -0 -1.2 0
1.857 -0.045 -1.572 -0 -1.2 0
1.946 -0.041 -1.633 -0 -1.2 0
2.028 -0.044 -1.691 -0 -1.2 0
2.119 -0.047 -1.754 -0 -1.2 0
2.232 -0.042 -1.833 -0 -1.2 0
2.339 -0.045 -1.907 -0 -1.2 0
2.463 -0.044 -1.993 -0 -1.2 0
2.593 -0.046 -2.084 -0 -1.2 0
2.749 -0.045 -2.192 -0 -1.2 0
2.928 -0.04 -2.317 -0 -1.2 0
3.124 -0.037 -2.454 -0 -1.2 0
3.353 -0.032 -2.614 -0 -1.2 0
3.837 0.041 -2.952 -0 -1.2 0
4.172 0.05 -3.186 -0 -1.2 0
4.494 0.043 -3.409 -0 -1.2 0
4.872 0.035 -3.673 -0 -1.2 0
5.316 0.025 -3.981 -0 -1.2 0
5.899 0.024 -4.387 -0 -1.2 0
6.564 0.012 -4.85 -0 -1.2 0
7.468 0.008 -5.478 -0 -1.2 0
8.731 0.013 -6.358 -0 -1.2 0
9.858 -0.051 -7.142 -0 -1.2 0
8.802 -0.352 -6.4 -0 -1.2 0
8.822 -0.537 -6.409 -0 -1.2 0
8.954 -0.718 -6.497 -0 -1.2 0
9.576 -0.893 -6.926 -0 -1.2 0
13.2 -1.366 -9.438 -0 -1.2 0
17.195 -7.429 -12.083 -0 -1.2 0
15.23 -7.768 -10.708 -0 -1.2 0
15.135 -8.087 -10.635 -0 -1.2 0
13.778 -8.127 -9.689 -0 -1.2 0
8.285 -5.516 -5.923 -0 -1.2 0
8.304 -5.735 -5.932 -0 -1.2 0
8.142 -5.851 -5.817 -0 -1.2 0
8.339 -6.184 -5.947 -0 -1.2 0
8.45 -6.475 -6.017 -0 -1.2 0
8.546 -6.999 -6.072 -0 -1.2 0
7.426 -6.426 -5.305 -0 -1.2 0
8.663 -7.569 -6.14 -0 -1.2 0
6.592 -6.2 -4.729 -0 -1.2 0
6.457 -6.287 -4.634 -0 -1.2 0
6.288 -6.34 -4.516 -0 -1.2 0
6.04 -6.317 -4.343 -0 -1.2 0
6.681 -7.091 -4.772 -0 -1.2 0
7.008 -7.616 -4.987 -0 -1.2 0
8.818 -9.614 -6.203 -0 -1.2 0
8.073 -9.168 -5.694 -0 -1.2 0
6.66 -7.979 -4.737 -0 -1.2 0
7.767 -9.418 -5.475 -0 -1.2 0
6.298 -8.068 -4.483 -0 -1.2 0
7.677 -9.91 -5.401 -0 -1.2 0
8.64 -11.375 -6.039 -0 -1.2 0
0.955 -0.004 -0.98 -0 -1.2 0
0.988 -0.003 -1.004 -0 -1.2 0
1.009 -0.016 -1.02 -0 -1.2 0
1.042 -0.017 -1.044 -0 -1.2 0
1.081 -0.012 -1.073 -0 -1.2 0
1.114 -0.015 -1.099 -0 -1.2 0
1.148 -0.019 -1.124 -0 -1.2 0
1.182 -0.024 -1.149 -0 -1.2 0
1.229 -0.018 -1.184 -0 -1.2 0
1.27 -0.019 -1.215 -0 -1.2 0
1.305 -0.028 -1.24 -0 -1.2 0
1.36 -0.022 -1.281 -0 -1.2 0
1.396 -0.034 -1.307 -0 -1.2 0
1.451 -0.031 -1.349 -0 -1.2 0
1.501 -0.035 -1.386 -0 -1.2 0
1.556 -0.037 -1.427 -0 -1.2 0
1.613 -0.04 -1.469 -0 -1.2 0
1.678 -0.041 -1.517 -0 -1.2 0
1.75 -0.04 -1.571 -0 -1.2 0
1.823 -0.041 -1.625 -0 -1.2 0
1.903 -0.042 -1.684 -0 -1.2 0
1.983 -0.045 -1.744 -0 -1.2 0
2.079 -0.044 -1.816 -0 -1.2 0
2.175 -0.045 -1.887 -0 -1.2 0
2.287 -0.045 -1.971 -0 -1.2 0
2.407 -0.045 -2.06 -0 -1.2 0
2.528 -0.051 -2.149 -0 -1.2 0
2.687 -0.046 -2.268 -0 -1.2 0
2.855 -0.044 -2.393 -0 -1.2 0
3.054 -0.038 -2.542 -0 -1.2 0
3.248 -0.043 -2.685 -0 -1.2 0
3.751 0.039 -3.061 -0 -1.2 0
4.071 0.047 -3.3 -0 -1.2 0
4.393 0.041 -3.539 -0 -1.2 0
4.756 0.032 -3.808 -0 -1.2 0
5.212 0.027 -4.149 -0 -1.2 0
5.759 0.021 -4.555 -0 -1.2 0
6.505 0.026 -5.11 -0 -1.2 0
7.347 0.012 -5.737 -0 -1.2 0
8.551 0.012 -6.633 -0 -1.2 0
9.7 -0.047 -7.487 -0 -1.2 0
8.597 -0.356 -6.658 -0 -1.2 0
8.616 -0.541 -6.669 -0 -1.2 0
8.649 -0.725 -6.688 -0 -1.2 0
9.104 -0.901 -7.024 -0 -1.2 0
16.317 -6.115 -12.271 -0 -1.2 0
22.106 -8.408 -16.526 -0 -1.2 0
20.604 -8.387 -15.409 -0 -1.2 0
20.473 -8.819 -15.302 -0 -1.2 0
20.239 -9.691 -15.108 -0 -1.2 0
21.387 -10.696 -15.939 -0 -1.2 0
19.846 -10.487 -14.797 -0 -1.2 0
10.58 -6.35 -7.997 -0 -1.2 0
10.359 -6.498 -7.829 -0 -1.2 0
10.173 -6.659 -7.688 -0 -1.2 0
9.943 -6.788 -7.513 -0 -1.2 0
11.425 -8.553 -8.576 -0 -1.2 0
8.344 -6.759 -6.323 -0 -1.2 0
8.014 -6.758 -6.078 -0 -1.2 0
6.867 -6.136 -5.239 -0 -1.2 0
7.01 -6.445 -5.338 -0 -1.2 0
6.563 -6.294 -5.008 -0 -1.2 0
6.483 -6.429 -4.947 -0 -1.2 0
6.734 -6.846 -5.124 -0 -1.2 0
6.786 -7.106 -5.157 -0 -1.2 0
6.598 -7.153 -5.016 -0 -1.2 0
6.585 -7.36 -5.001 -0 -1.2 0
6.649 -7.65 -5.042 -0 -1.2 0
8.375 -9.665 -6.28 -0 -1.2 0
7.403 -8.931 -5.574 -0 -1.2 0
8.527 -10.451 -6.376 -0 -1.2 0
8.658 -10.93 -6.462 -0 -1.2 0
8.398 -10.968 -6.268 -0 -1.2 0
8.446 -11.371 -6.293 -0 -1.2 0
0.925 -0.011 -0.998 -0 -1.2 0
0.957 -0.01 -1.023 -0 -1.2 0
0.989 -0.009 -1.048 -0 -1.2 0
1.021 -0.01 -1.074 -0 -1.2 0
1.06 -0.005 -1.104 -0 -1.2 0
1.087 -0.015 -1.126 -0 -1.2 0
1.126 -0.012 -1.157 -0 -1.2 0
1.159 -0.018 -1.183 -0 -1.2 0
1.199 -0.018 -1.215 -0 -1.2 0
1.239 -0.02 -1.247 -0 -1.2 0
1.279 -0.023 -1.279 -0 -1.2 0
1.32 -0.028 -1.311 -0 -1.2 0
1.361 -0.035 -1.343 -0 -1.2 0
1.414 -0.032 -1.386 -0 -1.2 0
1.462 -0.036 -1.424 -0 -1.2 0
1.524 -0.033 -1.475 -0 -1.2 0
1.58 -0.036 -1.519 -0 -1.2 0
1.635 -0.042 -1.563 -0 -1.2 0
1.706 -0.041 -1.619 -0 -1.2 0
1.769 -0.046 -1.669 -0 -1.2 0
1.854 -0.042 -1.737 -0 -1.2 0
1.94 -0.041 -1.806 -0 -1.2 0
2.019 -0.048 -1.869 -0 -1.2 0
2.12 -0.046 -1.949 -0 -1.2 0
2.222 -0.049 -2.03 -0 -1.2 0
2.346 -0.046 -2.129 -0 -1.2 0
2.472 -0.048 -2.229 -0 -1.2 0
2.619 -0.047 -2.347 -0 -1.2 0
2.783 -0.045 -2.478 -0 -1.2 0
2.977 -0.04 -2.633 -0 -1.2 0
3.165 -0.044 -2.783 -0 -1.2 0
3.656 0.038 -3.176 -0 -1.2 0
3.975 0.047 -3.431 -0 -1.2 0
4.289 0.041 -3.68 -0 -1.2 0
4.649 0.034 -3.968 -0 -1.2 0
5.096 0.028 -4.323 -0 -1.2 0
5.62 0.019 -4.741 -0 -1.2 0
6.362 0.027 -5.333 -0 -1.2 0
7.169 0.012 -5.976 -0 -1.2 0
8.147 -0.016 -6.756 -0 -1.2 0
7.299 -0.294 -6.073 -0 -1.2 0
7.101 -0.474 -5.911 -0 -1.2 0
7.165 -0.627 -5.958 -0 -1.2 0
7.321 -0.779 -6.079 -0 -1.2 0
8.826 -0.906 -7.276 -0 -1.2 0
19.43 -6.785 -15.595 -0 -1.2 0
19.544 -8.667 -15.641 -0 -1.2 0
19.031 -8.928 -15.227 -0 -1.2 0
18.926 -9.348 -15.133 -0 -1.2 0
12.129 -6.977 -9.769 -0 -1.2 0
10.306 -6.35 -8.33 -0 -1.2 0
14.191 -8.707 -11.373 -0 -1.2 0
10.163 -6.801 -8.204 -0 -1.2 0
15.045 -9.957 -12.024 -0 -1.2 0
8.952 -6.592 -7.243 -0 -1.2 0
8.828 -6.756 -7.142 -0 -1.2 0
8.335 -6.667 -6.75 -0 -1.2 0
7.06 -6.007 -5.749 -0 -1.2 0
6.679 -5.932 -5.447 -0 -1.2 0
7.06 -6.416 -5.74 -0 -1.2 0
6.514 -6.194 -5.309 -0 -1.2 0
6.762 -6.597 -5.498 -0 -1.2 0
6.688 -6.744 -5.436 -0 -1.2 0
6.418 -6.717 -5.22 -0 -1.2 0
6.566 -7.062 -5.33 -0 -1.2 0
5.973 -6.716 -4.866 -0 -1.2 0
6.253 -7.197 -5.077 -0 -1.2 0
6.441 -7.609 -5.218 -0 -1.2 0
8.476 -9.996 -6.785 -0 -1.2 0
9.444 -11.372 -7.524 -0 -1.2 0
8.468 -10.628 -6.764 -0 -1.2 0
7.411 -9.721 -5.942 -0 -1.2 0
7.911 -10.63 -6.319 -0 -1.2 0
8.185 -11.31 -6.523 -0 -1.2 0
0.903 -0.011 -1.014 -0 -1.2 0
0.933 -0.01 -1.041 -0 -1.2 0
0.965 -0.009 -1.067 -0 -1.2 0
0.996 -0.01 -1.094 -0 -1.2 0
1.022 -0.018 -1.116 -0 -1.2 0
1.06 -0.015 -1.148 -0 -1.2 0
1.098 -0.012 -1.18 -0 -1.2 0
1.13 -0.018 -1.207 -0 -1.2 0
1.163 -0.024 -1.235 -0 -1.2 0
1.202 -0.026 -1.268 -0 -1.2 0
1.247 -0.023 -1.307 -0 -1.2 0
1.292 -0.023 -1.346 -0 -1.2 0
1.333 -0.029 -1.379 -0 -1.2 0
1.38 -0.032 -1.419 -0 -1.2 0
1.427 -0.036 -1.458 -0 -1.2 0
1.48 -0.038 -1.504 -0 -1.2 0
1.534 -0.041 -1.55 -0 -1.2 0
1.601 -0.037 -1.607 -0 -1.2 0
1.656 -0.045 -1.654 -0 -1.2 0
1.732 -0.042 -1.718 -0 -1.2 0
1.801 -0.047 -1.777 -0 -1.2 0
1.891 -0.042 -1.854 -0 -1.2 0
1.968 -0.049 -1.92 -0 -1.2 0
2.06 -0.051 -1.997 -0 -1.2 0
2.166 -0.05 -2.087 -0 -1.2 0
2.28 -0.051 -2.184 -0 -1.2 0
2.41 -0.049 -2.294 -0 -1.2 0
2.554 -0.048 -2.416 -0 -1.2 0
2.714 -0.045 -2.551 -0 -1.2 0
2.895 -0.043 -2.706 -0 -1.2 0
3.078 -0.048 -2.862 -0 -1.2 0
3.358 -0.03 -3.099 -0 -1.2 0
3.824 0.031 -3.497 -0 -1.2 0
4.189 0.042 -3.807 -0 -1.2 0
4.54 0.034 -4.105 -0 -1.2 0
4.968 0.027 -4.468 -0 -1.2 0
5.539 0.031 -4.953 -0 -1.2 0
6.188 0.022 -5.503 -0 -1.2 0
6.944 0.002 -6.145 -0 -1.2 0
7.785 -0.04 -6.858 -0 -1.2 0
6.745 -0.339 -5.969 -0 -1.2 0
6.711 -0.497 -5.936 -0 -1.2 0
6.773 -0.644 -5.985 -0 -1.2 0
6.863 -0.794 -6.058 -0 -1.2 0
7.25 -0.94 -6.382 -0 -1.2 0
9.388 -1.316 -8.189 -0 -1.2 0
11.772 -1.637 -10.206 -0 -1.2 0
11.782 -1.905 -10.208 -0 -1.2 0
11.795 -2.175 -10.213 -0 -1.2 0
11.805 -2.445 -10.215 -0 -1.2 0
11.812 -2.716 -10.214 -0 -1.2 0
11.814 -2.988 -10.21 -0 -1.2 0
11.828 -3.263 -10.215 -0 -1.2 0
11.824 -3.536 -10.205 -0 -1.2 0
11.845 -3.816 -10.216 -0 -1.2 0
11.863 -4.097 -10.225 -0 -1.2 0
11.863 -4.376 -10.218 -0 -1.2 0
11.857 -4.655 -10.207 -0 -1.2 0
11.871 -4.942 -10.211 -0 -1.2 0
11.888 -5.234 -10.219 -0 -1.2 0
11.886 -5.522 -10.21 -0 -1.2 0
11.894 -5.816 -10.21 -0 -1.2 0
10.296 -6.215 -8.844 -0 -1.2 0
10.393 -6.533 -8.918 -0 -1.2 0
15.485 -9.62 -13.169 -0 -1.2 0
10.059 -6.889 -8.625 -0 -1.2 0
6.941 -5.271 -6.018 -0 -1.2 0
8.309 -6.328 -7.154 -0 -1.2 0
6.988 -5.684 -6.047 -0 -1.2 0
7.356 -6.135 -6.348 -0 -1.2 0
7.094 -6.159 -6.126 -0 -1.2 0
6.768 -6.124 -5.85 -0 -1.2 0
6.972 -6.485 -6.014 -0 -1.2 0
6.4 -6.233 -5.534 -0 -1.2 0
6.287 -6.337 -5.436 -0 -1.2 0
6.294 -6.544 -5.437 -0 -1.2 0
6.519 -6.954 -5.618 -0 -1.2 0
7.983 -8.55 -6.823 -0 -1.2 0
7.072 -7.933 -6.064 -0 -1.2 0
6.927 -8.035 -5.939 -0 -1.2 0
9.356 -10.831 -7.934 -0 -1.2 0
8.133 -9.85 -6.919 -0 -1.2 0
8.32 -10.372 -7.066 -0 -1.2 0
8.485 -10.891 -7.193 -0 -1.2 0
0.883 -0.004 -1.036 -0 -1.2 0
0.908 -0.01 -1.058 -0 -1.2 0
0.939 -0.009 -1.086 -0 -1.2 0
0.964 -0.017 -1.109 -0 -1.2 0
0.994 -0.018 -1.136 -0 -1.2 0
1.031 -0.015 -1.17 -0 -1.2 0
1.057 -0.025 -1.192 -0 -1.2 0
1.106 -0.012 -1.237 -0 -1.2 0
1.137 -0.018 -1.266 -0 -1.2 0
1.181 -0.014 -1.306 -0 -1.2 0
1.22 -0.017 -1.339 -0 -1.2 0
1.253 -0.027 -1.368 -0 -1.2 0
1.304 -0.023 -1.415 -0 -1.2 0
1.343 -0.031 -1.45 -0 -1.2 0
1.395 -0.03 -1.497 -0 -1.2 0
1.441 -0.037 -1.538 -0 -1.2 0
1.493 -0.04 -1.586 -0 -1.2 0
1.553 -0.041 -1.64 -0 -1.2 0
1.619 -0.04 -1.7 -0 -1.2 0
1.679 -0.046 -1.754 -0 -1.2 0
1.76 -0.042 -1.827 -0 -1.2 0
1.834 -0.045 -1.895 -0 -1.2 0
1.916 -0.048 -1.969 -0 -1.2 0
1.998 -0.054 -2.043 -0 -1.2 0
2.109 -0.049 -2.143 -0 -1.2 0
2.22 -0.05 -2.243 -0 -1.2 0
2.338 -0.052 -2.349 -0 -1.2 0
2.485 -0.047 -2.483 -0 -1.2 0
2.619 -0.054 -2.604 -0 -1.2 0
2.811 -0.045 -2.777 -0 -1.2 0
2.997 -0.048 -2.945 -0 -1.2 0
3.226 -0.044 -3.152 -0 -1.2 0
3.73 0.033 -3.609 -0 -1.2 0
4.07 0.04 -3.918 -0 -1.2 0
4.412 0.032 -4.227 -0 -1.2 0
4.813 0.021 -4.589 -0 -1.2 0
5.399 0.031 -5.118 -0 -1.2 0
6.015 0.02 -5.676 -0 -1.2 0
6.794 0.006 -6.38 -0 -1.2 0
6.545 -0.189 -6.15 -0 -1.2 0
6.484 -0.35 -6.091 -0 -1.2 0
6.451 -0.505 -6.056 -0 -1.2 0
6.577 -0.647 -6.168 -0 -1.2 0
6.577 -0.8 -6.162 -0 -1.2 0
6.834 -0.948 -6.391 -0 -1.2 0
7.839 -1.105 -7.296 -0 -1.2 0
8.744 -1.308 -8.11 -0 -1.2 0
12.001 -6.918 -10.916 -0 -1.2 0
11.739 -7.099 -10.675 -0 -1.2 0
10.167 -6.836 -9.26 -0 -1.2 0
6.776 -5.095 -6.238 -0 -1.2 0
6.617 -5.183 -6.092 -0 -1.2 0
6.511 -5.3 -5.993 -0 -1.2 0
6.864 -5.726 -6.302 -0 -1.2 0
7.294 -6.231 -6.678 -0 -1.2 0
7.235 -6.403 -6.621 -0 -1.2 0
7.265 -6.645 -6.642 -0 -1.2 0
6.161 -5.982 -5.659 -0 -1.2 0
6.918 -6.806 -6.324 -0 -1.2 0
5.788 -6.05 -5.321 -0 -1.2 0
6.503 -6.881 -5.947 -0 -1.2 0
7.381 -7.918 -6.716 -0 -1.2 0
7.598 -8.38 -6.9 -0 -1.2 0
7.48 -8.53 -6.79 -0 -1.2 0
7.948 -9.286 -7.194 -0 -1.2 0
6.955 -8.511 -6.316 -0 -1.2 0
6.987 -8.811 -6.337 -0 -1.2 0
6.826 -8.897 -6.19 -0 -1.2 0
8.203 -10.819 -7.387 -0 -1.2 0
8.078 -11.006 -7.27 -0 -1.2 0
7.875 -11.093 -7.084 -0 -1.2 0
0.855 -0.004 -1.057 -0 -1.2 0
0.88 -0.01 -1.079 -0 -1.2 0
0.91 -0.009 -1.108 -0 -1.2 0
0.944 -0.003 -1.143 -0 -1.2 0
0.969 -0.012 -1.166 -0 -1.2 0
1.005 -0.008 -1.2 -0 -1.2 0
1.035 -0.012 -1.23 -0 -1.2 0
1.065 -0.018 -1.259 -0 -1.2 0
1.102 -0.018 -1.295 -0 -1.2 0
1.144 -0.014 -1.336 -0 -1.2 0
1.181 -0.018 -1.372 -0 -1.2 0
1.213 -0.028 -1.402 -0 -1.2 0
1.262 -0.025 -1.45 -0 -1.2 0
1.306 -0.027 -1.493 -0 -1.2 0
1.35 -0.032 -1.536 -0 -1.2 0
1.394 -0.039 -1.579 -0 -1.2 0
1.451 -0.037 -1.634 -0 -1.2 0
1.503 -0.043 -1.684 -0 -1.2 0
1.561 -0.046 -1.739 -0 -1.2 0
1.626 -0.048 -1.802 -0 -1.2 0
1.698 -0.048 -1.872 -0 -1.2 0
1.77 -0.051 -1.942 -0 -1.2 0
1.855 -0.05 -2.025 -0 -1.2 0
1.935 -0.056 -2.102 -0 -1.2 0
2.041 -0.051 -2.206 -0 -1.2 0
2.148 -0.052 -2.31 -0 -1.2 0
2.263 -0.054 -2.421 -0 -1.2 0
2.399 -0.052 -2.553 -0 -1.2 0
2.542 -0.053 -2.692 -0 -1.2 0
2.713 -0.051 -2.858 -0 -1.2 0
2.9 -0.051 -3.039 -0 -1.2 0
3.101 -0.055 -3.234 -0 -1.2 0
3.588 0.023 -3.709 -0 -1.2 0
3.924 0.033 -4.036 -0 -1.2 0
4.263 0.026 -4.363 -0 -1.2 0
4.679 0.022 -4.767 -0 -1.2 0
5.252 0.034 -5.323 -0 -1.2 0
5.82 0.015 -5.875 -0 -1.2 0
6.575 0.001 -6.606 -0 -1.2 0
6.39 -0.185 -6.422 -0 -1.2 0
6.367 -0.344 -6.395 -0 -1.2 0
6.328 -0.502 -6.353 -0 -1.2 0
6.343 -0.654 -6.364 -0 -1.2 0
6.386 -0.804 -6.402 -0 -1.2 0
6.513 -0.955 -6.521 -0 -1.2 0
14.499 -7.607 -14.101 -0 -1.2 0
17.396 -9.376 -16.866 -0 -1.2 0
16.671 -9.478 -16.159 -0 -1.2 0
14.108 -8.569 -13.695 -0 -1.2 0
15.316 -9.633 -14.84 -0 -1.2 0
9.981 -6.926 -9.733 -0 -1.2 0
6.712 -5.193 -6.606 -0 -1.2 0
6.878 -5.492 -6.759 -0 -1.2 0
7.617 -6.191 -7.458 -0 -1.2 0
6.781 -5.826 -6.656 -0 -1.2 0
6.947 -6.152 -6.808 -0 -1.2 0
6.682 -6.161 -6.551 -0 -1.2 0
6.28 -6.05 -6.165 -0 -1.2 0
6.262 -6.234 -6.143 -0 -1.2 0
12.61 -11.907 -12.157 -0 -1.2 0
6.457 -6.817 -6.317 -0 -1.2 0
5.567 -6.208 -5.47 -0 -1.2 0
7.445 -8.21 -7.239 -0 -1.2 0
7.169 -8.198 -6.972 -0 -1.2 0
7.122 -8.676 -6.915 -0 -1.2 0
7.08 -8.9 -6.868 -0 -1.2 0
8.216 -10.488 -7.93 -0 -1.2 0
7.959 -10.845 -7.671 -0 -1.2 0
7.774 -10.951 -7.49 -0 -1.2 0
7.516 -10.953 -7.238 -0 -1.2 0
7.28 -10.974 -7.009 -0 -1.2 0
0.833 0.001 -1.079 -0 -1.2 0
0.846 -0.018 -1.092 -0 -1.2 0
0.879 -0.01 -1.127 -0 -1.2 0
0.913 -0.004 -1.162 -0 -1.2 0
0.931 -0.019 -1.181 -0 -1.2 0
0.966 -0.016 -1.217 -0 -1.2 0
0.995 -0.02 -1.247 -0 -1.2 0
1.03 -0.019 -1.284 -0 -1.2 0
1.065 -0.019 -1.32 -0 -1.2 0
1.096 -0.027 -1.351 -0 -1.2 0
1.142 -0.019 -1.4 -0 -1.2 0
1.173 -0.029 -1.431 -0 -1.2 0
1.215 -0.031 -1.474 -0 -1.2 0
1.263 -0.028 -1.524 -0 -1.2 0
1.306 -0.033 -1.569 -0 -1.2 0
1.349 -0.04 -1.613 -0 -1.2 0
1.404 -0.038 -1.671 -0 -1.2 0
1.46 -0.039 -1.728 -0 -1.2 0
1.509 -0.047 -1.78 -0 -1.2 0
1.572 -0.049 -1.845 -0 -1.2 0
1.641 -0.049 -1.917 -0 -1.2 0
1.718 -0.048 -1.996 -0 -1.2 0
1.788 -0.055 -2.068 -0 -1.2 0
1.871 -0.057 -2.154 -0 -1.2 0
1.968 -0.057 -2.255 -0 -1.2 0
2.078 -0.054 -2.369 -0 -1.2 0
2.182 -0.059 -2.478 -0 -1.2 0
2.307 -0.06 -2.607 -0 -1.2 0
2.459 -0.055 -2.765 -0 -1.2 0
2.618 -0.056 -2.929 -0 -1.2 0
2.798 -0.056 -3.116 -0 -1.2 0
3.006 -0.054 -3.331 -0 -1.2 0
3.268 -0.046 -3.604 -0 -1.2 0
3.782 0.026 -4.139 -0 -1.2 0
4.13 0.025 -4.499 -0 -1.2 0
4.566 0.03 -4.952 -0 -1.2 0
5.025 0.017 -5.427 -0 -1.2 0
5.63 0.011 -6.054 -0 -1.2 0
6.27 -0.018 -6.717 -0 -1.2 0
6.305 -0.172 -6.749 -0 -1.2 0
6.317 -0.329 -6.758 -0 -1.2 0
6.3 -0.489 -6.736 -0 -1.2 0
6.44 -0.636 -6.878 -0 -1.2 0
6.302 -0.803 -6.729 -0 -1.2 0
6.348 -0.959 -6.774 -0 -1.2 0
7.747 -1.31 -8.215 -0 -1.2 0
15.636 -8.798 -16.195 -0 -1.2 0
13.431 -8.081 -13.928 -0 -1.2 0
13.33 -8.403 -13.815 -0 -1.2 0
13.178 -8.694 -13.65 -0 -1.2 0
6.573 -5.057 -6.896 -0 -1.2 0
8.342 -6.377 -8.695 -0 -1.2 0
8.191 -6.523 -8.535 -0 -1.2 0
7.315 -6.157 -7.636 -0 -1.2 0
6.281 -5.627 -6.578 -0 -1.2 0
7.18 -6.505 -7.488 -0 -1.2 0
6.724 -6.37 -7.017 -0 -1.2 0
7.7 -7.392 -8.002 -0 -1.2 0
6.434 -6.558 -6.712 -0 -1.2 0
6.649 -6.965 -6.924 -0 -1.2 0
6.414 -6.975 -6.68 -0 -1.2 0
7.41 -8.156 -7.682 -0 -1.2 0
8.737 -9.744 -9.015 -0 -1.2 0
13.823 -15.324 -14.141 -0 -1.2 0
12.9 -14.856 -13.196 -0 -1.2 0
7.1 -8.909 -7.339 -0 -1.2 0
8.474 -10.77 -8.714 -0 -1.2 0
10.593 -13.641 -10.835 -0 -1.2 0
7.351 -10.725 -7.551 -0 -1.2 0
0.798 -0.006 -1.091 -0 -1.2 0
0.821 -0.012 -1.116 -0 -1.2 0
0.848 -0.011 -1.146 -0 -1.2 0
0.881 -0.005 -1.182 -0 -1.2 0
0.908 -0.007 -1.213 -0 -1.2 0
0.932 -0.017 -1.239 -0 -1.2 0
0.966 -0.014 -1.276 -0 -1.2 0
0.984 -0.032 -1.295 -0 -1.2 0
1.023 -0.026 -1.339 -0 -1.2 0
1.057 -0.028 -1.377 -0 -1.2 0
1.102 -0.02 -1.427 -0 -1.2 0
1.131 -0.03 -1.459 -0 -1.2 0
1.178 -0.027 -1.511 -0 -1.2 0
1.213 -0.035 -1.55 -0 -1.2 0
1.259 -0.034 -1.602 -0 -1.2 0
1.302 -0.041 -1.648 -0 -1.2 0
1.349 -0.044 -1.7 -0 -1.2 0
1.397 -0.049 -1.753 -0 -1.2 0
1.451 -0.053 -1.812 -0 -1.2 0
1.511 -0.054 -1.879 -0 -1.2 0
1.584 -0.051 -1.96 -0 -1.2 0
1.651 -0.054 -2.035 -0 -1.2 0
1.725 -0.057 -2.117 -0 -1.2 0
1.806 -0.059 -2.206 -0 -1.2 0
1.893 -0.061 -2.302 -0 -1.2 0
1.999 -0.058 -2.42 -0 -1.2 0
2.099 -0.064 -2.532 -0 -1.2 0
2.226 -0.062 -2.672 -0 -1.2 0
2.36 -0.063 -2.821 -0 -1.2 0
2.526 -0.058 -3.004 -0 -1.2 0
2.7 -0.058 -3.197 -0 -1.2 0
2.894 -0.06 -3.413 -0 -1.2 0
3.115 -0.062 -3.658 -0 -1.2 0
3.643 0.021 -4.245 -0 -1.2 0
3.951 0.012 -4.587 -0 -1.2 0
4.393 0.022 -5.077 -0 -1.2 0
4.869 0.018 -5.604 -0 -1.2 0
5.452 0.01 -6.25 -0 -1.2 0
6.169 -0.002 -7.046 -0 -1.2 0
6.601 -0.096 -7.523 -0 -1.2 0
5.357 -0.428 -6.132 -0 -1.2 0
6.266 -0.475 -7.14 -0 -1.2 0
6.262 -0.637 -7.13 -0 -1.2 0
6.275 -0.798 -7.14 -0 -1.2 0
6.293 -0.959 -7.156 -0 -1.2 0
6.397 -1.286 -7.263 -0 -1.2 0
6.671 -1.465 -7.562 -0 -1.2 0
15.588 -8.182 -17.258 -0 -1.2 0
15.406 -8.532 -17.047 -0 -1.2 0
13.562 -8.415 -15.004 -0 -1.2 0
12.698 -8.316 -14.05 -0 -1.2 0
7.459 -5.543 -8.319 -0 -1.2 0
13.441 -9.946 -14.829 -0 -1.2 0
6.511 -5.562 -7.269 -0 -1.2 0
6.503 -5.758 -7.254 -0 -1.2 0
6.486 -5.951 -7.229 -0 -1.2 0
5.953 -5.739 -6.644 -0 -1.2 0
6.681 -6.531 -7.43 -0 -1.2 0
10.056 -9.639 -11.084 -0 -1.2 0
6.285 -7.067 -6.975 -0 -1.2 0
10.705 -11.698 -11.746 -0 -1.2 0
10.589 -11.975 -11.609 -0 -1.2 0
9.338 -11.037 -10.249 -0 -1.2 0
10.292 -12.461 -11.267 -0 -1.2 0
10.94 -14.525 -11.927 -0 -1.2 0
0.757 -0.021 -1.096 -0 -1.2 0
0.788 -0.013 -1.133 -0 -1.2 0
0.809 -0.019 -1.159 -0 -1.2 0
0.836 -0.02 -1.19 -0 -1.2 0
0.862 -0.021 -1.222 -0 -1.2 0
0.889 -0.024 -1.254 -0 -1.2 0
0.921 -0.022 -1.293 -0 -1.2 0
0.953 -0.021 -1.331 -0 -1.2 0
0.982 -0.027 -1.364 -0 -1.2 0
1.02 -0.023 -1.409 -0 -1.2 0
1.053 -0.026 -1.449 -0 -1.2 0
1.091 -0.027 -1.495 -0 -1.2 0
1.125 -0.033 -1.535 -0 -1.2 0
1.169 -0.03 -1.588 -0 -1.2 0
1.214 -0.03 -1.641 -0 -1.2 0
1.248 -0.042 -1.682 -0 -1.2 0
1.3 -0.04 -1.743 -0 -1.2 0
1.346 -0.046 -1.798 -0 -1.2 0
1.392 -0.055 -1.853 -0 -1.2 0
1.456 -0.052 -1.929 -0 -1.2 0
1.52 -0.052 -2.005 -0 -1.2 0
1.584 -0.055 -2.082 -0 -1.2 0
1.65 -0.061 -2.159 -0 -1.2 0
1.733 -0.061 -2.258 -0 -1.2 0
1.822 -0.06 -2.365 -0 -1.2 0
1.918 -0.06 -2.48 -0 -1.2 0
2.008 -0.069 -2.587 -0 -1.2 0
2.13 -0.067 -2.732 -0 -1.2 0
2.258 -0.069 -2.885 -0 -1.2 0
2.424 -0.06 -3.083 -0 -1.2 0
2.585 -0.063 -3.274 -0 -1.2 0
2.771 -0.064 -3.496 -0 -1.2 0
2.989 -0.065 -3.755 -0 -1.2 0
3.339 -0.033 -4.174 -0 -1.2 0
3.799 0.01 -4.723 -0 -1.2 0
4.209 0.017 -5.212 -0 -1.2 0
4.679 0.014 -5.771 -0 -1.2 0
5.238 0.006 -6.438 -0 -1.2 0
5.131 -0.156 -6.306 -0 -1.2 0
5.034 -0.311 -6.186 -0 -1.2 0
4.942 -0.46 -6.072 -0 -1.2 0
5.041 -0.719 -6.182 -0 -1.2 0
6.208 -0.795 -7.571 -0 -1.2 0
6.239 -0.961 -7.603 -0 -1.2 0
6.062 -1.127 -7.388 -0 -1.2 0
6.39 -1.471 -7.768 -0 -1.2 0
12.243 -7.259 -14.574 -0 -1.2 0
14.442 -8.798 -17.149 -0 -1.2 0
12.457 -8.487 -14.793 -0 -1.2 0
12.269 -8.751 -14.561 -0 -1.2 0
7.268 -5.842 -8.687 -0 -1.2 0
6.648 -5.642 -7.953 -0 -1.2 0
7.116 -6.192 -8.496 -0 -1.2 0
6.443 -5.915 -7.7 -0 -1.2 0
10.129 -9.03 -12.001 -0 -1.2 0
6.118 -6.074 -7.308 -0 -1.2 0
10.515 -10.046 -12.433 -0 -1.2 0
10.755 -10.626 -12.701 -0 -1.2 0
9.765 -10.089 -11.536 -0 -1.2 0
9.325 -10.714 -10.994 -0 -1.2 0
8.99 -10.713 -10.594 -0 -1.2 0
8.984 -11.062 -10.577 -0 -1.2 0
11.554 -14.4 -13.542 -0 -1.2 0
8.778 -11.55 -10.317 -0 -1.2 0
0.727 -0.022 -1.11 -0 -1.2 0
0.752 -0.02 -1.142 -0 -1.2 0
0.778 -0.019 -1.174 -0 -1.2 0
0.808 -0.013 -1.212 -0 -1.2 0
0.824 -0.029 -1.233 -0 -1.2 0
0.859 -0.019 -1.278 -0 -1.2 0
0.885 -0.023 -1.311 -0 -1.2 0
0.911 -0.028 -1.345 -0 -1.2 0
0.948 -0.022 -1.391 -0 -1.2 0
0.979 -0.024 -1.431 -0 -1.2 0
1.011 -0.027 -1.471 -0 -1.2 0
1.048 -0.028 -1.518 -0 -1.2 0
1.081 -0.034 -1.559 -0 -1.2 0
1.118 -0.037 -1.608 -0 -1.2 0
1.162 -0.036 -1.663 -0 -1.2 0
1.205 -0.038 -1.718 -0 -1.2 0
1.243 -0.046 -1.767 -0 -1.2 0
1.293 -0.048 -1.83 -0 -1.2 0
1.338 -0.056 -1.886 -0 -1.2 0
1.393 -0.057 -1.957 -0 -1.2 0
1.46 -0.053 -2.043 -0 -1.2 0
1.522 -0.057 -2.122 -0 -1.2 0
1.585 -0.063 -2.201 -0 -1.2 0
1.659 -0.066 -2.295 -0 -1.2 0
1.745 -0.065 -2.405 -0 -1.2 0
1.837 -0.065 -2.522 -0 -1.2 0
1.936 -0.068 -2.648 -0 -1.2 0
2.046 -0.069 -2.789 -0 -1.2 0
2.169 -0.071 -2.946 -0 -1.2 0
2.323 -0.065 -3.142 -0 -1.2 0
2.477 -0.068 -3.338 -0 -1.2 0
2.662 -0.067 -3.573 -0 -1.2 0
2.871 -0.068 -3.841 -0 -1.2 0
3.111 -0.069 -4.146 -0 -1.2 0
3.655 0.009 -4.841 -0 -1.2 0
4.037 0.011 -5.328 -0 -1.2 0
4.47 0.004 -5.879 -0 -1.2 0
5.026 0 -6.588 -0 -1.2 0
4.813 -0.184 -6.311 -0 -1.2 0
4.609 -0.354 -6.047 -0 -1.2 0
4.637 -0.48 -6.078 -0 -1.2 0
4.652 -0.609 -6.092 -0 -1.2 0
4.683 -0.737 -6.127 -0 -1.2 0
5.058 -0.847 -6.603 -0 -1.2 0
6.197 -0.962 -8.051 -0 -1.2 0
12.664 -7.357 -16.092 -0 -1.2 0
12.422 -7.616 -15.776 -0 -1.2 0
11.385 -7.419 -14.461 -0 -1.2 0
11.36 -7.76 -14.42 -0 -1.2 0
11.792 -8.762 -14.938 -0 -1.2 0
11.385 -8.865 -14.417 -0 -1.2 0
6.7 -6.093 -8.532 -0 -1.2 0
10.612 -9.393 -13.415 -0 -1.2 0
9.653 -9.307 -12.196 -0 -1.2 0
8.47 -9.213 -10.691 -0 -1.2 0
10.354 -11.42 -13.023 -0 -1.2 0
9.027 -10.436 -11.364 -0 -1.2 0
8.804 -10.549 -11.076 -0 -1.2 0
8.659 -10.738 -10.884 -0 -1.2 0
8.492 -10.899 -10.667 -0 -1.2 0
8.332 -11.065 -10.46 -0 -1.2 0
8.183 -11.237 -10.264 -0 -1.2 0
8.13 -11.531 -10.187 -0 -1.2 0
7.89 -11.578 -9.878 -0 -1.2 0
0.701 -0.015 -1.129 -0 -1.2 0
0.725 -0.014 -1.162 -0 -1.2 0
0.745 -0.02 -1.189 -0 -1.2 0
0.774 -0.014 -1.228 -0 -1.2 0
0.794 -0.022 -1.256 -0 -1.2 0
0.823 -0.02 -1.296 -0 -1.2 0
0.848 -0.024 -1.33 -0 -1.2 0
0.874 -0.029 -1.363 -0 -1.2 0
0.908 -0.023 -1.41 -0 -1.2 0
0.938 -0.025 -1.452 -0 -1.2 0
0.974 -0.023 -1.5 -0 -1.2 0
0.999 -0.034 -1.535 -0 -1.2 0
1.045 -0.024 -1.598 -0 -1.2 0
1.071 -0.038 -1.633 -0 -1.2 0
1.118 -0.032 -1.697 -0 -1.2 0
1.15 -0.044 -1.739 -0 -1.2 0
1.196 -0.043 -1.803 -0 -1.2 0
1.244 -0.044 -1.868 -0 -1.2 0
1.286 -0.052 -1.926 -0 -1.2 0
1.34 -0.055 -1.999 -0 -1.2 0
1.399 -0.055 -2.079 -0 -1.2 0
1.458 -0.058 -2.16 -0 -1.2 0
1.523 -0.062 -2.249 -0 -1.2 0
1.595 -0.064 -2.346 -0 -1.2 0
1.671 -0.066 -2.451 -0 -1.2 0
1.759 -0.067 -2.57 -0 -1.2 0
1.855 -0.069 -2.699 -0 -1.2 0
1.96 -0.071 -2.844 -0 -1.2 0
2.079 -0.073 -3.006 -0 -1.2 0
2.22 -0.07 -3.197 -0 -1.2 0
2.379 -0.067 -3.415 -0 -1.2 0
2.544 -0.072 -3.64 -0 -1.2 0
2.751 -0.071 -3.922 -0 -1.2 0
2.97 -0.077 -4.219 -0 -1.2 0
3.426 -0.018 -4.844 -0 -1.2 0
3.868 0.007 -5.447 -0 -1.2 0
4.277 0 -6.004 -0 -1.2 0
4.815 -0.003 -6.737 -0 -1.2 0
4.423 -0.226 -6.197 -0 -1.2 0
4.352 -0.369 -6.094 -0 -1.2 0
4.331 -0.5 -6.063 -0 -1.2 0
4.45 -0.614 -6.222 -0 -1.2 0
4.369 -0.751 -6.105 -0 -1.2 0
4.758 -0.857 -6.631 -0 -1.2 0
6.162 -0.963 -8.544 -0 -1.2 0
10.329 -7.426 -14.014 -0 -1.2 0
10.919 -8.148 -14.795 -0 -1.2 0
10.684 -8.35 -14.467 -0 -1.2 0
10.337 -8.462 -13.991 -0 -1.2 0
10.598 -9.01 -14.328 -0 -1.2 0
10.023 -9.28 -13.537 -0 -1.2 0
9.515 -9.203 -12.847 -0 -1.2 0
8.917 -9.013 -12.037 -0 -1.2 0
8.193 -8.67 -11.061 -0 -1.2 0
8.425 -9.526 -11.35 -0 -1.2 0
8.58 -10.018 -11.545 -0 -1.2 0
8.772 -10.57 -11.789 -0 -1.2 0
8.648 -10.787 -11.612 -0 -1.2 0
7.994 -10.384 -10.733 -0 -1.2 0
8.256 -11.043 -11.069 -0 -1.2 0
9.376 -12.814 -12.538 -0 -1.2 0
9.253 -13.075 -12.363 -0 -1.2 0
7.611 -11.285 -10.181 -0 -1.2 0
0.668 -0.016 -1.142 -0 -1.2 0
0.691 -0.015 -1.176 -0 -1.2 0
0.714 -0.014 -1.21 -0 -1.2 0
0.738 -0.015 -1.244 -0 -1.2 0
0.757 -0.023 -1.272 -0 -1.2 0
0.784 -0.021 -1.312 -0 -1.2 0
0.808 -0.025 -1.347 -0 -1.2 0
0.832 -0.03 -1.382 -0 -1.2 0
0.86 -0.03 -1.424 -0 -1.2 0
0.893 -0.026 -1.473 -0 -1.2 0
0.923 -0.029 -1.516 -0 -1.2 0
0.952 -0.035 -1.559 -0 -1.2 0
0.991 -0.031 -1.616 -0 -1.2 0
1.02 -0.039 -1.658 -0 -1.2 0
1.06 -0.038 -1.716 -0 -1.2 0
1.1 -0.041 -1.775 -0 -1.2 0
1.145 -0.039 -1.841 -0 -1.2 0
1.185 -0.045 -1.9 -0 -1.2 0
1.23 -0.05 -1.967 -0 -1.2 0
1.276 -0.056 -2.033 -0 -1.2 0
1.337 -0.052 -2.123 -0 -1.2 0
1.389 -0.06 -2.199 -0 -1.2 0
1.45 -0.063 -2.29 -0 -1.2 0
1.524 -0.062 -2.397 -0 -1.2 0
1.597 -0.065 -2.504 -0 -1.2 0
1.676 -0.069 -2.62 -0 -1.2 0
1.76 -0.074 -2.744 -0 -1.2 0
1.866 -0.073 -2.9 -0 -1.2 0
1.968 -0.081 -3.049 -0 -1.2 0
2.114 -0.072 -3.263 -0 -1.2 0
2.259 -0.073 -3.477 -0 -1.2 0
2.417 -0.077 -3.708 -0 -1.2 0
2.603 -0.079 -3.98 -0 -1.2 0
2.838 -0.075 -4.327 -0 -1.2 0
3.113 -0.072 -4.731 -0 -1.2 0
3.644 -0.008 -5.511 -0 -1.2 0
4.081 -0.002 -6.155 -0 -1.2 0
4.561 -0.014 -6.858 -0 -1.2 0
4.105 -0.253 -6.18 -0 -1.2 0
4.048 -0.391 -6.092 -0 -1.2 0
4.022 -0.52 -6.051 -0 -1.2 0
4.086 -0.636 -6.14 -0 -1.2 0
4.075 -0.763 -6.119 -0 -1.2 0
4.434 -0.867 -6.642 -0 -1.2 0
6.351 -1.541 -9.433 -0 -1.2 0
10.338 -6.716 -15.112 -0 -1.2 0
9.792 -7.074 -14.297 -0 -1.2 0
10.489 -7.859 -15.294 -0 -1.2 0
9.642 -7.642 -14.056 -0 -1.2 0
10.186 -8.369 -14.832 -0 -1.2 0
9.736 -8.39 -14.17 -0 -1.2 0
9.628 -9.004 -13.989 -0 -1.2 0
9.215 -9.003 -13.384 -0 -1.2 0
9.905 -10.348 -14.35 -0 -1.2 0
7.726 -8.601 -11.211 -0 -1.2 0
8.495 -10.38 -12.278 -0 -1.2 0
8.262 -10.47 -11.935 -0 -1.2 0
8.463 -11.061 -12.208 -0 -1.2 0
7.697 -10.491 -11.103 -0 -1.2 0
8.191 -11.465 -11.796 -0 -1.2 0
7.621 -11.087 -10.971 -0 -1.2 0
9.275 -13.71 -13.309 -0 -1.2 0
7.605 -11.793 -10.924 -0 -1.2 0
7.499 -12.013 -10.76 -0 -1.2 0
7.455 -12.329 -10.685 -0 -1.2 0
0.631 -0.024 -1.148 -0 -1.2 0
0.657 -0.016 -1.188 -0 -1.2 0
0.675 -0.022 -1.216 -0 -1.2 0
0.697 -0.023 -1.251 -0 -1.2 0
0.723 -0.018 -1.293 -0 -1.2 0
0.749 -0.014 -1.335 -0 -1.2 0
0.768 -0.026 -1.364 -0 -1.2 0
0.795 -0.025 -1.406 -0 -1.2 0
0.818 -0.031 -1.442 -0 -1.2 0
0.845 -0.033 -1.485 -0 -1.2 0
0.877 -0.031 -1.535 -0 -1.2 0
0.905 -0.036 -1.579 -0 -1.2 0
0.941 -0.032 -1.637 -0 -1.2 0
0.97 -0.041 -1.682 -0 -1.2 0
1.008 -0.04 -1.741 -0 -1.2 0
1.045 -0.042 -1.801 -0 -1.2 0
1.088 -0.041 -1.868 -0 -1.2 0
1.121 -0.052 -1.92 -0 -1.2 0
1.17 -0.051 -1.996 -0 -1.2 0
1.213 -0.058 -2.065 -0 -1.2 0
1.271 -0.054 -2.157 -0 -1.2 0
1.325 -0.058 -2.242 -0 -1.2 0
1.379 -0.065 -2.326 -0 -1.2 0
1.443 -0.068 -2.428 -0 -1.2 0
1.513 -0.071 -2.538 -0 -1.2 0
1.588 -0.075 -2.656 -0 -1.2 0
1.673 -0.077 -2.791 -0 -1.2 0
1.769 -0.079 -2.942 -0 -1.2 0
1.871 -0.084 -3.103 -0 -1.2 0
2.009 -0.076 -3.321 -0 -1.2 0
2.143 -0.079 -3.531 -0 -1.2 0
2.293 -0.083 -3.768 -0 -1.2 0
2.468 -0.087 -4.046 -0 -1.2 0
2.682 -0.087 -4.383 -0 -1.2 0
2.933 -0.087 -4.779 -0 -1.2 0
3.401 -0.035 -5.519 -0 -1.2 0
3.869 -0.013 -6.261 -0 -1.2 0
4.335 -0.023 -6.995 -0 -1.2 0
3.966 -0.246 -6.404 -0 -1.2 0
3.939 -0.381 -6.355 -0 -1.2 0
3.921 -0.513 -6.322 -0 -1.2 0
3.932 -0.638 -6.337 -0 -1.2 0
3.949 -0.763 -6.358 -0 -1.2 0
4.136 -0.881 -6.648 -0 -1.2 0
10.183 -7.292 -15.954 -0 -1.2 0
9.736 -7.364 -15.246 -0 -1.2 0
9.296 -7.41 -14.548 -0 -1.2 0
8.672 -8.595 -13.52 -0 -1.2 0
9.524 -10.461 -14.795 -0 -1.2 0
9.054 -11.125 -14.029 -0 -1.2 0
8.12 -10.433 -12.58 -0 -1.2 0
8.598 -11.364 -13.298 -0 -1.2 0
7.787 -10.74 -12.042 -0 -1.2 0
7.081 -11.206 -10.91 -0 -1.2 0
0.601 -0.018 -1.165 -0 -1.2 0
0.622 -0.017 -1.199 -0 -1.2 0
0.642 -0.017 -1.234 -0 -1.2 0
0.659 -0.025 -1.263 -0 -1.2 0
0.684 -0.02 -1.305 -0 -1.2 0
0.703 -0.029 -1.335 -0 -1.2 0
0.728 -0.028 -1.378 -0 -1.2 0
0.749 -0.033 -1.415 -0 -1.2 0
0.775 -0.033 -1.458 -0 -1.2 0
0.801 -0.036 -1.502 -0 -1.2 0
0.831 -0.033 -1.554 -0 -1.2 0
0.861 -0.033 -1.606 -0 -1.2 0
0.887 -0.04 -1.651 -0 -1.2 0
0.919 -0.043 -1.702 -0 -1.2 0
0.959 -0.038 -1.77 -0 -1.2 0
0.99 -0.045 -1.824 -0 -1.2 0
1.026 -0.049 -1.885 -0 -1.2 0
1.067 -0.05 -1.954 -0 -1.2 0
1.107 -0.055 -2.024 -0 -1.2 0
1.149 -0.061 -2.094 -0 -1.2 0
1.2 -0.062 -2.18 -0 -1.2 0
1.26 -0.057 -2.282 -0 -1.2 0
1.311 -0.065 -2.369 -0 -1.2 0
1.372 -0.068 -2.472 -0 -1.2 0
1.438 -0.072 -2.584 -0 -1.2 0
1.509 -0.076 -2.705 -0 -1.2 0
1.59 -0.079 -2.843 -0 -1.2 0
1.681 -0.081 -2.997 -0 -1.2 0
1.777 -0.086 -3.161 -0 -1.2 0
1.904 -0.081 -3.375 -0 -1.2 0
2.03 -0.084 -3.591 -0 -1.2 0
2.187 -0.082 -3.856 -0 -1.2 0
2.339 -0.093 -4.115 -0 -1.2 0
2.541 -0.094 -4.459 -0 -1.2 0
2.789 -0.091 -4.88 -0 -1.2 0
3.083 -0.091 -5.379 -0 -1.2 0
3.661 -0.024 -6.366 -0 -1.2 0
3.853 -0.101 -6.689 -0 -1.2 0
3.848 -0.235 -6.675 -0 -1.2 0
3.843 -0.369 -6.66 -0 -1.2 0
3.856 -0.499 -6.677 -0 -1.2 0
3.894 -0.627 -6.736 -0 -1.2 0
3.88 -0.76 -6.706 -0 -1.2 0
3.92 -0.891 -6.77 -0 -1.2 0
8.686 -7.339 -14.608 -0 -1.2 0
9.499 -9.402 -15.903 -0 -1.2 0
9.243 -9.549 -15.463 -0 -1.2 0
9.118 -10.569 -15.209 -0 -1.2 0
9.028 -11.256 -15.027 -0 -1.2 0
7.698 -10.441 -12.799 -0 -1.2 0
7.662 -10.751 -12.726 -0 -1.2 0
0.564 -0.02 -1.175 -0 -1.2 0
0.583 -0.02 -1.211 -0 -1.2 0
0.603 -0.019 -1.247 -0 -1.2 0
0.62 -0.027 -1.276 -0 -1.2 0
0.643 -0.023 -1.32 -0 -1.2 0
0.667 -0.019 -1.363 -0 -1.2 0
0.683 -0.03 -1.393 -0 -1.2 0
0.707 -0.03 -1.437 -0 -1.2 0
0.727 -0.036 -1.474 -0 -1.2 0
0.751 -0.038 -1.519 -0 -1.2 0
0.78 -0.036 -1.572 -0 -1.2 0
0.804 -0.041 -1.618 -0 -1.2 0
0.837 -0.038 -1.678 -0 -1.2 0
0.87 -0.035 -1.739 -0 -1.2 0
0.896 -0.046 -1.786 -0 -1.2 0
0.93 -0.048 -1.848 -0 -1.2 0
0.963 -0.052 -1.91 -0 -1.2 0
1.006 -0.049 -1.989 -0 -1.2 0
1.044 -0.053 -2.06 -0 -1.2 0
1.087 -0.056 -2.138 -0 -1.2 0
1.13 -0.062 -2.218 -0 -1.2 0
1.183 -0.061 -2.315 -0 -1.2 0
1.236 -0.065 -2.412 -0 -1.2 0
1.293 -0.068 -2.518 -0 -1.2 0
1.354 -0.072 -2.632 -0 -1.2 0
1.425 -0.074 -2.764 -0 -1.2 0
1.498 -0.081 -2.895 -0 -1.2 0
1.579 -0.086 -3.045 -0 -1.2 0
1.673 -0.089 -3.22 -0 -1.2 0
1.788 -0.086 -3.431 -0 -1.2 0
1.911 -0.088 -3.659 -0 -1.2 0
2.048 -0.092 -3.912 -0 -1.2 0
2.201 -0.097 -4.194 -0 -1.2 0
2.392 -0.099 -4.545 -0 -1.2 0
2.61 -0.103 -4.948 -0 -1.2 0
2.881 -0.105 -5.449 -0 -1.2 0
3.293 -0.081 -6.212 -0 -1.2 0
3.872 -0.041 -7.282 -0 -1.2 0
4.321 -0.076 -8.109 -0 -1.2 0
3.817 -0.338 -7.167 -0 -1.2 0
3.797 -0.481 -7.123 -0 -1.2 0
3.789 -0.621 -7.105 -0 -1.2 0
3.801 -0.757 -7.118 -0 -1.2 0
3.82 -0.894 -7.148 -0 -1.2 0
3.895 -1.031 -7.281 -0 -1.2 0
4.983 -1.189 -9.283 -0 -1.2 0
4.104 -1.322 -7.653 -0 -1.2 0
8.617 -9.131 -15.631 -0 -1.2 0
8.635 -10.656 -15.595 -0 -1.2 0
8.492 -10.884 -15.321 -0 -1.2 0
7.256 -10.479 -13.059 -0 -1.2 0
0.529 -0.022 -1.183 -0 -1.2 0
0.547 -0.022 -1.219 -0 -1.2 0
0.569 -0.015 -1.262 -0 -1.2 0
0.585 -0.022 -1.293 -0 -1.2 0
0.603 -0.025 -1.33 -0 -1.2 0
0.625 -0.021 -1.374 -0 -1.2 0
0.644 -0.026 -1.412 -0 -1.2 0
0.663 -0.032 -1.45 -0 -1.2 0
0.686 -0.032 -1.495 -0 -1.2 0
0.709 -0.035 -1.541 -0 -1.2 0
0.732 -0.038 -1.587 -0 -1.2 0
0.758 -0.039 -1.641 -0 -1.2 0
0.785 -0.041 -1.695 -0 -1.2 0
0.817 -0.038 -1.758 -0 -1.2 0
0.84 -0.049 -1.804 -0 -1.2 0
0.873 -0.051 -1.867 -0 -1.2 0
0.908 -0.05 -1.938 -0 -1.2 0
0.944 -0.052 -2.01 -0 -1.2 0
0.98 -0.057 -2.083 -0 -1.2 0
1.02 -0.059 -2.163 -0 -1.2 0
1.065 -0.06 -2.253 -0 -1.2 0
1.114 -0.061 -2.351 -0 -1.2 0
1.159 -0.069 -2.442 -0 -1.2 0
1.218 -0.069 -2.557 -0 -1.2 0
1.272 -0.077 -2.665 -0 -1.2 0
1.342 -0.075 -2.807 -0 -1.2 0
1.41 -0.082 -2.942 -0 -1.2 0
1.494 -0.082 -3.111 -0 -1.2 0
1.58 -0.088 -3.281 -0 -1.2 0
1.682 -0.09 -3.486 -0 -1.2 0
1.798 -0.091 -3.718 -0 -1.2 0
1.931 -0.093 -3.986 -0 -1.2 0
2.071 -0.102 -4.262 -0 -1.2 0
2.257 -0.1 -4.637 -0 -1.2 0
2.463 -0.105 -5.048 -0 -1.2 0
2.721 -0.107 -5.566 -0 -1.2 0
3.047 -0.105 -6.218 -0 -1.2 0
3.638 -0.052 -7.404 -0 -1.2 0
4.068 -0.086 -8.264 -0 -1.2 0
3.8 -0.303 -7.715 -0 -1.2 0
3.747 -0.461 -7.6 -0 -1.2 0
3.736 -0.608 -7.572 -0 -1.2 0
3.742 -0.752 -7.577 -0 -1.2 0
3.775 -0.895 -7.633 -0 -1.2 0
3.671 -1.042 -7.42 -0 -1.2 0
3.966 -1.341 -7.996 -0 -1.2 0
0.497 -0.017 -1.196 -0 -1.2 0
0.514 -0.017 -1.233 -0 -1.2 0
0.528 -0.023 -1.263 -0 -1.2 0
0.545 -0.025 -1.301 -0 -1.2 0
0.563 -0.027 -1.339 -0 -1.2 0
0.58 -0.03 -1.377 -0 -1.2 0
0.601 -0.028 -1.422 -0 -1.2 0
0.619 -0.034 -1.461 -0 -1.2 0
0.64 -0.035 -1.507 -0 -1.2 0
0.661 -0.038 -1.554 -0 -1.2 0
0.686 -0.036 -1.608 -0 -1.2 0
0.708 -0.042 -1.655 -0 -1.2 0
0.733 -0.043 -1.71 -0 -1.2 0
0.762 -0.041 -1.773 -0 -1.2 0
0.784 -0.052 -1.822 -0 -1.2 0
0.817 -0.05 -1.893 -0 -1.2 0
0.85 -0.048 -1.966 -0 -1.2 0
0.881 -0.055 -2.031 -0 -1.2 0
0.915 -0.06 -2.104 -0 -1.2 0
0.956 -0.058 -2.195 -0 -1.2 0
0.994 -0.064 -2.276 -0 -1.2 0
1.043 -0.061 -2.384 -0 -1.2 0
1.086 -0.069 -2.476 -0 -1.2 0
1.14 -0.07 -2.594 -0 -1.2 0
1.198 -0.071 -2.721 -0 -1.2 0
1.252 -0.08 -2.84 -0 -1.2 0
1.323 -0.081 -2.994 -0 -1.2 0
1.398 -0.084 -3.157 -0 -1.2 0
1.482 -0.088 -3.339 -0 -1.2 0
1.57 -0.096 -3.53 -0 -1.2 0
1.682 -0.096 -3.774 -0 -1.2 0
1.807 -0.097 -4.046 -0 -1.2 0
1.936 -0.107 -4.327 -0 -1.2 0
2.118 -0.102 -4.726 -0 -1.2 0
2.299 -0.114 -5.117 -0 -1.2 0
2.548 -0.113 -5.661 -0 -1.2 0
2.844 -0.116 -6.305 -0 -1.2 0
3.396 -0.064 -7.51 -0 -1.2 0
3.847 -0.085 -8.492 -0 -1.2 0
3.767 -0.266 -8.306 -0 -1.2 0
3.7 -0.436 -8.153 -0 -1.2 0
3.691 -0.591 -8.126 -0 -1.2 0
3.689 -0.745 -8.113 -0 -1.2 0
3.724 -0.896 -8.179 -0 -1.2 0
3.786 -1.048 -8.307 -0 -1.2 0
3.827 -1.205 -8.387 -0 -1.2 0
3.929 -1.369 -8.6 -0 -1.2 0
0.458 -0.02 -1.203 -0 -1.2 0
0.474 -0.019 -1.24 -0 -1.2 0
0.49 -0.02 -1.278 -0 -1.2 0
0.503 -0.027 -1.309 -0 -1.2 0
0.519 -0.03 -1.348 -0 -1.2 0
0.538 -0.026 -1.394 -0 -1.2 0
0.557 -0.025 -1.44 -0 -1.2 0
0.57 -0.037 -1.471 -0 -1.2 0
0.593 -0.032 -1.526 -0 -1.2 0
0.61 -0.04 -1.565 -0 -1.2 0
0.629 -0.044 -1.613 -0 -1.2 0
0.652 -0.045 -1.668 -0 -1.2 0
0.679 -0.041 -1.732 -0 -1.2 0
0.699 -0.049 -1.78 -0 -1.2 0
0.726 -0.05 -1.845 -0 -1.2 0
0.757 -0.048 -1.918 -0 -1.2 0
0.784 -0.052 -1.984 -0 -1.2 0
0.815 -0.055 -2.058 -0 -1.2 0
0.846 -0.06 -2.133 -0 -1.2 0
0.881 -0.062 -2.216 -0 -1.2 0
0.923 -0.061 -2.317 -0 -1.2 0
0.961 -0.066 -2.41 -0 -1.2 0
1.004 -0.07 -2.512 -0 -1.2 0
1.053 -0.071 -2.631 -0 -1.2 0
1.104 -0.076 -2.752 -0 -1.2 0
1.161 -0.078 -2.89 -0 -1.2 0
1.224 -0.083 -3.038 -0 -1.2 0
1.293 -0.086 -3.204 -0 -1.2 0
1.373 -0.088 -3.397 -0 -1.2 0
1.458 -0.094 -3.6 -0 -1.2 0
1.557 -0.097 -3.839 -0 -1.2 0
1.661 -0.107 -4.088 -0 -1.2 0
1.788 -0.113 -4.392 -0 -1.2 0
1.956 -0.109 -4.798 -0 -1.2 0
2.133 -0.116 -5.221 -0 -1.2 0
2.348 -0.123 -5.737 -0 -1.2 0
2.617 -0.129 -6.383 -0 -1.2 0
2.985 -0.126 -7.268 -0 -1.2 0
3.552 -0.099 -8.632 -0 -1.2 0
3.687 -0.228 -8.949 -0 -1.2 0
3.635 -0.406 -8.813 -0 -1.2 0
3.627 -0.572 -8.785 -0 -1.2 0
3.623 -0.737 -8.763 -0 -1.2 0
3.65 -0.897 -8.822 -0 -1.2 0
3.793 -1.229 -9.143 -0 -1.2 0
3.845 -1.402 -9.259 -0 -1.2 0
0.421 -0.022 -1.207 -0 -1.2 0
0.435 -0.021 -1.245 -0 -1.2 0
0.447 -0.028 -1.277 -0 -1.2 0
0.464 -0.022 -1.322 -0 -1.2 0
0.476 -0.032 -1.354 -0 -1.2 0
0.497 -0.023 -1.408 -0 -1.2 0
0.509 -0.033 -1.44 -0 -1.2 0
0.527 -0.034 -1.487 -0 -1.2 0
0.545 -0.035 -1.535 -0 -1.2 0
0.563 -0.037 -1.583 -0 -1.2 0
0.581 -0.042 -1.631 -0 -1.2 0
0.602 -0.042 -1.688 -0 -1.2 0
0.624 -0.044 -1.744 -0 -1.2 0
0.646 -0.048 -1.802 -0 -1.2 0
0.67 -0.049 -1.867 -0 -1.2 0
0.695 -0.052 -1.933 -0 -1.2 0
0.72 -0.056 -1.999 -0 -1.2 0
0.755 -0.049 -2.091 -0 -1.2 0
0.781 -0.059 -2.158 -0 -1.2 0
0.813 -0.062 -2.242 -0 -1.2 0
0.848 -0.065 -2.336 -0 -1.2 0
0.887 -0.066 -2.439 -0 -1.2 0
0.923 -0.074 -2.534 -0 -1.2 0
0.972 -0.071 -2.663 -0 -1.2 0
1.018 -0.077 -2.785 -0 -1.2 0
1.071 -0.08 -2.925 -0 -1.2 0
1.128 -0.086 -3.075 -0 -1.2 0
1.191 -0.089 -3.243 -0 -1.2 0
1.265 -0.091 -3.439 -0 -1.2 0
1.346 -0.095 -3.654 -0 -1.2 0
1.437 -0.099 -3.897 -0 -1.2 0
1.537 -0.107 -4.159 -0 -1.2 0
1.646 -0.118 -4.449 -0 -1.2 0
1.805 -0.113 -4.868 -0 -1.2 0
1.967 -0.122 -5.298 -0 -1.2 0
2.171 -0.127 -5.839 -0 -1.2 0
2.412 -0.137 -6.475 -0 -1.2 0
2.746 -0.137 -7.363 -0 -1.2 0
3.254 -0.117 -8.708 -0 -1.2 0
3.91 -0.109 -10.447 -0 -1.2 0
4.537 -0.172 -12.103 -0 -1.2 0
3.577 -0.549 -9.535 -0 -1.2 0
3.598 -0.722 -9.579 -0 -1.2 0
3.621 -0.897 -9.628 -0 -1.2 0
0.383 -0.023 -1.211 -0 -1.2 0
0.394 -0.029 -1.242 -0 -1.2 0
0.407 -0.029 -1.281 -0 -1.2 0
0.422 -0.023 -1.327 -0 -1.2 0
0.436 -0.026 -1.367 -0 -1.2 0
0.452 -0.024 -1.414 -0 -1.2 0
0.466 -0.028 -1.454 -0 -1.2 0
0.479 -0.035 -1.494 -0 -1.2 0
0.498 -0.03 -1.55 -0 -1.2 0
0.515 -0.033 -1.598 -0 -1.2 0
0.532 -0.038 -1.647 -0 -1.2 0
0.549 -0.043 -1.697 -0 -1.2 0
0.571 -0.04 -1.762 -0 -1.2 0
0.591 -0.044 -1.82 -0 -1.2 0
0.613 -0.045 -1.886 -0 -1.2 0
0.636 -0.049 -1.953 -0 -1.2 0
0.659 -0.054 -2.021 -0 -1.2 0
0.688 -0.051 -2.105 -0 -1.2 0
0.714 -0.056 -2.182 -0 -1.2 0
0.74 -0.064 -2.258 -0 -1.2 0
0.779 -0.058 -2.371 -0 -1.2 0
0.811 -0.065 -2.466 -0 -1.2 0
0.85 -0.066 -2.58 -0 -1.2 0
0.892 -0.068 -2.703 -0 -1.2 0
0.934 -0.074 -2.826 -0 -1.2 0
0.982 -0.077 -2.968 -0 -1.2 0
1.033 -0.082 -3.12 -0 -1.2 0
1.091 -0.087 -3.289 -0 -1.2 0
1.156 -0.092 -3.478 -0 -1.2 0
1.236 -0.092 -3.715 -0 -1.2 0
1.317 -0.099 -3.951 -0 -1.2 0
1.41 -0.105 -4.225 -0 -1.2 0
1.514 -0.115 -4.527 -0 -1.2 0
1.648 -0.117 -4.925 -0 -1.2 0
1.809 -0.119 -5.397 -0 -1.2 0
1.992 -0.128 -5.936 -0 -1.2 0
2.224 -0.134 -6.617 -0 -1.2 0
2.529 -0.136 -7.514 -0 -1.2 0
2.944 -0.136 -8.735 -0 -1.2 0
3.612 -0.109 -10.702 -0 -1.2 0
4.235 -0.166 -12.529 -0 -1.2 0
5.538 -0.173 -16.362 -0 -1.2 0
7.349 -0.264 -21.682 -0 -1.2 0
7.079 -0.679 -20.857 -0 -1.2 0
7.101 -1.06 -20.895 -0 -1.2 0
0.345 -0.017 -1.22 -0 -1.2 0
0.354 -0.024 -1.252 -0 -1.2 0
0.366 -0.025 -1.292 -0 -1.2 0
0.376 -0.032 -1.324 -0 -1.2 0
0.39 -0.028 -1.371 -0 -1.2 0
0.402 -0.032 -1.411 -0 -1.2 0
0.417 -0.03 -1.459 -0 -1.2 0
0.431 -0.03 -1.508 -0 -1.2 0
0.444 -0.038 -1.549 -0 -1.2 0
0.461 -0.035 -1.606 -0 -1.2 0
0.476 -0.04 -1.655 -0 -1.2 0
0.493 -0.04 -1.713 -0 -1.2 0
0.511 -0.043 -1.771 -0 -1.2 0
0.531 -0.042 -1.838 -0 -1.2 0
0.549 -0.048 -1.897 -0 -1.2 0
0.57 -0.051 -1.965 -0 -1.2 0
0.594 -0.047 -2.05 -0 -1.2 0
0.615 -0.054 -2.118 -0 -1.2 0
0.638 -0.059 -2.196 -0 -1.2 0
0.665 -0.064 -2.283 -0 -1.2 0
0.699 -0.058 -2.396 -0 -1.2 0
0.728 -0.064 -2.492 -0 -1.2 0
0.765 -0.061 -2.616 -0 -1.2 0
0.8 -0.067 -2.731 -0 -1.2 0
0.841 -0.071 -2.865 -0 -1.2 0
0.881 -0.078 -3 -0 -1.2 0
0.936 -0.074 -3.181 -0 -1.2 0
0.983 -0.086 -3.335 -0 -1.2 0
1.045 -0.086 -3.545 -0 -1.2 0
1.117 -0.085 -3.783 -0 -1.2 0
1.187 -0.096 -4.013 -0 -1.2 0
1.268 -0.106 -4.281 -0 -1.2 0
1.368 -0.111 -4.616 -0 -1.2 0
1.486 -0.117 -5.008 -0 -1.2 0
1.631 -0.12 -5.485 -0 -1.2 0
1.794 -0.129 -6.031 -0 -1.2 0
2.013 -0.132 -6.757 -0 -1.2 0
2.281 -0.139 -7.647 -0 -1.2 0
2.632 -0.148 -8.814 -0 -1.2 0
3.259 -0.115 -10.899 -0 -1.2 0
3.879 -0.16 -12.958 -0 -1.2 0
4.985 -0.19 -16.634 -0 -1.2 0
6.234 -0.712 -20.739 -0 -1.2 0
6.249 -1.089 -20.759 -0 -1.2 0
0.307 -0.019 -1.221 -0 -1.2 0
0.315 -0.025 -1.253 -0 -1.2 0
0.326 -0.026 -1.293 -0 -1.2 0
0.337 -0.027 -1.333 -0 -1.2 0
0.345 -0.037 -1.366 -0 -1.2 0
0.359 -0.028 -1.421 -0 -1.2 0
0.372 -0.026 -1.47 -0 -1.2 0
0.385 -0.026 -1.519 -0 -1.2 0
0.396 -0.034 -1.56 -0 -1.2 0
0.41 -0.037 -1.61 -0 -1.2 0
0.423 -0.042 -1.66 -0 -1.2 0
0.438 -0.042 -1.718 -0 -1.2 0
0.456 -0.039 -1.785 -0 -1.2 0
0.472 -0.044 -1.844 -0 -1.2 0
0.488 -0.05 -1.904 -0 -1.2 0
0.508 -0.049 -1.981 -0 -1.2 0
0.527 -0.054 -2.05 -0 -1.2 0
0.548 -0.056 -2.128 -0 -1.2 0
0.571 -0.058 -2.214 -0 -1.2 0
0.599 -0.054 -2.319 -0 -1.2 0
0.625 -0.057 -2.416 -0 -1.2 0
0.652 -0.059 -2.523 -0 -1.2 0
0.681 -0.065 -2.63 -0 -1.2 0
0.714 -0.067 -2.755 -0 -1.2 0
0.748 -0.074 -2.881 -0 -1.2 0
0.791 -0.071 -3.045 -0 -1.2 0
0.833 -0.078 -3.2 -0 -1.2 0
0.882 -0.081 -3.383 -0 -1.2 0
0.933 -0.088 -3.576 -0 -1.2 0
0.996 -0.088 -3.817 -0 -1.2 0
1.061 -0.097 -4.059 -0 -1.2 0
1.133 -0.108 -4.33 -0 -1.2 0
1.225 -0.11 -4.677 -0 -1.2 0
1.328 -0.118 -5.063 -0 -1.2 0
1.458 -0.121 -5.554 -0 -1.2 0
1.605 -0.131 -6.105 -0 -1.2 0
1.802 -0.134 -6.848 -0 -1.2 0
2.046 -0.141 -7.765 -0 -1.2 0
2.356 -0.154 -8.934 -0 -1.2 0
2.799 -0.163 -10.605 -0 -1.2 0
3.54 -0.152 -13.396 -0 -1.2 0
4.643 -0.168 -17.551 -0 -1.2 0
5.768 -0.332 -21.775 -0 -1.2 0
5.802 -0.721 -21.869 -0 -1.2 0
0.268 -0.02 -1.221 -0 -1.2 0
0.275 -0.027 -1.253 -0 -1.2 0
0.286 -0.021 -1.3 -0 -1.2 0
0.295 -0.023 -1.341 -0 -1.2 0
0.305 -0.026 -1.382 -0 -1.2 0
0.316 -0.022 -1.43 -0 -1.2 0
0.326 -0.028 -1.471 -0 -1.2 0
0.335 -0.034 -1.513 -0 -1.2 0
0.349 -0.03 -1.571 -0 -1.2 0
0.36 -0.033 -1.621 -0 -1.2 0
0.374 -0.032 -1.679 -0 -1.2 0
0.386 -0.039 -1.73 -0 -1.2 0
0.401 -0.037 -1.798 -0 -1.2 0
0.415 -0.041 -1.857 -0 -1.2 0
0.431 -0.042 -1.926 -0 -1.2 0
0.447 -0.046 -1.995 -0 -1.2 0
0.464 -0.047 -2.073 -0 -1.2 0
0.481 -0.055 -2.143 -0 -1.2 0
0.501 -0.056 -2.231 -0 -1.2 0
0.526 -0.052 -2.337 -0 -1.2 0
0.548 -0.056 -2.434 -0 -1.2 0
0.573 -0.058 -2.542 -0 -1.2 0
0.6 -0.061 -2.659 -0 -1.2 0
0.63 -0.064 -2.785 -0 -1.2 0
0.66 -0.067 -2.922 -0 -1.2 0
0.694 -0.072 -3.068 -0 -1.2 0
0.731 -0.079 -3.225 -0 -1.2 0
0.776 -0.08 -3.419 -0 -1.2 0
0.821 -0.087 -3.614 -0 -1.2 0
0.879 -0.085 -3.866 -0 -1.2 0
0.933 -0.097 -4.1 -0 -1.2 0
1.005 -0.099 -4.411 -0 -1.2 0
1.085 -0.104 -4.761 -0 -1.2 0
1.176 -0.113 -5.151 -0 -1.2 0
1.283 -0.122 -5.618 -0 -1.2 0
1.42 -0.128 -6.211 -0 -1.2 0
1.597 -0.13 -6.98 -0 -1.2 0
1.815 -0.137 -7.925 -0 -1.2 0
2.096 -0.149 -9.141 -0 -1.2 0
2.496 -0.159 -10.875 -0 -1.2 0
3.146 -0.154 -13.7 -0 -1.2 0
5.752 -0.253 -25 -0 -1.2 0
0.227 -0.022 -1.219 -0 -1.2 0
0.234 -0.029 -1.252 -0 -1.2 0
0.241 -0.03 -1.293 -0 -1.2 0
0.249 -0.03 -1.333 -0 -1.2 0
0.257 -0.033 -1.374 -0 -1.2 0
0.267 -0.031 -1.423 -0 -1.2 0
0.276 -0.03 -1.472 -0 -1.2 0
0.286 -0.03 -1.522 -0 -1.2 0
0.295 -0.032 -1.572 -0 -1.2 0
0.305 -0.035 -1.623 -0 -1.2 0
0.316 -0.035 -1.681 -0 -1.2 0
0.328 -0.036 -1.741 -0 -1.2 0
0.338 -0.044 -1.792 -0 -1.2 0
0.351 -0.043 -1.861 -0 -1.2 0
0.365 -0.045 -1.93 -0 -1.2 0
0.378 -0.049 -2 -0 -1.2 0
0.394 -0.05 -2.078 -0 -1.2 0
0.409 -0.053 -2.158 -0 -1.2 0
0.427 -0.055 -2.246 -0 -1.2 0
0.446 -0.051 -2.353 -0 -1.2 0
0.467 -0.05 -2.46 -0 -1.2 0
0.487 -0.058 -2.56 -0 -1.2 0
0.51 -0.061 -2.677 -0 -1.2 0
0.535 -0.064 -2.805 -0 -1.2 0
0.562 -0.067 -2.943 -0 -1.2 0
0.59 -0.073 -3.09 -0 -1.2 0
0.62 -0.081 -3.248 -0 -1.2 0
0.657 -0.084 -3.434 -0 -1.2 0
0.699 -0.086 -3.649 -0 -1.2 0
0.745 -0.088 -3.894 -0 -1.2 0
0.795 -0.095 -4.149 -0 -1.2 0
0.855 -0.1 -4.453 -0 -1.2 0
0.923 -0.105 -4.806 -0 -1.2 0
1.005 -0.11 -5.227 -0 -1.2 0
1.096 -0.122 -5.698 -0 -1.2 0
1.213 -0.127 -6.306 -0 -1.2 0
1.36 -0.134 -7.061 -0 -1.2 0
1.544 -0.143 -8.013 -0 -1.2 0
1.787 -0.154 -9.268 -0 -1.2 0
2.122 -0.169 -10.996 -0 -1.2 0
2.498 -0.231 -12.939 -0 -1.2 0
4.831 -0.291 -24.992 -0 -1.2 0
5.334 -0.695 -27.543 -0 -1.2 0
5.521 -1.688 -28.391 -0 -1.2 0
0.188 -0.03 -1.209 -0 -1.2 0
0.194 -0.024 -1.256 -0 -1.2 0
0.201 -0.031 -1.29 -0 -1.2 0
0.208 -0.026 -1.338 -0 -1.2 0
0.214 -0.029 -1.379 -0 -1.2 0
0.221 -0.033 -1.421 -0 -1.2 0
0.228 -0.038 -1.463 -0 -1.2 0
0.237 -0.032 -1.52 -0 -1.2 0
0.245 -0.034 -1.571 -0 -1.2 0
0.255 -0.033 -1.63 -0 -1.2 0
0.262 -0.042 -1.673 -0 -1.2 0
0.273 -0.038 -1.741 -0 -1.2 0
0.282 -0.041 -1.801 -0 -1.2 0
0.292 -0.046 -1.862 -0 -1.2 0
0.305 -0.042 -1.94 -0 -1.2 0
0.315 -0.047 -2.01 -0 -1.2 0
0.327 -0.052 -2.08 -0 -1.2 0
0.341 -0.051 -2.169 -0 -1.2 0
0.355 -0.053 -2.258 -0 -1.2 0
0.371 -0.054 -2.356 -0 -1.2 0
0.386 -0.062 -2.446 -0 -1.2 0
0.404 -0.064 -2.555 -0 -1.2 0
0.423 -0.064 -2.683 -0 -1.2 0
0.443 -0.071 -2.801 -0 -1.2 0
0.468 -0.068 -2.959 -0 -1.2 0
0.489 -0.08 -3.088 -0 -1.2 0
0.518 -0.081 -3.265 -0 -1.2 0
0.549 -0.082 -3.463 -0 -1.2 0
0.582 -0.087 -3.67 -0 -1.2 0
0.622 -0.09 -3.916 -0 -1.2 0
0.663 -0.098 -4.173 -0 -1.2 0
0.709 -0.108 -4.458 -0 -1.2 0
0.767 -0.111 -4.824 -0 -1.2 0
0.834 -0.119 -5.238 -0 -1.2 0
0.911 -0.129 -5.721 -0 -1.2 0
1.012 -0.131 -6.352 -0 -1.2 0
1.135 -0.138 -7.121 -0 -1.2 0
1.287 -0.15 -8.068 -0 -1.2 0
1.48 -0.169 -9.273 -0 -1.2 0
1.776 -0.176 -11.127 -0 -1.2 0
2.183 -0.201 -13.664 -0 -1.2 0
3.936 -0.337 -24.612 -0 -1.2 0
4.584 -1.219 -28.531 -0 -1.2 0
4.562 -1.717 -28.326 -0 -1.2 0
3.904 -3.318 -23.98 -0 -1.2 0
3.394 -4.484 -20.628 -0 -1.2 0
3.425 -4.882 -20.759 -0 -1.2 0
3.415 -5.24 -20.651 -0 -1.2 0
0.149 -0.025 -1.212 -0 -1.2 0
0.154 -0.032 -1.245 -0 -1.2 0
0.16 -0.026 -1.293 -0 -1.2 0
0.165 -0.028 -1.334 -0 -1.2 0
0.171 -0.031 -1.376 -0 -1.2 0
0.176 -0.035 -1.418 -0 -1.2 0
0.182 -0.034 -1.467 -0 -1.2 0
0.188 -0.04 -1.509 -0 -1.2 0
0.194 -0.042 -1.559 -0 -1.2 0
0.202 -0.039 -1.619 -0 -1.2 0
0.209 -0.039 -1.679 -0 -1.2 0
0.216 -0.04 -1.739 -0 -1.2 0
0.224 -0.043 -1.799 -0 -1.2 0
0.233 -0.043 -1.869 -0 -1.2 0
0.241 -0.049 -1.929 -0 -1.2 0
0.251 -0.049 -2.008 -0 -1.2 0
0.26 -0.055 -2.079 -0 -1.2 0
0.271 -0.059 -2.159 -0 -1.2 0
0.282 -0.061 -2.248 -0 -1.2 0
0.295 -0.061 -2.347 -0 -1.2 0
0.308 -0.06 -2.456 -0 -1.2 0
0.321 -0.068 -2.556 -0 -1.2 0
0.338 -0.067 -2.684 -0 -1.2 0
0.353 -0.074 -2.804 -0 -1.2 0
0.372 -0.072 -2.962 -0 -1.2 0
0.389 -0.084 -3.092 -0 -1.2 0
0.412 -0.085 -3.27 -0 -1.2 0
0.438 -0.086 -3.468 -0 -1.2 0
0.463 -0.092 -3.676 -0 -1.2 0
0.495 -0.094 -3.923 -0 -1.2 0
0.527 -0.105 -4.172 -0 -1.2 0
0.567 -0.109 -4.488 -0 -1.2 0
0.611 -0.117 -4.835 -0 -1.2 0
0.666 -0.123 -5.261 -0 -1.2 0
0.728 -0.134 -5.747 -0 -1.2 0
0.81 -0.134 -6.401 -0 -1.2 0
0.907 -0.144 -7.164 -0 -1.2 0
1.031 -0.154 -8.135 -0 -1.2 0
1.19 -0.172 -9.384 -0 -1.2 0
1.418 -0.187 -11.188 -0 -1.2 0
1.766 -0.204 -13.925 -0 -1.2 0
2.275 -0.257 -17.922 -0 -1.2 0
3.165 -0.359 -24.925 -0 -1.2 0
3.461 -0.768 -27.185 -0 -1.2 0
3.236 -3.86 -24.865 -0 -1.2 0
3.157 -5.057 -24.039 -0 -1.2 0
3.106 -5.819 -23.497 -0 -1.2 0
2.871 -5.844 -21.647 -0 -1.2 0
2.697 -7.727 -19.94 -0 -1.2 0
0.108 -0.033 -1.198 -0 -1.2 0
0.111 -0.033 -1.239 -0 -1.2 0
0.115 -0.04 -1.272 -0 -1.2 0
0.119 -0.035 -1.321 -0 -1.2 0
0.123 -0.038 -1.362 -0 -1.2 0
0.127 -0.036 -1.412 -0 -1.2 0
0.131 -0.047 -1.446 -0 -1.2 0
0.136 -0.041 -1.504 -0 -1.2 0
0.141 -0.043 -1.555 -0 -1.2 0
0.146 -0.041 -1.614 -0 -1.2 0
0.152 -0.04 -1.674 -0 -1.2 0
0.157 -0.047 -1.726 -0 -1.2 0
0.163 -0.05 -1.787 -0 -1.2 0
0.168 -0.055 -1.848 -0 -1.2 0
0.176 -0.051 -1.926 -0 -1.2 0
0.181 -0.056 -1.997 -0 -1.2 0
0.188 -0.061 -2.068 -0 -1.2 0
0.195 -0.065 -2.148 -0 -1.2 0
0.204 -0.066 -2.238 -0 -1.2 0
0.215 -0.059 -2.355 -0 -1.2 0
0.223 -0.067 -2.446 -0 -1.2 0
0.235 -0.066 -2.565 -0 -1.2 0
0.244 -0.077 -2.666 -0 -1.2 0
0.255 -0.081 -2.796 -0 -1.2 0
0.269 -0.081 -2.944 -0 -1.2 0
0.283 -0.087 -3.094 -0 -1.2 0
0.298 -0.095 -3.254 -0 -1.2 0
0.316 -0.099 -3.443 -0 -1.2 0
0.335 -0.101 -3.661 -0 -1.2 0
0.357 -0.109 -3.89 -0 -1.2 0
0.381 -0.117 -4.149 -0 -1.2 0
0.411 -0.119 -4.476 -0 -1.2 0
0.442 -0.131 -4.804 -0 -1.2 0
0.481 -0.137 -5.232 -0 -1.2 0
0.528 -0.144 -5.739 -0 -1.2 0
0.586 -0.148 -6.375 -0 -1.2 0
0.657 -0.157 -7.141 -0 -1.2 0
0.749 -0.167 -8.135 -0 -1.2 0
0.86 -0.19 -9.34 -0 -1.2 0
1.017 -0.214 -11.051 -0 -1.2 0
1.296 -0.214 -14.087 -0 -1.2 0
1.325 -0.448 -14.339 -0 -1.2 0
1.33 -0.699 -14.337 -0 -1.2 0
1.332 -0.949 -14.302 -0 -1.2 0
1.334 -1.199 -14.262 -0 -1.2 0
1.338 -1.446 -14.248 -0 -1.2 0
2.442 -3.527 -25.756 -0 -1.2 0
2.363 -3.876 -24.809 -0 -1.2 0
2.069 -3.902 -21.617 -0 -1.2 0
2.246 -4.547 -23.376 -0 -1.2 0
2.294 -5.035 -23.793 -0 -1.2 0
2.128 -5.124 -21.948 -0 -1.2 0
2.265 -5.793 -23.289 -0 -1.2 0
2.113 -5.85 -21.619 -0 -1.2 0
2.227 -8.097 -22.328 -0 -1.2 0
2.28 -8.671 -22.759 -0 -1.2 0
0.071 -0.035 -1.192 -0 -1.2 0
0.073 -0.035 -1.233 -0 -1.2 0
0.076 -0.036 -1.274 -0 -1.2 0
0.078 -0.037 -1.315 -0 -1.2 0
0.081 -0.04 -1.357 -0 -1.2 0
0.084 -0.044 -1.399 -0 -1.2 0
0.087 -0.043 -1.449 -0 -1.2 0
0.089 -0.05 -1.491 -0 -1.2 0
0.093 -0.045 -1.55 -0 -1.2 0
0.096 -0.049 -1.601 -0 -1.2 0
0.1 -0.048 -1.661 -0 -1.2 0
0.103 -0.055 -1.713 -0 -1.2 0
0.107 -0.058 -1.774 -0 -1.2 0
0.111 -0.058 -1.843 -0 -1.2 0
0.115 -0.059 -1.914 -0 -1.2 0
0.12 -0.063 -1.984 -0 -1.2 0
0.124 -0.064 -2.064 -0 -1.2 0
0.129 -0.068 -2.145 -0 -1.2 0
0.134 -0.074 -2.226 -0 -1.2 0
