# .PCD v.7 - Point Cloud Data file format
FIELDS x y z vp_x vp_y vp_z
SIZE 4 4 4 4 4 4
TYPE F F F F F F
COUNT 1 1 1 1 1 1
WIDTH 1507
HEIGHT 1
VIEWPOINT 0 -1.20009 0 1 0 0 0
POINTS 1507
DATA ascii
-5.338 -20.592 22.11 -0 -1.2 0
-5.247 -20.987 21.778 -0 -1.2 0
-5.154 -21.375 21.441 -0 -1.2 0
-5.059 -21.758 21.096 -0 -1.2 0
-4.962 -22.134 20.745 -0 -1.2 0
-4.864 -22.505 20.387 -0 -1.2 0
-6.482 0.208 29.218 -0 -1.2 0
-6.478 -0.315 29.239 -0 -1.2 0
-6.319 -5.533 28.946 -0 -1.2 0
-6.292 -6.05 28.868 -0 -1.2 0
-6.265 -6.565 28.781 -0 -1.2 0
-6.234 -7.079 28.685 -0 -1.2 0
-6.202 -7.591 28.581 -0 -1.2 0
-6.168 -8.101 28.468 -0 -1.2 0
-6.132 -8.609 28.347 -0 -1.2 0
-6.094 -9.115 28.216 -0 -1.2 0
-6.054 -9.619 28.077 -0 -1.2 0
-6.013 -10.119 27.929 -0 -1.2 0
-5.969 -10.617 27.773 -0 -1.2 0
-5.925 -11.112 27.608 -0 -1.2 0
-5.877 -11.603 27.435 -0 -1.2 0
-5.829 -12.093 27.254 -0 -1.2 0
-5.778 -12.578 27.064 -0 -1.2 0
-5.726 -13.059 26.866 -0 -1.2 0
-5.672 -13.538 26.66 -0 -1.2 0
-5.616 -14.012 26.446 -0 -1.2 0
-5.559 -14.483 26.224 -0 -1.2 0
-5.5 -14.949 25.993 -0 -1.2 0
-5.439 -15.412 25.754 -0 -1.2 0
-5.376 -15.87 25.508 -0 -1.2 0
-5.312 -16.323 25.254 -0 -1.2 0
-5.246 -16.772 24.993 -0 -1.2 0
-5.179 -17.215 24.724 -0 -1.2 0
-5.11 -17.655 24.447 -0 -1.2 0
-5.04 -18.088 24.163 -0 -1.2 0
-4.968 -18.518 23.871 -0 -1.2 0
-4.894 -18.941 23.571 -0 -1.2 0
-4.819 -19.359 23.265 -0 -1.2 0
-4.743 -19.771 22.952 -0 -1.2 0
-4.665 -20.178 22.632 -0 -1.2 0
-4.586 -20.579 22.305 -0 -1.2 0
-4.505 -20.974 21.971 -0 -1.2 0
-4.423 -21.363 21.63 -0 -1.2 0
-4.339 -21.746 21.283 -0 -1.2 0
-4.254 -22.123 20.929 -0 -1.2 0
-4.169 -22.493 20.569 -0 -1.2 0
-5.505 0.224 29.433 -0 -1.2 0
-5.499 -0.299 29.453 -0 -1.2 0
-5.445 -2.914 29.418 -0 -1.2 0
-5.43 -3.436 29.383 -0 -1.2 0
-5.35 -5.516 29.159 -0 -1.2 0
-5.326 -6.034 29.08 -0 -1.2 0
-5.3 -6.549 28.992 -0 -1.2 0
-5.273 -7.063 28.897 -0 -1.2 0
-5.245 -7.575 28.791 -0 -1.2 0
-5.214 -8.085 28.677 -0 -1.2 0
-5.182 -8.593 28.554 -0 -1.2 0
-5.148 -9.099 28.424 -0 -1.2 0
-5.113 -9.603 28.284 -0 -1.2 0
-5.076 -10.103 28.135 -0 -1.2 0
-5.038 -10.601 27.977 -0 -1.2 0
-4.999 -11.096 27.812 -0 -1.2 0
-4.957 -11.588 27.637 -0 -1.2 0
-4.914 -12.077 27.454 -0 -1.2 0
-4.87 -12.563 27.264 -0 -1.2 0
-4.825 -13.044 27.065 -0 -1.2 0
-4.776 -13.523 26.857 -0 -1.2 0
-4.729 -13.997 26.641 -0 -1.2 0
-4.678 -14.468 26.417 -0 -1.2 0
-4.626 -14.934 26.185 -0 -1.2 0
-4.573 -15.397 25.945 -0 -1.2 0
-4.519 -15.855 25.697 -0 -1.2 0
-4.463 -16.309 25.442 -0 -1.2 0
-4.406 -16.758 25.179 -0 -1.2 0
-4.348 -17.201 24.908 -0 -1.2 0
-4.288 -17.641 24.629 -0 -1.2 0
-4.226 -18.074 24.343 -0 -1.2 0
-4.165 -18.504 24.049 -0 -1.2 0
-4.101 -18.927 23.748 -0 -1.2 0
-4.035 -19.346 23.44 -0 -1.2 0
-3.969 -19.758 23.124 -0 -1.2 0
-3.902 -20.165 22.802 -0 -1.2 0
-3.833 -20.566 22.472 -0 -1.2 0
-3.764 -20.962 22.137 -0 -1.2 0
-3.693 -21.351 21.794 -0 -1.2 0
-3.621 -21.734 21.444 -0 -1.2 0
-3.548 -22.111 21.088 -0 -1.2 0
-3.473 -22.482 20.725 -0 -1.2 0
-4.499 0.242 29.621 -0 -1.2 0
-4.493 -0.281 29.64 -0 -1.2 0
-4.353 -5.499 29.344 -0 -1.2 0
-4.331 -6.017 29.266 -0 -1.2 0
-4.308 -6.532 29.177 -0 -1.2 0
-4.285 -7.046 29.08 -0 -1.2 0
-4.259 -7.558 28.975 -0 -1.2 0
-4.232 -8.068 28.86 -0 -1.2 0
-4.205 -8.576 28.737 -0 -1.2 0
-4.175 -9.082 28.605 -0 -1.2 0
-4.145 -9.586 28.464 -0 -1.2 0
-4.112 -10.087 28.315 -0 -1.2 0
-4.08 -10.584 28.156 -0 -1.2 0
-4.045 -11.08 27.99 -0 -1.2 0
-4.01 -11.571 27.815 -0 -1.2 0
-3.973 -12.061 27.631 -0 -1.2 0
-3.935 -12.546 27.44 -0 -1.2 0
-3.896 -13.028 27.239 -0 -1.2 0
-3.855 -13.507 27.03 -0 -1.2 0
-3.814 -13.981 26.813 -0 -1.2 0
-3.772 -14.453 26.588 -0 -1.2 0
-3.728 -14.919 26.355 -0 -1.2 0
-3.683 -15.382 26.113 -0 -1.2 0
-3.637 -15.84 25.863 -0 -1.2 0
-3.589 -16.294 25.607 -0 -1.2 0
-3.541 -16.743 25.342 -0 -1.2 0
-3.492 -17.186 25.069 -0 -1.2 0
-3.441 -17.626 24.789 -0 -1.2 0
-3.39 -18.06 24.501 -0 -1.2 0
-3.337 -18.49 24.205 -0 -1.2 0
-3.284 -18.913 23.903 -0 -1.2 0
-3.229 -19.332 23.593 -0 -1.2 0
-3.174 -19.744 23.276 -0 -1.2 0
-3.118 -20.152 22.952 -0 -1.2 0
-3.06 -20.553 22.62 -0 -1.2 0
-3.002 -20.948 22.282 -0 -1.2 0
-2.942 -21.338 21.937 -0 -1.2 0
-2.882 -21.721 21.585 -0 -1.2 0
-2.822 -22.098 21.228 -0 -1.2 0
-2.759 -22.469 20.863 -0 -1.2 0
-3.561 -0.242 29.783 -0 -1.2 0
-3.509 -2.857 29.75 -0 -1.2 0
-3.496 -3.379 29.716 -0 -1.2 0
-3.43 -5.46 29.49 -0 -1.2 0
-3.411 -5.978 29.411 -0 -1.2 0
-3.391 -6.493 29.323 -0 -1.2 0
-3.371 -7.007 29.226 -0 -1.2 0
-3.348 -7.519 29.121 -0 -1.2 0
-3.325 -8.03 29.006 -0 -1.2 0
-3.302 -8.538 28.882 -0 -1.2 0
-3.277 -9.044 28.75 -0 -1.2 0
-3.251 -9.548 28.609 -0 -1.2 0
-3.223 -10.049 28.46 -0 -1.2 0
-3.195 -10.547 28.301 -0 -1.2 0
-3.167 -11.043 28.134 -0 -1.2 0
-3.137 -11.534 27.959 -0 -1.2 0
-3.105 -12.024 27.775 -0 -1.2 0
-3.073 -12.51 27.581 -0 -1.2 0
-3.041 -12.992 27.381 -0 -1.2 0
-3.007 -13.471 27.172 -0 -1.2 0
-2.972 -13.946 26.954 -0 -1.2 0
-2.937 -14.417 26.728 -0 -1.2 0
-2.901 -14.884 26.494 -0 -1.2 0
-2.864 -15.347 26.253 -0 -1.2 0
-2.825 -15.805 26.003 -0 -1.2 0
-2.786 -16.26 25.744 -0 -1.2 0
-2.747 -16.709 25.479 -0 -1.2 0
-2.705 -17.153 25.205 -0 -1.2 0
-2.664 -17.593 24.924 -0 -1.2 0
-2.621 -18.027 24.636 -0 -1.2 0
-2.578 -18.457 24.339 -0 -1.2 0
-2.535 -18.881 24.035 -0 -1.2 0
-2.489 -19.3 23.724 -0 -1.2 0
-2.444 -19.713 23.406 -0 -1.2 0
-2.398 -20.121 23.081 -0 -1.2 0
-2.351 -20.523 22.749 -0 -1.2 0
-2.303 -20.919 22.41 -0 -1.2 0
-2.255 -21.308 22.064 -0 -1.2 0
-2.205 -21.692 21.71 -0 -1.2 0
-2.156 -22.07 21.351 -0 -1.2 0
-2.105 -22.441 20.985 -0 -1.2 0
-2.632 -0.183 29.897 -0 -1.2 0
-2.513 -5.402 29.61 -0 -1.2 0
-2.497 -5.92 29.532 -0 -1.2 0
-2.481 -6.435 29.444 -0 -1.2 0
-2.462 -6.95 29.348 -0 -1.2 0
-2.444 -7.462 29.242 -0 -1.2 0
-2.425 -7.973 29.128 -0 -1.2 0
-2.406 -8.481 29.004 -0 -1.2 0
-2.385 -8.987 28.872 -0 -1.2 0
-2.363 -9.492 28.732 -0 -1.2 0
-2.341 -9.993 28.581 -0 -1.2 0
-2.318 -10.491 28.424 -0 -1.2 0
-2.295 -10.987 28.256 -0 -1.2 0
-2.27 -11.48 28.081 -0 -1.2 0
-2.245 -11.97 27.897 -0 -1.2 0
-2.22 -12.456 27.705 -0 -1.2 0
-2.194 -12.938 27.504 -0 -1.2 0
-2.166 -13.418 27.295 -0 -1.2 0
-2.14 -13.893 27.077 -0 -1.2 0
-2.111 -14.365 26.851 -0 -1.2 0
-2.082 -14.832 26.617 -0 -1.2 0
-2.053 -15.296 26.375 -0 -1.2 0
-2.022 -15.754 26.124 -0 -1.2 0
-1.992 -16.209 25.867 -0 -1.2 0
-1.96 -16.659 25.601 -0 -1.2 0
-1.928 -17.104 25.327 -0 -1.2 0
-1.896 -17.544 25.046 -0 -1.2 0
-1.862 -17.979 24.756 -0 -1.2 0
-1.828 -18.41 24.46 -0 -1.2 0
-1.794 -18.834 24.155 -0 -1.2 0
-1.759 -19.254 23.844 -0 -1.2 0
-1.724 -19.667 23.525 -0 -1.2 0
-1.688 -20.076 23.2 -0 -1.2 0
-1.652 -20.478 22.867 -0 -1.2 0
-1.615 -20.875 22.527 -0 -1.2 0
-1.577 -21.265 22.18 -0 -1.2 0
-1.539 -21.65 21.827 -0 -1.2 0
-1.501 -22.028 21.467 -0 -1.2 0
-1.462 -22.4 21.1 -0 -1.2 0
-1.649 -0.122 29.985 -0 -1.2 0
-1.602 -2.737 29.958 -0 -1.2 0
-1.592 -3.259 29.927 -0 -1.2 0
-1.543 -5.341 29.705 -0 -1.2 0
-1.53 -5.859 29.627 -0 -1.2 0
-1.516 -6.375 29.54 -0 -1.2 0
-1.502 -6.889 29.444 -0 -1.2 0
-1.487 -7.402 29.339 -0 -1.2 0
-1.472 -7.913 29.225 -0 -1.2 0
-1.457 -8.421 29.103 -0 -1.2 0
-1.44 -8.928 28.971 -0 -1.2 0
-1.424 -9.433 28.831 -0 -1.2 0
-1.408 -9.934 28.681 -0 -1.2 0
-1.39 -10.433 28.524 -0 -1.2 0
-1.372 -10.929 28.357 -0 -1.2 0
-1.354 -11.422 28.182 -0 -1.2 0
-1.336 -11.912 27.999 -0 -1.2 0
-1.317 -12.399 27.806 -0 -1.2 0
-1.298 -12.881 27.605 -0 -1.2 0
-1.278 -13.362 27.396 -0 -1.2 0
-1.257 -13.837 27.179 -0 -1.2 0
-1.237 -14.31 26.953 -0 -1.2 0
-1.215 -14.777 26.719 -0 -1.2 0
-1.194 -15.241 26.478 -0 -1.2 0
-1.173 -15.701 26.227 -0 -1.2 0
-1.15 -16.156 25.969 -0 -1.2 0
-1.128 -16.606 25.703 -0 -1.2 0
-1.105 -17.052 25.43 -0 -1.2 0
-1.083 -17.493 25.148 -0 -1.2 0
-1.059 -17.928 24.858 -0 -1.2 0
-1.035 -18.359 24.562 -0 -1.2 0
-1.011 -18.785 24.258 -0 -1.2 0
-0.987 -19.205 23.946 -0 -1.2 0
-0.962 -19.619 23.628 -0 -1.2 0
-0.937 -20.028 23.302 -0 -1.2 0
-0.912 -20.432 22.968 -0 -1.2 0
-0.886 -20.829 22.629 -0 -1.2 0
-0.86 -21.22 22.281 -0 -1.2 0
-0.835 -21.605 21.927 -0 -1.2 0
-0.807 -21.984 21.568 -0 -1.2 0
-0.781 -22.357 21.2 -0 -1.2 0
-0.775 0.457 30.015 -0 -1.2 0
-0.767 -0.066 30.038 -0 -1.2 0
-0.673 -5.286 29.764 -0 -1.2 0
-0.662 -5.804 29.687 -0 -1.2 0
-0.651 -6.32 29.6 -0 -1.2 0
-0.64 -6.835 29.505 -0 -1.2 0
-0.629 -7.348 29.401 -0 -1.2 0
-0.617 -7.858 29.287 -0 -1.2 0
-0.606 -8.367 29.165 -0 -1.2 0
-0.594 -8.874 29.034 -0 -1.2 0
-0.583 -9.379 28.894 -0 -1.2 0
-0.57 -9.881 28.746 -0 -1.2 0
-0.557 -10.38 28.588 -0 -1.2 0
-0.545 -10.877 28.422 -0 -1.2 0
-0.532 -11.37 28.247 -0 -1.2 0
-0.52 -11.86 28.064 -0 -1.2 0
-0.507 -12.347 27.872 -0 -1.2 0
-0.493 -12.83 27.672 -0 -1.2 0
-0.48 -13.311 27.463 -0 -1.2 0
-0.466 -13.787 27.246 -0 -1.2 0
-0.452 -14.26 27.021 -0 -1.2 0
-0.439 -14.728 26.788 -0 -1.2 0
-0.425 -15.192 26.546 -0 -1.2 0
-0.41 -15.652 26.296 -0 -1.2 0
-0.397 -16.108 26.038 -0 -1.2 0
-0.383 -16.559 25.773 -0 -1.2 0
-0.367 -17.005 25.499 -0 -1.2 0
-0.353 -17.446 25.218 -0 -1.2 0
-0.338 -17.882 24.929 -0 -1.2 0
-0.324 -18.314 24.633 -0 -1.2 0
-0.309 -18.74 24.329 -0 -1.2 0
-0.294 -19.161 24.018 -0 -1.2 0
-0.279 -19.576 23.699 -0 -1.2 0
-0.263 -19.985 23.373 -0 -1.2 0
-0.248 -20.389 23.04 -0 -1.2 0
-0.233 -20.787 22.699 -0 -1.2 0
-0.218 -21.179 22.353 -0 -1.2 0
-0.202 -21.565 21.999 -0 -1.2 0
-0.186 -21.944 21.639 -0 -1.2 0
-0.171 -22.318 21.272 -0 -1.2 0
0.104 0.511 30.041 -0 -1.2 0
0.112 -0.011 30.064 -0 -1.2 0
0.196 -5.232 29.798 -0 -1.2 0
0.204 -5.75 29.721 -0 -1.2 0
0.211 -6.266 29.636 -0 -1.2 0
0.219 -6.781 29.54 -0 -1.2 0
0.227 -7.294 29.437 -0 -1.2 0
0.235 -7.806 29.325 -0 -1.2 0
0.243 -8.315 29.202 -0 -1.2 0
0.25 -8.822 29.072 -0 -1.2 0
0.257 -9.327 28.933 -0 -1.2 0
0.265 -9.829 28.786 -0 -1.2 0
0.272 -10.328 28.628 -0 -1.2 0
0.28 -10.825 28.463 -0 -1.2 0
0.288 -11.319 28.289 -0 -1.2 0
0.294 -11.81 28.106 -0 -1.2 0
0.301 -12.297 27.915 -0 -1.2 0
0.309 -12.78 27.716 -0 -1.2 0
0.316 -13.261 27.507 -0 -1.2 0
0.322 -13.738 27.291 -0 -1.2 0
0.329 -14.211 27.065 -0 -1.2 0
0.336 -14.679 26.833 -0 -1.2 0
0.342 -15.144 26.592 -0 -1.2 0
0.349 -15.605 26.342 -0 -1.2 0
0.355 -16.061 26.085 -0 -1.2 0
0.361 -16.512 25.82 -0 -1.2 0
0.367 -16.959 25.547 -0 -1.2 0
0.374 -17.401 25.267 -0 -1.2 0
0.379 -17.837 24.978 -0 -1.2 0
0.385 -18.27 24.682 -0 -1.2 0
0.39 -18.696 24.379 -0 -1.2 0
0.396 -19.118 24.068 -0 -1.2 0
0.402 -19.533 23.75 -0 -1.2 0
0.407 -19.943 23.424 -0 -1.2 0
0.413 -20.348 23.092 -0 -1.2 0
0.417 -20.746 22.752 -0 -1.2 0
0.423 -21.139 22.406 -0 -1.2 0
0.427 -21.525 22.052 -0 -1.2 0
0.432 -21.906 21.693 -0 -1.2 0
0.436 -22.28 21.326 -0 -1.2 0
1.053 0.569 30.04 -0 -1.2 0
1.062 0.045 30.064 -0 -1.2 0
1.132 -5.176 29.805 -0 -1.2 0
1.137 -5.694 29.729 -0 -1.2 0
1.142 -6.21 29.644 -0 -1.2 0
1.147 -6.725 29.55 -0 -1.2 0
1.151 -7.239 29.448 -0 -1.2 0
1.154 -7.75 29.335 -0 -1.2 0
1.158 -8.259 29.214 -0 -1.2 0
1.161 -8.767 29.085 -0 -1.2 0
1.164 -9.272 28.946 -0 -1.2 0
1.166 -9.774 28.8 -0 -1.2 0
1.169 -10.274 28.644 -0 -1.2 0
1.17 -10.771 28.478 -0 -1.2 0
1.172 -11.265 28.306 -0 -1.2 0
1.173 -11.756 28.124 -0 -1.2 0
1.174 -12.244 27.934 -0 -1.2 0
1.173 -12.728 27.735 -0 -1.2 0
1.174 -13.209 27.527 -0 -1.2 0
1.174 -13.686 27.312 -0 -1.2 0
1.173 -14.16 27.088 -0 -1.2 0
1.171 -14.628 26.855 -0 -1.2 0
1.17 -15.094 26.616 -0 -1.2 0
1.168 -15.555 26.367 -0 -1.2 0
1.166 -16.012 26.11 -0 -1.2 0
1.164 -16.464 25.846 -0 -1.2 0
1.161 -16.91 25.574 -0 -1.2 0
1.158 -17.353 25.294 -0 -1.2 0
1.154 -17.79 25.006 -0 -1.2 0
1.151 -18.223 24.711 -0 -1.2 0
1.146 -18.65 24.408 -0 -1.2 0
1.142 -19.072 24.099 -0 -1.2 0
1.137 -19.488 23.781 -0 -1.2 0
1.131 -19.899 23.456 -0 -1.2 0
1.127 -20.304 23.125 -0 -1.2 0
1.121 -20.703 22.786 -0 -1.2 0
1.114 -21.096 22.44 -0 -1.2 0
1.107 -21.483 22.087 -0 -1.2 0
1.1 -21.865 21.728 -0 -1.2 0
1.093 -22.24 21.363 -0 -1.2 0
1.943 0.62 30.011 -0 -1.2 0
2.011 -5.124 29.785 -0 -1.2 0
2.013 -5.643 29.71 -0 -1.2 0
2.015 -6.159 29.625 -0 -1.2 0
2.017 -6.675 29.532 -0 -1.2 0
2.017 -7.188 29.43 -0 -1.2 0
2.017 -7.7 29.319 -0 -1.2 0
2.017 -8.209 29.199 -0 -1.2 0
2.016 -8.717 29.07 -0 -1.2 0
2.014 -9.222 28.933 -0 -1.2 0
2.012 -9.725 28.787 -0 -1.2 0
2.009 -10.225 28.632 -0 -1.2 0
2.005 -10.723 28.468 -0 -1.2 0
2.002 -11.216 28.296 -0 -1.2 0
1.996 -11.708 28.115 -0 -1.2 0
1.992 -12.196 27.926 -0 -1.2 0
1.985 -12.68 27.728 -0 -1.2 0
1.979 -13.162 27.52 -0 -1.2 0
1.972 -13.639 27.306 -0 -1.2 0
1.964 -14.113 27.083 -0 -1.2 0
1.956 -14.582 26.852 -0 -1.2 0
1.947 -15.049 26.612 -0 -1.2 0
1.937 -15.51 26.365 -0 -1.2 0
1.927 -15.967 26.11 -0 -1.2 0
1.917 -16.419 25.847 -0 -1.2 0
1.906 -16.867 25.575 -0 -1.2 0
1.894 -17.31 25.296 -0 -1.2 0
1.882 -17.747 25.01 -0 -1.2 0
1.869 -18.181 24.716 -0 -1.2 0
1.855 -18.608 24.414 -0 -1.2 0
1.841 -19.031 24.105 -0 -1.2 0
1.827 -19.447 23.789 -0 -1.2 0
1.812 -19.859 23.465 -0 -1.2 0
1.796 -20.265 23.134 -0 -1.2 0
1.78 -20.664 22.797 -0 -1.2 0
1.763 -21.058 22.452 -0 -1.2 0
1.745 -21.446 22.101 -0 -1.2 0
1.728 -21.828 21.742 -0 -1.2 0
1.709 -22.203 21.378 -0 -1.2 0
2.831 0.659 29.957 -0 -1.2 0
2.891 -5.086 29.736 -0 -1.2 0
2.891 -5.604 29.661 -0 -1.2 0
2.89 -6.121 29.578 -0 -1.2 0
2.888 -6.636 29.485 -0 -1.2 0
2.886 -7.15 29.384 -0 -1.2 0
2.883 -7.662 29.274 -0 -1.2 0
2.879 -8.171 29.155 -0 -1.2 0
2.874 -8.679 29.027 -0 -1.2 0
2.868 -9.185 28.89 -0 -1.2 0
2.86 -9.688 28.744 -0 -1.2 0
2.853 -10.188 28.591 -0 -1.2 0
2.844 -10.686 28.427 -0 -1.2 0
2.835 -11.18 28.256 -0 -1.2 0
2.825 -11.672 28.076 -0 -1.2 0
2.814 -12.16 27.887 -0 -1.2 0
2.802 -12.644 27.691 -0 -1.2 0
2.789 -13.127 27.485 -0 -1.2 0
2.775 -13.604 27.271 -0 -1.2 0
2.761 -14.078 27.049 -0 -1.2 0
2.746 -14.548 26.819 -0 -1.2 0
2.729 -15.014 26.58 -0 -1.2 0
2.713 -15.476 26.334 -0 -1.2 0
2.695 -15.933 26.08 -0 -1.2 0
2.676 -16.386 25.818 -0 -1.2 0
2.657 -16.834 25.547 -0 -1.2 0
2.637 -17.278 25.269 -0 -1.2 0
2.616 -17.715 24.984 -0 -1.2 0
2.594 -18.149 24.691 -0 -1.2 0
2.571 -18.577 24.39 -0 -1.2 0
2.548 -19 24.082 -0 -1.2 0
2.524 -19.417 23.767 -0 -1.2 0
2.499 -19.829 23.445 -0 -1.2 0
2.473 -20.235 23.115 -0 -1.2 0
2.448 -20.635 22.779 -0 -1.2 0
2.421 -21.029 22.436 -0 -1.2 0
2.393 -21.417 22.085 -0 -1.2 0
2.364 -21.8 21.728 -0 -1.2 0
2.335 -22.176 21.365 -0 -1.2 0
3.774 0.674 29.869 -0 -1.2 0
3.831 -5.071 29.649 -0 -1.2 0
3.83 -5.59 29.575 -0 -1.2 0
3.826 -6.106 29.491 -0 -1.2 0
3.822 -6.622 29.4 -0 -1.2 0
3.817 -7.136 29.298 -0 -1.2 0
3.81 -7.647 29.189 -0 -1.2 0
3.803 -8.157 29.07 -0 -1.2 0
3.794 -8.665 28.942 -0 -1.2 0
3.784 -9.171 28.806 -0 -1.2 0
3.774 -9.674 28.661 -0 -1.2 0
3.762 -10.174 28.507 -0 -1.2 0
3.749 -10.672 28.345 -0 -1.2 0
3.733 -11.166 28.174 -0 -1.2 0
3.718 -11.658 27.994 -0 -1.2 0
3.702 -12.146 27.807 -0 -1.2 0
3.684 -12.631 27.61 -0 -1.2 0
3.665 -13.113 27.405 -0 -1.2 0
3.645 -13.59 27.192 -0 -1.2 0
3.623 -14.065 26.971 -0 -1.2 0
3.601 -14.535 26.741 -0 -1.2 0
3.578 -15.001 26.504 -0 -1.2 0
3.554 -15.463 26.259 -0 -1.2 0
3.529 -15.92 26.005 -0 -1.2 0
3.502 -16.373 25.744 -0 -1.2 0
3.474 -16.821 25.475 -0 -1.2 0
3.446 -17.265 25.197 -0 -1.2 0
3.417 -17.703 24.913 -0 -1.2 0
3.385 -18.137 24.621 -0 -1.2 0
3.354 -18.565 24.321 -0 -1.2 0
3.322 -18.988 24.015 -0 -1.2 0
3.287 -19.405 23.701 -0 -1.2 0
3.253 -19.817 23.379 -0 -1.2 0
3.217 -20.223 23.051 -0 -1.2 0
3.181 -20.624 22.716 -0 -1.2 0
3.143 -21.018 22.373 -0 -1.2 0
3.105 -21.406 22.024 -0 -1.2 0
3.065 -21.789 21.669 -0 -1.2 0
3.025 -22.165 21.306 -0 -1.2 0
4.646 0.689 29.763 -0 -1.2 0
4.701 -5.056 29.544 -0 -1.2 0
4.697 -5.575 29.469 -0 -1.2 0
4.692 -6.091 29.387 -0 -1.2 0
4.685 -6.607 29.295 -0 -1.2 0
4.678 -7.121 29.194 -0 -1.2 0
4.669 -7.632 29.085 -0 -1.2 0
4.659 -8.142 28.966 -0 -1.2 0
4.646 -8.65 28.839 -0 -1.2 0
4.633 -9.156 28.703 -0 -1.2 0
4.618 -9.659 28.559 -0 -1.2 0
4.602 -10.159 28.406 -0 -1.2 0
4.584 -10.657 28.244 -0 -1.2 0
4.565 -11.151 28.074 -0 -1.2 0
4.545 -11.644 27.895 -0 -1.2 0
4.523 -12.132 27.708 -0 -1.2 0
4.499 -12.616 27.513 -0 -1.2 0
4.475 -13.099 27.309 -0 -1.2 0
4.449 -13.576 27.097 -0 -1.2 0
4.422 -14.051 26.877 -0 -1.2 0
4.394 -14.521 26.647 -0 -1.2 0
4.364 -14.987 26.411 -0 -1.2 0
4.332 -15.449 26.166 -0 -1.2 0
4.3 -15.907 25.914 -0 -1.2 0
4.266 -16.36 25.654 -0 -1.2 0
4.231 -16.808 25.386 -0 -1.2 0
4.195 -17.252 25.109 -0 -1.2 0
4.157 -17.69 24.826 -0 -1.2 0
4.119 -18.124 24.536 -0 -1.2 0
4.078 -18.552 24.237 -0 -1.2 0
4.036 -18.975 23.932 -0 -1.2 0
3.994 -19.393 23.619 -0 -1.2 0
3.951 -19.805 23.299 -0 -1.2 0
3.905 -20.211 22.972 -0 -1.2 0
3.859 -20.612 22.638 -0 -1.2 0
3.812 -21.006 22.297 -0 -1.2 0
3.763 -21.395 21.95 -0 -1.2 0
3.714 -21.778 21.595 -0 -1.2 0
3.663 -22.154 21.234 -0 -1.2 0
5.608 -5.557 29.329 -0 -1.2 0
5.601 -6.074 29.246 -0 -1.2 0
5.592 -6.59 29.155 -0 -1.2 0
5.581 -7.103 29.056 -0 -1.2 0
5.569 -7.615 28.946 -0 -1.2 0
5.555 -8.125 28.829 -0 -1.2 0
5.54 -8.633 28.702 -0 -1.2 0
5.522 -9.139 28.567 -0 -1.2 0
5.503 -9.642 28.423 -0 -1.2 0
5.483 -10.142 28.271 -0 -1.2 0
5.46 -10.641 28.11 -0 -1.2 0
5.437 -11.135 27.941 -0 -1.2 0
5.411 -11.627 27.763 -0 -1.2 0
5.384 -12.116 27.577 -0 -1.2 0
5.355 -12.6 27.382 -0 -1.2 0
5.325 -13.083 27.18 -0 -1.2 0
5.292 -13.56 26.969 -0 -1.2 0
5.259 -14.035 26.75 -0 -1.2 0
5.224 -14.505 26.522 -0 -1.2 0
5.187 -14.972 26.287 -0 -1.2 0
5.149 -15.434 26.044 -0 -1.2 0
5.109 -15.892 25.792 -0 -1.2 0
5.067 -16.345 25.533 -0 -1.2 0
5.024 -16.793 25.266 -0 -1.2 0
4.979 -17.237 24.992 -0 -1.2 0
4.933 -17.675 24.71 -0 -1.2 0
4.885 -18.109 24.421 -0 -1.2 0
4.836 -18.538 24.124 -0 -1.2 0
4.786 -18.961 23.82 -0 -1.2 0
4.734 -19.379 23.51 -0 -1.2 0
4.681 -19.791 23.191 -0 -1.2 0
4.626 -20.198 22.865 -0 -1.2 0
4.57 -20.598 22.533 -0 -1.2 0
4.513 -20.993 22.194 -0 -1.2 0
4.454 -21.382 21.848 -0 -1.2 0
4.394 -21.765 21.496 -0 -1.2 0
4.331 -22.141 21.137 -0 -1.2 0
6.576 -6.569 28.971 -0 -1.2 0
6.563 -7.083 28.872 -0 -1.2 0
6.548 -7.595 28.764 -0 -1.2 0
6.53 -8.105 28.647 -0 -1.2 0
6.511 -8.613 28.521 -0 -1.2 0
6.489 -9.119 28.387 -0 -1.2 0
6.466 -9.622 28.245 -0 -1.2 0
6.441 -10.122 28.093 -0 -1.2 0
6.413 -10.621 27.934 -0 -1.2 0
6.384 -11.115 27.766 -0 -1.2 0
6.353 -11.608 27.589 -0 -1.2 0
6.32 -12.096 27.404 -0 -1.2 0
6.285 -12.581 27.211 -0 -1.2 0
6.248 -13.064 27.009 -0 -1.2 0
6.209 -13.541 26.8 -0 -1.2 0
6.169 -14.016 26.582 -0 -1.2 0
6.126 -14.486 26.356 -0 -1.2 0
6.082 -14.953 26.122 -0 -1.2 0
6.036 -15.415 25.881 -0 -1.2 0
5.987 -15.873 25.632 -0 -1.2 0
5.938 -16.327 25.374 -0 -1.2 0
5.886 -16.775 25.109 -0 -1.2 0
5.832 -17.219 24.838 -0 -1.2 0
5.777 -17.658 24.558 -0 -1.2 0
5.72 -18.092 24.27 -0 -1.2 0
5.661 -18.521 23.975 -0 -1.2 0
5.601 -18.944 23.674 -0 -1.2 0
5.539 -19.362 23.365 -0 -1.2 0
5.475 -19.775 23.049 -0 -1.2 0
5.41 -20.181 22.725 -0 -1.2 0
5.342 -20.582 22.395 -0 -1.2 0
5.274 -20.977 22.059 -0 -1.2 0
5.204 -21.366 21.716 -0 -1.2 0
5.132 -21.749 21.365 -0 -1.2 0
5.059 -22.126 21.009 -0 -1.2 0
7.292 -10.601 27.742 -0 -1.2 0
7.258 -11.095 27.575 -0 -1.2 0
7.221 -11.588 27.399 -0 -1.2 0
7.182 -12.077 27.216 -0 -1.2 0
7.142 -12.561 27.024 -0 -1.2 0
7.099 -13.044 26.824 -0 -1.2 0
7.054 -13.522 26.617 -0 -1.2 0
7.007 -13.997 26.4 -0 -1.2 0
6.958 -14.467 26.176 -0 -1.2 0
6.906 -14.934 25.944 -0 -1.2 0
6.853 -15.397 25.704 -0 -1.2 0
6.797 -15.855 25.457 -0 -1.2 0
6.74 -16.308 25.201 -0 -1.2 0
6.68 -16.757 24.939 -0 -1.2 0
6.618 -17.201 24.669 -0 -1.2 0
6.555 -17.64 24.391 -0 -1.2 0
6.49 -18.075 24.105 -0 -1.2 0
6.422 -18.503 23.813 -0 -1.2 0
6.352 -18.927 23.514 -0 -1.2 0
6.281 -19.345 23.206 -0 -1.2 0
6.207 -19.758 22.893 -0 -1.2 0
6.132 -20.165 22.572 -0 -1.2 0
6.055 -20.566 22.244 -0 -1.2 0
5.976 -20.961 21.911 -0 -1.2 0
5.895 -21.351 21.57 -0 -1.2 0
5.813 -21.734 21.222 -0 -1.2 0
5.729 -22.111 20.869 -0 -1.2 0
8.163 -10.579 27.522 -0 -1.2 0
8.082 -11.567 27.182 -0 -1.2 0
8.039 -12.056 27.001 -0 -1.2 0
7.992 -12.541 26.81 -0 -1.2 0
7.664 -15.377 25.502 -0 -1.2 0
7.601 -15.835 25.257 -0 -1.2 0
7.536 -16.289 25.003 -0 -1.2 0
7.468 -16.738 24.743 -0 -1.2 0
7.398 -17.182 24.474 -0 -1.2 0
7.326 -17.621 24.2 -0 -1.2 0
7.253 -18.056 23.917 -0 -1.2 0
7.176 -18.485 23.626 -0 -1.2 0
7.097 -18.909 23.329 -0 -1.2 0
7.017 -19.327 23.025 -0 -1.2 0
6.933 -19.74 22.714 -0 -1.2 0
6.849 -20.148 22.396 -0 -1.2 0
6.762 -20.549 22.071 -0 -1.2 0
6.673 -20.944 21.74 -0 -1.2 0
6.581 -21.334 21.403 -0 -1.2 0
6.489 -21.717 21.059 -0 -1.2 0
6.393 -22.095 20.707 -0 -1.2 0
7.784 -19.304 22.814 -0 -1.2 0
7.691 -19.718 22.506 -0 -1.2 0
7.596 -20.125 22.192 -0 -1.2 0
7.498 -20.527 21.87 -0 -1.2 0
7.399 -20.923 21.542 -0 -1.2 0
7.298 -21.313 21.208 -0 -1.2 0
7.193 -21.696 20.867 -0 -1.2 0
7.087 -22.074 20.52 -0 -1.2 0
8.395 -19.682 22.3 -0 -1.2 0
8.29 -20.09 21.989 -0 -1.2 0
8.183 -20.492 21.672 -0 -1.2 0
8.074 -20.888 21.347 -0 -1.2 0
7.961 -21.279 21.017 -0 -1.2 0
7.847 -21.663 20.68 -0 -1.2 0
7.73 -22.042 20.337 -0 -1.2 0
9.091 -19.646 22.073 -0 -1.2 0
8.977 -20.055 21.766 -0 -1.2 0
8.86 -20.457 21.453 -0 -1.2 0
8.74 -20.854 21.133 -0 -1.2 0
8.618 -21.245 20.807 -0 -1.2 0
8.492 -21.63 20.475 -0 -1.2 0
8.365 -22.009 20.136 -0 -1.2 0
9.821 -19.608 21.808 -0 -1.2 0
9.697 -20.017 21.507 -0 -1.2 0
9.57 -20.42 21.198 -0 -1.2 0
9.439 -20.818 20.882 -0 -1.2 0
9.307 -21.209 20.561 -0 -1.2 0
9.171 -21.595 20.234 -0 -1.2 0
9.032 -21.974 19.9 -0 -1.2 0
10.602 -19.157 21.841 -0 -1.2 0
10.473 -19.573 21.55 -0 -1.2 0
10.339 -19.982 21.252 -0 -1.2 0
10.203 -20.386 20.947 -0 -1.2 0
10.063 -20.784 20.637 -0 -1.2 0
9.921 -21.176 20.321 -0 -1.2 0
9.775 -21.562 19.998 -0 -1.2 0
9.627 -21.942 19.67 -0 -1.2 0
11.253 -19.122 21.557 -0 -1.2 0
11.114 -19.538 21.271 -0 -1.2 0
10.971 -19.948 20.979 -0 -1.2 0
10.826 -20.352 20.679 -0 -1.2 0
10.677 -20.751 20.374 -0 -1.2 0
10.525 -21.143 20.062 -0 -1.2 0
10.37 -21.53 19.745 -0 -1.2 0
10.212 -21.911 19.422 -0 -1.2 0
11.941 -19.085 21.232 -0 -1.2 0
11.793 -19.501 20.951 -0 -1.2 0
11.642 -19.912 20.664 -0 -1.2 0
11.486 -20.317 20.371 -0 -1.2 0
11.328 -20.715 20.071 -0 -1.2 0
11.166 -21.108 19.765 -0 -1.2 0
11.001 -21.496 19.454 -0 -1.2 0
10.833 -21.877 19.136 -0 -1.2 0
12.72 -18.629 21.181 -0 -1.2 0
12.568 -19.05 20.911 -0 -1.2 0
12.412 -19.467 20.635 -0 -1.2 0
12.252 -19.878 20.353 -0 -1.2 0
12.089 -20.284 20.066 -0 -1.2 0
11.921 -20.683 19.771 -0 -1.2 0
11.75 -21.077 19.471 -0 -1.2 0
11.575 -21.464 19.165 -0 -1.2 0
11.397 -21.846 18.854 -0 -1.2 0
13.355 -18.608 20.817 -0 -1.2 0
13.195 -19.03 20.553 -0 -1.2 0
13.029 -19.448 20.283 -0 -1.2 0
12.861 -19.859 20.006 -0 -1.2 0
12.689 -20.264 19.723 -0 -1.2 0
12.512 -20.664 19.435 -0 -1.2 0
12.332 -21.058 19.141 -0 -1.2 0
12.147 -21.446 18.841 -0 -1.2 0
11.961 -21.828 18.535 -0 -1.2 0
14.029 -18.594 20.395 -0 -1.2 0
13.859 -19.016 20.135 -0 -1.2 0
13.686 -19.433 19.871 -0 -1.2 0
13.508 -19.845 19.601 -0 -1.2 0
13.325 -20.251 19.325 -0 -1.2 0
13.139 -20.651 19.043 -0 -1.2 0
12.949 -21.045 18.755 -0 -1.2 0
12.755 -21.433 18.462 -0 -1.2 0
12.558 -21.815 18.163 -0 -1.2 0
14.814 -18.153 20.229 -0 -1.2 0
14.642 -18.581 19.981 -0 -1.2 0
14.464 -19.003 19.729 -0 -1.2 0
14.282 -19.421 19.47 -0 -1.2 0
14.096 -19.833 19.206 -0 -1.2 0
13.905 -20.238 18.936 -0 -1.2 0
13.71 -20.639 18.66 -0 -1.2 0
13.511 -21.033 18.379 -0 -1.2 0
13.308 -21.421 18.092 -0 -1.2 0
13.1 -21.804 17.8 -0 -1.2 0
15.239 -18.569 19.549 -0 -1.2 0
15.054 -18.991 19.303 -0 -1.2 0
14.864 -19.409 19.05 -0 -1.2 0
14.669 -19.821 18.792 -0 -1.2 0
14.47 -20.227 18.529 -0 -1.2 0
14.267 -20.627 18.259 -0 -1.2 0
14.059 -21.022 17.985 -0 -1.2 0
13.847 -21.41 17.705 -0 -1.2 0
13.63 -21.793 17.419 -0 -1.2 0
15.673 -18.979 18.824 -0 -1.2 0
15.475 -19.397 18.579 -0 -1.2 0
15.272 -19.809 18.327 -0 -1.2 0
15.064 -20.215 18.071 -0 -1.2 0
14.852 -20.615 17.809 -0 -1.2 0
14.635 -21.01 17.542 -0 -1.2 0
14.413 -21.399 17.27 -0 -1.2 0
14.187 -21.782 16.993 -0 -1.2 0
15.818 -19.798 17.878 -0 -1.2 0
15.601 -20.205 17.629 -0 -1.2 0
15.381 -20.605 17.374 -0 -1.2 0
15.155 -21 17.114 -0 -1.2 0
14.926 -21.389 16.849 -0 -1.2 0
14.691 -21.772 16.58 -0 -1.2 0
16.123 -20.195 17.168 -0 -1.2 0
15.895 -20.596 16.921 -0 -1.2 0
15.662 -20.991 16.669 -0 -1.2 0
15.423 -21.38 16.411 -0 -1.2 0
15.18 -21.763 16.15 -0 -1.2 0
16.447 -20.579 16.411 -0 -1.2 0
16.206 -20.974 16.167 -0 -1.2 0
15.958 -21.363 15.918 -0 -1.2 0
15.707 -21.747 15.665 -0 -1.2 0
16.698 -20.957 15.682 -0 -1.2 0
16.444 -21.347 15.442 -0 -1.2 0
16.184 -21.731 15.198 -0 -1.2 0
16.911 -21.331 14.95 -0 -1.2 0
16.644 -21.715 14.715 -0 -1.2 0
17.124 -21.7 14.178 -0 -1.2 0
15.238 -21.727 -16.09 -0 -1.2 0
15.005 -21.361 -16.762 -0 -1.2 0
14.761 -21.744 -16.502 -0 -1.2 0
14.46 -21.38 -17.21 -0 -1.2 0
14.224 -21.763 -16.941 -0 -1.2 0
14.154 -21.012 -17.881 -0 -1.2 0
13.933 -21.401 -17.609 -0 -1.2 0
13.707 -21.783 -17.331 -0 -1.2 0
14.009 -20.243 -18.817 -0 -1.2 0
13.805 -20.643 -18.549 -0 -1.2 0
13.596 -21.037 -18.274 -0 -1.2 0
13.383 -21.425 -17.995 -0 -1.2 0
13.167 -21.808 -17.709 -0 -1.2 0
13.542 -19.865 -19.525 -0 -1.2 0
13.352 -20.271 -19.254 -0 -1.2 0
13.158 -20.67 -18.976 -0 -1.2 0
12.96 -21.064 -18.694 -0 -1.2 0
12.758 -21.452 -18.405 -0 -1.2 0
12.553 -21.834 -18.111 -0 -1.2 0
13.085 -19.485 -20.184 -0 -1.2 0
12.909 -19.895 -19.911 -0 -1.2 0
12.729 -20.3 -19.632 -0 -1.2 0
12.545 -20.699 -19.348 -0 -1.2 0
12.357 -21.093 -19.058 -0 -1.2 0
12.166 -21.48 -18.761 -0 -1.2 0
11.97 -21.862 -18.46 -0 -1.2 0
12.623 -19.104 -20.805 -0 -1.2 0
12.46 -19.52 -20.531 -0 -1.2 0
12.293 -19.931 -20.252 -0 -1.2 0
12.123 -20.335 -19.966 -0 -1.2 0
11.949 -20.734 -19.675 -0 -1.2 0
11.771 -21.126 -19.378 -0 -1.2 0
11.589 -21.513 -19.075 -0 -1.2 0
11.405 -21.894 -18.766 -0 -1.2 0
12.24 -18.295 -21.698 -0 -1.2 0
12.093 -18.722 -21.431 -0 -1.2 0
11.945 -19.142 -21.157 -0 -1.2 0
11.791 -19.558 -20.878 -0 -1.2 0
11.634 -19.968 -20.592 -0 -1.2 0
11.474 -20.372 -20.3 -0 -1.2 0
11.311 -20.77 -20.003 -0 -1.2 0
11.143 -21.162 -19.698 -0 -1.2 0
10.972 -21.548 -19.388 -0 -1.2 0
10.799 -21.928 -19.074 -0 -1.2 0
11.715 -17.905 -22.277 -0 -1.2 0
11.581 -18.336 -22.011 -0 -1.2 0
11.445 -18.761 -21.739 -0 -1.2 0
11.304 -19.182 -21.461 -0 -1.2 0
11.16 -19.597 -21.176 -0 -1.2 0
11.012 -20.006 -20.884 -0 -1.2 0
10.862 -20.409 -20.587 -0 -1.2 0
10.708 -20.807 -20.283 -0 -1.2 0
10.551 -21.198 -19.973 -0 -1.2 0
10.391 -21.584 -19.657 -0 -1.2 0
10.227 -21.964 -19.335 -0 -1.2 0
10.913 -18.381 -22.301 -0 -1.2 0
10.785 -18.807 -22.023 -0 -1.2 0
10.653 -19.226 -21.739 -0 -1.2 0
10.519 -19.64 -21.449 -0 -1.2 0
10.382 -20.049 -21.152 -0 -1.2 0
10.241 -20.452 -20.849 -0 -1.2 0
10.097 -20.849 -20.538 -0 -1.2 0
9.95 -21.24 -20.223 -0 -1.2 0
9.8 -21.625 -19.901 -0 -1.2 0
9.647 -22.004 -19.573 -0 -1.2 0
10.486 -17.123 -23.415 -0 -1.2 0
10.377 -17.563 -23.152 -0 -1.2 0
10.265 -17.998 -22.884 -0 -1.2 0
10.151 -18.428 -22.608 -0 -1.2 0
10.033 -18.853 -22.325 -0 -1.2 0
9.912 -19.272 -22.035 -0 -1.2 0
9.788 -19.686 -21.739 -0 -1.2 0
9.661 -20.094 -21.436 -0 -1.2 0
9.532 -20.496 -21.127 -0 -1.2 0
9.4 -20.892 -20.811 -0 -1.2 0
9.264 -21.282 -20.49 -0 -1.2 0
9.126 -21.666 -20.162 -0 -1.2 0
8.985 -22.045 -19.828 -0 -1.2 0
9.931 -16.253 -24.216 -0 -1.2 0
9.837 -16.702 -23.964 -0 -1.2 0
9.741 -17.147 -23.705 -0 -1.2 0
9.64 -17.587 -23.439 -0 -1.2 0
9.538 -18.022 -23.167 -0 -1.2 0
9.432 -18.451 -22.886 -0 -1.2 0
9.324 -18.876 -22.599 -0 -1.2 0
9.213 -19.294 -22.305 -0 -1.2 0
9.099 -19.708 -22.005 -0 -1.2 0
8.982 -20.116 -21.698 -0 -1.2 0
8.863 -20.517 -21.384 -0 -1.2 0
8.741 -20.913 -21.065 -0 -1.2 0
8.616 -21.303 -20.739 -0 -1.2 0
8.489 -21.687 -20.406 -0 -1.2 0
8.359 -22.065 -20.067 -0 -1.2 0
9.165 -16.265 -24.493 -0 -1.2 0
9.079 -16.714 -24.238 -0 -1.2 0
8.991 -17.159 -23.976 -0 -1.2 0
8.9 -17.598 -23.707 -0 -1.2 0
8.806 -18.033 -23.431 -0 -1.2 0
8.709 -18.462 -23.147 -0 -1.2 0
8.61 -18.887 -22.856 -0 -1.2 0
8.509 -19.305 -22.559 -0 -1.2 0
8.405 -19.719 -22.255 -0 -1.2 0
8.297 -20.126 -21.945 -0 -1.2 0
8.189 -20.528 -21.627 -0 -1.2 0
8.076 -20.924 -21.303 -0 -1.2 0
7.962 -21.313 -20.972 -0 -1.2 0
7.846 -21.697 -20.635 -0 -1.2 0
7.726 -22.075 -20.293 -0 -1.2 0
8.245 -16.727 -24.513 -0 -1.2 0
8.165 -17.172 -24.247 -0 -1.2 0
8.084 -17.611 -23.975 -0 -1.2 0
8 -18.046 -23.696 -0 -1.2 0
7.914 -18.475 -23.409 -0 -1.2 0
7.825 -18.899 -23.115 -0 -1.2 0
7.733 -19.318 -22.814 -0 -1.2 0
7.639 -19.731 -22.505 -0 -1.2 0
7.543 -20.138 -22.191 -0 -1.2 0
7.445 -20.54 -21.869 -0 -1.2 0
7.345 -20.935 -21.542 -0 -1.2 0
7.242 -21.325 -21.207 -0 -1.2 0
7.138 -21.708 -20.867 -0 -1.2 0
7.031 -22.086 -20.519 -0 -1.2 0
7.434 -16.74 -24.746 -0 -1.2 0
7.363 -17.185 -24.478 -0 -1.2 0
7.292 -17.624 -24.203 -0 -1.2 0
7.217 -18.059 -23.92 -0 -1.2 0
7.139 -18.488 -23.63 -0 -1.2 0
7.061 -18.912 -23.333 -0 -1.2 0
6.98 -19.33 -23.028 -0 -1.2 0
6.897 -19.743 -22.718 -0 -1.2 0
6.811 -20.15 -22.4 -0 -1.2 0
6.724 -20.551 -22.075 -0 -1.2 0
6.635 -20.947 -21.744 -0 -1.2 0
6.543 -21.336 -21.406 -0 -1.2 0
6.45 -21.72 -21.062 -0 -1.2 0
6.354 -22.097 -20.711 -0 -1.2 0
6.612 -16.754 -24.954 -0 -1.2 0
6.551 -17.199 -24.684 -0 -1.2 0
6.488 -17.637 -24.406 -0 -1.2 0
6.423 -18.072 -24.12 -0 -1.2 0
6.357 -18.501 -23.827 -0 -1.2 0
6.288 -18.924 -23.528 -0 -1.2 0
6.217 -19.342 -23.221 -0 -1.2 0
6.144 -19.755 -22.907 -0 -1.2 0
6.07 -20.162 -22.586 -0 -1.2 0
5.994 -20.563 -22.258 -0 -1.2 0
5.915 -20.959 -21.925 -0 -1.2 0
5.835 -21.348 -21.583 -0 -1.2 0
5.754 -21.731 -21.236 -0 -1.2 0
5.67 -22.108 -20.882 -0 -1.2 0
5.666 -17.214 -24.877 -0 -1.2 0
5.612 -17.652 -24.597 -0 -1.2 0
5.558 -18.086 -24.309 -0 -1.2 0
5.503 -18.515 -24.013 -0 -1.2 0
5.444 -18.939 -23.711 -0 -1.2 0
5.385 -19.356 -23.402 -0 -1.2 0
5.324 -19.769 -23.085 -0 -1.2 0
5.261 -20.176 -22.762 -0 -1.2 0
5.196 -20.577 -22.431 -0 -1.2 0
5.131 -20.972 -22.094 -0 -1.2 0
5.063 -21.361 -21.75 -0 -1.2 0
4.995 -21.744 -21.4 -0 -1.2 0
4.924 -22.121 -21.043 -0 -1.2 0
4.858 -17.227 -25.021 -0 -1.2 0
4.814 -17.666 -24.739 -0 -1.2 0
4.769 -18.1 -24.449 -0 -1.2 0
4.723 -18.528 -24.152 -0 -1.2 0
4.675 -18.952 -23.848 -0 -1.2 0
4.626 -19.369 -23.536 -0 -1.2 0
4.575 -19.782 -23.217 -0 -1.2 0
4.523 -20.189 -22.892 -0 -1.2 0
4.469 -20.589 -22.559 -0 -1.2 0
4.415 -20.984 -22.22 -0 -1.2 0
4.359 -21.373 -21.874 -0 -1.2 0
4.301 -21.756 -21.521 -0 -1.2 0
4.242 -22.133 -21.162 -0 -1.2 0
4.076 -17.261 -25.121 -0 -1.2 0
4.04 -17.699 -24.837 -0 -1.2 0
4.004 -18.133 -24.546 -0 -1.2 0
3.968 -18.561 -24.246 -0 -1.2 0
3.929 -18.984 -23.941 -0 -1.2 0
3.889 -19.401 -23.627 -0 -1.2 0
3.849 -19.813 -23.307 -0 -1.2 0
3.807 -20.219 -22.979 -0 -1.2 0
3.763 -20.62 -22.644 -0 -1.2 0
3.719 -21.014 -22.303 -0 -1.2 0
3.675 -21.402 -21.954 -0 -1.2 0
3.628 -21.785 -21.6 -0 -1.2 0
3.58 -22.161 -21.238 -0 -1.2 0
3.288 -17.311 -25.186 -0 -1.2 0
3.262 -17.749 -24.9 -0 -1.2 0
3.235 -18.182 -24.606 -0 -1.2 0
3.207 -18.61 -24.305 -0 -1.2 0
3.178 -19.032 -23.997 -0 -1.2 0
3.147 -19.449 -23.682 -0 -1.2 0
3.117 -19.86 -23.36 -0 -1.2 0
3.085 -20.266 -23.029 -0 -1.2 0
3.051 -20.665 -22.693 -0 -1.2 0
3.017 -21.059 -22.35 -0 -1.2 0
2.983 -21.446 -22 -0 -1.2 0
2.948 -21.828 -21.643 -0 -1.2 0
2.911 -22.204 -21.28 -0 -1.2 0
2.438 -17.365 -25.228 -0 -1.2 0
2.42 -17.802 -24.94 -0 -1.2 0
2.403 -18.234 -24.645 -0 -1.2 0
2.384 -18.661 -24.343 -0 -1.2 0
2.365 -19.083 -24.033 -0 -1.2 0
2.346 -19.499 -23.717 -0 -1.2 0
2.325 -19.91 -23.392 -0 -1.2 0
2.304 -20.315 -23.06 -0 -1.2 0
2.282 -20.714 -22.723 -0 -1.2 0
2.26 -21.106 -22.377 -0 -1.2 0
2.236 -21.493 -22.025 -0 -1.2 0
2.213 -21.874 -21.666 -0 -1.2 0
2.188 -22.249 -21.302 -0 -1.2 0
1.666 -17.413 -25.24 -0 -1.2 0
1.658 -17.85 -24.952 -0 -1.2 0
1.648 -18.282 -24.656 -0 -1.2 0
1.639 -18.708 -24.352 -0 -1.2 0
1.629 -19.129 -24.042 -0 -1.2 0
1.619 -19.545 -23.723 -0 -1.2 0
1.608 -19.955 -23.398 -0 -1.2 0
1.596 -20.359 -23.065 -0 -1.2 0
1.584 -20.757 -22.725 -0 -1.2 0
1.572 -21.149 -22.379 -0 -1.2 0
1.559 -21.536 -22.026 -0 -1.2 0
1.546 -21.916 -21.666 -0 -1.2 0
1.533 -22.29 -21.299 -0 -1.2 0
0.855 -17.462 -25.232 -0 -1.2 0
0.855 -17.897 -24.942 -0 -1.2 0
0.855 -18.329 -24.644 -0 -1.2 0
0.855 -18.754 -24.34 -0 -1.2 0
0.854 -19.175 -24.028 -0 -1.2 0
0.854 -19.59 -23.709 -0 -1.2 0
0.853 -19.999 -23.382 -0 -1.2 0
0.852 -20.403 -23.048 -0 -1.2 0
0.85 -20.801 -22.709 -0 -1.2 0
0.849 -21.192 -22.361 -0 -1.2 0
0.847 -21.578 -22.007 -0 -1.2 0
0.845 -21.957 -21.646 -0 -1.2 0
0.843 -22.331 -21.279 -0 -1.2 0
0.108 -17.51 -25.194 -0 -1.2 0
0.116 -17.945 -24.904 -0 -1.2 0
0.125 -18.376 -24.606 -0 -1.2 0
0.134 -18.801 -24.301 -0 -1.2 0
0.142 -19.221 -23.988 -0 -1.2 0
0.15 -19.635 -23.668 -0 -1.2 0
0.159 -20.044 -23.341 -0 -1.2 0
0.167 -20.447 -23.007 -0 -1.2 0
0.175 -20.844 -22.665 -0 -1.2 0
0.183 -21.235 -22.317 -0 -1.2 0
0.191 -21.62 -21.963 -0 -1.2 0
0.199 -21.999 -21.601 -0 -1.2 0
0.208 -22.372 -21.233 -0 -1.2 0
-0.641 -17.555 -25.138 -0 -1.2 0
-0.624 -17.989 -24.847 -0 -1.2 0
-0.607 -18.42 -24.55 -0 -1.2 0
-0.591 -18.845 -24.244 -0 -1.2 0
-0.573 -19.264 -23.931 -0 -1.2 0
-0.556 -19.677 -23.61 -0 -1.2 0
-0.538 -20.086 -23.283 -0 -1.2 0
-0.52 -20.488 -22.949 -0 -1.2 0
-0.503 -20.885 -22.607 -0 -1.2 0
-0.485 -21.275 -22.259 -0 -1.2 0
-0.466 -21.659 -21.904 -0 -1.2 0
-0.448 -22.038 -21.542 -0 -1.2 0
-0.429 -22.41 -21.174 -0 -1.2 0
-1.388 -17.588 -25.068 -0 -1.2 0
-1.363 -18.022 -24.777 -0 -1.2 0
-1.337 -18.452 -24.479 -0 -1.2 0
-1.311 -18.877 -24.173 -0 -1.2 0
-1.285 -19.296 -23.861 -0 -1.2 0
-1.258 -19.709 -23.541 -0 -1.2 0
-1.231 -20.117 -23.213 -0 -1.2 0
-1.203 -20.519 -22.878 -0 -1.2 0
-1.176 -20.915 -22.537 -0 -1.2 0
-1.148 -21.305 -22.189 -0 -1.2 0
-1.119 -21.688 -21.834 -0 -1.2 0
-1.09 -22.066 -21.473 -0 -1.2 0
-1.061 -22.438 -21.105 -0 -1.2 0
-2.164 -17.6 -24.987 -0 -1.2 0
-2.131 -18.034 -24.698 -0 -1.2 0
-2.095 -18.464 -24.401 -0 -1.2 0
-2.059 -18.888 -24.095 -0 -1.2 0
-2.022 -19.307 -23.783 -0 -1.2 0
-1.985 -19.72 -23.464 -0 -1.2 0
-1.947 -20.127 -23.137 -0 -1.2 0
-1.909 -20.529 -22.804 -0 -1.2 0
-1.871 -20.925 -22.464 -0 -1.2 0
-1.831 -21.315 -22.117 -0 -1.2 0
-1.791 -21.698 -21.763 -0 -1.2 0
-1.75 -22.076 -21.401 -0 -1.2 0
-1.709 -22.448 -21.034 -0 -1.2 0
-2.884 -17.612 -24.889 -0 -1.2 0
-2.841 -18.046 -24.599 -0 -1.2 0
-2.796 -18.475 -24.304 -0 -1.2 0
-2.706 -19.318 -23.689 -0 -1.2 0
-2.659 -19.731 -23.371 -0 -1.2 0
-2.611 -20.139 -23.045 -0 -1.2 0
-2.563 -20.54 -22.713 -0 -1.2 0
-2.514 -20.936 -22.373 -0 -1.2 0
-2.464 -21.325 -22.027 -0 -1.2 0
-2.413 -21.709 -21.675 -0 -1.2 0
-2.361 -22.086 -21.315 -0 -1.2 0
-2.31 -22.458 -20.949 -0 -1.2 0
-4.605 -4.979 -29.38 -0 -1.2 0
-4.585 -5.498 -29.31 -0 -1.2 0
-4.564 -6.015 -29.231 -0 -1.2 0
-4.542 -6.53 -29.144 -0 -1.2 0
-4.517 -7.045 -29.047 -0 -1.2 0
-4.493 -7.557 -28.941 -0 -1.2 0
-4.466 -8.067 -28.827 -0 -1.2 0
-4.438 -8.575 -28.704 -0 -1.2 0
-4.409 -9.081 -28.571 -0 -1.2 0
-4.378 -9.585 -28.431 -0 -1.2 0
-4.346 -10.085 -28.282 -0 -1.2 0
-4.313 -10.583 -28.124 -0 -1.2 0
-4.278 -11.079 -27.957 -0 -1.2 0
-4.243 -11.57 -27.783 -0 -1.2 0
-4.206 -12.06 -27.599 -0 -1.2 0
-3.483 -17.466 -23.616 -0 -1.2 0
-3.445 -19.332 -23.566 -0 -1.2 0
-3.387 -19.744 -23.249 -0 -1.2 0
-3.269 -20.553 -22.594 -0 -1.2 0
-3.21 -20.949 -22.256 -0 -1.2 0
-3.148 -21.338 -21.912 -0 -1.2 0
-3.086 -21.721 -21.561 -0 -1.2 0
-3.023 -22.098 -21.202 -0 -1.2 0
-2.959 -22.47 -20.839 -0 -1.2 0
-5.466 -6.034 -29.054 -0 -1.2 0
-5.44 -6.549 -28.967 -0 -1.2 0
-5.413 -7.063 -28.871 -0 -1.2 0
-5.384 -7.575 -28.766 -0 -1.2 0
-5.354 -8.085 -28.652 -0 -1.2 0
-5.321 -8.593 -28.53 -0 -1.2 0
-5.288 -9.099 -28.399 -0 -1.2 0
-5.252 -9.603 -28.259 -0 -1.2 0
-5.215 -10.103 -28.11 -0 -1.2 0
-5.177 -10.601 -27.953 -0 -1.2 0
-5.095 -11.588 -27.614 -0 -1.2 0
-4.651 -15.855 -25.675 -0 -1.2 0
-4.291 -18.504 -24.029 -0 -1.2 0
-4.025 -20.166 -22.783 -0 -1.2 0
-3.955 -20.567 -22.453 -0 -1.2 0
-3.883 -20.962 -22.117 -0 -1.2 0
-3.811 -21.351 -21.775 -0 -1.2 0
-3.739 -21.735 -21.425 -0 -1.2 0
-3.664 -22.112 -21.07 -0 -1.2 0
-3.588 -22.483 -20.708 -0 -1.2 0
-6.448 -4.498 -29.055 -0 -1.2 0
-6.425 -5.018 -28.996 -0 -1.2 0
-6.4 -5.536 -28.926 -0 -1.2 0
-6.373 -6.053 -28.848 -0 -1.2 0
-6.344 -6.569 -28.761 -0 -1.2 0
-6.314 -7.083 -28.666 -0 -1.2 0
-6.281 -7.595 -28.562 -0 -1.2 0
-6.247 -8.105 -28.449 -0 -1.2 0
-6.211 -8.612 -28.327 -0 -1.2 0
-6 -11.115 -27.589 -0 -1.2 0
-5.953 -11.607 -27.417 -0 -1.2 0
-5.904 -12.096 -27.235 -0 -1.2 0
-5.853 -12.581 -27.046 -0 -1.2 0
-5.8 -13.062 -26.848 -0 -1.2 0
-5.446 -15.873 -25.491 -0 -1.2 0
-5.247 -17.219 -24.707 -0 -1.2 0
-5.033 -18.521 -23.855 -0 -1.2 0
-4.958 -18.944 -23.556 -0 -1.2 0
-4.882 -19.362 -23.25 -0 -1.2 0
-4.804 -19.774 -22.937 -0 -1.2 0
-4.726 -20.181 -22.617 -0 -1.2 0
-4.645 -20.582 -22.29 -0 -1.2 0
-4.563 -20.977 -21.956 -0 -1.2 0
-4.48 -21.366 -21.616 -0 -1.2 0
-4.395 -21.749 -21.269 -0 -1.2 0
-4.309 -22.126 -20.916 -0 -1.2 0
-4.223 -22.496 -20.555 -0 -1.2 0
-7.475 -0.34 -28.982 -0 -1.2 0
-7.468 -0.863 -28.992 -0 -1.2 0
-7.459 -1.386 -28.994 -0 -1.2 0
-7.448 -1.909 -28.987 -0 -1.2 0
-7.434 -2.432 -28.972 -0 -1.2 0
-7.418 -2.956 -28.947 -0 -1.2 0
-7.399 -3.477 -28.914 -0 -1.2 0
-7.378 -3.999 -28.871 -0 -1.2 0
-7.356 -4.519 -28.82 -0 -1.2 0
-7.331 -5.039 -28.76 -0 -1.2 0
-7.304 -5.558 -28.692 -0 -1.2 0
-7.274 -6.075 -28.614 -0 -1.2 0
-7.243 -6.59 -28.528 -0 -1.2 0
-7.134 -8.126 -28.218 -0 -1.2 0
-7.006 -9.643 -27.83 -0 -1.2 0
-6.75 -12.116 -27.014 -0 -1.2 0
-6.306 -15.434 -25.526 -0 -1.2 0
-6.087 -16.793 -24.771 -0 -1.2 0
-5.85 -18.109 -23.948 -0 -1.2 0
-5.421 -20.198 -22.43 -0 -1.2 0
-5.331 -20.599 -22.105 -0 -1.2 0
-5.238 -20.993 -21.775 -0 -1.2 0
-5.144 -21.382 -21.436 -0 -1.2 0
-5.049 -21.765 -21.092 -0 -1.2 0
-4.951 -22.141 -20.741 -0 -1.2 0
-4.852 -22.512 -20.384 -0 -1.2 0
-8.454 -0.369 -28.693 -0 -1.2 0
-8.447 -0.892 -28.704 -0 -1.2 0
-8.438 -1.415 -28.705 -0 -1.2 0
-8.425 -1.938 -28.699 -0 -1.2 0
-8.41 -2.46 -28.683 -0 -1.2 0
-8.393 -2.984 -28.659 -0 -1.2 0
-8.373 -3.506 -28.626 -0 -1.2 0
-8.299 -5.068 -28.473 -0 -1.2 0
-8.081 -8.153 -27.936 -0 -1.2 0
-7.939 -9.67 -27.551 -0 -1.2 0
-7.455 -13.587 -26.158 -0 -1.2 0
-6.737 -17.7 -23.984 -0 -1.2 0
-6.647 -18.133 -23.704 -0 -1.2 0
-6.165 -20.22 -22.2 -0 -1.2 0
-6.063 -20.62 -21.878 -0 -1.2 0
-5.959 -21.015 -21.55 -0 -1.2 0
-5.854 -21.403 -21.216 -0 -1.2 0
-5.746 -21.785 -20.874 -0 -1.2 0
-5.637 -22.161 -20.526 -0 -1.2 0
-5.526 -22.531 -20.173 -0 -1.2 0
-8.272 -13.629 -25.875 -0 -1.2 0
-6.967 -19.85 -22.261 -0 -1.2 0
-6.744 -20.656 -21.63 -0 -1.2 0
-6.63 -21.049 -21.305 -0 -1.2 0
-6.514 -21.437 -20.973 -0 -1.2 0
-6.396 -21.819 -20.634 -0 -1.2 0
-6.275 -22.194 -20.29 -0 -1.2 0
-6.153 -22.564 -19.939 -0 -1.2 0
-10.311 -0.986 -28.054 -0 -1.2 0
-10.301 -1.509 -28.056 -0 -1.2 0
-10.288 -2.032 -28.048 -0 -1.2 0
-10.272 -2.555 -28.032 -0 -1.2 0
-10.252 -3.078 -28.006 -0 -1.2 0
-10.231 -3.6 -27.974 -0 -1.2 0
-10.205 -4.121 -27.931 -0 -1.2 0
-10.176 -4.641 -27.881 -0 -1.2 0
-10.145 -5.161 -27.822 -0 -1.2 0
-10.11 -5.679 -27.754 -0 -1.2 0
-10.073 -6.196 -27.678 -0 -1.2 0
-9.988 -7.224 -27.5 -0 -1.2 0
-9.837 -8.752 -27.171 -0 -1.2 0
-7.718 -19.887 -21.963 -0 -1.2 0
-7.474 -20.692 -21.338 -0 -1.2 0
-7.348 -21.085 -21.017 -0 -1.2 0
-7.221 -21.473 -20.689 -0 -1.2 0
-7.091 -21.854 -20.354 -0 -1.2 0
-6.959 -22.229 -20.013 -0 -1.2 0
-6.825 -22.598 -19.665 -0 -1.2 0
-11.188 -1.035 -27.699 -0 -1.2 0
-11.178 -1.558 -27.7 -0 -1.2 0
-11.164 -2.08 -27.691 -0 -1.2 0
-11.147 -2.603 -27.675 -0 -1.2 0
-11.127 -3.127 -27.65 -0 -1.2 0
-11.104 -3.648 -27.616 -0 -1.2 0
-11.077 -4.169 -27.574 -0 -1.2 0
-11.047 -4.689 -27.524 -0 -1.2 0
-11.014 -5.209 -27.465 -0 -1.2 0
-10.976 -5.727 -27.397 -0 -1.2 0
-10.936 -6.244 -27.322 -0 -1.2 0
-10.893 -6.758 -27.238 -0 -1.2 0
-10.795 -7.783 -27.044 -0 -1.2 0
-10.029 -13.239 -25.399 -0 -1.2 0
-9.658 -15.123 -24.564 -0 -1.2 0
-9.239 -16.939 -23.608 -0 -1.2 0
-9.127 -17.381 -23.351 -0 -1.2 0
-8.775 -18.678 -22.536 -0 -1.2 0
-8.528 -19.515 -21.959 -0 -1.2 0
-8.269 -20.33 -21.355 -0 -1.2 0
-8.136 -20.729 -21.043 -0 -1.2 0
-8 -21.122 -20.725 -0 -1.2 0
-7.863 -21.508 -20.4 -0 -1.2 0
-7.723 -21.889 -20.068 -0 -1.2 0
-7.58 -22.263 -19.732 -0 -1.2 0
-7.435 -22.632 -19.388 -0 -1.2 0
-12.043 -1.081 -27.322 -0 -1.2 0
-12.033 -1.603 -27.322 -0 -1.2 0
-12.019 -2.126 -27.313 -0 -1.2 0
-12.002 -2.649 -27.297 -0 -1.2 0
-11.982 -3.172 -27.271 -0 -1.2 0
-11.957 -3.694 -27.237 -0 -1.2 0
-11.928 -4.215 -27.195 -0 -1.2 0
-11.897 -4.735 -27.146 -0 -1.2 0
-11.86 -5.255 -27.086 -0 -1.2 0
-11.822 -5.772 -27.02 -0 -1.2 0
-11.779 -6.289 -26.945 -0 -1.2 0
-11.733 -6.803 -26.862 -0 -1.2 0
-11.573 -8.337 -26.562 -0 -1.2 0
-11.512 -8.844 -26.445 -0 -1.2 0
-11.235 -10.846 -25.9 -0 -1.2 0
-9.846 -17.42 -23.015 -0 -1.2 0
-8.925 -20.365 -21.041 -0 -1.2 0
-8.783 -20.764 -20.733 -0 -1.2 0
-8.638 -21.156 -20.418 -0 -1.2 0
-8.489 -21.542 -20.098 -0 -1.2 0
-8.34 -21.922 -19.77 -0 -1.2 0
-8.186 -22.296 -19.436 -0 -1.2 0
-8.031 -22.664 -19.098 -0 -1.2 0
-12.933 -1.127 -26.897 -0 -1.2 0
-12.923 -1.65 -26.897 -0 -1.2 0
-12.909 -2.173 -26.888 -0 -1.2 0
-12.89 -2.695 -26.871 -0 -1.2 0
-12.869 -3.219 -26.846 -0 -1.2 0
-12.843 -3.74 -26.811 -0 -1.2 0
-12.813 -4.261 -26.77 -0 -1.2 0
-12.779 -4.781 -26.72 -0 -1.2 0
-12.742 -5.301 -26.662 -0 -1.2 0
-12.655 -6.335 -26.52 -0 -1.2 0
-12.606 -6.849 -26.437 -0 -1.2 0
-12.553 -7.362 -26.347 -0 -1.2 0
-12.435 -8.382 -26.141 -0 -1.2 0
-12.371 -8.888 -26.026 -0 -1.2 0
-10.721 -17.018 -22.888 -0 -1.2 0
-10.462 -17.896 -22.379 -0 -1.2 0
-10.049 -19.173 -21.565 -0 -1.2 0
-9.759 -19.997 -20.989 -0 -1.2 0
-9.609 -20.401 -20.691 -0 -1.2 0
-9.456 -20.799 -20.386 -0 -1.2 0
-9.3 -21.191 -20.076 -0 -1.2 0
-9.141 -21.576 -19.759 -0 -1.2 0
-8.981 -21.956 -19.437 -0 -1.2 0
-8.816 -22.329 -19.108 -0 -1.2 0
-8.65 -22.696 -18.774 -0 -1.2 0
-13.74 -1.174 -26.478 -0 -1.2 0
-13.647 -3.787 -26.391 -0 -1.2 0
-13.616 -4.308 -26.349 -0 -1.2 0
-13.58 -4.827 -26.299 -0 -1.2 0
-13.541 -5.347 -26.24 -0 -1.2 0
-13.498 -5.865 -26.175 -0 -1.2 0
-13.398 -6.895 -26.019 -0 -1.2 0
-13.218 -8.427 -25.725 -0 -1.2 0
-13.003 -9.94 -25.36 -0 -1.2 0
-12.363 -13.367 -24.238 -0 -1.2 0
-12.256 -13.843 -24.047 -0 -1.2 0
-12.145 -14.315 -23.849 -0 -1.2 0
-11.913 -15.247 -23.432 -0 -1.2 0
-11.538 -16.612 -22.751 -0 -1.2 0
-11.405 -17.058 -22.511 -0 -1.2 0
-11.27 -17.498 -22.263 -0 -1.2 0
-11.131 -17.935 -22.009 -0 -1.2 0
-10.842 -18.791 -21.48 -0 -1.2 0
-10.694 -19.211 -21.204 -0 -1.2 0
-10.541 -19.625 -20.923 -0 -1.2 0
-10.386 -20.034 -20.636 -0 -1.2 0
-10.227 -20.437 -20.342 -0 -1.2 0
-10.065 -20.835 -20.042 -0 -1.2 0
-9.9 -21.226 -19.736 -0 -1.2 0
-9.732 -21.611 -19.423 -0 -1.2 0
-9.561 -21.99 -19.105 -0 -1.2 0
-9.387 -22.362 -18.78 -0 -1.2 0
-9.21 -22.729 -18.451 -0 -1.2 0
-14.538 -1.218 -26.034 -0 -1.2 0
-14.527 -1.741 -26.032 -0 -1.2 0
-14.513 -2.264 -26.022 -0 -1.2 0
-14.494 -2.786 -26.004 -0 -1.2 0
-14.47 -3.31 -25.979 -0 -1.2 0
-14.236 -6.424 -25.658 -0 -1.2 0
-14.181 -6.938 -25.576 -0 -1.2 0
-13.993 -8.47 -25.285 -0 -1.2 0
-13.922 -8.976 -25.173 -0 -1.2 0
-13.846 -9.481 -25.053 -0 -1.2 0
-13.766 -9.982 -24.925 -0 -1.2 0
-13.594 -10.977 -24.646 -0 -1.2 0
-12.979 -13.884 -23.629 -0 -1.2 0
-12.49 -15.745 -22.805 -0 -1.2 0
-12.357 -16.2 -22.582 -0 -1.2 0
-12.222 -16.65 -22.351 -0 -1.2 0
-12.083 -17.096 -22.114 -0 -1.2 0
-11.94 -17.536 -21.87 -0 -1.2 0
-11.793 -17.972 -21.619 -0 -1.2 0
-11.488 -18.827 -21.097 -0 -1.2 0
-11.331 -19.246 -20.826 -0 -1.2 0
-11.17 -19.66 -20.549 -0 -1.2 0
-11.006 -20.069 -20.266 -0 -1.2 0
-10.839 -20.471 -19.976 -0 -1.2 0
-10.667 -20.868 -19.68 -0 -1.2 0
-10.493 -21.259 -19.379 -0 -1.2 0
-10.316 -21.643 -19.071 -0 -1.2 0
-10.135 -22.022 -18.757 -0 -1.2 0
-9.953 -22.394 -18.438 -0 -1.2 0
-9.765 -22.76 -18.112 -0 -1.2 0
-15.405 -1.245 -25.517 -0 -1.2 0
-15.395 -1.768 -25.515 -0 -1.2 0
-15.38 -2.291 -25.505 -0 -1.2 0
-15.361 -2.813 -25.488 -0 -1.2 0
-15.336 -3.337 -25.461 -0 -1.2 0
-15.307 -3.858 -25.429 -0 -1.2 0
-15.273 -4.379 -25.387 -0 -1.2 0
-15.192 -5.418 -25.281 -0 -1.2 0
-15.092 -6.451 -25.145 -0 -1.2 0
-14.837 -8.497 -24.779 -0 -1.2 0
-14.763 -9.003 -24.668 -0 -1.2 0
-14.683 -9.507 -24.549 -0 -1.2 0
-14.113 -12.471 -23.683 -0 -1.2 0
-14.003 -12.954 -23.513 -0 -1.2 0
-13.889 -13.432 -23.335 -0 -1.2 0
-13.77 -13.908 -23.151 -0 -1.2 0
-13.52 -14.847 -22.76 -0 -1.2 0
-13.389 -15.31 -22.555 -0 -1.2 0
-13.253 -15.769 -22.342 -0 -1.2 0
-13.115 -16.224 -22.122 -0 -1.2 0
-12.971 -16.674 -21.896 -0 -1.2 0
-12.824 -17.119 -21.662 -0 -1.2 0
-12.673 -17.559 -21.423 -0 -1.2 0
-12.518 -17.994 -21.177 -0 -1.2 0
-12.359 -18.424 -20.923 -0 -1.2 0
-12.197 -18.849 -20.663 -0 -1.2 0
-12.03 -19.268 -20.398 -0 -1.2 0
-11.861 -19.682 -20.126 -0 -1.2 0
-11.687 -20.09 -19.847 -0 -1.2 0
-11.51 -20.492 -19.563 -0 -1.2 0
-11.33 -20.889 -19.273 -0 -1.2 0
-11.146 -21.279 -18.976 -0 -1.2 0
-10.958 -21.663 -18.674 -0 -1.2 0
-10.767 -22.041 -18.367 -0 -1.2 0
-10.573 -22.413 -18.053 -0 -1.2 0
-10.377 -22.779 -17.733 -0 -1.2 0
-16.207 -0.74 -25 -0 -1.2 0
-16.201 -1.263 -25.006 -0 -1.2 0
-16.192 -1.786 -25.003 -0 -1.2 0
-16.176 -2.309 -24.994 -0 -1.2 0
-16.156 -2.831 -24.976 -0 -1.2 0
-16.131 -3.354 -24.951 -0 -1.2 0
-16.101 -3.876 -24.918 -0 -1.2 0
-16.067 -4.396 -24.878 -0 -1.2 0
-16.027 -4.916 -24.829 -0 -1.2 0
-15.982 -5.436 -24.774 -0 -1.2 0
-15.82 -6.983 -24.56 -0 -1.2 0
-15.613 -8.514 -24.279 -0 -1.2 0
-15.535 -9.02 -24.171 -0 -1.2 0
-15.365 -10.026 -23.931 -0 -1.2 0
-14.857 -12.488 -23.203 -0 -1.2 0
-14.741 -12.97 -23.035 -0 -1.2 0
-14.621 -13.449 -22.862 -0 -1.2 0
-14.497 -13.925 -22.68 -0 -1.2 0
-14.369 -14.396 -22.492 -0 -1.2 0
-14.235 -14.863 -22.297 -0 -1.2 0
-14.098 -15.326 -22.095 -0 -1.2 0
-13.956 -15.785 -21.886 -0 -1.2 0
-13.81 -16.239 -21.67 -0 -1.2 0
-13.66 -16.689 -21.449 -0 -1.2 0
-13.507 -17.134 -21.219 -0 -1.2 0
-13.348 -17.574 -20.984 -0 -1.2 0
-13.185 -18.009 -20.742 -0 -1.2 0
-13.019 -18.438 -20.493 -0 -1.2 0
-12.849 -18.864 -20.239 -0 -1.2 0
-12.675 -19.282 -19.978 -0 -1.2 0
-12.497 -19.696 -19.711 -0 -1.2 0
-12.314 -20.104 -19.438 -0 -1.2 0
-12.129 -20.506 -19.159 -0 -1.2 0
-11.939 -20.903 -18.874 -0 -1.2 0
-11.746 -21.293 -18.583 -0 -1.2 0
-11.55 -21.677 -18.287 -0 -1.2 0
-11.35 -22.055 -17.985 -0 -1.2 0
-11.147 -22.426 -17.677 -0 -1.2 0
-10.939 -22.792 -17.363 -0 -1.2 0
-16.983 -1.28 -24.47 -0 -1.2 0
-16.972 -1.803 -24.468 -0 -1.2 0
-16.957 -2.325 -24.458 -0 -1.2 0
-16.937 -2.848 -24.441 -0 -1.2 0
-16.911 -3.371 -24.416 -0 -1.2 0
-16.88 -3.892 -24.383 -0 -1.2 0
-16.844 -4.413 -24.344 -0 -1.2 0
-16.803 -4.933 -24.296 -0 -1.2 0
-16.757 -5.452 -24.241 -0 -1.2 0
-16.705 -5.969 -24.18 -0 -1.2 0
-16.522 -7.512 -23.947 -0 -1.2 0
-16.451 -8.022 -23.856 -0 -1.2 0
-16.019 -10.54 -23.286 -0 -1.2 0
-15.465 -12.986 -22.536 -0 -1.2 0
-15.34 -13.464 -22.366 -0 -1.2 0
-15.21 -13.94 -22.188 -0 -1.2 0
-15.076 -14.411 -22.004 -0 -1.2 0
-14.937 -14.878 -21.813 -0 -1.2 0
-14.794 -15.341 -21.614 -0 -1.2 0
-14.645 -15.8 -21.409 -0 -1.2 0
-14.493 -16.254 -21.198 -0 -1.2 0
-14.337 -16.704 -20.981 -0 -1.2 0
-14.175 -17.148 -20.756 -0 -1.2 0
-14.01 -17.588 -20.525 -0 -1.2 0
-13.84 -18.023 -20.288 -0 -1.2 0
-13.666 -18.452 -20.045 -0 -1.2 0
-13.488 -18.877 -19.795 -0 -1.2 0
-13.306 -19.296 -19.54 -0 -1.2 0
-13.12 -19.71 -19.278 -0 -1.2 0
-12.93 -20.117 -19.01 -0 -1.2 0
-12.735 -20.519 -18.736 -0 -1.2 0
-12.537 -20.915 -18.457 -0 -1.2 0
-12.335 -21.305 -18.172 -0 -1.2 0
-12.13 -21.689 -17.881 -0 -1.2 0
-11.92 -22.067 -17.585 -0 -1.2 0
-11.707 -22.438 -17.284 -0 -1.2 0
-11.491 -22.804 -16.977 -0 -1.2 0
-17.811 -0.249 -23.851 -0 -1.2 0
-17.811 -0.774 -23.864 -0 -1.2 0
-17.807 -1.297 -23.869 -0 -1.2 0
-17.797 -1.82 -23.866 -0 -1.2 0
-17.782 -2.342 -23.857 -0 -1.2 0
-17.76 -2.865 -23.839 -0 -1.2 0
-17.734 -3.388 -23.814 -0 -1.2 0
-17.703 -3.909 -23.783 -0 -1.2 0
-17.666 -4.43 -23.744 -0 -1.2 0
-17.623 -4.95 -23.697 -0 -1.2 0
-17.575 -5.469 -23.643 -0 -1.2 0
-17.523 -5.986 -23.582 -0 -1.2 0
-17.464 -6.502 -23.514 -0 -1.2 0
-17.401 -7.016 -23.438 -0 -1.2 0
-17.177 -8.547 -23.168 -0 -1.2 0
-16.229 -13.002 -21.975 -0 -1.2 0
-16.099 -13.48 -21.809 -0 -1.2 0
-15.964 -13.955 -21.635 -0 -1.2 0
-15.823 -14.426 -21.455 -0 -1.2 0
-15.678 -14.894 -21.267 -0 -1.2 0
-15.528 -15.356 -21.074 -0 -1.2 0
-15.373 -15.815 -20.874 -0 -1.2 0
-15.215 -16.269 -20.667 -0 -1.2 0
-15.051 -16.718 -20.455 -0 -1.2 0
-14.882 -17.163 -20.235 -0 -1.2 0
-14.71 -17.602 -20.01 -0 -1.2 0
-14.531 -18.037 -19.778 -0 -1.2 0
-14.35 -18.466 -19.54 -0 -1.2 0
-14.163 -18.891 -19.296 -0 -1.2 0
-13.973 -19.31 -19.047 -0 -1.2 0
-13.779 -19.723 -18.791 -0 -1.2 0
-13.58 -20.13 -18.529 -0 -1.2 0
-13.377 -20.533 -18.262 -0 -1.2 0
-13.169 -20.928 -17.99 -0 -1.2 0
-12.958 -21.318 -17.711 -0 -1.2 0
-12.743 -21.702 -17.427 -0 -1.2 0
-12.524 -22.079 -17.138 -0 -1.2 0
-12.301 -22.45 -16.843 -0 -1.2 0
-12.075 -22.816 -16.543 -0 -1.2 0
-18.555 -0.265 -23.268 -0 -1.2 0
