# .PCD v.7 - Point Cloud Data file format
FIELDS x y z vp_x vp_y vp_z
SIZE 4 4 4 4 4 4
TYPE F F F F F F
COUNT 1 1 1 1 1 1
WIDTH 1526
HEIGHT 1
VIEWPOINT 0 -1.20013 0 1 0 0 0
POINTS 1526
DATA ascii
9.325 -7.685 27.924 -0 -1.2 0
9.294 -8.194 27.808 -0 -1.2 0
9.26 -8.702 27.685 -0 -1.2 0
9.223 -9.207 27.552 -0 -1.2 0
9.184 -9.71 27.412 -0 -1.2 0
9.141 -10.21 27.262 -0 -1.2 0
9.096 -10.707 27.106 -0 -1.2 0
9.048 -11.202 26.94 -0 -1.2 0
8.997 -11.693 26.766 -0 -1.2 0
8.944 -12.182 26.585 -0 -1.2 0
8.887 -12.666 26.395 -0 -1.2 0
8.829 -13.147 26.197 -0 -1.2 0
8.767 -13.625 25.992 -0 -1.2 0
8.703 -14.099 25.778 -0 -1.2 0
8.636 -14.569 25.557 -0 -1.2 0
8.566 -15.034 25.328 -0 -1.2 0
8.495 -15.496 25.091 -0 -1.2 0
8.421 -15.953 24.847 -0 -1.2 0
8.342 -16.406 24.596 -0 -1.2 0
8.263 -16.853 24.336 -0 -1.2 0
8.181 -17.296 24.069 -0 -1.2 0
8.096 -17.735 23.796 -0 -1.2 0
8.009 -18.167 23.514 -0 -1.2 0
7.919 -18.595 23.226 -0 -1.2 0
7.828 -19.018 22.931 -0 -1.2 0
7.733 -19.435 22.629 -0 -1.2 0
7.637 -19.846 22.32 -0 -1.2 0
7.538 -20.252 22.004 -0 -1.2 0
7.437 -20.652 21.682 -0 -1.2 0
7.332 -21.046 21.353 -0 -1.2 0
7.227 -21.434 21.018 -0 -1.2 0
7.118 -21.815 20.676 -0 -1.2 0
7.009 -22.191 20.328 -0 -1.2 0
6.896 -22.56 19.974 -0 -1.2 0
10.394 -1.921 28.324 -0 -1.2 0
10.395 -2.444 28.305 -0 -1.2 0
10.391 -2.968 28.275 -0 -1.2 0
10.384 -3.489 28.238 -0 -1.2 0
10.375 -4.011 28.192 -0 -1.2 0
10.197 -4.476 27.691 -0 -1.2 0
10.346 -5.052 28.075 -0 -1.2 0
10.327 -5.57 28.004 -0 -1.2 0
10.305 -6.087 27.924 -0 -1.2 0
10.28 -6.602 27.836 -0 -1.2 0
10.252 -7.116 27.739 -0 -1.2 0
10.221 -7.628 27.634 -0 -1.2 0
10.185 -8.138 27.52 -0 -1.2 0
10.148 -8.645 27.398 -0 -1.2 0
10.108 -9.151 27.269 -0 -1.2 0
10.064 -9.655 27.13 -0 -1.2 0
10.017 -10.155 26.983 -0 -1.2 0
9.966 -10.652 26.829 -0 -1.2 0
9.914 -11.148 26.665 -0 -1.2 0
9.858 -11.639 26.495 -0 -1.2 0
9.799 -12.128 26.315 -0 -1.2 0
9.737 -12.613 26.128 -0 -1.2 0
9.672 -13.094 25.934 -0 -1.2 0
9.605 -13.573 25.731 -0 -1.2 0
9.533 -14.046 25.521 -0 -1.2 0
9.46 -14.517 25.303 -0 -1.2 0
9.383 -14.983 25.077 -0 -1.2 0
9.305 -15.445 24.843 -0 -1.2 0
9.222 -15.902 24.602 -0 -1.2 0
9.137 -16.356 24.354 -0 -1.2 0
9.05 -16.804 24.098 -0 -1.2 0
8.959 -17.247 23.836 -0 -1.2 0
8.865 -17.686 23.565 -0 -1.2 0
8.77 -18.119 23.288 -0 -1.2 0
8.672 -18.548 23.004 -0 -1.2 0
8.57 -18.971 22.712 -0 -1.2 0
8.467 -19.389 22.414 -0 -1.2 0
8.361 -19.801 22.109 -0 -1.2 0
8.252 -20.207 21.797 -0 -1.2 0
8.14 -20.608 21.479 -0 -1.2 0
8.026 -21.002 21.155 -0 -1.2 0
7.91 -21.391 20.823 -0 -1.2 0
7.791 -21.773 20.486 -0 -1.2 0
7.67 -22.15 20.142 -0 -1.2 0
7.547 -22.52 19.793 -0 -1.2 0
11.372 -2.382 27.94 -0 -1.2 0
11.369 -2.906 27.913 -0 -1.2 0
11.361 -3.427 27.877 -0 -1.2 0
11.351 -3.949 27.832 -0 -1.2 0
11.336 -4.47 27.78 -0 -1.2 0
11.318 -4.99 27.718 -0 -1.2 0
11.298 -5.508 27.649 -0 -1.2 0
11.273 -6.026 27.57 -0 -1.2 0
11.245 -6.541 27.484 -0 -1.2 0
11.214 -7.055 27.389 -0 -1.2 0
11.179 -7.567 27.286 -0 -1.2 0
11.14 -8.077 27.175 -0 -1.2 0
11.088 -8.578 27.029 -0 -1.2 0
11.054 -9.091 26.928 -0 -1.2 0
11.006 -9.595 26.793 -0 -1.2 0
10.955 -10.096 26.649 -0 -1.2 0
10.899 -10.593 26.496 -0 -1.2 0
10.841 -11.089 26.337 -0 -1.2 0
10.78 -11.581 26.169 -0 -1.2 0
10.715 -12.07 25.993 -0 -1.2 0
10.647 -12.555 25.809 -0 -1.2 0
10.576 -13.037 25.618 -0 -1.2 0
10.501 -13.516 25.418 -0 -1.2 0
10.423 -13.99 25.211 -0 -1.2 0
10.342 -14.461 24.997 -0 -1.2 0
10.258 -14.928 24.775 -0 -1.2 0
10.171 -15.391 24.545 -0 -1.2 0
10.081 -15.848 24.308 -0 -1.2 0
9.988 -16.302 24.064 -0 -1.2 0
9.892 -16.751 23.812 -0 -1.2 0
9.792 -17.195 23.554 -0 -1.2 0
9.69 -17.635 23.288 -0 -1.2 0
9.585 -18.068 23.014 -0 -1.2 0
9.476 -18.498 22.735 -0 -1.2 0
9.366 -18.921 22.448 -0 -1.2 0
9.252 -19.34 22.154 -0 -1.2 0
9.135 -19.752 21.854 -0 -1.2 0
9.015 -20.16 21.547 -0 -1.2 0
8.894 -20.561 21.234 -0 -1.2 0
8.769 -20.956 20.914 -0 -1.2 0
8.641 -21.345 20.588 -0 -1.2 0
8.511 -21.728 20.256 -0 -1.2 0
8.379 -22.105 19.917 -0 -1.2 0
8.244 -22.477 19.574 -0 -1.2 0
12.284 -0.233 27.58 -0 -1.2 0
12.3 -1.279 27.584 -0 -1.2 0
12.304 -1.802 27.575 -0 -1.2 0
12.303 -2.325 27.557 -0 -1.2 0
12.298 -2.848 27.531 -0 -1.2 0
12.29 -3.37 27.495 -0 -1.2 0
12.278 -3.892 27.453 -0 -1.2 0
12.243 -4.933 27.341 -0 -1.2 0
12.22 -5.452 27.273 -0 -1.2 0
12.193 -5.969 27.197 -0 -1.2 0
12.162 -6.485 27.113 -0 -1.2 0
12.128 -6.999 27.02 -0 -1.2 0
12.09 -7.511 26.919 -0 -1.2 0
12.048 -8.021 26.81 -0 -1.2 0
12.003 -8.53 26.693 -0 -1.2 0
11.955 -9.036 26.568 -0 -1.2 0
11.901 -9.54 26.435 -0 -1.2 0
11.846 -10.041 26.294 -0 -1.2 0
11.785 -10.539 26.145 -0 -1.2 0
11.723 -11.035 25.988 -0 -1.2 0
11.655 -11.527 25.823 -0 -1.2 0
11.586 -12.017 25.651 -0 -1.2 0
11.512 -12.502 25.47 -0 -1.2 0
11.434 -12.984 25.281 -0 -1.2 0
11.353 -13.464 25.086 -0 -1.2 0
11.269 -13.938 24.882 -0 -1.2 0
11.181 -14.41 24.672 -0 -1.2 0
11.09 -14.877 24.454 -0 -1.2 0
10.995 -15.34 24.228 -0 -1.2 0
10.897 -15.798 23.995 -0 -1.2 0
10.796 -16.253 23.755 -0 -1.2 0
10.692 -16.702 23.507 -0 -1.2 0
10.584 -17.147 23.253 -0 -1.2 0
10.474 -17.587 22.991 -0 -1.2 0
10.36 -18.021 22.723 -0 -1.2 0
10.242 -18.451 22.448 -0 -1.2 0
10.122 -18.875 22.166 -0 -1.2 0
9.998 -19.294 21.876 -0 -1.2 0
9.872 -19.707 21.582 -0 -1.2 0
9.743 -20.115 21.279 -0 -1.2 0
9.61 -20.517 20.971 -0 -1.2 0
9.475 -20.913 20.657 -0 -1.2 0
9.337 -21.303 20.336 -0 -1.2 0
9.196 -21.687 20.009 -0 -1.2 0
9.052 -22.065 19.676 -0 -1.2 0
8.906 -22.436 19.337 -0 -1.2 0
13.2 -0.176 27.161 -0 -1.2 0
13.221 -1.745 27.159 -0 -1.2 0
13.219 -2.268 27.142 -0 -1.2 0
13.214 -2.792 27.116 -0 -1.2 0
13.205 -3.314 27.083 -0 -1.2 0
13.191 -3.835 27.042 -0 -1.2 0
13.174 -4.356 26.991 -0 -1.2 0
13.153 -4.877 26.933 -0 -1.2 0
13.128 -5.396 26.867 -0 -1.2 0
13.099 -5.913 26.793 -0 -1.2 0
13.065 -6.429 26.711 -0 -1.2 0
13.029 -6.943 26.62 -0 -1.2 0
12.988 -7.456 26.522 -0 -1.2 0
12.943 -7.966 26.415 -0 -1.2 0
12.894 -8.475 26.3 -0 -1.2 0
12.841 -8.981 26.178 -0 -1.2 0
12.784 -9.486 26.048 -0 -1.2 0
12.723 -9.987 25.91 -0 -1.2 0
12.659 -10.485 25.764 -0 -1.2 0
12.59 -10.981 25.61 -0 -1.2 0
12.519 -11.474 25.448 -0 -1.2 0
12.442 -11.964 25.279 -0 -1.2 0
12.363 -12.45 25.102 -0 -1.2 0
12.28 -12.932 24.918 -0 -1.2 0
12.192 -13.412 24.725 -0 -1.2 0
12.101 -13.887 24.526 -0 -1.2 0
12.007 -14.359 24.319 -0 -1.2 0
11.909 -14.826 24.105 -0 -1.2 0
11.807 -15.29 23.884 -0 -1.2 0
11.702 -15.749 23.654 -0 -1.2 0
11.593 -16.204 23.419 -0 -1.2 0
11.481 -16.654 23.175 -0 -1.2 0
11.364 -17.099 22.926 -0 -1.2 0
11.245 -17.54 22.669 -0 -1.2 0
11.122 -17.974 22.406 -0 -1.2 0
10.996 -18.405 22.135 -0 -1.2 0
10.866 -18.83 21.858 -0 -1.2 0
10.734 -19.249 21.574 -0 -1.2 0
10.598 -19.663 21.284 -0 -1.2 0
10.459 -20.072 20.987 -0 -1.2 0
10.316 -20.474 20.684 -0 -1.2 0
10.171 -20.871 20.375 -0 -1.2 0
10.021 -21.261 20.06 -0 -1.2 0
9.87 -21.646 19.739 -0 -1.2 0
9.715 -22.024 19.411 -0 -1.2 0
9.558 -22.397 19.078 -0 -1.2 0
14.19 -1.685 26.676 -0 -1.2 0
14.189 -2.208 26.66 -0 -1.2 0
14.183 -2.732 26.636 -0 -1.2 0
14.173 -3.254 26.604 -0 -1.2 0
14.158 -3.776 26.564 -0 -1.2 0
14.14 -4.297 26.516 -0 -1.2 0
14.117 -4.817 26.459 -0 -1.2 0
14.09 -5.336 26.396 -0 -1.2 0
14.059 -5.854 26.323 -0 -1.2 0
14.022 -6.37 26.243 -0 -1.2 0
13.982 -6.885 26.155 -0 -1.2 0
13.938 -7.397 26.059 -0 -1.2 0
13.89 -7.908 25.955 -0 -1.2 0
13.837 -8.417 25.843 -0 -1.2 0
13.78 -8.923 25.724 -0 -1.2 0
13.719 -9.428 25.596 -0 -1.2 0
13.653 -9.93 25.462 -0 -1.2 0
13.584 -10.428 25.319 -0 -1.2 0
13.51 -10.925 25.169 -0 -1.2 0
13.432 -11.418 25.012 -0 -1.2 0
13.35 -11.908 24.845 -0 -1.2 0
13.265 -12.395 24.672 -0 -1.2 0
13.175 -12.877 24.492 -0 -1.2 0
13.081 -13.358 24.304 -0 -1.2 0
12.983 -13.833 24.109 -0 -1.2 0
12.881 -14.306 23.908 -0 -1.2 0
12.776 -14.773 23.698 -0 -1.2 0
12.666 -15.238 23.481 -0 -1.2 0
12.553 -15.697 23.257 -0 -1.2 0
12.436 -16.152 23.027 -0 -1.2 0
12.315 -16.603 22.788 -0 -1.2 0
12.19 -17.048 22.544 -0 -1.2 0
12.062 -17.49 22.292 -0 -1.2 0
11.93 -17.925 22.034 -0 -1.2 0
11.795 -18.356 21.769 -0 -1.2 0
11.655 -18.782 21.498 -0 -1.2 0
11.512 -19.202 21.22 -0 -1.2 0
11.366 -19.616 20.936 -0 -1.2 0
11.216 -20.025 20.646 -0 -1.2 0
11.063 -20.429 20.349 -0 -1.2 0
10.907 -20.826 20.046 -0 -1.2 0
10.747 -21.217 19.737 -0 -1.2 0
10.584 -21.602 19.422 -0 -1.2 0
10.418 -21.981 19.101 -0 -1.2 0
10.248 -22.355 18.775 -0 -1.2 0
15.044 0.461 26.174 -0 -1.2 0
15.083 -1.631 26.192 -0 -1.2 0
15.081 -2.154 26.177 -0 -1.2 0
15.075 -2.678 26.155 -0 -1.2 0
15.064 -3.2 26.124 -0 -1.2 0
15.048 -3.721 26.085 -0 -1.2 0
15.028 -4.242 26.038 -0 -1.2 0
15.004 -4.763 25.984 -0 -1.2 0
14.974 -5.282 25.922 -0 -1.2 0
14.94 -5.8 25.851 -0 -1.2 0
14.902 -6.316 25.774 -0 -1.2 0
14.859 -6.831 25.688 -0 -1.2 0
14.812 -7.344 25.595 -0 -1.2 0
14.76 -7.855 25.493 -0 -1.2 0
14.704 -8.364 25.385 -0 -1.2 0
14.643 -8.871 25.268 -0 -1.2 0
14.578 -9.376 25.145 -0 -1.2 0
14.508 -9.878 25.013 -0 -1.2 0
14.434 -10.377 24.874 -0 -1.2 0
14.356 -10.873 24.726 -0 -1.2 0
14.273 -11.366 24.573 -0 -1.2 0
14.186 -11.857 24.41 -0 -1.2 0
14.094 -12.344 24.242 -0 -1.2 0
13.999 -12.827 24.066 -0 -1.2 0
13.898 -13.308 23.882 -0 -1.2 0
13.795 -13.784 23.691 -0 -1.2 0
13.686 -14.257 23.493 -0 -1.2 0
13.573 -14.725 23.288 -0 -1.2 0
13.456 -15.19 23.076 -0 -1.2 0
13.336 -15.649 22.857 -0 -1.2 0
13.211 -16.105 22.631 -0 -1.2 0
13.082 -16.556 22.399 -0 -1.2 0
12.95 -17.002 22.16 -0 -1.2 0
12.813 -17.444 21.913 -0 -1.2 0
12.672 -17.88 21.66 -0 -1.2 0
12.528 -18.312 21.402 -0 -1.2 0
12.38 -18.738 21.135 -0 -1.2 0
12.228 -19.158 20.864 -0 -1.2 0
12.072 -19.573 20.585 -0 -1.2 0
11.913 -19.983 20.301 -0 -1.2 0
11.75 -20.387 20.01 -0 -1.2 0
11.583 -20.785 19.713 -0 -1.2 0
11.414 -21.177 19.411 -0 -1.2 0
11.24 -21.563 19.102 -0 -1.2 0
11.064 -21.943 18.788 -0 -1.2 0
10.883 -22.316 18.468 -0 -1.2 0
15.931 0.515 25.649 -0 -1.2 0
15.948 -0.008 25.666 -0 -1.2 0
15.971 -1.577 25.671 -0 -1.2 0
15.969 -2.1 25.657 -0 -1.2 0
15.962 -2.624 25.635 -0 -1.2 0
15.95 -3.146 25.606 -0 -1.2 0
15.933 -3.668 25.569 -0 -1.2 0
15.911 -4.189 25.524 -0 -1.2 0
15.885 -4.71 25.472 -0 -1.2 0
15.854 -5.229 25.412 -0 -1.2 0
15.818 -5.748 25.344 -0 -1.2 0
15.777 -6.264 25.268 -0 -1.2 0
15.732 -6.779 25.185 -0 -1.2 0
15.681 -7.292 25.094 -0 -1.2 0
15.626 -7.803 24.996 -0 -1.2 0
15.566 -8.312 24.89 -0 -1.2 0
15.501 -8.819 24.776 -0 -1.2 0
15.433 -9.325 24.655 -0 -1.2 0
15.359 -9.827 24.528 -0 -1.2 0
15.28 -10.326 24.392 -0 -1.2 0
15.197 -10.823 24.248 -0 -1.2 0
15.109 -11.316 24.099 -0 -1.2 0
15.016 -11.808 23.941 -0 -1.2 0
14.919 -12.295 23.775 -0 -1.2 0
14.817 -12.778 23.604 -0 -1.2 0
14.712 -13.259 23.424 -0 -1.2 0
14.601 -13.736 23.238 -0 -1.2 0
14.486 -14.209 23.046 -0 -1.2 0
14.366 -14.677 22.845 -0 -1.2 0
14.243 -15.143 22.638 -0 -1.2 0
14.115 -15.603 22.424 -0 -1.2 0
13.983 -16.059 22.204 -0 -1.2 0
13.846 -16.511 21.976 -0 -1.2 0
13.705 -16.957 21.742 -0 -1.2 0
13.561 -17.399 21.502 -0 -1.2 0
13.412 -17.836 21.255 -0 -1.2 0
13.259 -18.268 21.002 -0 -1.2 0
13.101 -18.695 20.742 -0 -1.2 0
12.941 -19.116 20.476 -0 -1.2 0
12.775 -19.532 20.205 -0 -1.2 0
12.607 -19.942 19.926 -0 -1.2 0
12.434 -20.346 19.642 -0 -1.2 0
12.257 -20.745 19.352 -0 -1.2 0
12.077 -21.137 19.056 -0 -1.2 0
11.893 -21.524 18.754 -0 -1.2 0
11.706 -21.904 18.448 -0 -1.2 0
11.515 -22.279 18.134 -0 -1.2 0
16.864 0.57 25.051 -0 -1.2 0
16.903 -0.999 25.081 -0 -1.2 0
16.905 -1.522 25.075 -0 -1.2 0
16.903 -2.045 25.063 -0 -1.2 0
16.895 -2.569 25.043 -0 -1.2 0
16.882 -3.091 25.014 -0 -1.2 0
16.864 -3.613 24.979 -0 -1.2 0
16.841 -4.134 24.937 -0 -1.2 0
16.813 -4.655 24.885 -0 -1.2 0
16.78 -5.174 24.828 -0 -1.2 0
16.741 -5.693 24.762 -0 -1.2 0
16.698 -6.209 24.689 -0 -1.2 0
16.65 -6.724 24.609 -0 -1.2 0
16.596 -7.237 24.522 -0 -1.2 0
16.538 -7.749 24.426 -0 -1.2 0
16.475 -8.258 24.324 -0 -1.2 0
16.406 -8.766 24.214 -0 -1.2 0
16.332 -9.271 24.097 -0 -1.2 0
16.254 -9.773 23.972 -0 -1.2 0
16.17 -10.273 23.84 -0 -1.2 0
16.082 -10.77 23.701 -0 -1.2 0
15.988 -11.264 23.555 -0 -1.2 0
15.89 -11.756 23.403 -0 -1.2 0
15.788 -12.243 23.243 -0 -1.2 0
15.68 -12.727 23.075 -0 -1.2 0
15.568 -13.209 22.902 -0 -1.2 0
15.451 -13.685 22.72 -0 -1.2 0
15.328 -14.159 22.532 -0 -1.2 0
15.202 -14.628 22.338 -0 -1.2 0
15.071 -15.093 22.136 -0 -1.2 0
14.935 -15.554 21.929 -0 -1.2 0
14.795 -16.011 21.714 -0 -1.2 0
14.65 -16.463 21.493 -0 -1.2 0
14.501 -16.91 21.266 -0 -1.2 0
14.348 -17.353 21.031 -0 -1.2 0
14.19 -17.79 20.791 -0 -1.2 0
14.028 -18.223 20.545 -0 -1.2 0
13.86 -18.65 20.291 -0 -1.2 0
13.69 -19.072 20.032 -0 -1.2 0
13.516 -19.488 19.768 -0 -1.2 0
13.336 -19.899 19.497 -0 -1.2 0
13.154 -20.304 19.22 -0 -1.2 0
12.966 -20.703 18.938 -0 -1.2 0
12.776 -21.096 18.65 -0 -1.2 0
12.581 -21.483 18.356 -0 -1.2 0
12.382 -21.864 18.056 -0 -1.2 0
12.18 -22.24 17.752 -0 -1.2 0
17.717 0.597 24.46 -0 -1.2 0
17.759 -1.495 24.486 -0 -1.2 0
17.756 -2.018 24.473 -0 -1.2 0
17.748 -2.542 24.454 -0 -1.2 0
17.734 -3.064 24.427 -0 -1.2 0
17.715 -3.587 24.393 -0 -1.2 0
17.691 -4.108 24.351 -0 -1.2 0
17.661 -4.629 24.302 -0 -1.2 0
17.626 -5.148 24.247 -0 -1.2 0
17.585 -5.667 24.183 -0 -1.2 0
17.539 -6.183 24.112 -0 -1.2 0
17.488 -6.698 24.033 -0 -1.2 0
17.431 -7.212 23.949 -0 -1.2 0
17.37 -7.723 23.856 -0 -1.2 0
17.302 -8.233 23.757 -0 -1.2 0
17.231 -8.74 23.649 -0 -1.2 0
17.153 -9.246 23.535 -0 -1.2 0
17.07 -9.748 23.414 -0 -1.2 0
16.982 -10.248 23.286 -0 -1.2 0
16.889 -10.746 23.151 -0 -1.2 0
16.791 -11.239 23.009 -0 -1.2 0
16.687 -11.731 22.86 -0 -1.2 0
16.579 -12.219 22.704 -0 -1.2 0
16.466 -12.703 22.542 -0 -1.2 0
16.348 -13.185 22.371 -0 -1.2 0
16.224 -13.661 22.195 -0 -1.2 0
16.096 -14.135 22.013 -0 -1.2 0
15.962 -14.604 21.823 -0 -1.2 0
15.824 -15.07 21.627 -0 -1.2 0
15.681 -15.531 21.425 -0 -1.2 0
15.534 -15.989 21.215 -0 -1.2 0
15.382 -16.441 20.999 -0 -1.2 0
15.224 -16.888 20.777 -0 -1.2 0
15.063 -17.331 20.55 -0 -1.2 0
14.896 -17.768 20.316 -0 -1.2 0
14.726 -18.201 20.076 -0 -1.2 0
14.551 -18.629 19.829 -0 -1.2 0
14.372 -19.051 19.577 -0 -1.2 0
14.188 -19.467 19.318 -0 -1.2 0
13.999 -19.879 19.054 -0 -1.2 0
13.807 -20.284 18.785 -0 -1.2 0
13.61 -20.683 18.509 -0 -1.2 0
13.41 -21.077 18.228 -0 -1.2 0
13.205 -21.464 17.942 -0 -1.2 0
12.996 -21.846 17.65 -0 -1.2 0
12.783 -22.221 17.353 -0 -1.2 0
18.563 -0.953 23.89 -0 -1.2 0
18.566 -1.476 23.886 -0 -1.2 0
18.562 -1.999 23.874 -0 -1.2 0
18.553 -2.523 23.855 -0 -1.2 0
18.539 -3.045 23.83 -0 -1.2 0
18.518 -3.568 23.797 -0 -1.2 0
18.493 -4.089 23.757 -0 -1.2 0
18.46 -4.61 23.709 -0 -1.2 0
18.424 -5.129 23.654 -0 -1.2 0
18.381 -5.648 23.593 -0 -1.2 0
18.332 -6.164 23.525 -0 -1.2 0
18.279 -6.679 23.448 -0 -1.2 0
18.22 -7.193 23.366 -0 -1.2 0
18.155 -7.705 23.275 -0 -1.2 0
18.085 -8.214 23.178 -0 -1.2 0
18.008 -8.722 23.075 -0 -1.2 0
17.927 -9.227 22.964 -0 -1.2 0
17.84 -9.73 22.845 -0 -1.2 0
17.748 -10.23 22.721 -0 -1.2 0
17.651 -10.728 22.59 -0 -1.2 0
17.548 -11.221 22.451 -0 -1.2 0
17.439 -11.713 22.306 -0 -1.2 0
17.326 -12.201 22.155 -0 -1.2 0
17.206 -12.685 21.996 -0 -1.2 0
17.082 -13.167 21.831 -0 -1.2 0
16.953 -13.644 21.66 -0 -1.2 0
16.819 -14.118 21.481 -0 -1.2 0
16.679 -14.587 21.297 -0 -1.2 0
16.535 -15.054 21.106 -0 -1.2 0
16.385 -15.515 20.908 -0 -1.2 0
16.23 -15.972 20.705 -0 -1.2 0
16.072 -16.424 20.495 -0 -1.2 0
15.907 -16.872 20.279 -0 -1.2 0
15.738 -17.315 20.057 -0 -1.2 0
15.564 -17.752 19.829 -0 -1.2 0
15.385 -18.186 19.594 -0 -1.2 0
15.202 -18.613 19.355 -0 -1.2 0
15.013 -19.036 19.109 -0 -1.2 0
14.821 -19.452 18.858 -0 -1.2 0
14.625 -19.864 18.6 -0 -1.2 0
14.423 -20.269 18.338 -0 -1.2 0
14.217 -20.669 18.069 -0 -1.2 0
14.007 -21.063 17.796 -0 -1.2 0
13.793 -21.45 17.517 -0 -1.2 0
13.574 -21.832 17.232 -0 -1.2 0
13.351 -22.208 16.943 -0 -1.2 0
19.368 0.111 23.217 -0 -1.2 0
19.341 -3.548 23.141 -0 -1.2 0
19.314 -4.07 23.102 -0 -1.2 0
19.281 -4.591 23.057 -0 -1.2 0
19.241 -5.11 23.003 -0 -1.2 0
19.197 -5.629 22.944 -0 -1.2 0
19.147 -6.145 22.877 -0 -1.2 0
19.09 -6.661 22.804 -0 -1.2 0
19.028 -7.174 22.724 -0 -1.2 0
18.959 -7.686 22.636 -0 -1.2 0
18.885 -8.195 22.543 -0 -1.2 0
18.806 -8.703 22.442 -0 -1.2 0
18.721 -9.209 22.334 -0 -1.2 0
18.629 -9.712 22.22 -0 -1.2 0
18.533 -10.212 22.099 -0 -1.2 0
18.43 -10.709 21.971 -0 -1.2 0
18.323 -11.203 21.838 -0 -1.2 0
18.209 -11.695 21.697 -0 -1.2 0
18.09 -12.183 21.55 -0 -1.2 0
17.966 -12.667 21.396 -0 -1.2 0
17.837 -13.15 21.236 -0 -1.2 0
17.701 -13.627 21.069 -0 -1.2 0
17.56 -14.101 20.896 -0 -1.2 0
17.414 -14.57 20.718 -0 -1.2 0
17.263 -15.037 20.532 -0 -1.2 0
17.106 -15.498 20.341 -0 -1.2 0
16.944 -15.955 20.143 -0 -1.2 0
16.778 -16.408 19.939 -0 -1.2 0
16.606 -16.855 19.73 -0 -1.2 0
16.429 -17.299 19.514 -0 -1.2 0
16.247 -17.736 19.293 -0 -1.2 0
16.061 -18.17 19.066 -0 -1.2 0
15.868 -18.598 18.832 -0 -1.2 0
15.672 -19.02 18.594 -0 -1.2 0
15.471 -19.437 18.35 -0 -1.2 0
15.264 -19.849 18.101 -0 -1.2 0
15.054 -20.255 17.845 -0 -1.2 0
14.839 -20.655 17.584 -0 -1.2 0
14.62 -21.049 17.319 -0 -1.2 0
14.395 -21.436 17.048 -0 -1.2 0
14.167 -21.818 16.772 -0 -1.2 0
13.934 -22.194 16.491 -0 -1.2 0
20.135 -0.917 22.592 -0 -1.2 0
20.137 -1.44 22.588 -0 -1.2 0
20.133 -1.963 22.577 -0 -1.2 0
20.123 -2.487 22.56 -0 -1.2 0
19.821 -6.644 22.18 -0 -1.2 0
19.756 -7.158 22.102 -0 -1.2 0
19.685 -7.669 22.017 -0 -1.2 0
19.608 -8.179 21.927 -0 -1.2 0
19.526 -8.687 21.829 -0 -1.2 0
19.437 -9.193 21.724 -0 -1.2 0
19.342 -9.696 21.614 -0 -1.2 0
19.241 -10.196 21.497 -0 -1.2 0
19.135 -10.694 21.374 -0 -1.2 0
19.023 -11.188 21.243 -0 -1.2 0
18.905 -11.68 21.107 -0 -1.2 0
18.781 -12.168 20.964 -0 -1.2 0
18.651 -12.652 20.815 -0 -1.2 0
18.516 -13.134 20.659 -0 -1.2 0
18.376 -13.612 20.498 -0 -1.2 0
18.229 -14.086 20.33 -0 -1.2 0
18.078 -14.555 20.156 -0 -1.2 0
17.92 -15.022 19.976 -0 -1.2 0
17.757 -15.483 19.791 -0 -1.2 0
17.589 -15.941 19.599 -0 -1.2 0
17.416 -16.393 19.401 -0 -1.2 0
17.237 -16.841 19.198 -0 -1.2 0
17.053 -17.285 18.988 -0 -1.2 0
16.864 -17.723 18.773 -0 -1.2 0
16.67 -18.156 18.552 -0 -1.2 0
16.471 -18.584 18.326 -0 -1.2 0
16.265 -19.007 18.095 -0 -1.2 0
16.057 -19.424 17.858 -0 -1.2 0
15.842 -19.836 17.615 -0 -1.2 0
15.624 -20.242 17.368 -0 -1.2 0
15.399 -20.642 17.115 -0 -1.2 0
15.172 -21.036 16.857 -0 -1.2 0
14.939 -21.424 16.594 -0 -1.2 0
14.701 -21.806 16.326 -0 -1.2 0
14.459 -22.183 16.052 -0 -1.2 0
20.223 -8.672 21.192 -0 -1.2 0
20.132 -9.178 21.091 -0 -1.2 0
20.034 -9.681 20.983 -0 -1.2 0
19.929 -10.181 20.87 -0 -1.2 0
19.819 -10.679 20.751 -0 -1.2 0
19.702 -11.173 20.625 -0 -1.2 0
19.579 -11.665 20.493 -0 -1.2 0
19.451 -12.153 20.354 -0 -1.2 0
19.317 -12.638 20.21 -0 -1.2 0
19.176 -13.12 20.06 -0 -1.2 0
19.03 -13.597 19.903 -0 -1.2 0
18.879 -14.072 19.741 -0 -1.2 0
18.721 -14.541 19.572 -0 -1.2 0
18.557 -15.008 19.398 -0 -1.2 0
18.389 -15.47 19.218 -0 -1.2 0
18.215 -15.927 19.032 -0 -1.2 0
18.035 -16.38 18.841 -0 -1.2 0
17.849 -16.828 18.644 -0 -1.2 0
17.658 -17.272 18.441 -0 -1.2 0
17.462 -17.71 18.233 -0 -1.2 0
17.261 -18.144 18.019 -0 -1.2 0
17.054 -18.572 17.8 -0 -1.2 0
16.842 -18.995 17.576 -0 -1.2 0
16.625 -19.412 17.346 -0 -1.2 0
16.403 -19.824 17.111 -0 -1.2 0
16.176 -20.23 16.871 -0 -1.2 0
15.944 -20.63 16.626 -0 -1.2 0
15.707 -21.024 16.376 -0 -1.2 0
15.466 -21.413 16.121 -0 -1.2 0
15.22 -21.795 15.861 -0 -1.2 0
14.969 -22.172 15.597 -0 -1.2 0
21.651 -0.885 21.149 -0 -1.2 0
21.653 -1.408 21.145 -0 -1.2 0
21.648 -1.931 21.137 -0 -1.2 0
21.636 -2.456 21.121 -0 -1.2 0
21.618 -2.978 21.1 -0 -1.2 0
21.594 -3.5 21.071 -0 -1.2 0
21.562 -4.021 21.037 -0 -1.2 0
21.524 -4.543 20.996 -0 -1.2 0
20.892 -9.162 20.348 -0 -1.2 0
20.79 -9.665 20.245 -0 -1.2 0
20.681 -10.166 20.136 -0 -1.2 0
20.565 -10.664 20.021 -0 -1.2 0
20.444 -11.158 19.899 -0 -1.2 0
20.317 -11.65 19.772 -0 -1.2 0
20.184 -12.139 19.64 -0 -1.2 0
20.044 -12.623 19.501 -0 -1.2 0
19.898 -13.105 19.356 -0 -1.2 0
19.747 -13.583 19.206 -0 -1.2 0
19.588 -14.058 19.05 -0 -1.2 0
19.425 -14.527 18.888 -0 -1.2 0
19.255 -14.994 18.72 -0 -1.2 0
19.08 -15.456 18.547 -0 -1.2 0
18.898 -15.914 18.368 -0 -1.2 0
18.711 -16.366 18.183 -0 -1.2 0
18.518 -16.814 17.994 -0 -1.2 0
18.32 -17.258 17.799 -0 -1.2 0
18.116 -17.696 17.599 -0 -1.2 0
17.907 -18.13 17.393 -0 -1.2 0
17.693 -18.559 17.182 -0 -1.2 0
17.473 -18.982 16.966 -0 -1.2 0
17.247 -19.399 16.745 -0 -1.2 0
17.017 -19.811 16.519 -0 -1.2 0
16.78 -20.218 16.287 -0 -1.2 0
16.539 -20.618 16.052 -0 -1.2 0
16.294 -21.013 15.811 -0 -1.2 0
16.043 -21.401 15.566 -0 -1.2 0
15.787 -21.784 15.315 -0 -1.2 0
15.527 -22.16 15.061 -0 -1.2 0
22.346 0.173 20.376 -0 -1.2 0
22.36 -0.349 20.386 -0 -1.2 0
22.369 -0.872 20.39 -0 -1.2 0
22.37 -1.395 20.388 -0 -1.2 0
22.365 -1.918 20.378 -0 -1.2 0
22.078 -6.084 20.092 -0 -1.2 0
22.011 -6.6 20.029 -0 -1.2 0
21.581 -9.149 19.623 -0 -1.2 0
21.475 -9.652 19.524 -0 -1.2 0
21.362 -10.153 19.419 -0 -1.2 0
21.242 -10.651 19.308 -0 -1.2 0
21.117 -11.145 19.193 -0 -1.2 0
20.986 -11.637 19.07 -0 -1.2 0
20.848 -12.126 18.943 -0 -1.2 0
20.703 -12.61 18.809 -0 -1.2 0
20.552 -13.093 18.67 -0 -1.2 0
20.395 -13.571 18.525 -0 -1.2 0
20.232 -14.045 18.375 -0 -1.2 0
20.062 -14.515 18.219 -0 -1.2 0
19.887 -14.982 18.058 -0 -1.2 0
19.706 -15.444 17.892 -0 -1.2 0
19.518 -15.902 17.72 -0 -1.2 0
19.325 -16.355 17.543 -0 -1.2 0
18.92 -17.247 17.173 -0 -1.2 0
18.71 -17.685 16.979 -0 -1.2 0
18.493 -18.119 16.782 -0 -1.2 0
18.271 -18.548 16.579 -0 -1.2 0
18.043 -18.971 16.371 -0 -1.2 0
17.811 -19.388 16.159 -0 -1.2 0
17.572 -19.801 15.941 -0 -1.2 0
17.328 -20.207 15.719 -0 -1.2 0
17.079 -20.608 15.492 -0 -1.2 0
16.825 -21.003 15.259 -0 -1.2 0
16.565 -21.391 15.023 -0 -1.2 0
16.301 -21.774 14.783 -0 -1.2 0
16.031 -22.151 14.538 -0 -1.2 0
23.036 0.185 19.592 -0 -1.2 0
22.961 -3.996 19.506 -0 -1.2 0
22.92 -4.517 19.469 -0 -1.2 0
22.872 -5.037 19.426 -0 -1.2 0
22.818 -5.555 19.377 -0 -1.2 0
22.756 -6.072 19.322 -0 -1.2 0
22.688 -6.588 19.263 -0 -1.2 0
22.612 -7.101 19.196 -0 -1.2 0
22.442 -8.123 19.047 -0 -1.2 0
22.346 -8.631 18.963 -0 -1.2 0
22.243 -9.137 18.874 -0 -1.2 0
22.134 -9.641 18.78 -0 -1.2 0
22.017 -10.141 18.679 -0 -1.2 0
21.894 -10.639 18.574 -0 -1.2 0
21.765 -11.134 18.462 -0 -1.2 0
21.629 -11.626 18.345 -0 -1.2 0
21.485 -12.115 18.223 -0 -1.2 0
21.337 -12.599 18.095 -0 -1.2 0
21.182 -13.082 17.962 -0 -1.2 0
21.019 -13.56 17.822 -0 -1.2 0
20.85 -14.034 17.679 -0 -1.2 0
20.495 -14.971 17.375 -0 -1.2 0
20.307 -15.433 17.215 -0 -1.2 0
19.914 -16.344 16.88 -0 -1.2 0
19.28 -17.675 16.34 -0 -1.2 0
18.352 -19.379 15.552 -0 -1.2 0
18.106 -19.791 15.344 -0 -1.2 0
17.855 -20.198 15.131 -0 -1.2 0
17.335 -20.993 14.69 -0 -1.2 0
17.067 -21.382 14.463 -0 -1.2 0
16.796 -21.765 14.233 -0 -1.2 0
16.518 -22.142 13.997 -0 -1.2 0
23.767 -1.89 18.726 -0 -1.2 0
23.754 -2.414 18.713 -0 -1.2 0
23.733 -2.936 18.695 -0 -1.2 0
23.705 -3.459 18.671 -0 -1.2 0
23.67 -3.98 18.642 -0 -1.2 0
23.627 -4.502 18.606 -0 -1.2 0
23.579 -5.021 18.566 -0 -1.2 0
23.522 -5.54 18.52 -0 -1.2 0
23.458 -6.057 18.468 -0 -1.2 0
23.387 -6.572 18.411 -0 -1.2 0
23.132 -8.108 18.207 -0 -1.2 0
23.033 -8.616 18.128 -0 -1.2 0
22.927 -9.122 18.043 -0 -1.2 0
22.814 -9.626 17.952 -0 -1.2 0
22.695 -10.126 17.857 -0 -1.2 0
22.567 -10.624 17.756 -0 -1.2 0
22.434 -11.119 17.651 -0 -1.2 0
22.293 -11.611 17.54 -0 -1.2 0
22.146 -12.1 17.423 -0 -1.2 0
21.992 -12.585 17.302 -0 -1.2 0
21.832 -13.068 17.175 -0 -1.2 0
21.664 -13.545 17.042 -0 -1.2 0
21.49 -14.02 16.906 -0 -1.2 0
21.31 -14.49 16.764 -0 -1.2 0
20.312 -16.779 15.978 -0 -1.2 0
20.094 -17.224 15.808 -0 -1.2 0
18.659 -19.779 14.682 -0 -1.2 0
17.307 -21.754 13.624 -0 -1.2 0
17.021 -22.131 13.399 -0 -1.2 0
24.391 0.222 17.871 -0 -1.2 0
24.416 -0.822 17.885 -0 -1.2 0
24.396 -2.393 17.867 -0 -1.2 0
24.375 -2.915 17.85 -0 -1.2 0
24.346 -3.437 17.828 -0 -1.2 0
24.31 -3.959 17.801 -0 -1.2 0
24.266 -4.48 17.768 -0 -1.2 0
24.216 -5 17.73 -0 -1.2 0
24.157 -5.519 17.686 -0 -1.2 0
24.091 -6.035 17.637 -0 -1.2 0
24.019 -6.551 17.584 -0 -1.2 0
23.757 -8.087 17.39 -0 -1.2 0
23.655 -8.596 17.315 -0 -1.2 0
23.546 -9.102 17.236 -0 -1.2 0
23.43 -9.605 17.15 -0 -1.2 0
23.307 -10.106 17.06 -0 -1.2 0
23.038 -11.099 16.864 -0 -1.2 0
22.894 -11.591 16.759 -0 -1.2 0
22.584 -12.565 16.533 -0 -1.2 0
22.42 -13.048 16.413 -0 -1.2 0
22.247 -13.526 16.287 -0 -1.2 0
22.069 -14.001 16.157 -0 -1.2 0
20.404 -17.644 14.946 -0 -1.2 0
17.77 -21.739 13.037 -0 -1.2 0
17.476 -22.116 12.824 -0 -1.2 0
25.003 0.242 17 -0 -1.2 0
25.027 -0.803 17.015 -0 -1.2 0
25.028 -1.326 17.015 -0 -1.2 0
25.022 -1.849 17.01 -0 -1.2 0
25.007 -2.373 16.999 -0 -1.2 0
24.986 -2.896 16.984 -0 -1.2 0
24.956 -3.418 16.964 -0 -1.2 0
24.919 -3.94 16.938 -0 -1.2 0
24.874 -4.461 16.908 -0 -1.2 0
24.821 -4.981 16.872 -0 -1.2 0
24.762 -5.5 16.832 -0 -1.2 0
24.695 -6.016 16.786 -0 -1.2 0
24.351 -8.069 16.554 -0 -1.2 0
24.247 -8.577 16.483 -0 -1.2 0
24.016 -9.587 16.327 -0 -1.2 0
23.889 -10.087 16.242 -0 -1.2 0
22.802 -13.508 15.513 -0 -1.2 0
19.362 -20.155 13.205 -0 -1.2 0
18.798 -20.952 12.827 -0 -1.2 0
18.508 -21.341 12.633 -0 -1.2 0
18.211 -21.725 12.434 -0 -1.2 0
17.909 -22.102 12.233 -0 -1.2 0
25.626 0.26 16.037 -0 -1.2 0
25.438 -0.268 15.922 -0 -1.2 0
25.651 -0.785 16.053 -0 -1.2 0
25.608 -2.877 16.026 -0 -1.2 0
25.577 -3.4 16.009 -0 -1.2 0
25.539 -3.921 15.985 -0 -1.2 0
25.493 -4.443 15.957 -0 -1.2 0
25.439 -4.963 15.925 -0 -1.2 0
25.378 -5.481 15.887 -0 -1.2 0
25.309 -5.998 15.844 -0 -1.2 0
25.148 -7.028 15.746 -0 -1.2 0
25.056 -7.54 15.69 -0 -1.2 0
24.956 -8.051 15.628 -0 -1.2 0
24.849 -8.559 15.563 -0 -1.2 0
24.734 -9.066 15.493 -0 -1.2 0
24.345 -10.568 15.255 -0 -1.2 0
18.66 -21.711 11.769 -0 -1.2 0
18.352 -22.089 11.579 -0 -1.2 0
26.164 0.275 15.137 -0 -1.2 0
26.181 -0.247 15.147 -0 -1.2 0
26.189 -0.77 15.153 -0 -1.2 0
26.19 -1.293 15.154 -0 -1.2 0
26.183 -1.816 15.151 -0 -1.2 0
26.167 -2.34 15.144 -0 -1.2 0
25.973 -4.948 15.038 -0 -1.2 0
25.909 -5.467 15.003 -0 -1.2 0
25.674 -7.014 14.873 -0 -1.2 0
25.58 -7.526 14.82 -0 -1.2 0
25.478 -8.036 14.763 -0 -1.2 0
25.368 -8.545 14.702 -0 -1.2 0
25.251 -9.051 14.636 -0 -1.2 0
24.994 -10.056 14.492 -0 -1.2 0
24.854 -10.554 14.414 -0 -1.2 0
18.732 -22.079 10.967 -0 -1.2 0
26.241 -6.487 14.053 -0 -1.2 0
26.153 -7.002 14.009 -0 -1.2 0
26.057 -7.514 13.961 -0 -1.2 0
25.953 -8.024 13.908 -0 -1.2 0
25.841 -8.533 13.851 -0 -1.2 0
25.722 -9.039 13.791 -0 -1.2 0
25.594 -9.543 13.725 -0 -1.2 0
25.008 -11.531 13.426 -0 -1.2 0
27.121 0.822 13.257 -0 -1.2 0
27.163 -0.224 13.282 -0 -1.2 0
27.164 -1.793 13.29 -0 -1.2 0
27.149 -2.317 13.285 -0 -1.2 0
27.124 -2.839 13.277 -0 -1.2 0
27.092 -3.362 13.264 -0 -1.2 0
26.725 -6.477 13.103 -0 -1.2 0
25.989 -6.847 12.754 -0 -1.2 0
26.538 -7.503 13.019 -0 -1.2 0
25.992 -7.898 12.761 -0 -1.2 0
26.318 -8.522 12.919 -0 -1.2 0
26.196 -9.029 12.864 -0 -1.2 0
26.066 -9.532 12.804 -0 -1.2 0
25.783 -10.532 12.674 -0 -1.2 0
27.545 0.83 12.336 -0 -1.2 0
27.571 0.306 12.35 -0 -1.2 0
27.587 -0.216 12.361 -0 -1.2 0
27.596 -0.739 12.368 -0 -1.2 0
27.597 -1.262 12.371 -0 -1.2 0
27.473 -3.876 12.333 -0 -1.2 0
27.424 -4.397 12.315 -0 -1.2 0
27.366 -4.917 12.293 -0 -1.2 0
27.141 -6.469 12.204 -0 -1.2 0
27.051 -6.983 12.168 -0 -1.2 0
26.951 -7.496 12.128 -0 -1.2 0
26.844 -8.006 12.085 -0 -1.2 0
26.604 -9.021 11.986 -0 -1.2 0
25.693 -12.002 11.608 -0 -1.2 0
25.514 -12.488 11.533 -0 -1.2 0
25.327 -12.971 11.454 -0 -1.2 0
27.987 -1.78 11.423 -0 -1.2 0
27.971 -2.304 11.421 -0 -1.2 0
27.945 -2.826 11.415 -0 -1.2 0
27.912 -3.349 11.406 -0 -1.2 0
27.139 -3.798 11.104 -0 -1.2 0
27.82 -4.392 11.377 -0 -1.2 0
27.76 -4.912 11.357 -0 -1.2 0
27.694 -5.431 11.334 -0 -1.2 0
27.617 -5.948 11.308 -0 -1.2 0
27.34 -7.49 11.21 -0 -1.2 0
27.231 -8.001 11.171 -0 -1.2 0
27.114 -8.509 11.129 -0 -1.2 0
26.854 -9.52 11.034 -0 -1.2 0
26.562 -10.52 10.926 -0 -1.2 0
26.064 -11.997 10.74 -0 -1.2 0
28.364 0.278 10.354 -0 -1.2 0
28.381 -0.243 10.364 -0 -1.2 0
28.39 -0.766 10.37 -0 -1.2 0
28.39 -1.289 10.375 -0 -1.2 0
28.381 -1.812 10.375 -0 -1.2 0
28.364 -2.337 10.372 -0 -1.2 0
28.338 -2.859 10.368 -0 -1.2 0
28.303 -3.381 10.359 -0 -1.2 0
28.26 -3.903 10.348 -0 -1.2 0
28.208 -4.424 10.334 -0 -1.2 0
28.149 -4.944 10.316 -0 -1.2 0
28.08 -5.463 10.295 -0 -1.2 0
28.003 -5.98 10.272 -0 -1.2 0
27.823 -7.01 10.217 -0 -1.2 0
27.72 -7.522 10.184 -0 -1.2 0
27.609 -8.033 10.148 -0 -1.2 0
27.49 -8.541 10.11 -0 -1.2 0
27.362 -9.048 10.068 -0 -1.2 0
25.194 -14.888 9.348 -0 -1.2 0
24.962 -15.351 9.27 -0 -1.2 0
28.694 0.266 9.371 -0 -1.2 0
28.712 -0.256 9.38 -0 -1.2 0
28.72 -0.779 9.386 -0 -1.2 0
28.72 -1.302 9.39 -0 -1.2 0
28.712 -1.825 9.391 -0 -1.2 0
28.694 -2.349 9.389 -0 -1.2 0
28.668 -2.872 9.384 -0 -1.2 0
28.633 -3.394 9.377 -0 -1.2 0
28.59 -3.916 9.367 -0 -1.2 0
28.537 -4.437 9.354 -0 -1.2 0
28.476 -4.957 9.339 -0 -1.2 0
28.407 -5.476 9.321 -0 -1.2 0
28.328 -5.993 9.3 -0 -1.2 0
28.241 -6.509 9.276 -0 -1.2 0
28.146 -7.023 9.25 -0 -1.2 0
28.042 -7.535 9.221 -0 -1.2 0
27.93 -8.045 9.19 -0 -1.2 0
27.68 -9.06 9.119 -0 -1.2 0
27.396 -10.064 9.037 -0 -1.2 0
25.713 -14.432 8.541 -0 -1.2 0
25.486 -14.9 8.473 -0 -1.2 0
29.017 -0.783 8.39 -0 -1.2 0
29.017 -1.306 8.394 -0 -1.2 0
29.008 -1.829 8.395 -0 -1.2 0
28.991 -2.353 8.394 -0 -1.2 0
28.964 -2.875 8.39 -0 -1.2 0
28.929 -3.398 8.384 -0 -1.2 0
28.885 -3.919 8.375 -0 -1.2 0
28.832 -4.441 8.364 -0 -1.2 0
28.771 -4.96 8.352 -0 -1.2 0
28.1 -5.387 8.169 -0 -1.2 0
28.622 -5.996 8.317 -0 -1.2 0
28.534 -6.512 8.296 -0 -1.2 0
28.438 -7.026 8.274 -0 -1.2 0
28.333 -7.538 8.248 -0 -1.2 0
28.22 -8.049 8.221 -0 -1.2 0
27.967 -9.063 8.159 -0 -1.2 0
27.828 -9.567 8.123 -0 -1.2 0
25.751 -14.903 7.588 -0 -1.2 0
25.514 -15.366 7.527 -0 -1.2 0
25.269 -15.824 7.463 -0 -1.2 0
26.877 -13.014 6.828 -0 -1.2 0
24.727 -17.175 6.35 -0 -1.2 0
23.266 -19.321 6.02 -0 -1.2 0
29.957 1.295 2.144 -0 -1.2 0
29.997 1.302 -1.205 -0 -1.2 0
29.841 -4.966 -1.249 -0 -1.2 0
21.184 -20.85 -8.388 -0 -1.2 0
20.185 -22.005 -8.019 -0 -1.2 0
22.114 -19.224 -9.618 -0 -1.2 0
21.817 -19.639 -9.496 -0 -1.2 0
21.515 -20.047 -9.372 -0 -1.2 0
21.205 -20.45 -9.245 -0 -1.2 0
21.207 -20.046 -10.063 -0 -1.2 0
23.492 -11.078 -14.087 -0 -1.2 0
20.944 -18.804 -12.604 -0 -1.2 0
20.673 -19.223 -12.446 -0 -1.2 0
20.115 -20.047 -12.119 -0 -1.2 0
19.532 -20.846 -11.777 -0 -1.2 0
20.781 -18.381 -13.439 -0 -1.2 0
20.524 -18.806 -13.276 -0 -1.2 0
20.259 -19.225 -13.109 -0 -1.2 0
19.989 -19.64 -12.937 -0 -1.2 0
20.047 -18.809 -13.986 -0 -1.2 0
19.789 -19.228 -13.808 -0 -1.2 0
19.826 -18.388 -14.809 -0 -1.2 0
19.581 -18.813 -14.627 -0 -1.2 0
19.329 -19.232 -14.442 -0 -1.2 0
19.343 -18.394 -15.428 -0 -1.2 0
19.103 -18.82 -15.238 -0 -1.2 0
18.857 -19.239 -15.045 -0 -1.2 0
17.818 -20.861 -14.225 -0 -1.2 0
17.265 -21.637 -13.789 -0 -1.2 0
17.312 -20.866 -14.829 -0 -1.2 0
17.047 -21.257 -14.604 -0 -1.2 0
16.776 -21.641 -14.374 -0 -1.2 0
16.5 -22.02 -14.139 -0 -1.2 0
16.823 -20.871 -15.373 -0 -1.2 0
16.566 -21.262 -15.139 -0 -1.2 0
16.303 -21.646 -14.9 -0 -1.2 0
21.627 -0.706 -21.117 -0 -1.2 0
21.63 -1.229 -21.118 -0 -1.2 0
21.625 -1.752 -21.111 -0 -1.2 0
21.614 -2.276 -21.099 -0 -1.2 0
21.597 -2.798 -21.081 -0 -1.2 0
21.574 -3.321 -21.056 -0 -1.2 0
21.544 -3.843 -21.025 -0 -1.2 0
21.507 -4.364 -20.987 -0 -1.2 0
21.463 -4.884 -20.944 -0 -1.2 0
21.413 -5.403 -20.893 -0 -1.2 0
21.357 -5.92 -20.837 -0 -1.2 0
21.295 -6.436 -20.775 -0 -1.2 0
20.675 -9.994 -20.162 -0 -1.2 0
16.56 -20.481 -16.14 -0 -1.2 0
16.065 -21.268 -15.658 -0 -1.2 0
15.811 -21.652 -15.41 -0 -1.2 0
15.551 -22.031 -15.157 -0 -1.2 0
20.862 -0.192 -21.855 -0 -1.2 0
20.871 -0.714 -21.861 -0 -1.2 0
20.874 -1.238 -21.862 -0 -1.2 0
20.869 -1.761 -21.856 -0 -1.2 0
20.859 -2.285 -21.843 -0 -1.2 0
20.843 -2.807 -21.824 -0 -1.2 0
20.821 -3.33 -21.797 -0 -1.2 0
20.792 -3.851 -21.765 -0 -1.2 0
20.757 -4.373 -21.726 -0 -1.2 0
20.714 -4.893 -21.68 -0 -1.2 0
20.666 -5.412 -21.629 -0 -1.2 0
20.612 -5.929 -21.57 -0 -1.2 0
20.334 -7.982 -21.27 -0 -1.2 0
20.157 -8.998 -21.081 -0 -1.2 0
15.512 -21.274 -16.196 -0 -1.2 0
15.265 -21.659 -15.939 -0 -1.2 0
15.015 -22.037 -15.677 -0 -1.2 0
20.144 -0.724 -22.53 -0 -1.2 0
20.147 -1.247 -22.529 -0 -1.2 0
20.144 -1.77 -22.523 -0 -1.2 0
20.133 -2.294 -22.509 -0 -1.2 0
20.118 -2.817 -22.489 -0 -1.2 0
20.096 -3.339 -22.462 -0 -1.2 0
20.069 -3.861 -22.429 -0 -1.2 0
20.035 -4.382 -22.388 -0 -1.2 0
19.995 -4.902 -22.341 -0 -1.2 0
19.949 -5.421 -22.287 -0 -1.2 0
19.838 -6.454 -22.158 -0 -1.2 0
19.628 -7.991 -21.916 -0 -1.2 0
19.546 -8.5 -21.822 -0 -1.2 0
14.743 -21.666 -16.412 -0 -1.2 0
14.5 -22.044 -16.142 -0 -1.2 0
19.397 -1.257 -23.174 -0 -1.2 0
19.394 -1.781 -23.166 -0 -1.2 0
19.385 -2.305 -23.153 -0 -1.2 0
19.371 -2.827 -23.132 -0 -1.2 0
19.35 -3.35 -23.103 -0 -1.2 0
19.323 -3.871 -23.068 -0 -1.2 0
19.29 -4.393 -23.027 -0 -1.2 0
19.252 -4.913 -22.978 -0 -1.2 0
19.208 -5.431 -22.922 -0 -1.2 0
19.158 -5.948 -22.859 -0 -1.2 0
19.103 -6.465 -22.789 -0 -1.2 0
19.041 -6.979 -22.712 -0 -1.2 0
18.974 -7.491 -22.63 -0 -1.2 0
18.552 -10.021 -22.11 -0 -1.2 0
18.45 -10.52 -21.986 -0 -1.2 0
14.873 -20.503 -17.672 -0 -1.2 0
14.43 -21.289 -17.142 -0 -1.2 0
14.202 -21.673 -16.868 -0 -1.2 0
13.97 -22.052 -16.59 -0 -1.2 0
18.555 -1.792 -23.84 -0 -1.2 0
18.547 -2.316 -23.825 -0 -1.2 0
18.533 -2.838 -23.803 -0 -1.2 0
18.514 -3.361 -23.773 -0 -1.2 0
18.489 -3.882 -23.737 -0 -1.2 0
18.458 -4.404 -23.693 -0 -1.2 0
18.422 -4.924 -23.643 -0 -1.2 0
18.38 -5.443 -23.585 -0 -1.2 0
18.332 -5.96 -23.52 -0 -1.2 0
18.279 -6.476 -23.448 -0 -1.2 0
18.22 -6.99 -23.369 -0 -1.2 0
16.398 -15.332 -20.975 -0 -1.2 0
13.815 -21.297 -17.627 -0 -1.2 0
13.598 -21.681 -17.345 -0 -1.2 0
13.376 -22.06 -17.059 -0 -1.2 0
17.72 -1.281 -24.471 -0 -1.2 0
17.717 -1.804 -24.463 -0 -1.2 0
17.71 -2.328 -24.448 -0 -1.2 0
17.697 -2.85 -24.425 -0 -1.2 0
17.678 -3.373 -24.395 -0 -1.2 0
17.655 -3.894 -24.357 -0 -1.2 0
17.626 -4.416 -24.313 -0 -1.2 0
17.591 -4.935 -24.261 -0 -1.2 0
17.551 -5.454 -24.2 -0 -1.2 0
17.506 -5.971 -24.134 -0 -1.2 0
17.456 -6.487 -24.06 -0 -1.2 0
17.273 -8.024 -23.794 -0 -1.2 0
16.664 -11.53 -22.924 -0 -1.2 0
13.202 -21.306 -18.077 -0 -1.2 0
12.994 -21.69 -17.787 -0 -1.2 0
12.783 -22.068 -17.492 -0 -1.2 0
16.851 -2.853 -25.009 -0 -1.2 0
16.834 -3.375 -24.978 -0 -1.2 0
16.812 -3.897 -24.94 -0 -1.2 0
16.785 -4.418 -24.894 -0 -1.2 0
16.752 -4.938 -24.84 -0 -1.2 0
16.714 -5.457 -24.779 -0 -1.2 0
16.672 -5.974 -24.711 -0 -1.2 0
16.571 -7.004 -24.552 -0 -1.2 0
16.514 -7.516 -24.461 -0 -1.2 0
14.492 -16.707 -21.377 -0 -1.2 0
13.856 -18.456 -20.418 -0 -1.2 0
12.385 -21.692 -18.209 -0 -1.2 0
12.183 -22.07 -17.907 -0 -1.2 0
11.719 -21.691 -18.641 -0 -1.2 0
11.528 -22.069 -18.331 -0 -1.2 0
15.04 -0.234 -26.174 -0 -1.2 0
15.048 -0.757 -26.181 -0 -1.2 0
15.052 -1.28 -26.181 -0 -1.2 0
15.051 -1.803 -26.172 -0 -1.2 0
15.046 -2.327 -26.156 -0 -1.2 0
15.036 -2.85 -26.132 -0 -1.2 0
15.021 -3.372 -26.099 -0 -1.2 0
15.002 -3.894 -26.06 -0 -1.2 0
14.978 -4.415 -26.012 -0 -1.2 0
14.949 -4.935 -25.956 -0 -1.2 0
14.838 -6.487 -25.742 -0 -1.2 0
11.425 -20.916 -19.638 -0 -1.2 0
10.898 -22.068 -18.71 -0 -1.2 0
14.1 0.289 -26.664 -0 -1.2 0
14.12 -2.326 -26.662 -0 -1.2 0
14.11 -2.848 -26.636 -0 -1.2 0
14.097 -3.37 -26.604 -0 -1.2 0
14.079 -3.892 -26.563 -0 -1.2 0
14.057 -4.413 -26.515 -0 -1.2 0
13.884 -6.999 -26.151 -0 -1.2 0
13.786 -8.022 -25.949 -0 -1.2 0
13.73 -8.53 -25.837 -0 -1.2 0
13.67 -9.037 -25.717 -0 -1.2 0
13.389 -11.035 -25.159 -0 -1.2 0
12.947 -13.464 -24.291 -0 -1.2 0
12.744 -14.41 -23.892 -0 -1.2 0
12.038 -17.148 -22.524 -0 -1.2 0
10.411 -21.688 -19.392 -0 -1.2 0
10.243 -22.066 -19.071 -0 -1.2 0
13.082 0.29 -27.172 -0 -1.2 0
12.924 -2.308 -26.802 -0 -1.2 0
13.066 -3.891 -27.07 -0 -1.2 0
12.8 -4.35 -26.511 -0 -1.2 0
12.809 -5.91 -26.503 -0 -1.2 0
12.928 -6.485 -26.74 -0 -1.2 0
12.845 -7.511 -26.551 -0 -1.2 0
12.57 -10.041 -25.94 -0 -1.2 0
12.281 -12.017 -25.309 -0 -1.2 0
12.2 -12.502 -25.132 -0 -1.2 0
9.679 -21.688 -19.763 -0 -1.2 0
9.524 -22.066 -19.435 -0 -1.2 0
12.12 0.29 -27.608 -0 -1.2 0
12.131 -0.231 -27.624 -0 -1.2 0
12.139 -0.754 -27.633 -0 -1.2 0
12.143 -1.277 -27.632 -0 -1.2 0
12.144 -1.8 -27.624 -0 -1.2 0
12.14 -2.325 -27.607 -0 -1.2 0
12.109 -3.891 -27.505 -0 -1.2 0
11.983 -6.484 -27.17 -0 -1.2 0
11.947 -6.998 -27.079 -0 -1.2 0
11.908 -7.51 -26.979 -0 -1.2 0
11.529 -11.034 -26.052 -0 -1.2 0
11.314 -12.501 -25.536 -0 -1.2 0
11.236 -12.985 -25.349 -0 -1.2 0
10.267 -17.586 -23.062 -0 -1.2 0
8.988 -21.687 -20.081 -0 -1.2 0
8.844 -22.065 -19.748 -0 -1.2 0
11.199 0.292 -27.987 -0 -1.2 0
11.193 -3.89 -27.883 -0 -1.2 0
11.08 -6.483 -27.544 -0 -1.2 0
11.046 -6.997 -27.451 -0 -1.2 0
11.01 -7.509 -27.35 -0 -1.2 0
10.779 -10.039 -26.72 -0 -1.2 0
9.896 -15.798 -24.397 -0 -1.2 0
8.583 -20.912 -21.014 -0 -1.2 0
8.455 -21.302 -20.689 -0 -1.2 0
8.326 -21.686 -20.357 -0 -1.2 0
8.193 -22.064 -20.019 -0 -1.2 0
10.218 0.291 -28.353 -0 -1.2 0
10.23 -0.23 -28.37 -0 -1.2 0
10.238 -0.753 -28.378 -0 -1.2 0
10.242 -1.276 -28.378 -0 -1.2 0
10.243 -1.799 -28.37 -0 -1.2 0
10.241 -2.324 -28.353 -0 -1.2 0
10.238 -2.846 -28.327 -0 -1.2 0
10.229 -3.368 -28.292 -0 -1.2 0
10.218 -3.89 -28.249 -0 -1.2 0
10.118 -6.483 -27.906 -0 -1.2 0
10.088 -6.997 -27.812 -0 -1.2 0
7.969 -20.516 -21.613 -0 -1.2 0
7.855 -20.912 -21.291 -0 -1.2 0
7.74 -21.302 -20.961 -0 -1.2 0
7.621 -21.686 -20.625 -0 -1.2 0
7.502 -22.064 -20.283 -0 -1.2 0
9.287 0.812 -28.635 -0 -1.2 0
9.3 0.289 -28.661 -0 -1.2 0
7.568 -19.295 -22.789 -0 -1.2 0
7.472 -19.709 -22.482 -0 -1.2 0
7.374 -20.117 -22.169 -0 -1.2 0
7.273 -20.518 -21.849 -0 -1.2 0
7.171 -20.914 -21.521 -0 -1.2 0
7.066 -21.304 -21.188 -0 -1.2 0
6.959 -21.688 -20.849 -0 -1.2 0
6.85 -22.066 -20.503 -0 -1.2 0
8.365 0.799 -28.91 -0 -1.2 0
8.392 -3.384 -28.873 -0 -1.2 0
6.996 -18.463 -23.602 -0 -1.2 0
6.83 -19.306 -23.004 -0 -1.2 0
6.743 -19.719 -22.694 -0 -1.2 0
6.656 -20.127 -22.377 -0 -1.2 0
6.565 -20.529 -22.054 -0 -1.2 0
6.473 -20.924 -21.724 -0 -1.2 0
6.378 -21.314 -21.388 -0 -1.2 0
6.283 -21.698 -21.044 -0 -1.2 0
6.185 -22.076 -20.694 -0 -1.2 0
7.366 0.786 -29.173 -0 -1.2 0
7.393 -3.397 -29.136 -0 -1.2 0
7.097 -10.565 -27.72 -0 -1.2 0
6.665 -12.624 -25.948 -0 -1.2 0
6.692 -14.345 -25.993 -0 -1.2 0
6.444 -16.725 -24.935 -0 -1.2 0
6.314 -17.609 -24.389 -0 -1.2 0
6.246 -18.044 -24.105 -0 -1.2 0
6.176 -18.473 -23.814 -0 -1.2 0
6.104 -18.898 -23.515 -0 -1.2 0
6.03 -19.316 -23.21 -0 -1.2 0
5.954 -19.729 -22.897 -0 -1.2 0
5.877 -20.137 -22.578 -0 -1.2 0
5.798 -20.538 -22.252 -0 -1.2 0
5.717 -20.934 -21.918 -0 -1.2 0
5.635 -21.324 -21.579 -0 -1.2 0
5.551 -21.707 -21.231 -0 -1.2 0
5.465 -22.085 -20.879 -0 -1.2 0
6.456 -0.794 -29.438 -0 -1.2 0
6.458 -3.409 -29.348 -0 -1.2 0
6.379 -7.037 -28.848 -0 -1.2 0
6.36 -7.549 -28.743 -0 -1.2 0
5.94 -13.974 -26.58 -0 -1.2 0
5.719 -14.608 -25.551 -0 -1.2 0
5.696 -16.287 -25.378 -0 -1.2 0
5.642 -16.735 -25.114 -0 -1.2 0
5.586 -17.18 -24.844 -0 -1.2 0
5.529 -17.619 -24.564 -0 -1.2 0
5.47 -18.054 -24.279 -0 -1.2 0
5.408 -18.483 -23.985 -0 -1.2 0
5.346 -18.907 -23.684 -0 -1.2 0
5.282 -19.325 -23.376 -0 -1.2 0
5.217 -19.739 -23.061 -0 -1.2 0
5.149 -20.146 -22.739 -0 -1.2 0
5.081 -20.547 -22.41 -0 -1.2 0
5.01 -20.943 -22.074 -0 -1.2 0
4.939 -21.332 -21.732 -0 -1.2 0
4.865 -21.716 -21.383 -0 -1.2 0
4.791 -22.094 -21.028 -0 -1.2 0
5.507 -0.282 -29.613 -0 -1.2 0
5.513 -0.805 -29.622 -0 -1.2 0
5.085 -13.984 -26.743 -0 -1.2 0
4.919 -14.116 -25.849 -0 -1.2 0
4.908 -14.645 -25.76 -0 -1.2 0
4.818 -14.955 -25.264 -0 -1.2 0
4.923 -15.843 -25.792 -0 -1.2 0
4.879 -16.296 -25.535 -0 -1.2 0
4.834 -16.745 -25.269 -0 -1.2 0
4.786 -17.19 -24.996 -0 -1.2 0
4.738 -17.628 -24.715 -0 -1.2 0
4.687 -18.063 -24.427 -0 -1.2 0
4.636 -18.492 -24.132 -0 -1.2 0
4.583 -18.916 -23.829 -0 -1.2 0
4.529 -19.334 -23.519 -0 -1.2 0
4.473 -19.747 -23.202 -0 -1.2 0
4.416 -20.154 -22.878 -0 -1.2 0
4.358 -20.556 -22.546 -0 -1.2 0
4.298 -20.951 -22.208 -0 -1.2 0
4.237 -21.34 -21.864 -0 -1.2 0
4.175 -21.724 -21.512 -0 -1.2 0
4.111 -22.101 -21.155 -0 -1.2 0
4.478 -0.293 -29.778 -0 -1.2 0
4.483 -0.816 -29.787 -0 -1.2 0
4.488 -1.339 -29.787 -0 -1.2 0
4.491 -1.862 -29.777 -0 -1.2 0
4.492 -2.386 -29.759 -0 -1.2 0
4.493 -2.908 -29.732 -0 -1.2 0
4.49 -3.431 -29.695 -0 -1.2 0
4.182 -13.519 -27.11 -0 -1.2 0
4.154 -13.994 -26.89 -0 -1.2 0
3.99 -14.032 -25.806 -0 -1.2 0
3.996 -14.608 -25.814 -0 -1.2 0
4.003 -15.774 -25.796 -0 -1.2 0
3.989 -16.306 -25.674 -0 -1.2 0
3.952 -16.754 -25.407 -0 -1.2 0
3.915 -17.199 -25.133 -0 -1.2 0
3.876 -17.637 -24.851 -0 -1.2 0
3.835 -18.072 -24.561 -0 -1.2 0
3.794 -18.501 -24.263 -0 -1.2 0
3.752 -18.925 -23.959 -0 -1.2 0
3.709 -19.343 -23.647 -0 -1.2 0
3.664 -19.756 -23.328 -0 -1.2 0
3.618 -20.163 -23.003 -0 -1.2 0
3.571 -20.564 -22.669 -0 -1.2 0
3.522 -20.959 -22.329 -0 -1.2 0
3.474 -21.349 -21.982 -0 -1.2 0
3.424 -21.732 -21.629 -0 -1.2 0
3.373 -22.109 -21.269 -0 -1.2 0
3.487 -0.303 -29.902 -0 -1.2 0
3.493 -0.826 -29.912 -0 -1.2 0
3.496 -1.349 -29.911 -0 -1.2 0
3.499 -1.872 -29.902 -0 -1.2 0
3.501 -2.396 -29.883 -0 -1.2 0
3.502 -2.918 -29.855 -0 -1.2 0
3.502 -3.441 -29.819 -0 -1.2 0
3.479 -6.554 -29.41 -0 -1.2 0
3.47 -7.068 -29.311 -0 -1.2 0
3.417 -9.608 -28.68 -0 -1.2 0
3.403 -10.108 -28.527 -0 -1.2 0
3.342 -10.473 -27.971 -0 -1.2 0
3.307 -10.904 -27.645 -0 -1.2 0
3.298 -13.05 -27.434 -0 -1.2 0
3.278 -13.528 -27.222 -0 -1.2 0
3.256 -14.003 -27.001 -0 -1.2 0
3.233 -14.473 -26.773 -0 -1.2 0
3.2 -14.903 -26.467 -0 -1.2 0
3.158 -15.861 -26.04 -0 -1.2 0
3.131 -16.314 -25.78 -0 -1.2 0
3.103 -16.763 -25.512 -0 -1.2 0
3.074 -17.207 -25.236 -0 -1.2 0
3.045 -17.646 -24.953 -0 -1.2 0
3.014 -18.08 -24.661 -0 -1.2 0
2.983 -18.509 -24.363 -0 -1.2 0
2.951 -18.933 -24.057 -0 -1.2 0
2.918 -19.351 -23.743 -0 -1.2 0
2.883 -19.764 -23.423 -0 -1.2 0
2.848 -20.171 -23.096 -0 -1.2 0
2.813 -20.572 -22.761 -0 -1.2 0
2.775 -20.967 -22.419 -0 -1.2 0
2.738 -21.356 -22.071 -0 -1.2 0
2.699 -21.739 -21.716 -0 -1.2 0
2.661 -22.116 -21.354 -0 -1.2 0
2.493 -0.312 -29.994 -0 -1.2 0
2.498 -0.835 -30.002 -0 -1.2 0
2.502 -1.358 -30.002 -0 -1.2 0
2.505 -1.881 -29.993 -0 -1.2 0
2.507 -2.405 -29.974 -0 -1.2 0
2.51 -2.927 -29.947 -0 -1.2 0
2.51 -3.45 -29.91 -0 -1.2 0
2.51 -3.971 -29.864 -0 -1.2 0
2.509 -4.493 -29.81 -0 -1.2 0
2.509 -5.012 -29.745 -0 -1.2 0
2.506 -5.531 -29.672 -0 -1.2 0
2.503 -6.048 -29.59 -0 -1.2 0
2.499 -6.563 -29.499 -0 -1.2 0
2.494 -7.077 -29.399 -0 -1.2 0
2.49 -7.589 -29.291 -0 -1.2 0
2.484 -8.099 -29.173 -0 -1.2 0
2.477 -8.607 -29.047 -0 -1.2 0
2.47 -9.114 -28.911 -0 -1.2 0
2.461 -9.617 -28.767 -0 -1.2 0
2.452 -10.117 -28.614 -0 -1.2 0
2.442 -10.616 -28.453 -0 -1.2 0
2.432 -11.11 -28.282 -0 -1.2 0
2.421 -11.603 -28.104 -0 -1.2 0
2.409 -12.091 -27.916 -0 -1.2 0
2.396 -12.576 -27.721 -0 -1.2 0
2.383 -13.059 -27.517 -0 -1.2 0
2.369 -13.537 -27.303 -0 -1.2 0
2.355 -14.012 -27.083 -0 -1.2 0
2.339 -14.482 -26.854 -0 -1.2 0
2.323 -14.949 -26.617 -0 -1.2 0
2.307 -15.411 -26.371 -0 -1.2 0
2.288 -15.869 -26.118 -0 -1.2 0
2.27 -16.322 -25.857 -0 -1.2 0
2.252 -16.771 -25.587 -0 -1.2 0
2.231 -17.215 -25.311 -0 -1.2 0
2.211 -17.654 -25.026 -0 -1.2 0
2.19 -18.088 -24.735 -0 -1.2 0
2.169 -18.517 -24.435 -0 -1.2 0
2.146 -18.94 -24.128 -0 -1.2 0
2.124 -19.358 -23.813 -0 -1.2 0
2.1 -19.771 -23.492 -0 -1.2 0
2.075 -20.178 -23.164 -0 -1.2 0
2.051 -20.579 -22.828 -0 -1.2 0
2.025 -20.974 -22.485 -0 -1.2 0
1.999 -21.363 -22.136 -0 -1.2 0
1.972 -21.746 -21.779 -0 -1.2 0
1.945 -22.123 -21.417 -0 -1.2 0
1.418 -0.321 -30.055 -0 -1.2 0
1.422 -0.844 -30.065 -0 -1.2 0
1.426 -1.367 -30.064 -0 -1.2 0
1.432 -2.414 -30.036 -0 -1.2 0
1.435 -2.937 -30.009 -0 -1.2 0
1.437 -3.459 -29.972 -0 -1.2 0
1.439 -3.98 -29.926 -0 -1.2 0
1.44 -4.502 -29.87 -0 -1.2 0
1.441 -5.021 -29.806 -0 -1.2 0
1.441 -5.54 -29.733 -0 -1.2 0
1.441 -6.057 -29.652 -0 -1.2 0
1.441 -6.572 -29.56 -0 -1.2 0
1.44 -7.086 -29.46 -0 -1.2 0
1.438 -7.598 -29.351 -0 -1.2 0
1.437 -8.108 -29.233 -0 -1.2 0
1.435 -8.616 -29.106 -0 -1.2 0
1.431 -9.122 -28.97 -0 -1.2 0
1.428 -9.626 -28.825 -0 -1.2 0
1.425 -10.126 -28.672 -0 -1.2 0
1.421 -10.624 -28.51 -0 -1.2 0
1.416 -11.119 -28.34 -0 -1.2 0
1.411 -11.611 -28.16 -0 -1.2 0
1.406 -12.1 -27.973 -0 -1.2 0
1.4 -12.584 -27.777 -0 -1.2 0
1.394 -13.067 -27.572 -0 -1.2 0
1.388 -13.545 -27.359 -0 -1.2 0
1.381 -14.02 -27.138 -0 -1.2 0
1.374 -14.49 -26.908 -0 -1.2 0
1.366 -14.957 -26.67 -0 -1.2 0
1.358 -15.419 -26.425 -0 -1.2 0
1.349 -15.877 -26.171 -0 -1.2 0
1.34 -16.33 -25.909 -0 -1.2 0
1.331 -16.778 -25.639 -0 -1.2 0
1.321 -17.223 -25.361 -0 -1.2 0
1.31 -17.661 -25.077 -0 -1.2 0
1.3 -18.096 -24.783 -0 -1.2 0
1.289 -18.524 -24.484 -0 -1.2 0
1.278 -18.948 -24.175 -0 -1.2 0
1.266 -19.365 -23.861 -0 -1.2 0
1.254 -19.778 -23.538 -0 -1.2 0
1.241 -20.185 -23.209 -0 -1.2 0
1.228 -20.586 -22.873 -0 -1.2 0
1.215 -20.981 -22.53 -0 -1.2 0
1.201 -21.37 -22.179 -0 -1.2 0
1.187 -21.753 -21.822 -0 -1.2 0
1.173 -22.13 -21.459 -0 -1.2 0
0.371 -0.378 -30.079 -0 -1.2 0
0.375 -0.901 -30.086 -0 -1.2 0
0.378 -1.424 -30.085 -0 -1.2 0
0.396 -4.037 -29.942 -0 -1.2 0
0.4 -4.559 -29.886 -0 -1.2 0
0.403 -5.078 -29.821 -0 -1.2 0
0.405 -5.596 -29.747 -0 -1.2 0
0.408 -6.113 -29.664 -0 -1.2 0
0.411 -6.629 -29.572 -0 -1.2 0
0.413 -7.142 -29.471 -0 -1.2 0
0.416 -7.654 -29.36 -0 -1.2 0
0.417 -8.164 -29.242 -0 -1.2 0
0.42 -8.672 -29.114 -0 -1.2 0
0.422 -9.177 -28.977 -0 -1.2 0
0.424 -9.68 -28.831 -0 -1.2 0
0.425 -10.18 -28.678 -0 -1.2 0
0.427 -10.678 -28.515 -0 -1.2 0
0.429 -11.173 -28.343 -0 -1.2 0
0.43 -11.665 -28.163 -0 -1.2 0
0.432 -12.153 -27.974 -0 -1.2 0
0.432 -12.637 -27.777 -0 -1.2 0
0.434 -13.12 -27.571 -0 -1.2 0
0.434 -13.597 -27.357 -0 -1.2 0
0.435 -14.071 -27.135 -0 -1.2 0
0.435 -14.541 -26.905 -0 -1.2 0
0.436 -15.008 -26.666 -0 -1.2 0
0.436 -15.469 -26.419 -0 -1.2 0
0.437 -15.927 -26.163 -0 -1.2 0
0.437 -16.379 -25.901 -0 -1.2 0
0.437 -16.827 -25.63 -0 -1.2 0
0.437 -17.271 -25.352 -0 -1.2 0
0.437 -17.709 -25.066 -0 -1.2 0
0.436 -18.143 -24.772 -0 -1.2 0
0.435 -18.571 -24.47 -0 -1.2 0
0.434 -18.994 -24.162 -0 -1.2 0
0.434 -19.411 -23.846 -0 -1.2 0
0.433 -19.823 -23.522 -0 -1.2 0
0.432 -20.229 -23.192 -0 -1.2 0
0.43 -20.629 -22.855 -0 -1.2 0
0.429 -21.024 -22.51 -0 -1.2 0
0.428 -21.412 -22.159 -0 -1.2 0
0.426 -21.794 -21.801 -0 -1.2 0
0.425 -22.171 -21.436 -0 -1.2 0
-0.691 -5.6 -29.732 -0 -1.2 0
-0.685 -6.116 -29.649 -0 -1.2 0
-0.678 -6.632 -29.557 -0 -1.2 0
-0.672 -7.146 -29.457 -0 -1.2 0
-0.665 -7.657 -29.346 -0 -1.2 0
-0.658 -8.167 -29.227 -0 -1.2 0
-0.651 -8.675 -29.1 -0 -1.2 0
-0.644 -9.181 -28.963 -0 -1.2 0
-0.636 -9.684 -28.817 -0 -1.2 0
-0.63 -10.184 -28.664 -0 -1.2 0
-0.622 -10.682 -28.501 -0 -1.2 0
-0.613 -11.176 -28.329 -0 -1.2 0
-0.605 -11.668 -28.149 -0 -1.2 0
-0.597 -12.156 -27.961 -0 -1.2 0
-0.588 -12.64 -27.764 -0 -1.2 0
-0.579 -13.123 -27.558 -0 -1.2 0
-0.571 -13.6 -27.344 -0 -1.2 0
-0.561 -14.074 -27.122 -0 -1.2 0
-0.552 -14.544 -26.891 -0 -1.2 0
-0.542 -15.01 -26.652 -0 -1.2 0
-0.533 -15.472 -26.406 -0 -1.2 0
-0.523 -15.93 -26.152 -0 -1.2 0
-0.512 -16.382 -25.888 -0 -1.2 0
-0.503 -16.83 -25.618 -0 -1.2 0
-0.492 -17.274 -25.339 -0 -1.2 0
-0.482 -17.712 -25.054 -0 -1.2 0
-0.471 -18.146 -24.76 -0 -1.2 0
-0.461 -18.574 -24.459 -0 -1.2 0
-0.45 -18.996 -24.151 -0 -1.2 0
-0.439 -19.414 -23.834 -0 -1.2 0
-0.428 -19.826 -23.511 -0 -1.2 0
-0.416 -20.232 -23.181 -0 -1.2 0
-0.405 -20.632 -22.843 -0 -1.2 0
-0.394 -21.026 -22.499 -0 -1.2 0
-0.382 -21.414 -22.149 -0 -1.2 0
-0.37 -21.797 -21.791 -0 -1.2 0
-0.358 -22.173 -21.427 -0 -1.2 0
-1.831 -7.631 -29.295 -0 -1.2 0
-1.818 -8.141 -29.177 -0 -1.2 0
-1.806 -8.649 -29.05 -0 -1.2 0
-1.793 -9.155 -28.915 -0 -1.2 0
-1.78 -9.658 -28.77 -0 -1.2 0
-1.765 -10.158 -28.617 -0 -1.2 0
-1.751 -10.656 -28.455 -0 -1.2 0
-1.736 -11.151 -28.285 -0 -1.2 0
-1.72 -11.643 -28.106 -0 -1.2 0
-1.704 -12.131 -27.918 -0 -1.2 0
-1.687 -12.616 -27.721 -0 -1.2 0
-1.669 -13.098 -27.517 -0 -1.2 0
-1.652 -13.576 -27.304 -0 -1.2 0
-1.634 -14.05 -27.083 -0 -1.2 0
-1.615 -14.52 -26.853 -0 -1.2 0
-1.596 -14.987 -26.616 -0 -1.2 0
-1.576 -15.449 -26.37 -0 -1.2 0
-1.555 -15.906 -26.116 -0 -1.2 0
-1.535 -16.359 -25.855 -0 -1.2 0
-1.513 -16.807 -25.585 -0 -1.2 0
-1.492 -17.251 -25.308 -0 -1.2 0
-1.47 -17.689 -25.023 -0 -1.2 0
-1.447 -18.123 -24.731 -0 -1.2 0
-1.424 -18.552 -24.43 -0 -1.2 0
-1.402 -18.975 -24.122 -0 -1.2 0
-1.378 -19.392 -23.808 -0 -1.2 0
-1.353 -19.805 -23.486 -0 -1.2 0
-1.328 -20.211 -23.157 -0 -1.2 0
-1.303 -20.611 -22.82 -0 -1.2 0
-1.277 -21.006 -22.477 -0 -1.2 0
-1.252 -21.394 -22.127 -0 -1.2 0
-1.226 -21.777 -21.77 -0 -1.2 0
-1.199 -22.154 -21.407 -0 -1.2 0
-2.914 -7.603 -29.205 -0 -1.2 0
-2.896 -8.113 -29.088 -0 -1.2 0
-2.88 -8.621 -28.962 -0 -1.2 0
-2.861 -9.127 -28.828 -0 -1.2 0
-2.842 -9.63 -28.685 -0 -1.2 0
-2.822 -10.131 -28.532 -0 -1.2 0
