# .PCD v.7 - Point Cloud Data file format
FIELDS x y z vp_x vp_y vp_z
SIZE 4 4 4 4 4 4
TYPE F F F F F F
COUNT 1 1 1 1 1 1
WIDTH 1610
HEIGHT 1
VIEWPOINT 0 -1.20008 0 1 0 0 0
POINTS 1610
DATA ascii
-3.678 -3.512 2.485 -0 -1.2 0
-3.659 -3.602 2.469 -0 -1.2 0
-3.74 -3.766 2.533 -0 -1.2 0
-5.859 -5.482 4.231 -0 -1.2 0
-3.692 -3.951 2.493 -0 -1.2 0
-3.916 -4.247 2.672 -0 -1.2 0
-3.756 -4.232 2.542 -0 -1.2 0
-3.656 -4.263 2.461 -0 -1.2 0
-3.536 -4.273 2.364 -0 -1.2 0
-3.449 -4.309 2.293 -0 -1.2 0
-3.448 -4.427 2.292 -0 -1.2 0
-3.451 -4.552 2.293 -0 -1.2 0
-3.446 -4.672 2.288 -0 -1.2 0
-3.445 -4.799 2.286 -0 -1.2 0
-3.446 -4.933 2.286 -0 -1.2 0
-3.44 -5.063 2.281 -0 -1.2 0
-3.443 -5.206 2.281 -0 -1.2 0
-3.437 -5.344 2.275 -0 -1.2 0
-3.434 -5.491 2.271 -0 -1.2 0
-3.433 -5.645 2.269 -0 -1.2 0
-0.931 0.001 0.362 -0 -1.2 0
-0.963 0.001 0.39 -0 -1.2 0
-0.994 0 0.416 -0 -1.2 0
-1.026 -0.002 0.444 -0 -1.2 0
-1.057 -0.006 0.471 -0 -1.2 0
-1.084 -0.016 0.494 -0 -1.2 0
-1.127 -0.009 0.531 -0 -1.2 0
-1.178 0 0.575 -0 -1.2 0
-1.205 -0.013 0.599 -0 -1.2 0
-1.257 -0.006 0.643 -0 -1.2 0
-1.296 -0.012 0.677 -0 -1.2 0
-1.349 -0.009 0.722 -0 -1.2 0
-1.395 -0.012 0.763 -0 -1.2 0
-1.441 -0.018 0.802 -0 -1.2 0
-1.508 -0.011 0.861 -0 -1.2 0
-1.569 -0.012 0.913 -0 -1.2 0
-1.623 -0.019 0.959 -0 -1.2 0
-1.691 -0.019 1.018 -0 -1.2 0
-1.781 -0.01 1.095 -0 -1.2 0
-1.85 -0.017 1.155 -0 -1.2 0
-1.933 -0.019 1.227 -0 -1.2 0
-2.023 -0.021 1.306 -0 -1.2 0
-2.122 -0.023 1.39 -0 -1.2 0
-2.214 -0.032 1.47 -0 -1.2 0
-2.328 -0.035 1.567 -0 -1.2 0
-2.442 -0.044 1.666 -0 -1.2 0
-2.571 -0.051 1.777 -0 -1.2 0
-2.73 -0.052 1.915 -0 -1.2 0
-2.896 -0.059 2.058 -0 -1.2 0
-3.086 -0.065 2.221 -0 -1.2 0
-3.283 -0.077 2.392 -0 -1.2 0
-3.421 -0.115 2.511 -0 -1.2 0
-3.419 -0.196 2.508 -0 -1.2 0
-3.409 -0.28 2.498 -0 -1.2 0
-3.412 -0.359 2.501 -0 -1.2 0
-3.414 -0.438 2.502 -0 -1.2 0
-3.407 -0.518 2.495 -0 -1.2 0
-3.407 -0.596 2.494 -0 -1.2 0
-3.413 -0.673 2.5 -0 -1.2 0
-3.411 -0.751 2.497 -0 -1.2 0
-3.416 -0.829 2.5 -0 -1.2 0
-3.403 -0.907 2.489 -0 -1.2 0
-3.405 -0.984 2.49 -0 -1.2 0
-3.407 -1.061 2.491 -0 -1.2 0
-3.399 -1.139 2.484 -0 -1.2 0
-3.406 -1.215 2.489 -0 -1.2 0
-3.397 -1.291 2.48 -0 -1.2 0
-3.401 -1.369 2.484 -0 -1.2 0
-3.397 -1.446 2.48 -0 -1.2 0
-3.4 -1.524 2.481 -0 -1.2 0
-3.402 -1.601 2.482 -0 -1.2 0
-3.402 -1.68 2.482 -0 -1.2 0
-3.394 -1.757 2.475 -0 -1.2 0
-3.393 -1.835 2.473 -0 -1.2 0
-3.404 -1.917 2.482 -0 -1.2 0
-3.349 -1.982 2.434 -0 -1.2 0
-3.33 -2.055 2.417 -0 -1.2 0
-3.39 -2.154 2.469 -0 -1.2 0
-3.706 -2.344 2.739 -0 -1.2 0
-3.887 -2.5 2.894 -0 -1.2 0
-3.882 -2.594 2.89 -0 -1.2 0
-3.855 -2.679 2.865 -0 -1.2 0
-3.661 -2.689 2.698 -0 -1.2 0
-3.89 -2.889 2.893 -0 -1.2 0
-3.901 -2.995 2.903 -0 -1.2 0
-3.91 -3.101 2.911 -0 -1.2 0
-3.828 -3.159 2.838 -0 -1.2 0
-3.905 -3.305 2.904 -0 -1.2 0
-3.889 -3.402 2.89 -0 -1.2 0
-3.886 -3.507 2.885 -0 -1.2 0
-3.718 -3.504 2.74 -0 -1.2 0
-3.652 -3.565 2.683 -0 -1.2 0
-3.639 -3.661 2.672 -0 -1.2 0
-3.862 -3.937 2.862 -0 -1.2 0
-3.706 -3.932 2.728 -0 -1.2 0
-3.921 -4.22 2.91 -0 -1.2 0
-3.873 -4.302 2.869 -0 -1.2 0
-3.666 -4.245 2.69 -0 -1.2 0
-3.581 -4.288 2.615 -0 -1.2 0
-3.451 -4.286 2.504 -0 -1.2 0
-3.433 -4.388 2.488 -0 -1.2 0
-3.437 -4.514 2.491 -0 -1.2 0
-3.433 -4.635 2.486 -0 -1.2 0
-3.427 -4.757 2.48 -0 -1.2 0
-3.431 -4.892 2.482 -0 -1.2 0
-3.431 -5.028 2.482 -0 -1.2 0
-3.424 -5.159 2.474 -0 -1.2 0
-3.425 -5.305 2.474 -0 -1.2 0
-3.412 -5.437 2.463 -0 -1.2 0
-3.413 -5.592 2.462 -0 -1.2 0
-3.416 -5.755 2.463 -0 -1.2 0
-0.902 0.001 0.412 -0 -1.2 0
-0.938 0.007 0.444 -0 -1.2 0
-0.964 0 0.468 -0 -1.2 0
-0.994 -0.002 0.496 -0 -1.2 0
-1.019 -0.012 0.519 -0 -1.2 0
-1.056 -0.01 0.553 -0 -1.2 0
-1.093 -0.01 0.587 -0 -1.2 0
-1.136 -0.006 0.627 -0 -1.2 0
-1.174 -0.008 0.662 -0 -1.2 0
-1.211 -0.013 0.697 -0 -1.2 0
-1.255 -0.012 0.738 -0 -1.2 0
-1.301 -0.015 0.78 -0 -1.2 0
-1.351 -0.013 0.827 -0 -1.2 0
-1.396 -0.019 0.869 -0 -1.2 0
-1.455 -0.017 0.923 -0 -1.2 0
-1.514 -0.017 0.977 -0 -1.2 0
-1.573 -0.02 1.032 -0 -1.2 0
-1.639 -0.02 1.093 -0 -1.2 0
-1.699 -0.029 1.149 -0 -1.2 0
-1.793 -0.018 1.236 -0 -1.2 0
-1.874 -0.02 1.31 -0 -1.2 0
-1.961 -0.022 1.392 -0 -1.2 0
-2.057 -0.024 1.48 -0 -1.2 0
-2.146 -0.033 1.563 -0 -1.2 0
-2.249 -0.039 1.658 -0 -1.2 0
-2.366 -0.045 1.767 -0 -1.2 0
-2.484 -0.056 1.877 -0 -1.2 0
-2.631 -0.059 2.012 -0 -1.2 0
-2.8 -0.063 2.168 -0 -1.2 0
-2.99 -0.067 2.345 -0 -1.2 0
-3.166 -0.084 2.508 -0 -1.2 0
-3.401 -0.092 2.726 -0 -1.2 0
-3.4 -0.175 2.724 -0 -1.2 0
-3.404 -0.257 2.727 -0 -1.2 0
-3.393 -0.341 2.716 -0 -1.2 0
-3.402 -0.421 2.724 -0 -1.2 0
-3.389 -0.504 2.711 -0 -1.2 0
-3.395 -0.584 2.717 -0 -1.2 0
-3.395 -0.665 2.715 -0 -1.2 0
-3.393 -0.745 2.712 -0 -1.2 0
-3.397 -0.824 2.716 -0 -1.2 0
-3.386 -0.904 2.705 -0 -1.2 0
-3.387 -0.983 2.707 -0 -1.2 0
-3.389 -1.063 2.707 -0 -1.2 0
-3.388 -1.142 2.706 -0 -1.2 0
-3.388 -1.221 2.705 -0 -1.2 0
-3.379 -1.299 2.696 -0 -1.2 0
-3.383 -1.378 2.7 -0 -1.2 0
-3.379 -1.457 2.696 -0 -1.2 0
-3.375 -1.536 2.69 -0 -1.2 0
-3.375 -1.616 2.691 -0 -1.2 0
-3.376 -1.696 2.69 -0 -1.2 0
-3.382 -1.778 2.696 -0 -1.2 0
-3.373 -1.857 2.687 -0 -1.2 0
-3.377 -1.939 2.691 -0 -1.2 0
-3.316 -2.004 2.633 -0 -1.2 0
-3.312 -2.084 2.628 -0 -1.2 0
-3.413 -2.199 2.721 -0 -1.2 0
-3.498 -2.313 2.799 -0 -1.2 0
-3.503 -2.403 2.804 -0 -1.2 0
-3.5 -2.49 2.8 -0 -1.2 0
-3.503 -2.581 2.802 -0 -1.2 0
-3.511 -2.676 2.809 -0 -1.2 0
-3.512 -2.767 2.809 -0 -1.2 0
-3.511 -2.86 2.807 -0 -1.2 0
-3.508 -2.953 2.804 -0 -1.2 0
-3.524 -3.057 2.819 -0 -1.2 0
-3.533 -3.159 2.826 -0 -1.2 0
-3.533 -3.258 2.825 -0 -1.2 0
-3.532 -3.358 2.823 -0 -1.2 0
-3.535 -3.462 2.826 -0 -1.2 0
-3.537 -3.567 2.826 -0 -1.2 0
-3.544 -3.678 2.832 -0 -1.2 0
-3.542 -3.785 2.83 -0 -1.2 0
-3.546 -3.898 2.832 -0 -1.2 0
-3.547 -4.013 2.832 -0 -1.2 0
-3.547 -4.127 2.832 -0 -1.2 0
-3.551 -4.248 2.834 -0 -1.2 0
-3.461 -4.284 2.751 -0 -1.2 0
-3.413 -4.359 2.707 -0 -1.2 0
-3.413 -4.479 2.705 -0 -1.2 0
-3.41 -4.601 2.702 -0 -1.2 0
-3.411 -4.73 2.702 -0 -1.2 0
-3.41 -4.86 2.7 -0 -1.2 0
-3.406 -4.991 2.695 -0 -1.2 0
-3.405 -5.13 2.693 -0 -1.2 0
-3.402 -5.269 2.69 -0 -1.2 0
-3.396 -5.41 2.684 -0 -1.2 0
-3.393 -5.559 2.679 -0 -1.2 0
-3.392 -5.716 2.677 -0 -1.2 0
-3.389 -5.874 2.673 -0 -1.2 0
-0.87 -0.006 0.451 -0 -1.2 0
-0.899 -0.006 0.479 -0 -1.2 0
-0.928 -0.007 0.509 -0 -1.2 0
-0.963 -0.003 0.543 -0 -1.2 0
-0.988 -0.013 0.568 -0 -1.2 0
-1.023 -0.011 0.602 -0 -1.2 0
-1.059 -0.01 0.638 -0 -1.2 0
-1.095 -0.012 0.674 -0 -1.2 0
-1.132 -0.014 0.71 -0 -1.2 0
-1.174 -0.013 0.751 -0 -1.2 0
-1.212 -0.019 0.788 -0 -1.2 0
-1.254 -0.021 0.832 -0 -1.2 0
-1.304 -0.02 0.88 -0 -1.2 0
-1.359 -0.015 0.935 -0 -1.2 0
-1.404 -0.023 0.979 -0 -1.2 0
-1.461 -0.023 1.036 -0 -1.2 0
-1.524 -0.021 1.098 -0 -1.2 0
-1.576 -0.03 1.148 -0 -1.2 0
-1.64 -0.033 1.212 -0 -1.2 0
-1.731 -0.023 1.302 -0 -1.2 0
-1.803 -0.029 1.373 -0 -1.2 0
-1.894 -0.027 1.464 -0 -1.2 0
-1.98 -0.031 1.549 -0 -1.2 0
-2.067 -0.041 1.634 -0 -1.2 0
-2.173 -0.044 1.74 -0 -1.2 0
-2.273 -0.056 1.839 -0 -1.2 0
-2.394 -0.063 1.959 -0 -1.2 0
-2.536 -0.067 2.099 -0 -1.2 0
-2.7 -0.07 2.26 -0 -1.2 0
-2.877 -0.075 2.436 -0 -1.2 0
-3.069 -0.085 2.626 -0 -1.2 0
-3.283 -0.098 2.837 -0 -1.2 0
-3.392 -0.15 2.944 -0 -1.2 0
-3.39 -0.236 2.941 -0 -1.2 0
-3.386 -0.32 2.937 -0 -1.2 0
-3.389 -0.404 2.939 -0 -1.2 0
-3.382 -0.488 2.933 -0 -1.2 0
-3.383 -0.571 2.932 -0 -1.2 0
-3.382 -0.654 2.931 -0 -1.2 0
-3.387 -0.736 2.935 -0 -1.2 0
-3.391 -0.818 2.94 -0 -1.2 0
-3.38 -0.9 2.927 -0 -1.2 0
-3.383 -0.982 2.93 -0 -1.2 0
-3.376 -1.064 2.923 -0 -1.2 0
-3.377 -1.145 2.923 -0 -1.2 0
-3.375 -1.226 2.921 -0 -1.2 0
-3.366 -1.307 2.912 -0 -1.2 0
-3.364 -1.388 2.908 -0 -1.2 0
-3.374 -1.47 2.918 -0 -1.2 0
-3.369 -1.552 2.912 -0 -1.2 0
-3.37 -1.634 2.913 -0 -1.2 0
-3.37 -1.717 2.912 -0 -1.2 0
-3.362 -1.798 2.904 -0 -1.2 0
-3.367 -1.882 2.908 -0 -1.2 0
-3.363 -1.965 2.904 -0 -1.2 0
-3.304 -2.033 2.845 -0 -1.2 0
-3.299 -2.114 2.84 -0 -1.2 0
-3.424 -2.241 2.963 -0 -1.2 0
-3.424 -2.329 2.962 -0 -1.2 0
-3.421 -2.415 2.958 -0 -1.2 0
-3.419 -2.503 2.955 -0 -1.2 0
-3.421 -2.596 2.957 -0 -1.2 0
-3.416 -2.684 2.951 -0 -1.2 0
-3.409 -2.773 2.944 -0 -1.2 0
-3.408 -2.865 2.943 -0 -1.2 0
-3.405 -2.958 2.939 -0 -1.2 0
-3.415 -3.059 2.948 -0 -1.2 0
-3.423 -3.161 2.955 -0 -1.2 0
-3.416 -3.256 2.949 -0 -1.2 0
-3.415 -3.355 2.946 -0 -1.2 0
-3.418 -3.46 2.949 -0 -1.2 0
-3.414 -3.561 2.943 -0 -1.2 0
-3.408 -3.661 2.937 -0 -1.2 0
-3.406 -3.767 2.935 -0 -1.2 0
-3.41 -3.879 2.938 -0 -1.2 0
-3.405 -3.988 2.933 -0 -1.2 0
-3.405 -4.101 2.931 -0 -1.2 0
-3.398 -4.211 2.924 -0 -1.2 0
-3.399 -4.332 2.925 -0 -1.2 0
-3.405 -4.46 2.93 -0 -1.2 0
-3.397 -4.577 2.921 -0 -1.2 0
-3.394 -4.701 2.916 -0 -1.2 0
-3.398 -4.838 2.921 -0 -1.2 0
-3.39 -4.965 2.912 -0 -1.2 0
-3.385 -5.098 2.906 -0 -1.2 0
-3.383 -5.238 2.902 -0 -1.2 0
-3.384 -5.387 2.903 -0 -1.2 0
-3.376 -5.53 2.894 -0 -1.2 0
-3.373 -5.68 2.889 -0 -1.2 0
-3.375 -5.847 2.891 -0 -1.2 0
-3.354 -5.985 2.87 -0 -1.2 0
-0.841 -0.007 0.494 -0 -1.2 0
-0.87 -0.007 0.524 -0 -1.2 0
-0.899 -0.008 0.554 -0 -1.2 0
-0.927 -0.01 0.584 -0 -1.2 0
-0.956 -0.013 0.614 -0 -1.2 0
-0.984 -0.018 0.645 -0 -1.2 0
-1.02 -0.018 0.681 -0 -1.2 0
-1.06 -0.013 0.724 -0 -1.2 0
-1.089 -0.021 0.755 -0 -1.2 0
-1.131 -0.02 0.799 -0 -1.2 0
-1.172 -0.02 0.842 -0 -1.2 0
-1.22 -0.017 0.892 -0 -1.2 0
-1.256 -0.025 0.931 -0 -1.2 0
-1.304 -0.025 0.981 -0 -1.2 0
-1.358 -0.024 1.039 -0 -1.2 0
-1.408 -0.029 1.091 -0 -1.2 0
-1.469 -0.026 1.156 -0 -1.2 0
-1.519 -0.035 1.207 -0 -1.2 0
-1.593 -0.03 1.286 -0 -1.2 0
-1.656 -0.036 1.352 -0 -1.2 0
-1.745 -0.03 1.446 -0 -1.2 0
-1.814 -0.039 1.519 -0 -1.2 0
-1.897 -0.043 1.607 -0 -1.2 0
-2 -0.042 1.714 -0 -1.2 0
-2.096 -0.049 1.817 -0 -1.2 0
-2.2 -0.056 1.926 -0 -1.2 0
-2.318 -0.063 2.05 -0 -1.2 0
-2.442 -0.073 2.18 -0 -1.2 0
-2.586 -0.082 2.332 -0 -1.2 0
-2.752 -0.089 2.507 -0 -1.2 0
-2.951 -0.093 2.716 -0 -1.2 0
-3.158 -0.105 2.934 -0 -1.2 0
-3.371 -0.125 3.16 -0 -1.2 0
-3.382 -0.209 3.171 -0 -1.2 0
-3.379 -0.297 3.167 -0 -1.2 0
-3.381 -0.382 3.169 -0 -1.2 0
-3.383 -0.468 3.17 -0 -1.2 0
-3.369 -0.557 3.156 -0 -1.2 0
-3.376 -0.64 3.162 -0 -1.2 0
-3.374 -0.726 3.16 -0 -1.2 0
-3.378 -0.81 3.163 -0 -1.2 0
-3.374 -0.895 3.159 -0 -1.2 0
-3.37 -0.979 3.153 -0 -1.2 0
-3.37 -1.063 3.154 -0 -1.2 0
-3.364 -1.148 3.147 -0 -1.2 0
-3.369 -1.231 3.152 -0 -1.2 0
-3.361 -1.314 3.143 -0 -1.2 0
-3.357 -1.398 3.139 -0 -1.2 0
-3.354 -1.482 3.134 -0 -1.2 0
-3.362 -1.567 3.143 -0 -1.2 0
-3.363 -1.652 3.143 -0 -1.2 0
-3.356 -1.736 3.136 -0 -1.2 0
-3.355 -1.822 3.134 -0 -1.2 0
-3.352 -1.907 3.131 -0 -1.2 0
-3.342 -1.99 3.12 -0 -1.2 0
-3.291 -2.061 3.066 -0 -1.2 0
-3.292 -2.147 3.067 -0 -1.2 0
-3.413 -2.276 3.194 -0 -1.2 0
-3.412 -2.366 3.192 -0 -1.2 0
-3.41 -2.457 3.188 -0 -1.2 0
-3.42 -2.553 3.198 -0 -1.2 0
-3.414 -2.644 3.193 -0 -1.2 0
-3.416 -2.739 3.193 -0 -1.2 0
-3.415 -2.834 3.192 -0 -1.2 0
-3.413 -2.929 3.189 -0 -1.2 0
-3.416 -3.029 3.192 -0 -1.2 0
-3.405 -3.121 3.181 -0 -1.2 0
-3.412 -3.226 3.188 -0 -1.2 0
-3.405 -3.323 3.179 -0 -1.2 0
-3.408 -3.429 3.183 -0 -1.2 0
-3.405 -3.532 3.178 -0 -1.2 0
-3.4 -3.635 3.173 -0 -1.2 0
-3.399 -3.743 3.171 -0 -1.2 0
-3.397 -3.852 3.169 -0 -1.2 0
-3.393 -3.962 3.164 -0 -1.2 0
-3.394 -4.078 3.163 -0 -1.2 0
-3.392 -4.194 3.162 -0 -1.2 0
-3.389 -4.311 3.158 -0 -1.2 0
-3.384 -4.43 3.152 -0 -1.2 0
-3.383 -4.554 3.15 -0 -1.2 0
-3.385 -4.685 3.152 -0 -1.2 0
-3.38 -4.812 3.146 -0 -1.2 0
-3.373 -4.939 3.137 -0 -1.2 0
-3.369 -5.073 3.133 -0 -1.2 0
-3.368 -5.215 3.131 -0 -1.2 0
-3.369 -5.365 3.132 -0 -1.2 0
-3.364 -5.509 3.125 -0 -1.2 0
-3.36 -5.661 3.12 -0 -1.2 0
-3.359 -5.821 3.118 -0 -1.2 0
-3.355 -5.983 3.114 -0 -1.2 0
-3.343 -6.139 3.101 -0 -1.2 0
-0.805 -0.013 0.534 -0 -1.2 0
-0.838 -0.006 0.57 -0 -1.2 0
-0.865 -0.007 0.601 -0 -1.2 0
-0.892 -0.009 0.632 -0 -1.2 0
-0.921 -0.013 0.663 -0 -1.2 0
-0.948 -0.017 0.695 -0 -1.2 0
-0.982 -0.017 0.733 -0 -1.2 0
-1.02 -0.012 0.777 -0 -1.2 0
-1.05 -0.02 0.809 -0 -1.2 0
-1.089 -0.019 0.854 -0 -1.2 0
-1.129 -0.018 0.899 -0 -1.2 0
-1.164 -0.026 0.937 -0 -1.2 0
-1.209 -0.024 0.99 -0 -1.2 0
-1.251 -0.03 1.035 -0 -1.2 0
-1.303 -0.027 1.095 -0 -1.2 0
-1.356 -0.027 1.155 -0 -1.2 0
-1.41 -0.029 1.215 -0 -1.2 0
-1.475 -0.025 1.289 -0 -1.2 0
-1.523 -0.037 1.343 -0 -1.2 0
-1.602 -0.031 1.432 -0 -1.2 0
-1.675 -0.032 1.514 -0 -1.2 0
-1.748 -0.037 1.597 -0 -1.2 0
-1.834 -0.037 1.694 -0 -1.2 0
-1.927 -0.039 1.798 -0 -1.2 0
-2.021 -0.046 1.904 -0 -1.2 0
-2.114 -0.057 2.01 -0 -1.2 0
-2.22 -0.067 2.13 -0 -1.2 0
-2.359 -0.068 2.286 -0 -1.2 0
-2.505 -0.073 2.45 -0 -1.2 0
-2.658 -0.083 2.623 -0 -1.2 0
-2.843 -0.089 2.832 -0 -1.2 0
-3.036 -0.103 3.049 -0 -1.2 0
-3.262 -0.116 3.304 -0 -1.2 0
-3.383 -0.17 3.441 -0 -1.2 0
-3.388 -0.26 3.445 -0 -1.2 0
-3.37 -0.354 3.426 -0 -1.2 0
-3.359 -0.445 3.412 -0 -1.2 0
-3.359 -0.534 3.413 -0 -1.2 0
-3.353 -0.622 3.404 -0 -1.2 0
-3.35 -0.71 3.402 -0 -1.2 0
-3.354 -0.797 3.407 -0 -1.2 0
-3.344 -0.885 3.395 -0 -1.2 0
-3.327 -0.972 3.375 -0 -1.2 0
-3.334 -1.059 3.383 -0 -1.2 0
-3.321 -1.144 3.368 -0 -1.2 0
-3.353 -1.232 3.403 -0 -1.2 0
-3.344 -1.317 3.393 -0 -1.2 0
-3.341 -1.404 3.39 -0 -1.2 0
-3.344 -1.491 3.393 -0 -1.2 0
-3.352 -1.58 3.402 -0 -1.2 0
-3.346 -1.666 3.395 -0 -1.2 0
-3.346 -1.754 3.394 -0 -1.2 0
-3.344 -1.842 3.392 -0 -1.2 0
-3.335 -1.929 3.382 -0 -1.2 0
-3.292 -2.006 3.334 -0 -1.2 0
-3.275 -2.089 3.313 -0 -1.2 0
-3.314 -2.191 3.358 -0 -1.2 0
-3.405 -2.315 3.459 -0 -1.2 0
-3.403 -2.408 3.457 -0 -1.2 0
-3.4 -2.501 3.453 -0 -1.2 0
-3.402 -2.597 3.456 -0 -1.2 0
-3.403 -2.694 3.457 -0 -1.2 0
-3.398 -2.789 3.45 -0 -1.2 0
-3.396 -2.887 3.448 -0 -1.2 0
-3.399 -2.988 3.451 -0 -1.2 0
-3.395 -3.087 3.447 -0 -1.2 0
-3.391 -3.187 3.441 -0 -1.2 0
-3.39 -3.29 3.441 -0 -1.2 0
-3.388 -3.394 3.438 -0 -1.2 0
-3.385 -3.499 3.434 -0 -1.2 0
-3.38 -3.604 3.429 -0 -1.2 0
-3.38 -3.715 3.428 -0 -1.2 0
-3.379 -3.826 3.427 -0 -1.2 0
-3.375 -3.937 3.422 -0 -1.2 0
-3.376 -4.055 3.424 -0 -1.2 0
-3.376 -4.174 3.422 -0 -1.2 0
-3.373 -4.292 3.419 -0 -1.2 0
-3.375 -4.418 3.421 -0 -1.2 0
-3.374 -4.545 3.419 -0 -1.2 0
-3.366 -4.666 3.41 -0 -1.2 0
-3.361 -4.794 3.404 -0 -1.2 0
-3.36 -4.93 3.403 -0 -1.2 0
-3.352 -5.06 3.393 -0 -1.2 0
-3.347 -5.197 3.386 -0 -1.2 0
-3.344 -5.342 3.383 -0 -1.2 0
-3.344 -5.494 3.382 -0 -1.2 0
-3.342 -5.648 3.38 -0 -1.2 0
-3.337 -5.802 3.374 -0 -1.2 0
-3.333 -5.965 3.37 -0 -1.2 0
-3.328 -6.129 3.363 -0 -1.2 0
-3.324 -6.301 3.358 -0 -1.2 0
-0.781 -0.005 0.582 -0 -1.2 0
-0.812 0.001 0.618 -0 -1.2 0
-0.834 -0.006 0.644 -0 -1.2 0
-0.86 -0.008 0.676 -0 -1.2 0
-0.887 -0.012 0.709 -0 -1.2 0
-0.924 -0.004 0.753 -0 -1.2 0
-0.951 -0.009 0.786 -0 -1.2 0
-0.979 -0.017 0.819 -0 -1.2 0
-1.016 -0.013 0.864 -0 -1.2 0
-1.05 -0.018 0.904 -0 -1.2 0
-1.088 -0.017 0.95 -0 -1.2 0
-1.122 -0.025 0.99 -0 -1.2 0
-1.171 -0.018 1.05 -0 -1.2 0
-1.211 -0.022 1.097 -0 -1.2 0
-1.262 -0.021 1.159 -0 -1.2 0
-1.307 -0.026 1.214 -0 -1.2 0
-1.358 -0.028 1.275 -0 -1.2 0
-1.422 -0.023 1.351 -0 -1.2 0
-1.474 -0.031 1.413 -0 -1.2 0
-1.55 -0.025 1.504 -0 -1.2 0
-1.608 -0.033 1.575 -0 -1.2 0
-1.691 -0.031 1.674 -0 -1.2 0
-1.768 -0.035 1.767 -0 -1.2 0
-1.852 -0.041 1.868 -0 -1.2 0
-1.947 -0.044 1.983 -0 -1.2 0
-2.056 -0.045 2.113 -0 -1.2 0
-2.146 -0.061 2.222 -0 -1.2 0
-2.274 -0.065 2.375 -0 -1.2 0
-2.415 -0.07 2.544 -0 -1.2 0
-2.562 -0.079 2.722 -0 -1.2 0
-2.748 -0.083 2.944 -0 -1.2 0
-2.946 -0.093 3.182 -0 -1.2 0
-3.157 -0.109 3.436 -0 -1.2 0
-3.218 -0.179 3.509 -0 -1.2 0
-3.234 -0.264 3.529 -0 -1.2 0
-3.192 -0.362 3.478 -0 -1.2 0
-3.199 -0.449 3.488 -0 -1.2 0
-3.194 -0.537 3.48 -0 -1.2 0
-3.199 -0.623 3.487 -0 -1.2 0
-3.211 -0.708 3.5 -0 -1.2 0
-3.208 -0.795 3.497 -0 -1.2 0
-3.198 -0.883 3.485 -0 -1.2 0
-3.206 -0.968 3.495 -0 -1.2 0
-3.208 -1.054 3.496 -0 -1.2 0
-3.201 -1.14 3.488 -0 -1.2 0
-3.207 -1.226 3.494 -0 -1.2 0
-3.204 -1.312 3.493 -0 -1.2 0
-3.207 -1.398 3.497 -0 -1.2 0
-3.21 -1.485 3.499 -0 -1.2 0
-3.205 -1.571 3.493 -0 -1.2 0
-3.199 -1.658 3.486 -0 -1.2 0
-3.193 -1.744 3.478 -0 -1.2 0
-3.198 -1.832 3.485 -0 -1.2 0
-3.201 -1.921 3.489 -0 -1.2 0
-3.198 -2.009 3.485 -0 -1.2 0
-3.193 -2.097 3.479 -0 -1.2 0
-3.201 -2.189 3.488 -0 -1.2 0
-3.356 -2.339 3.674 -0 -1.2 0
-3.372 -2.441 3.694 -0 -1.2 0
-3.381 -2.542 3.705 -0 -1.2 0
-3.377 -2.639 3.7 -0 -1.2 0
-3.372 -2.736 3.693 -0 -1.2 0
-3.371 -2.836 3.692 -0 -1.2 0
-3.375 -2.939 3.697 -0 -1.2 0
-3.371 -3.04 3.694 -0 -1.2 0
-3.368 -3.142 3.687 -0 -1.2 0
-3.368 -3.248 3.688 -0 -1.2 0
-3.36 -3.349 3.68 -0 -1.2 0
-3.364 -3.461 3.684 -0 -1.2 0
-3.366 -3.572 3.686 -0 -1.2 0
-3.354 -3.675 3.673 -0 -1.2 0
-3.348 -3.784 3.665 -0 -1.2 0
-3.346 -3.897 3.661 -0 -1.2 0
-3.347 -4.016 3.664 -0 -1.2 0
-3.347 -4.137 3.663 -0 -1.2 0
-3.345 -4.258 3.661 -0 -1.2 0
-3.342 -4.379 3.657 -0 -1.2 0
-3.342 -4.507 3.657 -0 -1.2 0
-3.335 -4.631 3.649 -0 -1.2 0
-3.336 -4.767 3.65 -0 -1.2 0
-3.331 -4.898 3.644 -0 -1.2 0
-3.329 -5.035 3.64 -0 -1.2 0
-3.323 -5.174 3.635 -0 -1.2 0
-3.322 -5.32 3.633 -0 -1.2 0
-3.313 -5.461 3.622 -0 -1.2 0
-3.312 -5.615 3.621 -0 -1.2 0
-3.303 -5.765 3.611 -0 -1.2 0
-3.301 -5.929 3.608 -0 -1.2 0
-3.293 -6.087 3.598 -0 -1.2 0
-3.286 -6.253 3.589 -0 -1.2 0
-3.263 -6.398 3.562 -0 -1.2 0
-0.751 -0.004 0.621 -0 -1.2 0
-0.776 -0.004 0.653 -0 -1.2 0
-0.796 -0.012 0.681 -0 -1.2 0
-0.831 -0.001 0.725 -0 -1.2 0
-0.857 -0.005 0.758 -0 -1.2 0
-0.888 -0.003 0.798 -0 -1.2 0
-0.914 -0.008 0.831 -0 -1.2 0
-0.945 -0.01 0.871 -0 -1.2 0
-0.977 -0.012 0.911 -0 -1.2 0
-1.008 -0.016 0.952 -0 -1.2 0
-1.051 -0.01 1.006 -0 -1.2 0
-1.083 -0.017 1.047 -0 -1.2 0
-1.126 -0.016 1.102 -0 -1.2 0
-1.169 -0.016 1.157 -0 -1.2 0
-1.224 -0.008 1.227 -0 -1.2 0
-1.256 -0.024 1.269 -0 -1.2 0
-1.311 -0.021 1.34 -0 -1.2 0
-1.372 -0.017 1.418 -0 -1.2 0
-1.422 -0.025 1.482 -0 -1.2 0
-1.495 -0.018 1.576 -0 -1.2 0
-1.557 -0.024 1.655 -0 -1.2 0
-1.631 -0.025 1.75 -0 -1.2 0
-1.711 -0.025 1.852 -0 -1.2 0
-1.785 -0.035 1.948 -0 -1.2 0
-1.878 -0.037 2.067 -0 -1.2 0
-1.983 -0.039 2.2 -0 -1.2 0
-2.087 -0.046 2.335 -0 -1.2 0
-2.21 -0.05 2.492 -0 -1.2 0
-2.352 -0.053 2.673 -0 -1.2 0
-2.505 -0.058 2.87 -0 -1.2 0
-2.672 -0.067 3.083 -0 -1.2 0
-2.862 -0.078 3.327 -0 -1.2 0
-3.09 -0.085 3.619 -0 -1.2 0
-3.366 -0.092 3.973 -0 -1.2 0
-3.364 -0.19 3.971 -0 -1.2 0
-3.361 -0.287 3.967 -0 -1.2 0
-3.363 -0.382 3.97 -0 -1.2 0
-3.358 -0.479 3.964 -0 -1.2 0
-3.351 -0.575 3.956 -0 -1.2 0
-3.356 -0.669 3.962 -0 -1.2 0
-3.354 -0.764 3.96 -0 -1.2 0
-3.357 -0.858 3.963 -0 -1.2 0
-3.359 -0.951 3.966 -0 -1.2 0
-3.36 -1.045 3.967 -0 -1.2 0
-3.354 -1.14 3.959 -0 -1.2 0
-3.353 -1.233 3.959 -0 -1.2 0
-3.351 -1.326 3.956 -0 -1.2 0
-3.347 -1.42 3.952 -0 -1.2 0
-3.35 -1.515 3.955 -0 -1.2 0
-3.35 -1.609 3.956 -0 -1.2 0
-3.344 -1.703 3.949 -0 -1.2 0
-3.349 -1.799 3.955 -0 -1.2 0
-3.347 -1.894 3.953 -0 -1.2 0
-3.307 -1.979 3.902 -0 -1.2 0
-3.279 -2.066 3.866 -0 -1.2 0
-3.328 -2.178 3.93 -0 -1.2 0
-3.376 -2.292 3.991 -0 -1.2 0
-3.375 -2.392 3.989 -0 -1.2 0
-3.384 -2.496 4.001 -0 -1.2 0
-3.375 -2.593 3.989 -0 -1.2 0
-3.375 -2.697 3.991 -0 -1.2 0
-3.369 -2.796 3.983 -0 -1.2 0
-3.367 -2.9 3.981 -0 -1.2 0
-3.37 -3.007 3.986 -0 -1.2 0
-3.367 -3.112 3.981 -0 -1.2 0
-3.372 -3.225 3.99 -0 -1.2 0
-3.361 -3.326 3.973 -0 -1.2 0
-3.359 -3.436 3.971 -0 -1.2 0
-3.361 -3.551 3.974 -0 -1.2 0
-3.356 -3.662 3.969 -0 -1.2 0
-3.35 -3.773 3.961 -0 -1.2 0
-3.348 -3.89 3.958 -0 -1.2 0
-3.349 -4.012 3.961 -0 -1.2 0
-3.35 -4.135 3.961 -0 -1.2 0
-3.348 -4.259 3.96 -0 -1.2 0
-3.345 -4.384 3.955 -0 -1.2 0
-3.345 -4.514 3.957 -0 -1.2 0
-3.344 -4.646 3.955 -0 -1.2 0
-3.341 -4.779 3.951 -0 -1.2 0
-3.335 -4.913 3.945 -0 -1.2 0
-3.338 -5.059 3.948 -0 -1.2 0
-3.333 -5.201 3.943 -0 -1.2 0
-3.328 -5.344 3.935 -0 -1.2 0
-3.324 -5.493 3.931 -0 -1.2 0
-3.323 -5.65 3.93 -0 -1.2 0
-3.315 -5.803 3.92 -0 -1.2 0
-3.318 -5.976 3.925 -0 -1.2 0
-3.309 -6.137 3.914 -0 -1.2 0
-3.307 -6.313 3.912 -0 -1.2 0
-3.306 -6.498 3.911 -0 -1.2 0
-3.298 -6.677 3.902 -0 -1.2 0
-0.722 0.002 0.668 -0 -1.2 0
-0.747 0.001 0.701 -0 -1.2 0
-0.771 0 0.734 -0 -1.2 0
-0.795 -0.001 0.769 -0 -1.2 0
-0.82 -0.005 0.802 -0 -1.2 0
-0.845 -0.009 0.836 -0 -1.2 0
-0.875 -0.008 0.877 -0 -1.2 0
-0.91 -0.003 0.925 -0 -1.2 0
-0.94 -0.006 0.966 -0 -1.2 0
-0.97 -0.01 1.008 -0 -1.2 0
-1.006 -0.01 1.056 -0 -1.2 0
-1.041 -0.012 1.106 -0 -1.2 0
-1.083 -0.01 1.162 -0 -1.2 0
-1.124 -0.011 1.219 -0 -1.2 0
-1.171 -0.008 1.283 -0 -1.2 0
-1.213 -0.014 1.341 -0 -1.2 0
-1.266 -0.011 1.413 -0 -1.2 0
-1.319 -0.011 1.486 -0 -1.2 0
-1.377 -0.011 1.567 -0 -1.2 0
-1.437 -0.013 1.647 -0 -1.2 0
-1.502 -0.014 1.737 -0 -1.2 0
-1.572 -0.016 1.834 -0 -1.2 0
-1.643 -0.021 1.931 -0 -1.2 0
-1.731 -0.019 2.052 -0 -1.2 0
-1.82 -0.023 2.174 -0 -1.2 0
-1.92 -0.024 2.311 -0 -1.2 0
-2.027 -0.028 2.456 -0 -1.2 0
-2.138 -0.036 2.61 -0 -1.2 0
-2.273 -0.039 2.797 -0 -1.2 0
-2.416 -0.048 2.991 -0 -1.2 0
-2.586 -0.052 3.225 -0 -1.2 0
-2.786 -0.057 3.499 -0 -1.2 0
-3.027 -0.058 3.83 -0 -1.2 0
-3.327 -0.055 4.241 -0 -1.2 0
-3.348 -0.149 4.271 -0 -1.2 0
-3.345 -0.25 4.269 -0 -1.2 0
-3.348 -0.349 4.272 -0 -1.2 0
-3.349 -0.448 4.273 -0 -1.2 0
-3.349 -0.547 4.274 -0 -1.2 0
-3.353 -0.646 4.281 -0 -1.2 0
-3.346 -0.745 4.27 -0 -1.2 0
-3.349 -0.842 4.276 -0 -1.2 0
-3.344 -0.941 4.27 -0 -1.2 0
-3.346 -1.039 4.272 -0 -1.2 0
-3.351 -1.137 4.28 -0 -1.2 0
-3.338 -1.234 4.262 -0 -1.2 0
-3.343 -1.331 4.268 -0 -1.2 0
-3.339 -1.429 4.265 -0 -1.2 0
-3.346 -1.529 4.275 -0 -1.2 0
-3.342 -1.626 4.269 -0 -1.2 0
-3.341 -1.725 4.268 -0 -1.2 0
-3.339 -1.824 4.267 -0 -1.2 0
-3.343 -1.925 4.272 -0 -1.2 0
-3.282 -2.008 4.188 -0 -1.2 0
-3.283 -2.108 4.19 -0 -1.2 0
-3.375 -2.239 4.319 -0 -1.2 0
-3.381 -2.344 4.325 -0 -1.2 0
-3.367 -2.443 4.307 -0 -1.2 0
-3.369 -2.549 4.311 -0 -1.2 0
-3.364 -2.653 4.305 -0 -1.2 0
-3.365 -2.76 4.306 -0 -1.2 0
-3.37 -2.87 4.313 -0 -1.2 0
-3.367 -2.978 4.31 -0 -1.2 0
-3.369 -3.09 4.314 -0 -1.2 0
-3.365 -3.199 4.308 -0 -1.2 0
-3.358 -3.308 4.3 -0 -1.2 0
-3.357 -3.422 4.299 -0 -1.2 0
-3.359 -3.539 4.302 -0 -1.2 0
-3.354 -3.654 4.296 -0 -1.2 0
-3.354 -3.774 4.296 -0 -1.2 0
-3.352 -3.894 4.294 -0 -1.2 0
-3.354 -4.019 4.298 -0 -1.2 0
-3.354 -4.146 4.298 -0 -1.2 0
-3.352 -4.273 4.297 -0 -1.2 0
-3.349 -4.401 4.293 -0 -1.2 0
-3.345 -4.531 4.287 -0 -1.2 0
-3.349 -4.671 4.293 -0 -1.2 0
-3.345 -4.807 4.29 -0 -1.2 0
-3.345 -4.95 4.29 -0 -1.2 0
-3.334 -5.082 4.275 -0 -1.2 0
-3.334 -5.233 4.276 -0 -1.2 0
-3.333 -5.385 4.275 -0 -1.2 0
-3.335 -5.544 4.277 -0 -1.2 0
-3.328 -5.698 4.27 -0 -1.2 0
-3.325 -5.86 4.266 -0 -1.2 0
-3.323 -6.03 4.266 -0 -1.2 0
-3.095 -5.851 3.95 -0 -1.2 0
-3.122 -6.064 3.988 -0 -1.2 0
-3.313 -6.561 4.253 -0 -1.2 0
-3.314 -6.757 4.255 -0 -1.2 0
-3.303 -6.941 4.242 -0 -1.2 0
-0.683 -0.003 0.705 -0 -1.2 0
-0.713 0.009 0.751 -0 -1.2 0
-0.732 0.002 0.779 -0 -1.2 0
-0.76 0.006 0.819 -0 -1.2 0
-0.78 -0.003 0.848 -0 -1.2 0
-0.807 -0.002 0.89 -0 -1.2 0
-0.831 -0.007 0.925 -0 -1.2 0
-0.869 0.003 0.98 -0 -1.2 0
-0.897 0.001 1.023 -0 -1.2 0
-0.927 -0.003 1.066 -0 -1.2 0
-0.961 -0.003 1.116 -0 -1.2 0
-0.994 -0.005 1.167 -0 -1.2 0
-1.034 -0.003 1.224 -0 -1.2 0
-1.074 -0.003 1.283 -0 -1.2 0
-1.113 -0.006 1.342 -0 -1.2 0
-1.163 -0.002 1.415 -0 -1.2 0
-1.208 -0.004 1.482 -0 -1.2 0
-1.259 -0.005 1.557 -0 -1.2 0
-1.319 0 1.646 -0 -1.2 0
-1.375 -0.002 1.73 -0 -1.2 0
-1.438 -0.004 1.821 -0 -1.2 0
-1.5 -0.009 1.914 -0 -1.2 0
-1.567 -0.014 2.013 -0 -1.2 0
-1.651 -0.012 2.137 -0 -1.2 0
-1.735 -0.015 2.261 -0 -1.2 0
-1.83 -0.017 2.402 -0 -1.2 0
-1.942 -0.015 2.568 -0 -1.2 0
-2.054 -0.021 2.734 -0 -1.2 0
-2.184 -0.025 2.925 -0 -1.2 0
-2.323 -0.031 3.132 -0 -1.2 0
-2.491 -0.034 3.38 -0 -1.2 0
-2.687 -0.036 3.669 -0 -1.2 0
-2.917 -0.038 4.009 -0 -1.2 0
-3.202 -0.035 4.43 -0 -1.2 0
-3.527 -0.038 4.911 -0 -1.2 0
-3.98 -0.028 5.58 -0 -1.2 0
-4.645 0.005 6.563 -0 -1.2 0
-5.656 0.07 8.059 -0 -1.2 0
-7.267 0.176 10.44 -0 -1.2 0
-8.407 0.113 12.125 -0 -1.2 0
-10.038 0.036 14.538 -0 -1.2 0
-10.153 -0.266 14.711 -0 -1.2 0
-10.148 -0.582 14.704 -0 -1.2 0
-10.155 -0.897 14.719 -0 -1.2 0
-10.143 -1.212 14.703 -0 -1.2 0
-10.139 -1.526 14.7 -0 -1.2 0
-10.138 -1.841 14.7 -0 -1.2 0
-10.134 -2.156 14.697 -0 -1.2 0
-10.171 -2.477 14.753 -0 -1.2 0
-10.171 -2.796 14.757 -0 -1.2 0
-10.169 -3.115 14.755 -0 -1.2 0
-10.069 -3.412 14.609 -0 -1.2 0
-3.255 -1.939 4.524 -0 -1.2 0
-3.246 -2.039 4.511 -0 -1.2 0
-10.627 -4.558 15.445 -0 -1.2 0
-10.953 -5.018 15.929 -0 -1.2 0
-11.3 -5.51 16.446 -0 -1.2 0
-11.689 -6.046 17.025 -0 -1.2 0
-12.119 -6.629 17.667 -0 -1.2 0
-12.564 -7.252 18.328 -0 -1.2 0
-12.999 -7.905 18.977 -0 -1.2 0
-13.5 -8.627 19.723 -0 -1.2 0
-2.946 -5.858 4.097 -0 -1.2 0
-2.879 -5.914 3.998 -0 -1.2 0
-2.796 -5.939 3.875 -0 -1.2 0
-0.652 0.004 0.75 -0 -1.2 0
-0.678 0.011 0.79 -0 -1.2 0
-0.696 0.003 0.819 -0 -1.2 0
-0.723 0.007 0.861 -0 -1.2 0
-0.745 0.004 0.896 -0 -1.2 0
-0.767 0 0.932 -0 -1.2 0
-0.795 0 0.975 -0 -1.2 0
-0.821 0 1.018 -0 -1.2 0
-0.849 -0.003 1.062 -0 -1.2 0
-0.885 0.004 1.119 -0 -1.2 0
-0.918 0.003 1.17 -0 -1.2 0
-0.949 0.002 1.222 -0 -1.2 0
-0.987 0.003 1.282 -0 -1.2 0
-1.025 0.003 1.341 -0 -1.2 0
-1.062 0 1.401 -0 -1.2 0
-1.11 0.004 1.476 -0 -1.2 0
-1.153 0.002 1.545 -0 -1.2 0
-1.201 0.001 1.621 -0 -1.2 0
-1.25 -0.001 1.698 -0 -1.2 0
-1.308 0 1.791 -0 -1.2 0
-1.372 0.002 1.892 -0 -1.2 0
-1.436 0.001 1.993 -0 -1.2 0
-1.5 -0.004 2.096 -0 -1.2 0
-1.575 -0.006 2.215 -0 -1.2 0
-1.655 -0.009 2.342 -0 -1.2 0
-1.755 -0.004 2.502 -0 -1.2 0
-1.852 -0.009 2.655 -0 -1.2 0
-1.969 -0.008 2.841 -0 -1.2 0
-2.091 -0.012 3.035 -0 -1.2 0
-2.241 -0.011 3.272 -0 -1.2 0
-2.395 -0.017 3.517 -0 -1.2 0
-2.576 -0.022 3.805 -0 -1.2 0
-2.799 -0.022 4.161 -0 -1.2 0
-3.087 -0.013 4.616 -0 -1.2 0
-3.401 -0.016 5.115 -0 -1.2 0
-3.874 0.006 5.867 -0 -1.2 0
-4.549 0.048 6.939 -0 -1.2 0
-5.527 0.114 8.492 -0 -1.2 0
-7.044 0.215 10.9 -0 -1.2 0
-8.164 0.157 12.68 -0 -1.2 0
-9.361 0.034 14.58 -0 -1.2 0
-9.368 -0.271 14.596 -0 -1.2 0
-9.41 -0.573 14.666 -0 -1.2 0
-9.412 -0.881 14.672 -0 -1.2 0
-9.385 -1.188 14.632 -0 -1.2 0
-9.413 -1.495 14.679 -0 -1.2 0
-9.406 -1.802 14.672 -0 -1.2 0
-9.402 -2.109 14.669 -0 -1.2 0
-9.405 -2.418 14.678 -0 -1.2 0
-9.411 -2.728 14.691 -0 -1.2 0
-9.404 -3.038 14.682 -0 -1.2 0
-9.351 -3.337 14.602 -0 -1.2 0
-9.217 -3.613 14.39 -0 -1.2 0
-9.505 -4.01 14.854 -0 -1.2 0
-9.774 -4.423 15.284 -0 -1.2 0
-10.089 -4.872 15.789 -0 -1.2 0
-10.409 -5.349 16.304 -0 -1.2 0
-10.745 -5.857 16.841 -0 -1.2 0
-11.099 -6.4 17.409 -0 -1.2 0
-11.466 -6.979 17.999 -0 -1.2 0
-11.892 -7.621 18.683 -0 -1.2 0
-12.381 -8.334 19.467 -0 -1.2 0
-12.744 -9.008 20.049 -0 -1.2 0
-2.749 -5.936 4.141 -0 -1.2 0
-2.665 -5.954 4.009 -0 -1.2 0
-0.619 0.011 0.796 -0 -1.2 0
-0.635 0.004 0.825 -0 -1.2 0
-0.66 0.01 0.867 -0 -1.2 0
-0.677 0.001 0.897 -0 -1.2 0
-0.702 0.004 0.94 -0 -1.2 0
-0.724 0 0.976 -0 -1.2 0
-0.757 0.013 1.033 -0 -1.2 0
-0.778 0.005 1.071 -0 -1.2 0
-0.8 -0.002 1.108 -0 -1.2 0
-0.831 -0.001 1.16 -0 -1.2 0
-0.865 0.004 1.22 -0 -1.2 0
-0.895 0.003 1.273 -0 -1.2 0
-0.931 0.004 1.333 -0 -1.2 0
-0.962 0 1.386 -0 -1.2 0
-1.002 0.001 1.455 -0 -1.2 0
-1.042 0 1.525 -0 -1.2 0
-1.083 0 1.595 -0 -1.2 0
-1.129 -0.001 1.672 -0 -1.2 0
-1.183 0.003 1.766 -0 -1.2 0
-1.238 0.005 1.862 -0 -1.2 0
-1.293 0.003 1.957 -0 -1.2 0
-1.35 0 2.053 -0 -1.2 0
-1.405 -0.009 2.149 -0 -1.2 0
-1.481 -0.007 2.279 -0 -1.2 0
-1.566 -0.003 2.424 -0 -1.2 0
-1.652 -0.005 2.571 -0 -1.2 0
-1.752 -0.003 2.744 -0 -1.2 0
-1.862 -0.002 2.934 -0 -1.2 0
-1.978 -0.006 3.133 -0 -1.2 0
-2.123 -0.002 3.383 -0 -1.2 0
-2.274 -0.006 3.642 -0 -1.2 0
-2.446 -0.011 3.936 -0 -1.2 0
-2.651 -0.013 4.29 -0 -1.2 0
-2.912 -0.009 4.74 -0 -1.2 0
-3.249 0.002 5.317 -0 -1.2 0
-3.705 0.027 6.102 -0 -1.2 0
-4.307 0.06 7.136 -0 -1.2 0
-5.271 0.137 8.792 -0 -1.2 0
-6.568 0.213 11.02 -0 -1.2 0
-7.68 0.169 12.933 -0 -1.2 0
-8.622 0.025 14.555 -0 -1.2 0
-8.624 -0.273 14.562 -0 -1.2 0
-8.663 -0.569 14.633 -0 -1.2 0
-8.665 -0.869 14.64 -0 -1.2 0
-8.654 -1.168 14.625 -0 -1.2 0
-8.654 -1.467 14.632 -0 -1.2 0
-8.653 -1.766 14.633 -0 -1.2 0
-8.654 -2.067 14.639 -0 -1.2 0
-8.648 -2.368 14.632 -0 -1.2 0
-8.649 -2.669 14.637 -0 -1.2 0
-8.647 -2.972 14.638 -0 -1.2 0
-8.637 -3.273 14.626 -0 -1.2 0
-8.431 -3.519 14.275 -0 -1.2 0
-8.684 -3.901 14.716 -0 -1.2 0
-8.938 -4.303 15.157 -0 -1.2 0
-9.177 -4.719 15.574 -0 -1.2 0
-9.47 -5.178 16.084 -0 -1.2 0
-9.778 -5.669 16.619 -0 -1.2 0
-10.098 -6.192 17.178 -0 -1.2 0
-10.432 -6.75 17.759 -0 -1.2 0
-10.783 -7.346 18.37 -0 -1.2 0
-11.178 -8.002 19.059 -0 -1.2 0
-11.646 -8.739 19.874 -0 -1.2 0
-0.583 0.011 0.831 -0 -1.2 0
-0.6 0.004 0.861 -0 -1.2 0
-0.626 0.016 0.91 -0 -1.2 0
-0.642 0.007 0.941 -0 -1.2 0
-0.662 0.004 0.978 -0 -1.2 0
-0.686 0.006 1.022 -0 -1.2 0
-0.71 0.006 1.066 -0 -1.2 0
-0.735 0.005 1.112 -0 -1.2 0
-0.758 0.003 1.157 -0 -1.2 0
-0.787 0.005 1.21 -0 -1.2 0
-0.816 0.005 1.263 -0 -1.2 0
-0.841 -0.002 1.309 -0 -1.2 0
-0.874 0 1.371 -0 -1.2 0
-0.907 0 1.433 -0 -1.2 0
-0.945 0.002 1.502 -0 -1.2 0
-0.983 0.001 1.573 -0 -1.2 0
-1.026 0.004 1.653 -0 -1.2 0
-1.068 0.003 1.732 -0 -1.2 0
-1.12 0.009 1.827 -0 -1.2 0
-1.168 0.006 1.916 -0 -1.2 0
-1.215 0.001 2.005 -0 -1.2 0
-1.273 0 2.111 -0 -1.2 0
-1.331 -0.005 2.218 -0 -1.2 0
-1.401 -0.003 2.349 -0 -1.2 0
-1.477 -0.002 2.489 -0 -1.2 0
-1.558 -0.004 2.64 -0 -1.2 0
-1.652 -0.002 2.815 -0 -1.2 0
-1.752 -0.004 3.001 -0 -1.2 0
-1.866 -0.005 3.211 -0 -1.2 0
-2.007 0.001 3.475 -0 -1.2 0
-2.145 -0.004 3.73 -0 -1.2 0
-2.321 -0.002 4.055 -0 -1.2 0
-2.529 0 4.442 -0 -1.2 0
-2.766 0 4.882 -0 -1.2 0
-3.093 0.014 5.487 -0 -1.2 0
-3.547 0.047 6.33 -0 -1.2 0
-4.102 0.075 7.358 -0 -1.2 0
-5.068 0.164 9.15 -0 -1.2 0
-6.211 0.221 11.269 -0 -1.2 0
-7.26 0.177 13.218 -0 -1.2 0
-7.998 0.012 14.589 -0 -1.2 0
-8.023 -0.278 14.639 -0 -1.2 0
-8.026 -0.572 14.651 -0 -1.2 0
-8.022 -0.866 14.649 -0 -1.2 0
-8.026 -1.16 14.66 -0 -1.2 0
-8.012 -1.454 14.641 -0 -1.2 0
-8.02 -1.748 14.66 -0 -1.2 0
-8.007 -2.042 14.64 -0 -1.2 0
-7.967 -2.331 14.571 -0 -1.2 0
-7.968 -2.627 14.578 -0 -1.2 0
-7.971 -2.923 14.589 -0 -1.2 0
-7.957 -3.216 14.568 -0 -1.2 0
-7.777 -3.459 14.238 -0 -1.2 0
-7.97 -3.818 14.6 -0 -1.2 0
-8.195 -4.207 15.025 -0 -1.2 0
-8.44 -4.623 15.486 -0 -1.2 0
-8.685 -5.059 15.948 -0 -1.2 0
-8.938 -5.523 16.426 -0 -1.2 0
-9.214 -6.02 16.946 -0 -1.2 0
-9.511 -6.555 17.507 -0 -1.2 0
-9.834 -7.134 18.115 -0 -1.2 0
-10.177 -7.755 18.762 -0 -1.2 0
-10.539 -8.424 19.445 -0 -1.2 0
-10.8 -9.051 19.939 -0 -1.2 0
-0.544 0.005 0.86 -0 -1.2 0
-0.566 0.012 0.903 -0 -1.2 0
-0.588 0.017 0.947 -0 -1.2 0
-0.603 0.008 0.978 -0 -1.2 0
-0.621 0.005 1.016 -0 -1.2 0
-0.643 0.007 1.061 -0 -1.2 0
-0.67 0.014 1.113 -0 -1.2 0
-0.689 0.006 1.152 -0 -1.2 0
-0.712 0.004 1.198 -0 -1.2 0
-0.735 0 1.244 -0 -1.2 0
-0.766 0.005 1.306 -0 -1.2 0
-0.789 -0.001 1.353 -0 -1.2 0
-0.824 0.005 1.423 -0 -1.2 0
-0.852 0 1.478 -0 -1.2 0
-0.887 0.003 1.549 -0 -1.2 0
-0.927 0.007 1.63 -0 -1.2 0
-0.967 0.009 1.71 -0 -1.2 0
-1.007 0.009 1.79 -0 -1.2 0
-1.055 0.014 1.888 -0 -1.2 0
-1.101 0.011 1.978 -0 -1.2 0
-1.145 0.005 2.068 -0 -1.2 0
-1.191 -0.003 2.16 -0 -1.2 0
-1.245 -0.007 2.268 -0 -1.2 0
-1.315 -0.002 2.411 -0 -1.2 0
-1.387 -0.001 2.553 -0 -1.2 0
-1.467 0 2.714 -0 -1.2 0
-1.555 0.001 2.893 -0 -1.2 0
-1.654 0.003 3.089 -0 -1.2 0
-1.765 0.004 3.312 -0 -1.2 0
-1.893 0.007 3.572 -0 -1.2 0
-2.036 0.009 3.858 -0 -1.2 0
-2.197 0.007 4.18 -0 -1.2 0
-2.397 0.013 4.583 -0 -1.2 0
-2.654 0.027 5.1 -0 -1.2 0
-2.979 0.046 5.752 -0 -1.2 0
-3.397 0.073 6.592 -0 -1.2 0
-3.945 0.107 7.691 -0 -1.2 0
-4.865 0.197 9.54 -0 -1.2 0
-5.917 0.246 11.651 -0 -1.2 0
-6.908 0.2 13.641 -0 -1.2 0
-7.328 -0.007 14.492 -0 -1.2 0
-7.36 -0.29 14.561 -0 -1.2 0
-7.38 -0.575 14.609 -0 -1.2 0
-7.381 -0.864 14.615 -0 -1.2 0
-7.379 -1.152 14.618 -0 -1.2 0
-7.375 -1.44 14.616 -0 -1.2 0
-7.387 -1.728 14.645 -0 -1.2 0
-7.347 -2.014 14.572 -0 -1.2 0
-7.395 -2.31 14.672 -0 -1.2 0
-7.439 -2.61 14.768 -0 -1.2 0
-7.376 -2.889 14.646 -0 -1.2 0
-7.314 -3.165 14.528 -0 -1.2 0
-7.149 -3.404 14.202 -0 -1.2 0
-7.312 -3.751 14.536 -0 -1.2 0
-7.519 -4.13 14.96 -0 -1.2 0
-7.728 -4.529 15.386 -0 -1.2 0
-7.919 -4.939 15.779 -0 -1.2 0
-8.187 -5.409 16.328 -0 -1.2 0
-8.425 -5.886 16.815 -0 -1.2 0
-8.675 -6.394 17.327 -0 -1.2 0
-8.962 -6.952 17.915 -0 -1.2 0
-9.264 -7.549 18.533 -0 -1.2 0
-9.608 -8.208 19.24 -0 -1.2 0
-9.921 -8.877 19.881 -0 -1.2 0
-0.505 0.005 0.896 -0 -1.2 0
-0.522 0.005 0.933 -0 -1.2 0
-0.542 0.011 0.977 -0 -1.2 0
-0.559 0.008 1.015 -0 -1.2 0
-0.58 0.011 1.061 -0 -1.2 0
-0.598 0.008 1.099 -0 -1.2 0
-0.616 0.002 1.138 -0 -1.2 0
-0.636 0.001 1.185 -0 -1.2 0
-0.657 0 1.231 -0 -1.2 0
-0.682 0 1.286 -0 -1.2 0
-0.704 -0.004 1.333 -0 -1.2 0
-0.733 0 1.396 -0 -1.2 0
-0.762 0 1.46 -0 -1.2 0
-0.787 -0.004 1.516 -0 -1.2 0
-0.82 0 1.588 -0 -1.2 0
-0.857 0.003 1.67 -0 -1.2 0
-0.893 0.006 1.751 -0 -1.2 0
-0.935 0.01 1.841 -0 -1.2 0
-0.972 0.006 1.924 -0 -1.2 0
-1.014 0.004 2.016 -0 -1.2 0
-1.06 0.003 2.116 -0 -1.2 0
-1.105 -0.001 2.217 -0 -1.2 0
-1.159 -0.002 2.335 -0 -1.2 0
-1.214 -0.007 2.454 -0 -1.2 0
-1.28 -0.006 2.601 -0 -1.2 0
-1.35 -0.007 2.755 -0 -1.2 0
-1.433 -0.005 2.936 -0 -1.2 0
-1.524 -0.004 3.136 -0 -1.2 0
-1.631 0.001 3.371 -0 -1.2 0
-1.743 0 3.618 -0 -1.2 0
-1.875 0.001 3.908 -0 -1.2 0
-2.028 0.003 4.245 -0 -1.2 0
-2.21 0.007 4.645 -0 -1.2 0
-2.449 0.022 5.171 -0 -1.2 0
-2.763 0.048 5.86 -0 -1.2 0
-3.139 0.071 6.687 -0 -1.2 0
-3.623 0.098 7.751 -0 -1.2 0
-4.437 0.179 9.54 -0 -1.2 0
-5.377 0.222 11.605 -0 -1.2 0
-6.317 0.188 13.674 -0 -1.2 0
-6.65 -0.023 14.411 -0 -1.2 0
-6.671 -0.302 14.463 -0 -1.2 0
-6.681 -0.58 14.493 -0 -1.2 0
-6.673 -0.862 14.482 -0 -1.2 0
-6.675 -1.142 14.494 -0 -1.2 0
-6.671 -1.422 14.492 -0 -1.2 0
-6.674 -1.703 14.504 -0 -1.2 0
-6.67 -1.985 14.502 -0 -1.2 0
-6.668 -2.267 14.505 -0 -1.2 0
-6.668 -2.55 14.513 -0 -1.2 0
-6.666 -2.834 14.516 -0 -1.2 0
-6.663 -3.118 14.515 -0 -1.2 0
-6.559 -3.369 14.292 -0 -1.2 0
-6.584 -3.662 14.354 -0 -1.2 0
-6.768 -4.03 14.769 -0 -1.2 0
-6.95 -4.414 15.177 -0 -1.2 0
-7.156 -4.829 15.64 -0 -1.2 0
-7.377 -5.274 16.139 -0 -1.2 0
-7.595 -5.739 16.627 -0 -1.2 0
-7.819 -6.233 17.133 -0 -1.2 0
-8.057 -6.76 17.672 -0 -1.2 0
-8.335 -7.343 18.294 -0 -1.2 0
-8.613 -7.957 18.921 -0 -1.2 0
-8.962 -8.661 19.707 -0 -1.2 0
-0.469 0.006 0.928 -0 -1.2 0
-0.484 0.006 0.966 -0 -1.2 0
-0.5 0.005 1.004 -0 -1.2 0
-0.516 0.003 1.042 -0 -1.2 0
-0.533 0 1.081 -0 -1.2 0
-0.555 0.008 1.135 -0 -1.2 0
-0.571 0.002 1.174 -0 -1.2 0
-0.591 0.001 1.221 -0 -1.2 0
-0.611 0 1.268 -0 -1.2 0
-0.631 -0.004 1.316 -0 -1.2 0
-0.654 -0.003 1.373 -0 -1.2 0
-0.677 -0.005 1.429 -0 -1.2 0
-0.7 -0.008 1.486 -0 -1.2 0
-0.73 -0.003 1.558 -0 -1.2 0
-0.758 -0.005 1.624 -0 -1.2 0
-0.789 -0.005 1.697 -0 -1.2 0
-0.823 -0.002 1.78 -0 -1.2 0
-0.858 -0.001 1.863 -0 -1.2 0
-0.893 -0.005 1.947 -0 -1.2 0
-0.935 -0.002 2.048 -0 -1.2 0
-0.977 -0.003 2.149 -0 -1.2 0
-1.016 -0.012 2.243 -0 -1.2 0
-1.062 -0.015 2.355 -0 -1.2 0
-1.116 -0.016 2.484 -0 -1.2 0
-1.174 -0.018 2.622 -0 -1.2 0
-1.236 -0.022 2.77 -0 -1.2 0
-1.308 -0.022 2.945 -0 -1.2 0
-1.396 -0.016 3.157 -0 -1.2 0
-1.492 -0.013 3.387 -0 -1.2 0
-1.592 -0.015 3.627 -0 -1.2 0
-1.706 -0.017 3.903 -0 -1.2 0
-1.856 -0.009 4.262 -0 -1.2 0
-2.014 -0.01 4.641 -0 -1.2 0
-2.243 0.01 5.192 -0 -1.2 0
-2.504 0.024 5.818 -0 -1.2 0
-2.849 0.049 6.647 -0 -1.2 0
-3.272 0.069 7.662 -0 -1.2 0
-3.951 0.132 9.292 -0 -1.2 0
-4.781 0.173 11.285 -0 -1.2 0
-5.638 0.146 13.346 -0 -1.2 0
-6.062 -0.035 14.368 -0 -1.2 0
-6.069 -0.309 14.394 -0 -1.2 0
-6.093 -0.581 14.461 -0 -1.2 0
-6.085 -0.857 14.45 -0 -1.2 0
-6.083 -1.133 14.453 -0 -1.2 0
-6.079 -1.408 14.451 -0 -1.2 0
-6.081 -1.683 14.463 -0 -1.2 0
-6.077 -1.96 14.462 -0 -1.2 0
-6.075 -2.237 14.466 -0 -1.2 0
-6.071 -2.514 14.465 -0 -1.2 0
-6.069 -2.792 14.468 -0 -1.2 0
-6.066 -3.072 14.467 -0 -1.2 0
-6.037 -3.343 14.407 -0 -1.2 0
-5.935 -3.582 14.169 -0 -1.2 0
-6.11 -3.943 14.601 -0 -1.2 0
-6.271 -4.316 14.998 -0 -1.2 0
-6.447 -4.714 15.433 -0 -1.2 0
-6.631 -5.137 15.887 -0 -1.2 0
-6.822 -5.585 16.358 -0 -1.2 0
-7.023 -6.063 16.856 -0 -1.2 0
-7.231 -6.569 17.369 -0 -1.2 0
-7.455 -7.114 17.925 -0 -1.2 0
-7.704 -7.705 18.538 -0 -1.2 0
-7.978 -8.352 19.216 -0 -1.2 0
-8.21 -8.991 19.793 -0 -1.2 0
-0.432 0.006 0.959 -0 -1.2 0
-0.447 0.007 0.997 -0 -1.2 0
-0.458 0 1.029 -0 -1.2 0
-0.475 0.004 1.075 -0 -1.2 0
-0.49 0 1.114 -0 -1.2 0
-0.508 0.002 1.161 -0 -1.2 0
-0.523 -0.002 1.201 -0 -1.2 0
-0.541 -0.003 1.248 -0 -1.2 0
-0.559 -0.005 1.296 -0 -1.2 0
-0.58 -0.003 1.352 -0 -1.2 0
-0.599 -0.008 1.401 -0 -1.2 0
-0.623 -0.004 1.466 -0 -1.2 0
-0.645 -0.007 1.523 -0 -1.2 0
-0.67 -0.007 1.589 -0 -1.2 0
-0.701 0.001 1.671 -0 -1.2 0
-0.723 -0.009 1.729 -0 -1.2 0
-0.755 -0.005 1.813 -0 -1.2 0
-0.787 -0.005 1.897 -0 -1.2 0
-0.822 -0.004 1.99 -0 -1.2 0
-0.858 -0.005 2.084 -0 -1.2 0
-0.894 -0.01 2.179 -0 -1.2 0
-0.936 -0.01 2.291 -0 -1.2 0
-0.979 -0.013 2.404 -0 -1.2 0
-1.025 -0.018 2.526 -0 -1.2 0
-1.074 -0.024 2.657 -0 -1.2 0
-1.134 -0.023 2.816 -0 -1.2 0
-1.195 -0.029 2.975 -0 -1.2 0
-1.279 -0.02 3.198 -0 -1.2 0
-1.361 -0.021 3.413 -0 -1.2 0
-1.453 -0.023 3.656 -0 -1.2 0
-1.562 -0.022 3.946 -0 -1.2 0
-1.69 -0.019 4.281 -0 -1.2 0
-1.845 -0.014 4.692 -0 -1.2 0
-2.06 0.01 5.26 -0 -1.2 0
-2.297 0.023 5.885 -0 -1.2 0
-2.584 0.034 6.641 -0 -1.2 0
-2.966 0.055 7.65 -0 -1.2 0
-3.539 0.103 9.162 -0 -1.2 0
-4.289 0.147 11.142 -0 -1.2 0
-5.076 0.125 13.221 -0 -1.2 0
-5.495 -0.043 14.331 -0 -1.2 0
-5.501 -0.313 14.356 -0 -1.2 0
-5.519 -0.581 14.415 -0 -1.2 0
-5.511 -0.852 14.404 -0 -1.2 0
-5.509 -1.124 14.406 -0 -1.2 0
-5.508 -1.394 14.415 -0 -1.2 0
-5.51 -1.665 14.427 -0 -1.2 0
-5.509 -1.937 14.435 -0 -1.2 0
-5.493 -2.206 14.401 -0 -1.2 0
-5.594 -2.506 14.68 -0 -1.2 0
-6.736 -3.131 17.718 -0 -1.2 0
-5.501 -3.034 14.452 -0 -1.2 0
-5.489 -3.306 14.428 -0 -1.2 0
-5.346 -3.519 14.058 -0 -1.2 0
-5.49 -3.866 14.451 -0 -1.2 0
-5.624 -4.223 14.818 -0 -1.2 0
-5.776 -4.608 15.233 -0 -1.2 0
-5.931 -5.013 15.658 -0 -1.2 0
-6.094 -5.444 16.101 -0 -1.2 0
-6.266 -5.901 16.572 -0 -1.2 0
-6.467 -6.406 17.121 -0 -1.2 0
-6.671 -6.937 17.678 -0 -1.2 0
-6.887 -7.507 18.266 -0 -1.2 0
-7.11 -8.114 18.878 -0 -1.2 0
-7.361 -8.779 19.562 -0 -1.2 0
-7.12 -10.205 18.977 -0 -1.2 0
-8.592 -13.699 22.982 -0 -1.2 0
-7.483 -13.557 20.051 -0 -1.2 0
-7.416 -13.957 19.887 -0 -1.2 0
-0.391 0.007 0.991 -0 -1.2 0
-0.402 0 1.022 -0 -1.2 0
-0.415 0 1.062 -0 -1.2 0
-0.431 0.005 1.109 -0 -1.2 0
-0.444 0.001 1.148 -0 -1.2 0
-0.461 0.003 1.196 -0 -1.2 0
-0.474 -0.001 1.236 -0 -1.2 0
-0.491 -0.002 1.284 -0 -1.2 0
-0.51 0.001 1.341 -0 -1.2 0
-0.526 -0.002 1.389 -0 -1.2 0
-0.543 -0.007 1.438 -0 -1.2 0
-0.562 -0.008 1.496 -0 -1.2 0
-0.585 -0.006 1.562 -0 -1.2 0
-0.61 -0.001 1.636 -0 -1.2 0
-0.633 -0.003 1.704 -0 -1.2 0
-0.658 -0.002 1.779 -0 -1.2 0
-0.681 -0.009 1.847 -0 -1.2 0
-0.713 -0.004 1.941 -0 -1.2 0
-0.745 -0.002 2.035 -0 -1.2 0
-0.777 -0.003 2.13 -0 -1.2 0
-0.813 -0.004 2.235 -0 -1.2 0
-0.845 -0.012 2.331 -0 -1.2 0
-0.884 -0.015 2.445 -0 -1.2 0
-0.926 -0.02 2.569 -0 -1.2 0
-0.974 -0.022 2.711 -0 -1.2 0
-1.028 -0.021 2.871 -0 -1.2 0
-1.077 -0.033 3.015 -0 -1.2 0
-1.15 -0.026 3.231 -0 -1.2 0
-1.227 -0.024 3.458 -0 -1.2 0
-1.307 -0.028 3.695 -0 -1.2 0
-1.404 -0.029 3.978 -0 -1.2 0
-1.529 -0.019 4.346 -0 -1.2 0
-1.67 -0.012 4.761 -0 -1.2 0
-1.865 0.012 5.337 -0 -1.2 0
-2.074 0.022 5.951 -0 -1.2 0
-2.331 0.033 6.707 -0 -1.2 0
-2.655 0.045 7.663 -0 -1.2 0
-3.137 0.082 9.081 -0 -1.2 0
-3.837 0.137 11.143 -0 -1.2 0
-4.577 0.127 13.323 -0 -1.2 0
-4.901 -0.051 14.286 -0 -1.2 0
-4.915 -0.314 14.34 -0 -1.2 0
-4.932 -0.578 14.399 -0 -1.2 0
-4.924 -0.846 14.388 -0 -1.2 0
-4.924 -1.112 14.4 -0 -1.2 0
-4.923 -1.379 14.409 -0 -1.2 0
-4.918 -1.646 14.403 -0 -1.2 0
-4.917 -1.914 14.411 -0 -1.2 0
-4.892 -2.177 14.35 -0 -1.2 0
-4.984 -2.472 14.633 -0 -1.2 0
-4.985 -2.747 14.646 -0 -1.2 0
-4.946 -3.008 14.543 -0 -1.2 0
-4.899 -3.263 14.416 -0 -1.2 0
-4.786 -3.481 14.09 -0 -1.2 0
-4.859 -3.792 14.319 -0 -1.2 0
-4.99 -4.149 14.721 -0 -1.2 0
-5.097 -4.507 15.049 -0 -1.2 0
-5.247 -4.912 15.509 -0 -1.2 0
-5.409 -5.346 16.005 -0 -1.2 0
-5.541 -5.777 16.41 -0 -1.2 0
-5.718 -6.268 16.951 -0 -1.2 0
-5.896 -6.787 17.499 -0 -1.2 0
-6.079 -7.336 18.061 -0 -1.2 0
-6.255 -7.904 18.602 -0 -1.2 0
-6.434 -8.504 19.157 -0 -1.2 0
-7.052 -12.522 21.143 -0 -1.2 0
-6.138 -12.864 18.465 -0 -1.2 0
-6.566 -14.727 19.803 -0 -1.2 0
-0.352 0 1.013 -0 -1.2 0
-0.363 0 1.052 -0 -1.2 0
-0.375 0 1.092 -0 -1.2 0
-0.39 0.005 1.139 -0 -1.2 0
-0.4 -0.004 1.172 -0 -1.2 0
-0.412 -0.008 1.212 -0 -1.2 0
-0.426 -0.008 1.26 -0 -1.2 0
-0.443 -0.002 1.316 -0 -1.2 0
-0.46 0.001 1.373 -0 -1.2 0
-0.475 -0.002 1.423 -0 -1.2 0
-0.491 -0.007 1.473 -0 -1.2 0
-0.508 -0.008 1.531 -0 -1.2 0
-0.529 -0.006 1.597 -0 -1.2 0
-0.55 -0.005 1.665 -0 -1.2 0
-0.572 -0.003 1.74 -0 -1.2 0
-0.593 -0.007 1.809 -0 -1.2 0
-0.616 -0.008 1.886 -0 -1.2 0
-0.642 -0.008 1.972 -0 -1.2 0
-0.669 -0.011 2.059 -0 -1.2 0
-0.7 -0.008 2.163 -0 -1.2 0
-0.732 -0.007 2.269 -0 -1.2 0
-0.761 -0.015 2.366 -0 -1.2 0
-0.796 -0.018 2.481 -0 -1.2 0
-0.834 -0.023 2.606 -0 -1.2 0
-0.878 -0.023 2.75 -0 -1.2 0
-0.922 -0.03 2.893 -0 -1.2 0
-0.971 -0.035 3.056 -0 -1.2 0
-1.035 -0.031 3.265 -0 -1.2 0
-1.098 -0.034 3.476 -0 -1.2 0
-1.171 -0.036 3.715 -0 -1.2 0
-1.264 -0.031 4.02 -0 -1.2 0
-1.374 -0.023 4.382 -0 -1.2 0
-1.507 -0.011 4.821 -0 -1.2 0
-1.677 0.008 5.384 -0 -1.2 0
-1.86 0.016 5.985 -0 -1.2 0
-2.072 0.018 6.683 -0 -1.2 0
-2.365 0.033 7.648 -0 -1.2 0
-2.79 0.069 9.044 -0 -1.2 0
-3.332 0.096 10.832 -0 -1.2 0
-4.044 0.108 13.175 -0 -1.2 0
-4.375 -0.054 14.273 -0 -1.2 0
-4.376 -0.316 14.29 -0 -1.2 0
-4.39 -0.576 14.349 -0 -1.2 0
-4.385 -0.84 14.347 -0 -1.2 0
-4.382 -1.102 14.351 -0 -1.2 0
-4.381 -1.365 14.359 -0 -1.2 0
-4.378 -1.628 14.363 -0 -1.2 0
-4.374 -1.891 14.362 -0 -1.2 0
-4.36 -2.153 14.329 -0 -1.2 0
-4.376 -2.424 14.395 -0 -1.2 0
-4.374 -2.69 14.401 -0 -1.2 0
-4.365 -2.954 14.383 -0 -1.2 0
-4.362 -3.223 14.389 -0 -1.2 0
-4.287 -3.454 14.153 -0 -1.2 0
-4.291 -3.725 14.179 -0 -1.2 0
-4.4 -4.07 14.557 -0 -1.2 0
-4.499 -4.424 14.899 -0 -1.2 0
-4.621 -4.811 15.318 -0 -1.2 0
-4.768 -5.238 15.823 -0 -1.2 0
-4.899 -5.675 16.28 -0 -1.2 0
-5.023 -6.124 16.708 -0 -1.2 0
-5.16 -6.607 17.182 -0 -1.2 0
-5.265 -7.078 17.554 -0 -1.2 0
-7.744 -10.433 25.887 -0 -1.2 0
-7.539 -10.712 25.224 -0 -1.2 0
-7.607 -11.34 25.483 -0 -1.2 0
-6.327 -11.003 21.245 -0 -1.2 0
-6.391 -11.589 21.485 -0 -1.2 0
-6.358 -12.023 21.395 -0 -1.2 0
-6.222 -12.28 20.964 -0 -1.2 0
-6.16 -12.661 20.775 -0 -1.2 0
-6.238 -13.32 21.066 -0 -1.2 0
-5.404 -13.072 18.307 -0 -1.2 0
-5.622 -14.059 19.071 -0 -1.2 0
-5.8 -15.003 19.704 -0 -1.2 0
-0.315 0.001 1.039 -0 -1.2 0
-0.327 0.009 1.086 -0 -1.2 0
-0.336 0.001 1.119 -0 -1.2 0
-0.349 0.006 1.166 -0 -1.2 0
-0.358 -0.002 1.2 -0 -1.2 0
-0.369 -0.006 1.24 -0 -1.2 0
-0.384 0 1.296 -0 -1.2 0
-0.395 -0.006 1.338 -0 -1.2 0
-0.41 -0.002 1.395 -0 -1.2 0
-0.426 0 1.453 -0 -1.2 0
-0.437 -0.01 1.495 -0 -1.2 0
-0.455 -0.006 1.562 -0 -1.2 0
-0.469 -0.013 1.613 -0 -1.2 0
-0.489 -0.008 1.689 -0 -1.2 0
-0.509 -0.005 1.765 -0 -1.2 0
-0.528 -0.009 1.834 -0 -1.2 0
-0.552 -0.006 1.92 -0 -1.2 0
-0.573 -0.009 1.999 -0 -1.2 0
-0.599 -0.008 2.095 -0 -1.2 0
-0.625 -0.008 2.191 -0 -1.2 0
-0.653 -0.008 2.298 -0 -1.2 0
-0.677 -0.02 2.387 -0 -1.2 0
-0.708 -0.023 2.503 -0 -1.2 0
-0.742 -0.026 2.629 -0 -1.2 0
-0.781 -0.026 2.774 -0 -1.2 0
-0.82 -0.033 2.919 -0 -1.2 0
-0.867 -0.034 3.092 -0 -1.2 0
-0.914 -0.041 3.266 -0 -1.2 0
-0.971 -0.043 3.479 -0 -1.2 0
-1.038 -0.042 3.729 -0 -1.2 0
-1.108 -0.047 3.99 -0 -1.2 0
-1.207 -0.037 4.355 -0 -1.2 0
-1.334 -0.017 4.825 -0 -1.2 0
-1.492 0.009 5.412 -0 -1.2 0
-1.633 0.003 5.933 -0 -1.2 0
-1.809 0 6.589 -0 -1.2 0
-2.051 0.009 7.486 -0 -1.2 0
-2.407 0.039 8.807 -0 -1.2 0
-2.87 0.065 10.524 -0 -1.2 0
-3.515 0.092 12.918 -0 -1.2 0
-3.874 -0.045 14.256 -0 -1.2 0
-3.866 -0.306 14.244 -0 -1.2 0
-3.881 -0.562 14.314 -0 -1.2 0
-3.879 -0.822 14.322 -0 -1.2 0
-3.873 -1.082 14.316 -0 -1.2 0
-3.869 -1.341 14.315 -0 -1.2 0
-3.866 -1.6 14.319 -0 -1.2 0
-3.864 -1.861 14.329 -0 -1.2 0
-3.859 -2.121 14.325 -0 -1.2 0
-3.857 -2.383 14.335 -0 -1.2 0
-3.855 -2.646 14.34 -0 -1.2 0
-3.851 -2.909 14.342 -0 -1.2 0
-3.849 -3.175 14.349 -0 -1.2 0
-3.822 -3.427 14.265 -0 -1.2 0
-3.74 -3.64 13.977 -0 -1.2 0
-3.853 -3.99 14.417 -0 -1.2 0
-3.936 -4.334 14.745 -0 -1.2 0
-4.037 -4.708 15.142 -0 -1.2 0
-4.158 -5.119 15.614 -0 -1.2 0
-4.249 -5.52 15.975 -0 -1.2 0
-4.352 -5.951 16.382 -0 -1.2 0
-5.932 -10.496 22.52 -0 -1.2 0
-5.442 -14.617 20.945 -0 -1.2 0
-0.274 0.003 1.067 -0 -1.2 0
-0.284 0.003 1.107 -0 -1.2 0
-0.293 0.003 1.147 -0 -1.2 0
-0.302 0.001 1.188 -0 -1.2 0
-0.312 -0.001 1.229 -0 -1.2 0
-0.321 -0.004 1.27 -0 -1.2 0
-0.336 0.002 1.327 -0 -1.2 0
-0.347 0.001 1.376 -0 -1.2 0
-0.359 0 1.426 -0 -1.2 0
-0.367 -0.014 1.461 -0 -1.2 0
-0.38 -0.013 1.519 -0 -1.2 0
-0.396 -0.009 1.586 -0 -1.2 0
-0.412 -0.006 1.654 -0 -1.2 0
-0.425 -0.011 1.714 -0 -1.2 0
-0.445 -0.002 1.799 -0 -1.2 0
-0.461 -0.006 1.869 -0 -1.2 0
-0.48 -0.008 1.947 -0 -1.2 0
-0.498 -0.011 2.026 -0 -1.2 0
-0.518 -0.013 2.114 -0 -1.2 0
-0.544 -0.009 2.22 -0 -1.2 0
-0.565 -0.017 2.31 -0 -1.2 0
-0.59 -0.02 2.417 -0 -1.2 0
-0.615 -0.026 2.526 -0 -1.2 0
-0.647 -0.025 2.661 -0 -1.2 0
-0.683 -0.022 2.816 -0 -1.2 0
-0.715 -0.031 2.954 -0 -1.2 0
-0.753 -0.034 3.12 -0 -1.2 0
-0.796 -0.038 3.304 -0 -1.2 0
-0.841 -0.045 3.499 -0 -1.2 0
-0.899 -0.046 3.742 -0 -1.2 0
-0.958 -0.053 3.996 -0 -1.2 0
-1.034 -0.051 4.326 -0 -1.2 0
-1.143 -0.03 4.79 -0 -1.2 0
-1.248 -0.03 5.237 -0 -1.2 0
-1.402 -0.006 5.897 -0 -1.2 0
-1.548 -0.012 6.52 -0 -1.2 0
-1.748 -0.007 7.376 -0 -1.2 0
-2.05 0.023 8.669 -0 -1.2 0
-2.431 0.045 10.294 -0 -1.2 0
-2.931 0.056 12.436 -0 -1.2 0
-3.346 -0.035 14.222 -0 -1.2 0
-3.344 -0.291 14.229 -0 -1.2 0
-3.356 -0.545 14.299 -0 -1.2 0
-3.349 -0.802 14.288 -0 -1.2 0
-3.345 -1.059 14.292 -0 -1.2 0
-3.343 -1.315 14.301 -0 -1.2 0
-3.338 -1.571 14.296 -0 -1.2 0
-3.333 -1.829 14.296 -0 -1.2 0
-3.328 -2.086 14.293 -0 -1.2 0
-3.324 -2.344 14.294 -0 -1.2 0
-3.321 -2.604 14.301 -0 -1.2 0
-3.316 -2.864 14.303 -0 -1.2 0
-3.314 -3.125 14.311 -0 -1.2 0
-3.305 -3.385 14.294 -0 -1.2 0
-3.215 -3.581 13.918 -0 -1.2 0
-3.288 -3.906 14.257 -0 -1.2 0
-3.365 -4.248 14.609 -0 -1.2 0
-3.436 -4.601 14.944 -0 -1.2 0
-3.504 -4.964 15.262 -0 -1.2 0
-5.631 -10.79 24.794 -0 -1.2 0
-5.351 -11.838 23.673 -0 -1.2 0
-4.64 -10.87 20.558 -0 -1.2 0
-4.508 -11.045 20.004 -0 -1.2 0
-4.363 -11.176 19.398 -0 -1.2 0
-0.237 0.004 1.092 -0 -1.2 0
-0.245 0.005 1.132 -0 -1.2 0
-0.253 0.004 1.173 -0 -1.2 0
-0.263 0.01 1.221 -0 -1.2 0
-0.268 -0.006 1.248 -0 -1.2 0
-0.278 -0.002 1.296 -0 -1.2 0
-0.288 -0.002 1.346 -0 -1.2 0
-0.296 -0.008 1.388 -0 -1.2 0
-0.308 -0.003 1.446 -0 -1.2 0
-0.319 -0.001 1.504 -0 -1.2 0
-0.328 -0.011 1.547 -0 -1.2 0
-0.344 -0.001 1.623 -0 -1.2 0
-0.354 -0.009 1.675 -0 -1.2 0
-0.368 -0.009 1.743 -0 -1.2 0
-0.385 0 1.829 -0 -1.2 0
-0.399 -0.004 1.899 -0 -1.2 0
-0.413 -0.009 1.969 -0 -1.2 0
-0.431 -0.008 2.057 -0 -1.2 0
-0.449 -0.01 2.146 -0 -1.2 0
-0.47 -0.005 2.253 -0 -1.2 0
-0.486 -0.018 2.334 -0 -1.2 0
-0.511 -0.012 2.46 -0 -1.2 0
-0.533 -0.019 2.569 -0 -1.2 0
-0.56 -0.022 2.697 -0 -1.2 0
-0.587 -0.025 2.835 -0 -1.2 0
-0.62 -0.024 3.001 -0 -1.2 0
-0.653 -0.027 3.168 -0 -1.2 0
-0.691 -0.03 3.354 -0 -1.2 0
-0.732 -0.034 3.56 -0 -1.2 0
-0.78 -0.038 3.795 -0 -1.2 0
-0.831 -0.045 4.05 -0 -1.2 0
-0.895 -0.044 4.373 -0 -1.2 0
-0.986 -0.026 4.821 -0 -1.2 0
-1.073 -0.029 5.252 -0 -1.2 0
-1.204 -0.006 5.906 -0 -1.2 0
-1.336 -0.006 6.563 -0 -1.2 0
-1.511 0.002 7.435 -0 -1.2 0
-1.767 0.032 8.707 -0 -1.2 0
-2.089 0.052 10.304 -0 -1.2 0
-2.518 0.066 12.44 -0 -1.2 0
-2.867 -0.024 14.19 -0 -1.2 0
-2.86 -0.279 14.177 -0 -1.2 0
-2.887 -0.526 14.337 -0 -1.2 0
-2.875 -0.782 14.297 -0 -1.2 0
-2.869 -1.037 14.29 -0 -1.2 0
-2.865 -1.291 14.291 -0 -1.2 0
-2.859 -1.545 14.285 -0 -1.2 0
-2.855 -1.8 14.287 -0 -1.2 0
-2.85 -2.055 14.283 -0 -1.2 0
-2.846 -2.312 14.295 -0 -1.2 0
-2.841 -2.568 14.292 -0 -1.2 0
-2.836 -2.825 14.285 -0 -1.2 0
-2.831 -3.083 14.284 -0 -1.2 0
-2.825 -3.342 14.277 -0 -1.2 0
-2.751 -3.541 13.928 -0 -1.2 0
-2.778 -3.828 14.087 -0 -1.2 0
-2.953 -4.283 15 -0 -1.2 0
-3.811 -5.576 19.394 -0 -1.2 0
-4.968 -7.909 25.362 -0 -1.2 0
-4.99 -8.438 25.516 -0 -1.2 0
-4.935 -8.86 25.285 -0 -1.2 0
-4.678 -10.425 24.148 -0 -1.2 0
-4.631 -10.839 23.95 -0 -1.2 0
-3.901 -13.56 20.561 -0 -1.2 0
-3.829 -13.85 20.228 -0 -1.2 0
-0.2 0 1.109 -0 -1.2 0
-0.209 0.013 1.164 -0 -1.2 0
-0.215 0.006 1.197 -0 -1.2 0
-0.222 0.004 1.238 -0 -1.2 0
-0.23 0.008 1.287 -0 -1.2 0
-0.235 -0.001 1.321 -0 -1.2 0
-0.245 0.006 1.379 -0 -1.2 0
-0.253 0.005 1.429 -0 -1.2 0
