# .PCD v.7 - Point Cloud Data file format
FIELDS x y z vp_x vp_y vp_z
SIZE 4 4 4 4 4 4
TYPE F F F F F F
COUNT 1 1 1 1 1 1
WIDTH 1678
HEIGHT 1
VIEWPOINT 0 -1.20013 0 1 0 0 0
POINTS 1678
DATA ascii
-3.116 -2.083 10.151 -0 -1.2 0
-3.114 -2.269 10.153 -0 -1.2 0
-3.11 -2.454 10.152 -0 -1.2 0
-3.105 -2.64 10.147 -0 -1.2 0
-3.103 -2.828 10.149 -0 -1.2 0
-3.099 -3.016 10.148 -0 -1.2 0
-3.097 -3.207 10.153 -0 -1.2 0
-3.092 -3.396 10.145 -0 -1.2 0
-3.084 -3.586 10.135 -0 -1.2 0
-3.08 -3.778 10.13 -0 -1.2 0
-3.079 -3.977 10.14 -0 -1.2 0
-3.078 -4.176 10.147 -0 -1.2 0
-3.072 -4.374 10.14 -0 -1.2 0
-3.063 -4.568 10.121 -0 -1.2 0
-3.066 -4.78 10.145 -0 -1.2 0
-3.061 -4.983 10.136 -0 -1.2 0
-3.056 -5.191 10.133 -0 -1.2 0
-3.05 -5.4 10.127 -0 -1.2 0
-3.046 -5.613 10.125 -0 -1.2 0
-3.04 -5.828 10.119 -0 -1.2 0
-3.036 -6.048 10.117 -0 -1.2 0
-3.032 -6.274 10.12 -0 -1.2 0
-3.028 -6.501 10.118 -0 -1.2 0
-3.022 -6.73 10.112 -0 -1.2 0
-3.017 -6.966 10.109 -0 -1.2 0
-3.011 -7.203 10.102 -0 -1.2 0
-3.003 -7.441 10.09 -0 -1.2 0
-2.997 -7.691 10.089 -0 -1.2 0
-2.982 -7.921 10.05 -0 -1.2 0
-2.962 -8.146 9.999 -0 -1.2 0
-2.922 -8.325 9.882 -0 -1.2 0
-2.819 -8.342 9.552 -0 -1.2 0
-2.736 -8.397 9.286 -0 -1.2 0
-2.695 -8.563 9.164 -0 -1.2 0
-2.6 -8.575 8.861 -0 -1.2 0
-0.319 0.019 1.169 -0 -1.2 0
-0.327 0.014 1.201 -0 -1.2 0
-0.34 0.021 1.248 -0 -1.2 0
-0.353 0.028 1.295 -0 -1.2 0
-0.364 0.026 1.335 -0 -1.2 0
-0.374 0.017 1.369 -0 -1.2 0
-0.389 0.025 1.424 -0 -1.2 0
-0.404 0.033 1.481 -0 -1.2 0
-0.416 0.027 1.523 -0 -1.2 0
-0.432 0.03 1.58 -0 -1.2 0
-0.446 0.027 1.63 -0 -1.2 0
-0.459 0.023 1.681 -0 -1.2 0
-0.476 0.021 1.74 -0 -1.2 0
-0.491 0.019 1.799 -0 -1.2 0
-0.51 0.02 1.867 -0 -1.2 0
-0.532 0.023 1.944 -0 -1.2 0
-0.55 0.02 2.012 -0 -1.2 0
-0.573 0.024 2.099 -0 -1.2 0
-0.595 0.02 2.177 -0 -1.2 0
-0.621 0.023 2.273 -0 -1.2 0
-0.648 0.022 2.37 -0 -1.2 0
-0.675 0.02 2.468 -0 -1.2 0
-0.707 0.021 2.583 -0 -1.2 0
-0.736 0.014 2.692 -0 -1.2 0
-0.771 0.012 2.818 -0 -1.2 0
-0.811 0.012 2.962 -0 -1.2 0
-0.851 0.008 3.108 -0 -1.2 0
-0.893 0.002 3.263 -0 -1.2 0
-0.944 0 3.446 -0 -1.2 0
-1.002 0 3.658 -0 -1.2 0
-1.066 -0.002 3.89 -0 -1.2 0
-1.145 0.001 4.178 -0 -1.2 0
-1.227 0 4.477 -0 -1.2 0
-1.325 -0.001 4.834 -0 -1.2 0
-1.437 -0.002 5.239 -0 -1.2 0
-1.571 -0.003 5.73 -0 -1.2 0
-1.738 -0.001 6.337 -0 -1.2 0
-1.934 -0.003 7.05 -0 -1.2 0
-2.188 -0.002 7.976 -0 -1.2 0
-2.504 -0.006 9.124 -0 -1.2 0
-2.914 -0.017 10.618 -0 -1.2 0
-3.014 -0.177 10.991 -0 -1.2 0
-3.01 -0.375 10.987 -0 -1.2 0
-3.001 -0.573 10.969 -0 -1.2 0
-2.998 -0.77 10.967 -0 -1.2 0
-2.992 -0.966 10.962 -0 -1.2 0
-2.99 -1.162 10.965 -0 -1.2 0
-2.983 -1.358 10.953 -0 -1.2 0
-2.981 -1.554 10.958 -0 -1.2 0
-2.926 -1.74 10.766 -0 -1.2 0
-3.022 -1.961 11.129 -0 -1.2 0
-3.024 -2.165 11.153 -0 -1.2 0
-3.016 -2.364 11.134 -0 -1.2 0
-3.017 -2.568 11.15 -0 -1.2 0
-3.014 -2.772 11.154 -0 -1.2 0
-3.008 -2.974 11.144 -0 -1.2 0
-3.001 -3.177 11.13 -0 -1.2 0
-3.001 -3.386 11.142 -0 -1.2 0
-2.997 -3.593 11.141 -0 -1.2 0
-2.994 -3.804 11.145 -0 -1.2 0
-2.991 -4.015 11.146 -0 -1.2 0
-2.986 -4.227 11.142 -0 -1.2 0
-2.985 -4.446 11.154 -0 -1.2 0
-2.982 -4.662 11.152 -0 -1.2 0
-2.979 -4.883 11.156 -0 -1.2 0
-2.972 -5.102 11.145 -0 -1.2 0
-2.967 -5.325 11.141 -0 -1.2 0
-2.963 -5.552 11.141 -0 -1.2 0
-2.955 -5.777 11.128 -0 -1.2 0
-2.95 -6.007 11.12 -0 -1.2 0
-2.945 -6.242 11.115 -0 -1.2 0
-2.94 -6.483 11.115 -0 -1.2 0
-2.937 -6.729 11.119 -0 -1.2 0
-2.93 -6.973 11.109 -0 -1.2 0
-2.927 -7.227 11.112 -0 -1.2 0
-2.92 -7.479 11.1 -0 -1.2 0
-2.911 -7.732 11.084 -0 -1.2 0
-2.887 -7.954 11.013 -0 -1.2 0
-2.874 -8.204 10.979 -0 -1.2 0
-2.809 -8.327 10.754 -0 -1.2 0
-2.701 -8.327 10.36 -0 -1.2 0
-2.644 -8.452 10.158 -0 -1.2 0
-2.586 -8.573 9.956 -0 -1.2 0
-2.511 -8.634 9.683 -0 -1.2 0
-0.277 0.02 1.179 -0 -1.2 0
-0.284 0.014 1.212 -0 -1.2 0
-0.296 0.022 1.259 -0 -1.2 0
-0.305 0.021 1.299 -0 -1.2 0
-0.315 0.02 1.34 -0 -1.2 0
-0.325 0.017 1.381 -0 -1.2 0
-0.338 0.026 1.438 -0 -1.2 0
-0.348 0.022 1.479 -0 -1.2 0
-0.363 0.034 1.544 -0 -1.2 0
-0.375 0.031 1.595 -0 -1.2 0
-0.387 0.028 1.645 -0 -1.2 0
-0.401 0.029 1.704 -0 -1.2 0
-0.413 0.022 1.756 -0 -1.2 0
-0.426 0.02 1.815 -0 -1.2 0
-0.443 0.021 1.884 -0 -1.2 0
-0.462 0.024 1.961 -0 -1.2 0
-0.477 0.021 2.031 -0 -1.2 0
-0.496 0.02 2.109 -0 -1.2 0
-0.517 0.021 2.197 -0 -1.2 0
-0.538 0.019 2.286 -0 -1.2 0
-0.563 0.024 2.392 -0 -1.2 0
-0.586 0.021 2.49 -0 -1.2 0
-0.612 0.018 2.598 -0 -1.2 0
-0.637 0.012 2.707 -0 -1.2 0
-0.67 0.014 2.844 -0 -1.2 0
-0.702 0.01 2.98 -0 -1.2 0
-0.739 0.009 3.136 -0 -1.2 0
-0.78 0.01 3.311 -0 -1.2 0
-0.818 -0.001 3.469 -0 -1.2 0
-0.873 0.004 3.701 -0 -1.2 0
-0.93 0.004 3.944 -0 -1.2 0
-0.995 0.004 4.217 -0 -1.2 0
-1.068 0.004 4.528 -0 -1.2 0
-1.156 0.006 4.897 -0 -1.2 0
-1.255 0.005 5.315 -0 -1.2 0
-1.375 0.007 5.821 -0 -1.2 0
-1.512 0.004 6.405 -0 -1.2 0
-1.685 0.003 7.134 -0 -1.2 0
-1.915 0.011 8.107 -0 -1.2 0
-2.198 0.01 9.303 -0 -1.2 0
-2.562 0.002 10.842 -0 -1.2 0
-2.893 -0.072 12.246 -0 -1.2 0
-2.884 -0.292 12.224 -0 -1.2 0
-2.881 -0.51 12.226 -0 -1.2 0
-2.863 -0.729 12.168 -0 -1.2 0
-2.856 -0.945 12.153 -0 -1.2 0
-2.852 -1.16 12.146 -0 -1.2 0
-2.847 -1.376 12.143 -0 -1.2 0
-2.84 -1.592 12.128 -0 -1.2 0
-2.819 -1.803 12.05 -0 -1.2 0
-3.09 -2.107 13.222 -0 -1.2 0
-3.082 -2.343 13.204 -0 -1.2 0
-3.082 -2.581 13.22 -0 -1.2 0
-3.076 -2.818 13.214 -0 -1.2 0
-3.079 -3.061 13.24 -0 -1.2 0
-3.043 -3.278 13.101 -0 -1.2 0
-3.067 -3.541 13.225 -0 -1.2 0
-3.062 -3.783 13.221 -0 -1.2 0
-2.965 -3.939 12.823 -0 -1.2 0
-2.856 -4.067 12.366 -0 -1.2 0
-2.851 -4.299 12.361 -0 -1.2 0
-2.847 -4.534 12.362 -0 -1.2 0
-2.845 -4.772 12.368 -0 -1.2 0
-2.841 -5.011 12.37 -0 -1.2 0
-2.834 -5.25 12.359 -0 -1.2 0
-2.831 -5.495 12.361 -0 -1.2 0
-2.786 -5.675 12.184 -0 -1.2 0
-2.756 -5.875 12.069 -0 -1.2 0
-3.02 -6.616 13.241 -0 -1.2 0
-3.032 -6.921 13.307 -0 -1.2 0
-3.004 -7.156 13.207 -0 -1.2 0
-2.955 -7.347 13.015 -0 -1.2 0
-2.968 -7.67 13.092 -0 -1.2 0
-2.924 -7.869 12.918 -0 -1.2 0
-2.806 -7.889 12.424 -0 -1.2 0
-2.751 -8.045 12.198 -0 -1.2 0
-2.727 -8.28 12.112 -0 -1.2 0
-2.629 -8.316 11.706 -0 -1.2 0
-2.541 -8.363 11.335 -0 -1.2 0
-2.5 -8.54 11.177 -0 -1.2 0
-2.415 -8.574 10.817 -0 -1.2 0
-0.239 0.028 1.195 -0 -1.2 0
-0.244 0.015 1.221 -0 -1.2 0
-0.252 0.015 1.261 -0 -1.2 0
-0.262 0.022 1.309 -0 -1.2 0
-0.27 0.021 1.35 -0 -1.2 0
-0.28 0.025 1.399 -0 -1.2 0
-0.29 0.027 1.448 -0 -1.2 0
-0.3 0.029 1.498 -0 -1.2 0
-0.31 0.028 1.548 -0 -1.2 0
-0.32 0.026 1.599 -0 -1.2 0
-0.332 0.029 1.657 -0 -1.2 0
-0.344 0.03 1.717 -0 -1.2 0
-0.355 0.023 1.769 -0 -1.2 0
-0.366 0.021 1.829 -0 -1.2 0
-0.38 0.022 1.898 -0 -1.2 0
-0.394 0.02 1.967 -0 -1.2 0
-0.412 0.027 2.054 -0 -1.2 0
-0.424 0.016 2.116 -0 -1.2 0
-0.443 0.022 2.213 -0 -1.2 0
-0.463 0.026 2.311 -0 -1.2 0
-0.483 0.025 2.41 -0 -1.2 0
-0.501 0.018 2.5 -0 -1.2 0
-0.523 0.016 2.609 -0 -1.2 0
-0.545 0.009 2.718 -0 -1.2 0
-0.574 0.015 2.864 -0 -1.2 0
-0.602 0.012 3.002 -0 -1.2 0
-0.636 0.014 3.169 -0 -1.2 0
-0.668 0.008 3.326 -0 -1.2 0
-0.705 0.006 3.513 -0 -1.2 0
-0.749 0.006 3.728 -0 -1.2 0
-0.796 0.003 3.964 -0 -1.2 0
-0.853 0.006 4.248 -0 -1.2 0
-0.917 0.006 4.561 -0 -1.2 0
-0.992 0.008 4.933 -0 -1.2 0
-1.081 0.012 5.374 -0 -1.2 0
-1.179 0.01 5.864 -0 -1.2 0
-1.293 0.005 6.433 -0 -1.2 0
-1.449 0.01 7.206 -0 -1.2 0
-1.647 0.017 8.186 -0 -1.2 0
-1.892 0.019 9.401 -0 -1.2 0
-2.224 0.021 11.049 -0 -1.2 0
-2.7 0.025 13.41 -0 -1.2 0
-2.742 -0.197 13.633 -0 -1.2 0
-2.738 -0.439 13.638 -0 -1.2 0
-2.73 -0.68 13.619 -0 -1.2 0
-2.724 -0.92 13.605 -0 -1.2 0
-2.722 -1.16 13.617 -0 -1.2 0
-2.714 -1.399 13.595 -0 -1.2 0
-2.687 -1.635 13.481 -0 -1.2 0
-2.729 -1.887 13.705 -0 -1.2 0
-2.75 -2.138 13.828 -0 -1.2 0
-2.746 -2.384 13.828 -0 -1.2 0
-2.745 -2.632 13.844 -0 -1.2 0
-2.742 -2.88 13.845 -0 -1.2 0
-2.738 -3.13 13.853 -0 -1.2 0
-2.733 -3.379 13.846 -0 -1.2 0
-2.727 -3.628 13.834 -0 -1.2 0
-2.724 -3.881 13.838 -0 -1.2 0
-2.722 -4.138 13.846 -0 -1.2 0
-2.718 -4.395 13.85 -0 -1.2 0
-2.712 -4.651 13.84 -0 -1.2 0
-2.713 -4.919 13.863 -0 -1.2 0
-2.708 -5.182 13.863 -0 -1.2 0
-2.705 -5.45 13.866 -0 -1.2 0
-2.695 -5.709 13.837 -0 -1.2 0
-2.45 -5.544 12.608 -0 -1.2 0
-2.685 -6.253 13.829 -0 -1.2 0
-2.682 -6.536 13.841 -0 -1.2 0
-2.676 -6.813 13.828 -0 -1.2 0
-2.667 -7.091 13.809 -0 -1.2 0
-2.662 -7.379 13.804 -0 -1.2 0
-2.655 -7.668 13.794 -0 -1.2 0
-2.635 -7.928 13.715 -0 -1.2 0
-2.619 -8.201 13.658 -0 -1.2 0
-2.544 -8.308 13.293 -0 -1.2 0
-2.441 -8.321 12.783 -0 -1.2 0
-2.396 -8.494 12.573 -0 -1.2 0
-2.317 -8.554 12.185 -0 -1.2 0
-2.254 -8.656 11.882 -0 -1.2 0
-0.198 0.028 1.202 -0 -1.2 0
-0.202 0.016 1.229 -0 -1.2 0
-0.21 0.023 1.276 -0 -1.2 0
-0.217 0.023 1.317 -0 -1.2 0
-0.225 0.029 1.366 -0 -1.2 0
-0.232 0.026 1.408 -0 -1.2 0
-0.239 0.022 1.449 -0 -1.2 0
-0.249 0.029 1.507 -0 -1.2 0
-0.257 0.029 1.558 -0 -1.2 0
-0.267 0.033 1.617 -0 -1.2 0
-0.275 0.03 1.668 -0 -1.2 0
-0.285 0.031 1.728 -0 -1.2 0
-0.294 0.024 1.78 -0 -1.2 0
-0.305 0.027 1.849 -0 -1.2 0
-0.313 0.018 1.901 -0 -1.2 0
-0.326 0.021 1.98 -0 -1.2 0
-0.339 0.023 2.059 -0 -1.2 0
-0.353 0.022 2.138 -0 -1.2 0
-0.366 0.019 2.218 -0 -1.2 0
-0.382 0.022 2.317 -0 -1.2 0
-0.399 0.022 2.416 -0 -1.2 0
-0.415 0.02 2.515 -0 -1.2 0
-0.433 0.017 2.626 -0 -1.2 0
-0.456 0.023 2.762 -0 -1.2 0
-0.476 0.017 2.882 -0 -1.2 0
-0.499 0.014 3.021 -0 -1.2 0
-0.525 0.013 3.179 -0 -1.2 0
-0.555 0.013 3.357 -0 -1.2 0
-0.585 0.008 3.535 -0 -1.2 0
-0.622 0.01 3.761 -0 -1.2 0
-0.66 0.005 3.989 -0 -1.2 0
-0.711 0.014 4.294 -0 -1.2 0
-0.758 0.007 4.58 -0 -1.2 0
-0.819 0.007 4.945 -0 -1.2 0
-0.896 0.015 5.408 -0 -1.2 0
-0.983 0.018 5.93 -0 -1.2 0
-1.075 0.011 6.493 -0 -1.2 0
-1.205 0.017 7.271 -0 -1.2 0
-1.372 0.027 8.277 -0 -1.2 0
-1.585 0.035 9.559 -0 -1.2 0
-1.852 0.032 11.167 -0 -1.2 0
-2.214 0.019 13.348 -0 -1.2 0
-2.566 -0.072 15.472 -0 -1.2 0
-2.559 -0.345 15.458 -0 -1.2 0
-2.555 -0.617 15.459 -0 -1.2 0
-2.55 -0.888 15.457 -0 -1.2 0
-2.545 -1.159 15.448 -0 -1.2 0
-2.539 -1.429 15.436 -0 -1.2 0
-2.497 -1.693 15.212 -0 -1.2 0
-2.572 -1.987 15.693 -0 -1.2 0
-2.571 -2.265 15.705 -0 -1.2 0
-2.566 -2.542 15.703 -0 -1.2 0
-2.566 -2.822 15.726 -0 -1.2 0
-2.559 -3.102 15.714 -0 -1.2 0
-2.552 -3.38 15.698 -0 -1.2 0
-2.547 -3.661 15.695 -0 -1.2 0
-2.544 -3.945 15.698 -0 -1.2 0
-2.539 -4.23 15.697 -0 -1.2 0
-2.539 -4.523 15.727 -0 -1.2 0
-2.535 -4.813 15.724 -0 -1.2 0
-2.532 -5.107 15.736 -0 -1.2 0
-2.525 -5.399 15.722 -0 -1.2 0
-2.52 -5.694 15.712 -0 -1.2 0
-2.514 -5.993 15.707 -0 -1.2 0
-2.511 -6.299 15.715 -0 -1.2 0
-2.501 -6.596 15.69 -0 -1.2 0
-2.495 -6.901 15.677 -0 -1.2 0
-2.49 -7.215 15.676 -0 -1.2 0
-2.481 -7.524 15.652 -0 -1.2 0
-2.469 -7.824 15.603 -0 -1.2 0
-2.449 -8.11 15.512 -0 -1.2 0
-2.394 -8.287 15.194 -0 -1.2 0
-2.289 -8.301 14.563 -0 -1.2 0
-2.239 -8.472 14.28 -0 -1.2 0
-0.153 0.022 1.202 -0 -1.2 0
-0.157 0.016 1.235 -0 -1.2 0
-0.163 0.024 1.283 -0 -1.2 0
-0.168 0.017 1.317 -0 -1.2 0
-0.175 0.029 1.373 -0 -1.2 0
-0.179 0.02 1.408 -0 -1.2 0
-0.186 0.022 1.457 -0 -1.2 0
-0.193 0.03 1.515 -0 -1.2 0
-0.2 0.03 1.566 -0 -1.2 0
-0.206 0.028 1.617 -0 -1.2 0
-0.214 0.031 1.677 -0 -1.2 0
-0.221 0.026 1.729 -0 -1.2 0
-0.228 0.025 1.789 -0 -1.2 0
-0.237 0.028 1.859 -0 -1.2 0
-0.246 0.029 1.929 -0 -1.2 0
-0.255 0.027 1.999 -0 -1.2 0
-0.263 0.024 2.07 -0 -1.2 0
-0.273 0.018 2.141 -0 -1.2 0
-0.284 0.021 2.231 -0 -1.2 0
-0.297 0.023 2.329 -0 -1.2 0
-0.31 0.024 2.429 -0 -1.2 0
-0.322 0.021 2.529 -0 -1.2 0
-0.337 0.019 2.639 -0 -1.2 0
-0.352 0.016 2.759 -0 -1.2 0
-0.37 0.018 2.898 -0 -1.2 0
-0.389 0.018 3.047 -0 -1.2 0
-0.407 0.012 3.187 -0 -1.2 0
-0.43 0.012 3.366 -0 -1.2 0
-0.454 0.01 3.554 -0 -1.2 0
-0.482 0.01 3.772 -0 -1.2 0
-0.514 0.011 4.02 -0 -1.2 0
-0.553 0.019 4.327 -0 -1.2 0
-0.593 0.016 4.634 -0 -1.2 0
-0.637 0.012 4.982 -0 -1.2 0
-0.694 0.014 5.418 -0 -1.2 0
-0.76 0.016 5.933 -0 -1.2 0
-0.835 0.015 6.528 -0 -1.2 0
-0.942 0.028 7.35 -0 -1.2 0
-1.072 0.039 8.371 -0 -1.2 0
-1.239 0.047 9.67 -0 -1.2 0
-1.444 0.042 11.267 -0 -1.2 0
-1.747 0.045 13.627 -0 -1.2 0
-2.236 0.062 17.436 -0 -1.2 0
-2.278 -0.225 17.8 -0 -1.2 0
-2.274 -0.536 17.804 -0 -1.2 0
-2.268 -0.847 17.791 -0 -1.2 0
-2.262 -1.157 17.784 -0 -1.2 0
-2.257 -1.468 17.771 -0 -1.2 0
-2.236 -1.774 17.643 -0 -1.2 0
-2.283 -2.106 18.056 -0 -1.2 0
-2.28 -2.424 18.066 -0 -1.2 0
-2.276 -2.742 18.071 -0 -1.2 0
-2.273 -3.063 18.089 -0 -1.2 0
-2.27 -3.385 18.102 -0 -1.2 0
-2.267 -3.707 18.111 -0 -1.2 0
-2.265 -4.035 18.132 -0 -1.2 0
-2.265 -4.368 18.166 -0 -1.2 0
-2.259 -4.694 18.156 -0 -1.2 0
-2.255 -5.028 18.17 -0 -1.2 0
-2.248 -5.358 18.157 -0 -1.2 0
-2.245 -5.697 18.169 -0 -1.2 0
-2.239 -6.032 18.154 -0 -1.2 0
-2.231 -6.37 18.142 -0 -1.2 0
-2.226 -6.713 18.134 -0 -1.2 0
-2.219 -7.057 18.119 -0 -1.2 0
-2.213 -7.408 18.118 -0 -1.2 0
-2.206 -7.759 18.1 -0 -1.2 0
-2.18 -8.056 17.936 -0 -1.2 0
-2.133 -8.277 17.593 -0 -1.2 0
-2.033 -8.304 16.818 -0 -1.2 0
-1.983 -8.486 16.447 -0 -1.2 0
-0.112 0.022 1.206 -0 -1.2 0
-0.116 0.024 1.247 -0 -1.2 0
-0.119 0.025 1.288 -0 -1.2 0
-0.123 0.018 1.322 -0 -1.2 0
-0.127 0.023 1.371 -0 -1.2 0
-0.132 0.028 1.421 -0 -1.2 0
-0.137 0.029 1.471 -0 -1.2 0
-0.141 0.031 1.521 -0 -1.2 0
-0.146 0.031 1.572 -0 -1.2 0
-0.152 0.035 1.632 -0 -1.2 0
-0.156 0.026 1.675 -0 -1.2 0
-0.162 0.032 1.744 -0 -1.2 0
-0.168 0.032 1.805 -0 -1.2 0
-0.174 0.029 1.866 -0 -1.2 0
-0.18 0.03 1.936 -0 -1.2 0
-0.187 0.028 2.007 -0 -1.2 0
-0.193 0.025 2.078 -0 -1.2 0
-0.2 0.025 2.158 -0 -1.2 0
-0.208 0.022 2.239 -0 -1.2 0
-0.217 0.024 2.338 -0 -1.2 0
-0.227 0.029 2.447 -0 -1.2 0
-0.236 0.022 2.539 -0 -1.2 0
-0.247 0.024 2.658 -0 -1.2 0
-0.258 0.022 2.778 -0 -1.2 0
-0.271 0.023 2.917 -0 -1.2 0
-0.284 0.02 3.059 -0 -1.2 0
-0.298 0.013 3.199 -0 -1.2 0
-0.314 0.011 3.369 -0 -1.2 0
-0.332 0.012 3.568 -0 -1.2 0
-0.354 0.014 3.796 -0 -1.2 0
-0.377 0.016 4.045 -0 -1.2 0
-0.406 0.023 4.353 -0 -1.2 0
-0.435 0.021 4.662 -0 -1.2 0
-0.468 0.018 5.02 -0 -1.2 0
-0.509 0.019 5.448 -0 -1.2 0
-0.558 0.024 5.975 -0 -1.2 0
-0.614 0.021 6.573 -0 -1.2 0
-0.691 0.034 7.398 -0 -1.2 0
-0.781 0.037 8.364 -0 -1.2 0
-0.911 0.058 9.746 -0 -1.2 0
-1.064 0.054 11.379 -0 -1.2 0
-1.281 0.053 13.699 -0 -1.2 0
-2.31 0.125 24.69 -0 -1.2 0
-1.804 -0.815 19.422 -0 -1.2 0
-1.819 -1.154 19.634 -0 -1.2 0
-2.432 -2.554 26.397 -0 -1.2 0
-2.425 -3.017 26.397 -0 -1.2 0
-2.42 -3.482 26.411 -0 -1.2 0
-2.414 -3.947 26.415 -0 -1.2 0
-2.408 -4.414 26.412 -0 -1.2 0
-2.397 -4.876 26.37 -0 -1.2 0
-2.394 -5.354 26.41 -0 -1.2 0
-2.385 -5.822 26.382 -0 -1.2 0
-2.251 -6.023 24.987 -0 -1.2 0
-2.368 -6.772 26.349 -0 -1.2 0
-2.342 -7.205 26.14 -0 -1.2 0
-2.31 -7.616 25.857 -0 -1.2 0
-2.411 -8.424 27.058 -0 -1.2 0
-2.403 -8.931 27.051 -0 -1.2 0
-2.351 -9.827 26.631 -0 -1.2 0
-2.326 -10.276 26.438 -0 -1.2 0
-1.73 -8.339 19.767 -0 -1.2 0
-1.673 -8.505 19.184 -0 -1.2 0
-0.068 0.03 1.217 -0 -1.2 0
-0.07 0.025 1.25 -0 -1.2 0
-0.072 0.025 1.292 -0 -1.2 0
-0.075 0.039 1.348 -0 -1.2 0
-0.077 0.031 1.382 -0 -1.2 0
-0.08 0.028 1.424 -0 -1.2 0
-0.082 0.024 1.467 -0 -1.2 0
-0.085 0.026 1.518 -0 -1.2 0
-0.088 0.032 1.576 -0 -1.2 0
-0.091 0.029 1.628 -0 -1.2 0
-0.094 0.027 1.68 -0 -1.2 0
-0.097 0.028 1.74 -0 -1.2 0
-0.102 0.038 1.818 -0 -1.2 0
-0.105 0.035 1.879 -0 -1.2 0
-0.108 0.026 1.933 -0 -1.2 0
-0.113 0.029 2.012 -0 -1.2 0
-0.116 0.026 2.084 -0 -1.2 0
-0.12 0.026 2.164 -0 -1.2 0
-0.126 0.027 2.254 -0 -1.2 0
-0.131 0.031 2.354 -0 -1.2 0
-0.136 0.026 2.445 -0 -1.2 0
-0.142 0.024 2.546 -0 -1.2 0
-0.149 0.025 2.665 -0 -1.2 0
-0.156 0.027 2.795 -0 -1.2 0
-0.163 0.021 2.916 -0 -1.2 0
-0.171 0.022 3.067 -0 -1.2 0
-0.18 0.018 3.218 -0 -1.2 0
-0.189 0.012 3.378 -0 -1.2 0
-0.2 0.013 3.578 -0 -1.2 0
-0.214 0.019 3.816 -0 -1.2 0
-0.227 0.018 4.056 -0 -1.2 0
-0.243 0.015 4.326 -0 -1.2 0
-0.263 0.025 4.684 -0 -1.2 0
-0.283 0.024 5.044 -0 -1.2 0
-0.309 0.028 5.493 -0 -1.2 0
-0.336 0.024 5.982 -0 -1.2 0
-0.371 0.026 6.601 -0 -1.2 0
-0.419 0.043 7.448 -0 -1.2 0
-0.473 0.046 8.417 -0 -1.2 0
-0.548 0.057 9.734 -0 -1.2 0
-0.644 0.063 11.441 -0 -1.2 0
-0.78 0.068 13.837 -0 -1.2 0
-1.396 0.139 24.778 -0 -1.2 0
-1.076 -0.807 19.327 -0 -1.2 0
-1.078 -1.142 19.439 -0 -1.2 0
-1.462 -4.967 27.165 -0 -1.2 0
-1.292 -5.416 24.253 -0 -1.2 0
-1.397 -7.793 26.683 -0 -1.2 0
-1.214 -10.358 24.053 -0 -1.2 0
-0.026 0.024 1.211 -0 -1.2 0
-0.027 0.018 1.245 -0 -1.2 0
-0.028 0.04 1.308 -0 -1.2 0
-0.029 0.033 1.342 -0 -1.2 0
-0.03 0.031 1.384 -0 -1.2 0
-0.031 0.029 1.426 -0 -1.2 0
-0.032 0.031 1.477 -0 -1.2 0
-0.033 0.026 1.52 -0 -1.2 0
-0.034 0.032 1.579 -0 -1.2 0
-0.035 0.036 1.638 -0 -1.2 0
-0.037 0.033 1.69 -0 -1.2 0
-0.038 0.04 1.759 -0 -1.2 0
-0.039 0.034 1.812 -0 -1.2 0
-0.041 0.031 1.873 -0 -1.2 0
-0.042 0.032 1.944 -0 -1.2 0
-0.044 0.03 2.015 -0 -1.2 0
-0.044 0.027 2.086 -0 -1.2 0
-0.046 0.027 2.167 -0 -1.2 0
-0.048 0.024 2.248 -0 -1.2 0
-0.05 0.027 2.348 -0 -1.2 0
-0.052 0.031 2.457 -0 -1.2 0
-0.055 0.025 2.549 -0 -1.2 0
-0.057 0.022 2.66 -0 -1.2 0
-0.06 0.025 2.79 -0 -1.2 0
-0.063 0.023 2.92 -0 -1.2 0
-0.066 0.023 3.07 -0 -1.2 0
-0.069 0.016 3.212 -0 -1.2 0
-0.073 0.014 3.383 -0 -1.2 0
-0.077 0.012 3.573 -0 -1.2 0
-0.083 0.021 3.822 -0 -1.2 0
-0.088 0.022 4.071 -0 -1.2 0
-0.094 0.022 4.351 -0 -1.2 0
-0.102 0.03 4.7 -0 -1.2 0
-0.11 0.028 5.06 -0 -1.2 0
-0.119 0.026 5.48 -0 -1.2 0
-0.13 0.025 5.98 -0 -1.2 0
-0.144 0.031 6.62 -0 -1.2 0
-0.162 0.043 7.439 -0 -1.2 0
-0.182 0.045 8.398 -0 -1.2 0
-0.213 0.067 9.787 -0 -1.2 0
-0.249 0.064 11.407 -0 -1.2 0
-0.306 0.087 13.985 -0 -1.2 0
-0.418 0.19 19.071 -0 -1.2 0
-0.414 -0.139 19.09 -0 -1.2 0
-0.411 -0.47 19.145 -0 -1.2 0
-0.412 -0.798 19.373 -0 -1.2 0
-0.408 -1.134 19.445 -0 -1.2 0
-0.512 -5.895 27.041 -0 -1.2 0
-0.486 -7.272 26.647 -0 -1.2 0
-0.49 -8.512 27.593 -0 -1.2 0
-0.457 -8.587 26.057 -0 -1.2 0
-0.46 -9.885 26.997 -0 -1.2 0
-0.423 -11.092 26.016 -0 -1.2 0
0.013 0.024 1.212 -0 -1.2 0
0.014 0.026 1.252 -0 -1.2 0
0.015 0.034 1.301 -0 -1.2 0
0.015 0.033 1.342 -0 -1.2 0
0.016 0.032 1.384 -0 -1.2 0
0.016 0.036 1.434 -0 -1.2 0
0.017 0.025 1.469 -0 -1.2 0
0.017 0.033 1.528 -0 -1.2 0
0.018 0.033 1.579 -0 -1.2 0
0.019 0.037 1.639 -0 -1.2 0
0.019 0.034 1.691 -0 -1.2 0
0.02 0.035 1.751 -0 -1.2 0
0.021 0.035 1.812 -0 -1.2 0
0.022 0.032 1.874 -0 -1.2 0
0.022 0.028 1.936 -0 -1.2 0
0.024 0.026 2.007 -0 -1.2 0
0.024 0.028 2.087 -0 -1.2 0
0.026 0.028 2.167 -0 -1.2 0
0.027 0.025 2.249 -0 -1.2 0
0.029 0.028 2.348 -0 -1.2 0
0.03 0.032 2.458 -0 -1.2 0
0.031 0.03 2.559 -0 -1.2 0
0.033 0.028 2.67 -0 -1.2 0
0.034 0.026 2.79 -0 -1.2 0
0.036 0.024 2.921 -0 -1.2 0
0.037 0.021 3.062 -0 -1.2 0
0.039 0.021 3.222 -0 -1.2 0
0.041 0.015 3.383 -0 -1.2 0
0.044 0.017 3.583 -0 -1.2 0
0.047 0.019 3.813 -0 -1.2 0
0.049 0.01 4.024 -0 -1.2 0
0.053 0.022 4.342 -0 -1.2 0
0.058 0.027 4.682 -0 -1.2 0
0.062 0.029 5.052 -0 -1.2 0
0.068 0.031 5.491 -0 -1.2 0
0.074 0.025 5.971 -0 -1.2 0
0.082 0.036 6.631 -0 -1.2 0
0.092 0.044 7.43 -0 -1.2 0
0.104 0.052 8.419 -0 -1.2 0
0.122 0.069 9.769 -0 -1.2 0
0.145 0.089 11.608 -0 -1.2 0
0.175 0.097 14.037 -0 -1.2 0
0.235 0.184 18.874 -0 -1.2 0
0.239 -0.14 18.924 -0 -1.2 0
0.246 -0.463 19.117 -0 -1.2 0
0.408 -4.981 27.483 -0 -1.2 0
0.418 -6.763 26.598 -0 -1.2 0
0.434 -8.575 26.062 -0 -1.2 0
0.058 0.025 1.21 -0 -1.2 0
0.06 0.033 1.258 -0 -1.2 0
0.062 0.034 1.299 -0 -1.2 0
0.065 0.034 1.341 -0 -1.2 0
0.066 0.025 1.375 -0 -1.2 0
0.069 0.03 1.425 -0 -1.2 0
0.072 0.039 1.483 -0 -1.2 0
0.074 0.04 1.534 -0 -1.2 0
0.076 0.034 1.577 -0 -1.2 0
0.08 0.044 1.645 -0 -1.2 0
0.082 0.041 1.697 -0 -1.2 0
0.085 0.036 1.749 -0 -1.2 0
0.087 0.029 1.802 -0 -1.2 0
0.091 0.038 1.88 -0 -1.2 0
0.094 0.034 1.942 -0 -1.2 0
0.098 0.032 2.013 -0 -1.2 0
0.101 0.029 2.084 -0 -1.2 0
0.106 0.029 2.165 -0 -1.2 0
0.111 0.03 2.255 -0 -1.2 0
0.115 0.029 2.346 -0 -1.2 0
0.12 0.029 2.446 -0 -1.2 0
0.126 0.031 2.556 -0 -1.2 0
0.131 0.029 2.666 -0 -1.2 0
0.137 0.027 2.787 -0 -1.2 0
0.144 0.025 2.917 -0 -1.2 0
0.151 0.026 3.067 -0 -1.2 0
0.159 0.022 3.219 -0 -1.2 0
0.167 0.017 3.38 -0 -1.2 0
0.176 0.018 3.579 -0 -1.2 0
0.188 0.024 3.818 -0 -1.2 0
0.2 0.023 4.058 -0 -1.2 0
0.215 0.026 4.347 -0 -1.2 0
0.23 0.027 4.667 -0 -1.2 0
0.251 0.039 5.084 -0 -1.2 0
0.271 0.035 5.495 -0 -1.2 0
0.295 0.03 5.974 -0 -1.2 0
0.328 0.04 6.633 -0 -1.2 0
0.366 0.046 7.411 -0 -1.2 0
0.416 0.056 8.41 -0 -1.2 0
0.482 0.069 9.727 -0 -1.2 0
0.579 0.103 11.673 -0 -1.2 0
0.695 0.103 14.021 -0 -1.2 0
0.1 0.032 1.214 -0 -1.2 0
0.102 0.02 1.241 -0 -1.2 0
0.106 0.027 1.289 -0 -1.2 0
0.111 0.041 1.345 -0 -1.2 0
0.113 0.026 1.372 -0 -1.2 0
0.117 0.031 1.422 -0 -1.2 0
0.121 0.033 1.472 -0 -1.2 0
0.125 0.028 1.515 -0 -1.2 0
0.13 0.034 1.573 -0 -1.2 0
0.134 0.032 1.625 -0 -1.2 0
0.139 0.035 1.685 -0 -1.2 0
0.144 0.036 1.745 -0 -1.2 0
0.149 0.036 1.806 -0 -1.2 0
0.154 0.028 1.859 -0 -1.2 0
0.16 0.035 1.938 -0 -1.2 0
0.166 0.033 2.008 -0 -1.2 0
0.172 0.03 2.08 -0 -1.2 0
0.18 0.035 2.169 -0 -1.2 0
0.188 0.031 2.25 -0 -1.2 0
0.195 0.035 2.349 -0 -1.2 0
0.204 0.034 2.449 -0 -1.2 0
0.212 0.028 2.541 -0 -1.2 0
0.222 0.03 2.66 -0 -1.2 0
0.233 0.032 2.79 -0 -1.2 0
0.243 0.026 2.911 -0 -1.2 0
0.256 0.027 3.06 -0 -1.2 0
0.267 0.02 3.202 -0 -1.2 0
0.283 0.025 3.39 -0 -1.2 0
0.299 0.023 3.58 -0 -1.2 0
0.318 0.026 3.809 -0 -1.2 0
0.339 0.025 4.049 -0 -1.2 0
0.364 0.031 4.347 -0 -1.2 0
0.389 0.029 4.656 -0 -1.2 0
0.421 0.033 5.034 -0 -1.2 0
0.459 0.037 5.482 -0 -1.2 0
0.499 0.033 5.961 -0 -1.2 0
0.555 0.045 6.628 -0 -1.2 0
0.621 0.053 7.414 -0 -1.2 0
0.702 0.058 8.381 -0 -1.2 0
0.813 0.071 9.686 -0 -1.2 0
0.975 0.105 11.617 -0 -1.2 0
1.172 0.107 13.969 -0 -1.2 0
0.141 0.033 1.21 -0 -1.2 0
0.145 0.027 1.244 -0 -1.2 0
0.15 0.035 1.292 -0 -1.2 0
0.156 0.042 1.341 -0 -1.2 0
0.16 0.034 1.375 -0 -1.2 0
0.166 0.037 1.425 -0 -1.2 0
0.172 0.04 1.475 -0 -1.2 0
0.178 0.041 1.525 -0 -1.2 0
0.183 0.035 1.568 -0 -1.2 0
0.188 0.028 1.611 -0 -1.2 0
0.196 0.036 1.679 -0 -1.2 0
0.203 0.037 1.739 -0 -1.2 0
0.21 0.031 1.792 -0 -1.2 0
0.217 0.029 1.853 -0 -1.2 0
0.225 0.025 1.914 -0 -1.2 0
0.233 0.028 1.993 -0 -1.2 0
0.243 0.031 2.072 -0 -1.2 0
0.253 0.03 2.153 -0 -1.2 0
0.264 0.032 2.242 -0 -1.2 0
0.275 0.03 2.332 -0 -1.2 0
0.287 0.035 2.441 -0 -1.2 0
0.298 0.029 2.532 -0 -1.2 0
0.311 0.027 2.642 -0 -1.2 0
0.327 0.029 2.771 -0 -1.2 0
0.342 0.027 2.901 -0 -1.2 0
0.361 0.032 3.059 -0 -1.2 0
0.378 0.028 3.209 -0 -1.2 0
0.4 0.029 3.388 -0 -1.2 0
0.421 0.024 3.568 -0 -1.2 0
0.447 0.024 3.787 -0 -1.2 0
0.476 0.026 4.035 -0 -1.2 0
0.51 0.029 4.322 -0 -1.2 0
0.549 0.033 4.65 -0 -1.2 0
0.597 0.043 5.055 -0 -1.2 0
0.647 0.044 5.482 -0 -1.2 0
0.703 0.037 5.95 -0 -1.2 0
0.778 0.044 6.585 -0 -1.2 0
0.873 0.055 7.389 -0 -1.2 0
0.992 0.066 8.39 -0 -1.2 0
1.142 0.074 9.652 -0 -1.2 0
1.363 0.102 11.517 -0 -1.2 0
1.667 0.126 14.089 -0 -1.2 0
2.089 0.13 17.645 -0 -1.2 0
2.097 -0.175 17.693 -0 -1.2 0
0.184 0.026 1.197 -0 -1.2 0
0.189 0.021 1.231 -0 -1.2 0
0.196 0.028 1.278 -0 -1.2 0
0.202 0.022 1.312 -0 -1.2 0
0.21 0.034 1.368 -0 -1.2 0
0.218 0.038 1.417 -0 -1.2 0
0.225 0.034 1.46 -0 -1.2 0
0.232 0.036 1.51 -0 -1.2 0
0.239 0.029 1.552 -0 -1.2 0
0.247 0.028 1.603 -0 -1.2 0
0.256 0.031 1.663 -0 -1.2 0
0.264 0.026 1.714 -0 -1.2 0
0.274 0.026 1.774 -0 -1.2 0
0.286 0.035 1.852 -0 -1.2 0
0.295 0.031 1.913 -0 -1.2 0
0.306 0.029 1.983 -0 -1.2 0
0.318 0.026 2.053 -0 -1.2 0
0.331 0.026 2.133 -0 -1.2 0
0.344 0.029 2.222 -0 -1.2 0
0.36 0.031 2.321 -0 -1.2 0
0.376 0.036 2.429 -0 -1.2 0
0.391 0.03 2.52 -0 -1.2 0
0.409 0.032 2.638 -0 -1.2 0
0.428 0.03 2.757 -0 -1.2 0
0.448 0.029 2.886 -0 -1.2 0
0.471 0.029 3.034 -0 -1.2 0
0.494 0.026 3.183 -0 -1.2 0
0.522 0.027 3.361 -0 -1.2 0
0.55 0.022 3.541 -0 -1.2 0
0.585 0.025 3.768 -0 -1.2 0
0.625 0.03 4.023 -0 -1.2 0
0.67 0.034 4.309 -0 -1.2 0
0.717 0.033 4.617 -0 -1.2 0
0.777 0.039 5 -0 -1.2 0
0.843 0.039 5.426 -0 -1.2 0
0.92 0.039 5.92 -0 -1.2 0
1.02 0.048 6.562 -0 -1.2 0
1.142 0.056 7.341 -0 -1.2 0
1.296 0.067 8.329 -0 -1.2 0
1.494 0.077 9.593 -0 -1.2 0
1.78 0.104 11.43 -0 -1.2 0
2.159 0.118 13.86 -0 -1.2 0
0.224 0.026 1.19 -0 -1.2 0
0.23 0.021 1.223 -0 -1.2 0
0.239 0.029 1.271 -0 -1.2 0
0.247 0.029 1.312 -0 -1.2 0
0.255 0.027 1.353 -0 -1.2 0
0.264 0.032 1.402 -0 -1.2 0
0.274 0.034 1.451 -0 -1.2 0
0.282 0.03 1.493 -0 -1.2 0
0.292 0.03 1.543 -0 -1.2 0
0.303 0.034 1.602 -0 -1.2 0
0.311 0.026 1.645 -0 -1.2 0
0.325 0.038 1.72 -0 -1.2 0
0.334 0.027 1.764 -0 -1.2 0
0.346 0.024 1.824 -0 -1.2 0
0.359 0.026 1.893 -0 -1.2 0
0.373 0.03 1.971 -0 -1.2 0
0.388 0.032 2.05 -0 -1.2 0
0.403 0.032 2.129 -0 -1.2 0
0.42 0.029 2.209 -0 -1.2 0
0.438 0.032 2.307 -0 -1.2 0
0.457 0.033 2.406 -0 -1.2 0
0.476 0.031 2.505 -0 -1.2 0
0.499 0.033 2.622 -0 -1.2 0
0.521 0.031 2.741 -0 -1.2 0
0.546 0.029 2.869 -0 -1.2 0
0.572 0.027 3.007 -0 -1.2 0
0.6 0.024 3.155 -0 -1.2 0
0.634 0.025 3.332 -0 -1.2 0
0.672 0.027 3.528 -0 -1.2 0
0.715 0.03 3.754 -0 -1.2 0
0.761 0.031 3.999 -0 -1.2 0
0.818 0.038 4.293 -0 -1.2 0
0.874 0.034 4.589 -0 -1.2 0
0.943 0.035 4.953 -0 -1.2 0
1.024 0.037 5.375 -0 -1.2 0
1.123 0.044 5.895 -0 -1.2 0
1.239 0.047 6.504 -0 -1.2 0
1.393 0.061 7.308 -0 -1.2 0
1.573 0.065 8.25 -0 -1.2 0
1.826 0.085 9.576 -0 -1.2 0
2.176 0.112 11.402 -0 -1.2 0
2.646 0.131 13.867 -0 -1.2 0
0.265 0.027 1.182 -0 -1.2 0
0.274 0.029 1.222 -0 -1.2 0
0.283 0.029 1.262 -0 -1.2 0
0.292 0.029 1.302 -0 -1.2 0
0.305 0.041 1.358 -0 -1.2 0
0.312 0.033 1.392 -0 -1.2 0
0.322 0.029 1.433 -0 -1.2 0
0.331 0.024 1.475 -0 -1.2 0
0.344 0.03 1.532 -0 -1.2 0
0.358 0.035 1.59 -0 -1.2 0
0.367 0.026 1.633 -0 -1.2 0
0.381 0.027 1.692 -0 -1.2 0
0.394 0.028 1.751 -0 -1.2 0
0.409 0.025 1.811 -0 -1.2 0
0.424 0.027 1.88 -0 -1.2 0
0.44 0.025 1.949 -0 -1.2 0
0.458 0.028 2.027 -0 -1.2 0
0.473 0.023 2.097 -0 -1.2 0
0.493 0.025 2.185 -0 -1.2 0
0.513 0.024 2.273 -0 -1.2 0
0.54 0.034 2.388 -0 -1.2 0
0.562 0.032 2.487 -0 -1.2 0
0.586 0.03 2.595 -0 -1.2 0
0.615 0.032 2.721 -0 -1.2 0
0.644 0.03 2.849 -0 -1.2 0
0.677 0.031 2.995 -0 -1.2 0
0.711 0.028 3.142 -0 -1.2 0
0.748 0.026 3.308 -0 -1.2 0
0.788 0.021 3.485 -0 -1.2 0
0.841 0.028 3.718 -0 -1.2 0
0.897 0.031 3.961 -0 -1.2 0
0.956 0.029 4.226 -0 -1.2 0
1.032 0.036 4.556 -0 -1.2 0
1.116 0.04 4.926 -0 -1.2 0
1.211 0.041 5.345 -0 -1.2 0
1.326 0.045 5.852 -0 -1.2 0
1.469 0.054 6.485 -0 -1.2 0
1.642 0.061 7.245 -0 -1.2 0
1.857 0.068 8.191 -0 -1.2 0
2.153 0.087 9.497 -0 -1.2 0
2.567 0.115 11.32 -0 -1.2 0
3.137 0.141 13.826 -0 -1.2 0
3.859 0.125 17.006 -0 -1.2 0
3.867 -0.175 17.034 -0 -1.2 0
0.308 0.027 1.171 -0 -1.2 0
0.317 0.022 1.204 -0 -1.2 0
0.329 0.03 1.25 -0 -1.2 0
0.338 0.023 1.283 -0 -1.2 0
0.351 0.028 1.331 -0 -1.2 0
0.362 0.026 1.372 -0 -1.2 0
0.375 0.029 1.42 -0 -1.2 0
0.388 0.031 1.469 -0 -1.2 0
0.401 0.031 1.518 -0 -1.2 0
0.414 0.03 1.568 -0 -1.2 0
0.43 0.033 1.626 -0 -1.2 0
0.442 0.023 1.668 -0 -1.2 0
0.459 0.028 1.735 -0 -1.2 0
0.476 0.025 1.795 -0 -1.2 0
0.493 0.028 1.863 -0 -1.2 0
0.51 0.021 1.923 -0 -1.2 0
0.53 0.023 2 -0 -1.2 0
0.551 0.024 2.078 -0 -1.2 0
0.574 0.025 2.165 -0 -1.2 0
0.595 0.02 2.244 -0 -1.2 0
0.626 0.03 2.358 -0 -1.2 0
0.654 0.032 2.464 -0 -1.2 0
0.68 0.026 2.562 -0 -1.2 0
0.714 0.029 2.688 -0 -1.2 0
0.752 0.034 2.832 -0 -1.2 0
0.786 0.029 2.959 -0 -1.2 0
0.825 0.026 3.104 -0 -1.2 0
0.871 0.027 3.278 -0 -1.2 0
0.92 0.026 3.462 -0 -1.2 0
0.979 0.029 3.684 -0 -1.2 0
1.046 0.034 3.934 -0 -1.2 0
1.115 0.033 4.196 -0 -1.2 0
1.198 0.034 4.505 -0 -1.2 0
1.296 0.038 4.871 -0 -1.2 0
1.409 0.043 5.296 -0 -1.2 0
1.543 0.047 5.798 -0 -1.2 0
1.712 0.058 6.435 -0 -1.2 0
1.911 0.063 7.179 -0 -1.2 0
2.173 0.077 8.164 -0 -1.2 0
2.505 0.09 9.41 -0 -1.2 0
2.997 0.124 11.255 -0 -1.2 0
3.662 0.149 13.747 -0 -1.2 0
0.348 0.027 1.16 -0 -1.2 0
0.36 0.029 1.199 -0 -1.2 0
0.372 0.03 1.238 -0 -1.2 0
0.382 0.024 1.271 -0 -1.2 0
0.396 0.029 1.318 -0 -1.2 0
0.411 0.034 1.365 -0 -1.2 0
0.426 0.036 1.414 -0 -1.2 0
0.438 0.031 1.455 -0 -1.2 0
0.451 0.025 1.496 -0 -1.2 0
0.466 0.024 1.545 -0 -1.2 0
0.485 0.033 1.61 -0 -1.2 0
0.503 0.035 1.668 -0 -1.2 0
0.518 0.029 1.718 -0 -1.2 0
0.537 0.026 1.777 -0 -1.2 0
0.557 0.028 1.844 -0 -1.2 0
0.576 0.021 1.904 -0 -1.2 0
0.599 0.024 1.98 -0 -1.2 0
0.622 0.024 2.057 -0 -1.2 0
0.646 0.022 2.135 -0 -1.2 0
0.675 0.026 2.23 -0 -1.2 0
0.709 0.035 2.343 -0 -1.2 0
0.739 0.033 2.44 -0 -1.2 0
0.771 0.031 2.546 -0 -1.2 0
0.809 0.034 2.67 -0 -1.2 0
0.847 0.032 2.795 -0 -1.2 0
0.887 0.03 2.93 -0 -1.2 0
0.934 0.03 3.083 -0 -1.2 0
0.984 0.028 3.246 -0 -1.2 0
1.036 0.024 3.42 -0 -1.2 0
1.103 0.028 3.638 -0 -1.2 0
1.181 0.035 3.896 -0 -1.2 0
1.263 0.036 4.164 -0 -1.2 0
1.356 0.039 4.47 -0 -1.2 0
1.463 0.04 4.824 -0 -1.2 0
1.602 0.053 5.282 -0 -1.2 0
1.742 0.049 5.742 -0 -1.2 0
1.934 0.06 6.372 -0 -1.2 0
2.161 0.067 7.118 -0 -1.2 0
2.46 0.083 8.103 -0 -1.2 0
2.861 0.106 9.423 -0 -1.2 0
3.396 0.131 11.182 -0 -1.2 0
4.104 0.144 13.507 -0 -1.2 0
0.386 0.021 1.14 -0 -1.2 0
0.399 0.022 1.179 -0 -1.2 0
0.412 0.023 1.217 -0 -1.2 0
0.426 0.024 1.257 -0 -1.2 0
0.442 0.029 1.303 -0 -1.2 0
0.455 0.027 1.343 -0 -1.2 0
0.471 0.03 1.391 -0 -1.2 0
0.488 0.032 1.439 -0 -1.2 0
0.502 0.026 1.479 -0 -1.2 0
0.518 0.025 1.528 -0 -1.2 0
0.538 0.028 1.585 -0 -1.2 0
0.556 0.024 1.634 -0 -1.2 0
0.577 0.029 1.699 -0 -1.2 0
0.598 0.026 1.757 -0 -1.2 0
0.618 0.023 1.816 -0 -1.2 0
0.641 0.022 1.883 -0 -1.2 0
0.667 0.024 1.958 -0 -1.2 0
0.693 0.025 2.035 -0 -1.2 0
0.719 0.023 2.111 -0 -1.2 0
0.751 0.026 2.205 -0 -1.2 0
0.784 0.027 2.3 -0 -1.2 0
0.819 0.029 2.404 -0 -1.2 0
0.855 0.028 2.509 -0 -1.2 0
0.9 0.034 2.64 -0 -1.2 0
0.945 0.036 2.773 -0 -1.2 0
0.988 0.031 2.897 -0 -1.2 0
1.037 0.028 3.04 -0 -1.2 0
1.095 0.029 3.21 -0 -1.2 0
1.157 0.028 3.39 -0 -1.2 0
1.231 0.031 3.607 -0 -1.2 0
1.312 0.034 3.843 -0 -1.2 0
1.409 0.041 4.127 -0 -1.2 0
1.512 0.042 4.429 -0 -1.2 0
1.629 0.041 4.77 -0 -1.2 0
1.778 0.05 5.205 -0 -1.2 0
1.936 0.048 5.668 -0 -1.2 0
2.153 0.061 6.301 -0 -1.2 0
2.412 0.073 7.058 -0 -1.2 0
2.751 0.091 8.051 -0 -1.2 0
3.182 0.108 9.308 -0 -1.2 0
3.81 0.144 11.143 -0 -1.2 0
4.594 0.155 13.433 -0 -1.2 0
8.389 -0.152 24.509 -0 -1.2 0
8.412 -0.601 24.567 -0 -1.2 0
0.428 0.021 1.125 -0 -1.2 0
0.445 0.03 1.17 -0 -1.2 0
0.457 0.024 1.201 -0 -1.2 0
0.475 0.031 1.247 -0 -1.2 0
0.49 0.029 1.286 -0 -1.2 0
0.505 0.027 1.325 -0 -1.2 0
0.523 0.03 1.372 -0 -1.2 0
0.541 0.032 1.419 -0 -1.2 0
0.556 0.026 1.459 -0 -1.2 0
0.575 0.025 1.507 -0 -1.2 0
0.594 0.022 1.556 -0 -1.2 0
0.618 0.029 1.62 -0 -1.2 0
0.64 0.03 1.677 -0 -1.2 0
0.662 0.027 1.734 -0 -1.2 0
0.685 0.023 1.791 -0 -1.2 0
0.71 0.022 1.858 -0 -1.2 0
0.739 0.025 1.932 -0 -1.2 0
0.768 0.026 2.007 -0 -1.2 0
0.797 0.023 2.083 -0 -1.2 0
0.833 0.027 2.176 -0 -1.2 0
0.872 0.032 2.278 -0 -1.2 0
0.908 0.029 2.372 -0 -1.2 0
0.951 0.033 2.484 -0 -1.2 0
0.994 0.031 2.596 -0 -1.2 0
1.041 0.03 2.718 -0 -1.2 0
1.095 0.032 2.858 -0 -1.2 0
1.152 0.032 3.008 -0 -1.2 0
1.217 0.033 3.176 -0 -1.2 0
1.285 0.032 3.353 -0 -1.2 0
1.368 0.036 3.568 -0 -1.2 0
1.45 0.032 3.783 -0 -1.2 0
1.554 0.037 4.053 -0 -1.2 0
1.676 0.043 4.37 -0 -1.2 0
1.802 0.04 4.697 -0 -1.2 0
1.967 0.049 5.126 -0 -1.2 0
2.157 0.056 5.62 -0 -1.2 0
2.393 0.067 6.235 -0 -1.2 0
2.698 0.085 7.028 -0 -1.2 0
3.042 0.09 7.924 -0 -1.2 0
3.526 0.111 9.183 -0 -1.2 0
4.247 0.154 11.057 -0 -1.2 0
5.133 0.17 13.363 -0 -1.2 0
6.405 0.176 16.669 -0 -1.2 0
6.417 -0.133 16.696 -0 -1.2 0
9.346 -0.14 24.31 -0 -1.2 0
9.368 -0.591 24.358 -0 -1.2 0
0.469 0.028 1.116 -0 -1.2 0
0.482 0.023 1.147 -0 -1.2 0
0.498 0.024 1.185 -0 -1.2 0
0.517 0.031 1.23 -0 -1.2 0
0.533 0.03 1.268 -0 -1.2 0
0.55 0.028 1.307 -0 -1.2 0
0.566 0.024 1.346 -0 -1.2 0
0.586 0.026 1.392 -0 -1.2 0
0.609 0.033 1.447 -0 -1.2 0
0.626 0.025 1.487 -0 -1.2 0
0.647 0.022 1.534 -0 -1.2 0
0.67 0.025 1.59 -0 -1.2 0
0.697 0.03 1.653 -0 -1.2 0
0.721 0.027 1.71 -0 -1.2 0
0.746 0.024 1.767 -0 -1.2 0
0.777 0.028 1.84 -0 -1.2 0
0.805 0.025 1.905 -0 -1.2 0
0.837 0.026 1.98 -0 -1.2 0
0.868 0.024 2.054 -0 -1.2 0
0.913 0.036 2.162 -0 -1.2 0
0.95 0.033 2.246 -0 -1.2 0
0.989 0.03 2.339 -0 -1.2 0
1.033 0.029 2.441 -0 -1.2 0
1.083 0.032 2.56 -0 -1.2 0
1.138 0.034 2.689 -0 -1.2 0
1.193 0.032 2.819 -0 -1.2 0
1.259 0.036 2.975 -0 -1.2 0
1.322 0.031 3.123 -0 -1.2 0
1.397 0.03 3.298 -0 -1.2 0
1.494 0.04 3.527 -0 -1.2 0
1.588 0.038 3.748 -0 -1.2 0
1.693 0.038 3.997 -0 -1.2 0
1.822 0.042 4.3 -0 -1.2 0
1.967 0.044 4.641 -0 -1.2 0
2.142 0.051 5.054 -0 -1.2 0
2.349 0.057 5.542 -0 -1.2 0
2.619 0.074 6.176 -0 -1.2 0
2.943 0.089 6.939 -0 -1.2 0
3.318 0.095 7.823 -0 -1.2 0
3.892 0.129 9.175 -0 -1.2 0
4.608 0.152 10.858 -0 -1.2 0
5.616 0.179 13.232 -0 -1.2 0
10.772 -3.43 25.318 -0 -1.2 0
0.507 0.029 1.099 -0 -1.2 0
0.524 0.03 1.136 -0 -1.2 0
0.541 0.031 1.173 -0 -1.2 0
0.559 0.031 1.211 -0 -1.2 0
0.577 0.03 1.249 -0 -1.2 0
0.595 0.028 1.287 -0 -1.2 0
0.612 0.025 1.325 -0 -1.2 0
0.631 0.02 1.364 -0 -1.2 0
0.655 0.027 1.417 -0 -1.2 0
0.677 0.026 1.464 -0 -1.2 0
0.706 0.035 1.526 -0 -1.2 0
0.728 0.03 1.573 -0 -1.2 0
0.754 0.03 1.628 -0 -1.2 0
0.78 0.028 1.684 -0 -1.2 0
0.807 0.024 1.74 -0 -1.2 0
0.836 0.023 1.804 -0 -1.2 0
0.87 0.026 1.876 -0 -1.2 0
0.904 0.027 1.949 -0 -1.2 0
0.942 0.028 2.031 -0 -1.2 0
0.981 0.028 2.113 -0 -1.2 0
1.027 0.033 2.212 -0 -1.2 0
1.069 0.03 2.304 -0 -1.2 0
1.116 0.03 2.404 -0 -1.2 0
1.171 0.032 2.521 -0 -1.2 0
1.23 0.035 2.648 -0 -1.2 0
1.293 0.036 2.784 -0 -1.2 0
1.361 0.036 2.929 -0 -1.2 0
1.433 0.035 3.084 -0 -1.2 0
1.514 0.034 3.256 -0 -1.2 0
1.615 0.04 3.473 -0 -1.2 0
1.72 0.042 3.7 -0 -1.2 0
1.834 0.041 3.945 -0 -1.2 0
1.97 0.043 4.235 -0 -1.2 0
2.13 0.048 4.579 -0 -1.2 0
2.316 0.052 4.977 -0 -1.2 0
2.544 0.061 5.466 -0 -1.2 0
2.822 0.072 6.064 -0 -1.2 0
3.177 0.089 6.824 -0 -1.2 0
3.629 0.11 7.793 -0 -1.2 0
4.211 0.132 9.043 -0 -1.2 0
4.951 0.148 10.629 -0 -1.2 0
6.104 0.188 13.102 -0 -1.2 0
11.397 -0.093 24.448 -0 -1.2 0
0.544 0.029 1.081 -0 -1.2 0
0.559 0.024 1.111 -0 -1.2 0
0.578 0.024 1.147 -0 -1.2 0
0.603 0.039 1.198 -0 -1.2 0
0.616 0.024 1.221 -0 -1.2 0
0.635 0.022 1.259 -0 -1.2 0
0.657 0.025 1.304 -0 -1.2 0
0.678 0.02 1.342 -0 -1.2 0
0.703 0.027 1.394 -0 -1.2 0
0.73 0.032 1.447 -0 -1.2 0
0.757 0.035 1.501 -0 -1.2 0
0.781 0.031 1.547 -0 -1.2 0
0.806 0.025 1.594 -0 -1.2 0
0.837 0.028 1.656 -0 -1.2 0
0.866 0.024 1.711 -0 -1.2 0
0.902 0.029 1.782 -0 -1.2 0
0.934 0.026 1.845 -0 -1.2 0
0.974 0.031 1.925 -0 -1.2 0
1.011 0.029 1.997 -0 -1.2 0
1.059 0.037 2.094 -0 -1.2 0
1.105 0.038 2.184 -0 -1.2 0
1.152 0.036 2.274 -0 -1.2 0
1.202 0.034 2.372 -0 -1.2 0
1.252 0.029 2.471 -0 -1.2 0
1.316 0.031 2.596 -0 -1.2 0
1.384 0.034 2.73 -0 -1.2 0
1.461 0.037 2.881 -0 -1.2 0
1.534 0.032 3.024 -0 -1.2 0
1.624 0.034 3.202 -0 -1.2 0
1.737 0.044 3.424 -0 -1.2 0
1.842 0.04 3.63 -0 -1.2 0
1.973 0.045 3.888 -0 -1.2 0
2.109 0.041 4.156 -0 -1.2 0
2.281 0.046 4.494 -0 -1.2 0
2.49 0.055 4.903 -0 -1.2 0
2.734 0.064 5.384 -0 -1.2 0
3.02 0.07 5.946 -0 -1.2 0
3.432 0.098 6.755 -0 -1.2 0
3.916 0.119 7.708 -0 -1.2 0
4.542 0.141 8.937 -0 -1.2 0
5.322 0.151 10.47 -0 -1.2 0
6.537 0.189 12.858 -0 -1.2 0
8.618 0.272 16.948 -0 -1.2 0
8.628 -0.058 16.966 -0 -1.2 0
12.18 -0.091 23.944 -0 -1.2 0
0.583 0.029 1.06 -0 -1.2 0
0.599 0.024 1.09 -0 -1.2 0
0.622 0.032 1.132 -0 -1.2 0
0.643 0.032 1.168 -0 -1.2 0
0.659 0.024 1.198 -0 -1.2 0
0.683 0.028 1.242 -0 -1.2 0
0.704 0.025 1.279 -0 -1.2 0
0.729 0.027 1.323 -0 -1.2 0
0.75 0.021 1.36 -0 -1.2 0
0.778 0.026 1.412 -0 -1.2 0
0.803 0.023 1.458 -0 -1.2 0
0.837 0.031 1.518 -0 -1.2 0
0.863 0.025 1.563 -0 -1.2 0
0.896 0.028 1.624 -0 -1.2 0
0.927 0.025 1.678 -0 -1.2 0
0.965 0.029 1.748 -0 -1.2 0
1 0.027 1.81 -0 -1.2 0
1.044 0.031 1.888 -0 -1.2 0
1.083 0.029 1.959 -0 -1.2 0
1.135 0.037 2.054 -0 -1.2 0
1.183 0.038 2.142 -0 -1.2 0
1.229 0.031 2.222 -0 -1.2 0
1.283 0.031 2.319 -0 -1.2 0
1.341 0.029 2.424 -0 -1.2 0
1.414 0.036 2.555 -0 -1.2 0
1.477 0.03 2.669 -0 -1.2 0
1.56 0.034 2.818 -0 -1.2 0
1.647 0.036 2.975 -0 -1.2 0
1.744 0.038 3.15 -0 -1.2 0
1.86 0.045 3.359 -0 -1.2 0
1.982 0.046 3.577 -0 -1.2 0
2.118 0.048 3.822 -0 -1.2 0
2.268 0.047 4.093 -0 -1.2 0
2.448 0.05 4.417 -0 -1.2 0
2.656 0.052 4.793 -0 -1.2 0
2.933 0.066 5.29 -0 -1.2 0
3.248 0.076 5.858 -0 -1.2 0
3.713 0.112 6.695 -0 -1.2 0
4.213 0.126 7.594 -0 -1.2 0
4.864 0.143 8.766 -0 -1.2 0
5.718 0.158 10.304 -0 -1.2 0
6.985 0.189 12.586 -0 -1.2 0
9.17 0.266 16.518 -0 -1.2 0
9.191 -0.059 16.554 -0 -1.2 0
0.618 0.029 1.04 -0 -1.2 0
0.635 0.024 1.069 -0 -1.2 0
0.656 0.025 1.104 -0 -1.2 0
0.681 0.032 1.146 -0 -1.2 0
0.699 0.024 1.175 -0 -1.2 0
0.721 0.022 1.211 -0 -1.2 0
0.746 0.025 1.254 -0 -1.2 0
0.772 0.027 1.298 -0 -1.2 0
0.795 0.021 1.334 -0 -1.2 0
0.825 0.027 1.385 -0 -1.2 0
0.856 0.03 1.437 -0 -1.2 0
0.883 0.026 1.481 -0 -1.2 0
0.918 0.031 1.541 -0 -1.2 0
0.95 0.029 1.593 -0 -1.2 0
0.986 0.031 1.653 -0 -1.2 0
1.023 0.029 1.714 -0 -1.2 0
1.06 0.027 1.775 -0 -1.2 0
1.102 0.028 1.844 -0 -1.2 0
1.148 0.029 1.922 -0 -1.2 0
1.195 0.029 1.999 -0 -1.2 0
1.255 0.039 2.101 -0 -1.2 0
1.308 0.037 2.187 -0 -1.2 0
1.36 0.031 2.274 -0 -1.2 0
1.427 0.034 2.385 -0 -1.2 0
1.494 0.032 2.497 -0 -1.2 0
1.571 0.034 2.626 -0 -1.2 0
1.654 0.035 2.763 -0 -1.2 0
1.746 0.036 2.918 -0 -1.2 0
1.844 0.035 3.081 -0 -1.2 0
1.972 0.046 3.294 -0 -1.2 0
2.101 0.047 3.508 -0 -1.2 0
2.245 0.048 3.748 -0 -1.2 0
2.405 0.048 4.014 -0 -1.2 0
2.575 0.041 4.298 -0 -1.2 0
2.822 0.055 4.708 -0 -1.2 0
3.099 0.064 5.171 -0 -1.2 0
3.459 0.082 5.77 -0 -1.2 0
3.942 0.116 6.573 -0 -1.2 0
4.482 0.131 7.473 -0 -1.2 0
5.157 0.144 8.596 -0 -1.2 0
6.088 0.165 10.148 -0 -1.2 0
7.375 0.185 12.291 -0 -1.2 0
14.445 -0.038 24.059 -0 -1.2 0
0.652 0.029 1.018 -0 -1.2 0
0.675 0.031 1.053 -0 -1.2 0
0.693 0.025 1.081 -0 -1.2 0
0.719 0.032 1.122 -0 -1.2 0
0.742 0.031 1.157 -0 -1.2 0
0.765 0.029 1.193 -0 -1.2 0
0.785 0.019 1.222 -0 -1.2 0
0.811 0.02 1.264 -0 -1.2 0
0.839 0.021 1.307 -0 -1.2 0
0.871 0.027 1.357 -0 -1.2 0
0.904 0.03 1.407 -0 -1.2 0
0.937 0.031 1.458 -0 -1.2 0
0.965 0.025 1.502 -0 -1.2 0
1.003 0.029 1.56 -0 -1.2 0
1.038 0.025 1.612 -0 -1.2 0
1.076 0.024 1.671 -0 -1.2 0
1.119 0.027 1.739 -0 -1.2 0
1.167 0.032 1.814 -0 -1.2 0
1.212 0.03 1.882 -0 -1.2 0
1.27 0.038 1.973 -0 -1.2 0
1.321 0.035 2.049 -0 -1.2 0
1.381 0.037 2.142 -0 -1.2 0
1.436 0.031 2.227 -0 -1.2 0
1.501 0.03 2.328 -0 -1.2 0
1.577 0.032 2.445 -0 -1.2 0
1.664 0.038 2.579 -0 -1.2 0
1.741 0.032 2.698 -0 -1.2 0
1.844 0.037 2.857 -0 -1.2 0
1.952 0.039 3.025 -0 -1.2 0
2.087 0.048 3.234 -0 -1.2 0
2.229 0.053 3.452 -0 -1.2 0
2.37 0.049 3.67 -0 -1.2 0
2.528 0.043 3.914 -0 -1.2 0
2.724 0.043 4.217 -0 -1.2 0
2.979 0.055 4.61 -0 -1.2 0
3.293 0.072 5.096 -0 -1.2 0
3.7 0.098 5.725 -0 -1.2 0
4.162 0.116 6.436 -0 -1.2 0
4.743 0.135 7.334 -0 -1.2 0
5.503 0.158 8.509 -0 -1.2 0
6.492 0.178 10.037 -0 -1.2 0
7.895 0.204 12.203 -0 -1.2 0
10.827 0.345 16.732 -0 -1.2 0
10.851 0 16.768 -0 -1.2 0
10.904 -0.342 16.847 -0 -1.2 0
0.685 0.022 0.988 -0 -1.2 0
0.708 0.024 1.021 -0 -1.2 0
0.736 0.032 1.061 -0 -1.2 0
0.756 0.026 1.089 -0 -1.2 0
0.784 0.031 1.129 -0 -1.2 0
0.812 0.036 1.17 -0 -1.2 0
0.832 0.025 1.198 -0 -1.2 0
0.857 0.02 1.233 -0 -1.2 0
0.891 0.028 1.281 -0 -1.2 0
0.92 0.027 1.324 -0 -1.2 0
0.955 0.03 1.373 -0 -1.2 0
0.989 0.031 1.422 -0 -1.2 0
1.024 0.031 1.472 -0 -1.2 0
1.059 0.029 1.522 -0 -1.2 0
1.096 0.025 1.573 -0 -1.2 0
1.136 0.024 1.631 -0 -1.2 0
1.182 0.027 1.696 -0 -1.2 0
1.233 0.032 1.769 -0 -1.2 0
1.28 0.03 1.836 -0 -1.2 0
1.332 0.029 1.91 -0 -1.2 0
1.395 0.035 1.999 -0 -1.2 0
1.453 0.032 2.082 -0 -1.2 0
1.516 0.031 2.173 -0 -1.2 0
1.591 0.034 2.279 -0 -1.2 0
1.666 0.032 2.386 -0 -1.2 0
1.757 0.038 2.516 -0 -1.2 0
1.844 0.035 2.64 -0 -1.2 0
1.947 0.037 2.787 -0 -1.2 0
2.067 0.042 2.959 -0 -1.2 0
2.204 0.048 3.155 -0 -1.2 0
2.359 0.055 3.375 -0 -1.2 0
2.509 0.051 3.589 -0 -1.2 0
2.687 0.05 3.843 -0 -1.2 0
2.893 0.051 4.138 -0 -1.2 0
3.151 0.057 4.506 -0 -1.2 0
3.506 0.081 5.012 -0 -1.2 0
3.924 0.104 5.609 -0 -1.2 0
4.429 0.125 6.328 -0 -1.2 0
5.043 0.143 7.204 -0 -1.2 0
5.846 0.165 8.35 -0 -1.2 0
6.885 0.184 9.832 -0 -1.2 0
8.337 0.204 11.904 -0 -1.2 0
11.434 0.345 16.323 -0 -1.2 0
11.459 0 16.358 -0 -1.2 0
11.578 -0.338 16.526 -0 -1.2 0
0.723 0.029 0.969 -0 -1.2 0
0.743 0.024 0.996 -0 -1.2 0
0.767 0.025 1.029 -0 -1.2 0
0.788 0.019 1.056 -0 -1.2 0
0.817 0.025 1.095 -0 -1.2 0
0.847 0.029 1.135 -0 -1.2 0
0.868 0.019 1.163 -0 -1.2 0
0.903 0.027 1.209 -0 -1.2 0
0.934 0.028 1.25 -0 -1.2 0
0.97 0.033 1.297 -0 -1.2 0
1.001 0.03 1.339 -0 -1.2 0
1.032 0.026 1.381 -0 -1.2 0
1.074 0.031 1.436 -0 -1.2 0
1.111 0.029 1.485 -0 -1.2 0
1.149 0.025 1.534 -0 -1.2 0
1.192 0.024 1.591 -0 -1.2 0
1.24 0.027 1.654 -0 -1.2 0
1.293 0.032 1.726 -0 -1.2 0
1.342 0.03 1.791 -0 -1.2 0
1.397 0.029 1.863 -0 -1.2 0
1.463 0.035 1.95 -0 -1.2 0
1.523 0.032 2.031 -0 -1.2 0
1.595 0.035 2.127 -0 -1.2 0
1.668 0.034 2.223 -0 -1.2 0
1.747 0.032 2.327 -0 -1.2 0
1.842 0.038 2.454 -0 -1.2 0
1.933 0.035 2.575 -0 -1.2 0
2.047 0.04 2.726 -0 -1.2 0
2.168 0.042 2.886 -0 -1.2 0
2.312 0.048 3.077 -0 -1.2 0
2.468 0.053 3.284 -0 -1.2 0
2.631 0.051 3.5 -0 -1.2 0
2.817 0.05 3.748 -0 -1.2 0
3.046 0.055 4.051 -0 -1.2 0
3.346 0.071 4.45 -0 -1.2 0
3.7 0.088 4.92 -0 -1.2 0
4.133 0.109 5.493 -0 -1.2 0
4.643 0.125 6.172 -0 -1.2 0
5.299 0.146 7.042 -0 -1.2 0
6.159 0.172 8.183 -0 -1.2 0
7.232 0.186 9.605 -0 -1.2 0
8.814 0.214 11.706 -0 -1.2 0
11.191 0.248 14.86 -0 -1.2 0
11.318 -0.063 15.028 -0 -1.2 0
11.315 -0.39 15.024 -0 -1.2 0
11.22 -0.72 14.896 -0 -1.2 0
0.758 0.029 0.942 -0 -1.2 0
0.779 0.024 0.968 -0 -1.2 0
0.809 0.032 1.005 -0 -1.2 0
0.826 0.018 1.026 -0 -1.2 0
0.857 0.024 1.064 -0 -1.2 0
0.889 0.029 1.103 -0 -1.2 0
0.915 0.025 1.136 -0 -1.2 0
0.942 0.02 1.169 -0 -1.2 0
0.979 0.027 1.214 -0 -1.2 0
1.012 0.027 1.254 -0 -1.2 0
1.044 0.024 1.294 -0 -1.2 0
1.088 0.031 1.348 -0 -1.2 0
1.126 0.031 1.395 -0 -1.2 0
1.161 0.023 1.436 -0 -1.2 0
1.209 0.031 1.497 -0 -1.2 0
1.249 0.024 1.545 -0 -1.2 0
1.3 0.027 1.607 -0 -1.2 0
1.351 0.028 1.67 -0 -1.2 0
1.402 0.025 1.733 -0 -1.2 0
1.465 0.029 1.81 -0 -1.2 0
1.528 0.03 1.888 -0 -1.2 0
1.597 0.032 1.973 -0 -1.2 0
1.673 0.035 2.066 -0 -1.2 0
1.755 0.038 2.167 -0 -1.2 0
1.837 0.036 2.268 -0 -1.2 0
1.926 0.034 2.377 -0 -1.2 0
2.027 0.035 2.501 -0 -1.2 0
2.141 0.036 2.641 -0 -1.2 0
2.273 0.042 2.803 -0 -1.2 0
2.43 0.051 2.996 -0 -1.2 0
2.588 0.053 3.19 -0 -1.2 0
2.758 0.051 3.4 -0 -1.2 0
2.966 0.055 3.656 -0 -1.2 0
3.225 0.066 3.973 -0 -1.2 0
3.527 0.078 4.345 -0 -1.2 0
3.899 0.095 4.802 -0 -1.2 0
4.345 0.112 5.351 -0 -1.2 0
4.875 0.127 6.003 -0 -1.2 0
5.544 0.143 6.825 -0 -1.2 0
6.439 0.168 7.926 -0 -1.2 0
7.614 0.19 9.369 -0 -1.2 0
9.293 0.221 11.432 -0 -1.2 0
11.779 0.252 14.488 -0 -1.2 0
13.582 0.086 16.704 -0 -1.2 0
11.611 -0.725 14.284 -0 -1.2 0
11.602 -1.044 14.271 -0 -1.2 0
11.575 -1.363 14.239 -0 -1.2 0
11.16 -1.66 13.729 -0 -1.2 0
11.234 -1.973 13.82 -0 -1.2 0
11.21 -2.28 13.791 -0 -1.2 0
11.108 -2.576 13.665 -0 -1.2 0
0.789 0.029 0.915 -0 -1.2 0
0.811 0.024 0.94 -0 -1.2 0
0.838 0.025 0.971 -0 -1.2 0
0.866 0.026 1.003 -0 -1.2 0
0.898 0.031 1.04 -0 -1.2 0
0.926 0.028 1.071 -0 -1.2 0
0.954 0.025 1.103 -0 -1.2 0
0.982 0.02 1.136 -0 -1.2 0
1.015 0.021 1.174 -0 -1.2 0
1.054 0.026 1.219 -0 -1.2 0
1.094 0.03 1.264 -0 -1.2 0
1.128 0.026 1.303 -0 -1.2 0
1.168 0.025 1.349 -0 -1.2 0
1.209 0.023 1.395 -0 -1.2 0
1.255 0.025 1.448 -0 -1.2 0
1.302 0.024 1.501 -0 -1.2 0
1.354 0.027 1.562 -0 -1.2 0
1.407 0.027 1.622 -0 -1.2 0
1.46 0.025 1.683 -0 -1.2 0
1.52 0.024 1.752 -0 -1.2 0
1.592 0.03 1.834 -0 -1.2 0
1.669 0.037 1.924 -0 -1.2 0
1.743 0.035 2.007 -0 -1.2 0
1.828 0.038 2.105 -0 -1.2 0
1.914 0.036 2.203 -0 -1.2 0
2.006 0.034 2.309 -0 -1.2 0
2.118 0.038 2.437 -0 -1.2 0
2.243 0.043 2.58 -0 -1.2 0
2.374 0.044 2.731 -0 -1.2 0
2.531 0.051 2.911 -0 -1.2 0
2.696 0.053 3.099 -0 -1.2 0
2.88 0.053 3.31 -0 -1.2 0
3.097 0.057 3.559 -0 -1.2 0
3.372 0.07 3.875 -0 -1.2 0
3.681 0.08 4.228 -0 -1.2 0
4.08 0.1 4.686 -0 -1.2 0
4.527 0.112 5.198 -0 -1.2 0
5.111 0.133 5.868 -0 -1.2 0
5.821 0.152 6.682 -0 -1.2 0
6.728 0.171 7.722 -0 -1.2 0
7.97 0.196 9.145 -0 -1.2 0
9.641 0.215 11.059 -0 -1.2 0
13.985 0.071 16.038 -0 -1.2 0
14.022 -0.296 16.082 -0 -1.2 0
11.572 -2.27 13.277 -0 -1.2 0
11.419 -2.558 13.103 -0 -1.2 0
11.407 -2.86 13.09 -0 -1.2 0
11.216 -3.13 12.87 -0 -1.2 0
11.014 -3.389 12.64 -0 -1.2 0
11.116 -3.71 12.757 -0 -1.2 0
11.078 -4 12.714 -0 -1.2 0
11.106 -4.311 12.748 -0 -1.2 0
11.068 -4.603 12.704 -0 -1.2 0
0.82 0.029 0.888 -0 -1.2 0
0.843 0.024 0.912 -0 -1.2 0
0.871 0.025 0.942 -0 -1.2 0
0.899 0.025 0.973 -0 -1.2 0
0.932 0.03 1.009 -0 -1.2 0
0.961 0.028 1.04 -0 -1.2 0
0.99 0.025 1.071 -0 -1.2 0
1.019 0.02 1.102 -0 -1.2 0
1.059 0.027 1.145 -0 -1.2 0
1.094 0.026 1.182 -0 -1.2 0
1.13 0.023 1.22 -0 -1.2 0
1.171 0.026 1.264 -0 -1.2 0
1.212 0.025 1.309 -0 -1.2 0
1.26 0.028 1.36 -0 -1.2 0
1.303 0.025 1.405 -0 -1.2 0
1.351 0.024 1.456 -0 -1.2 0
1.406 0.027 1.515 -0 -1.2 0
1.461 0.027 1.574 -0 -1.2 0
1.51 0.02 1.626 -0 -1.2 0
1.584 0.029 1.706 -0 -1.2 0
1.653 0.03 1.779 -0 -1.2 0
1.728 0.031 1.859 -0 -1.2 0
1.809 0.035 1.947 -0 -1.2 0
1.892 0.033 2.035 -0 -1.2 0
1.993 0.039 2.144 -0 -1.2 0
2.096 0.041 2.254 -0 -1.2 0
2.199 0.037 2.364 -0 -1.2 0
2.315 0.036 2.489 -0 -1.2 0
2.465 0.043 2.649 -0 -1.2 0
2.621 0.047 2.817 -0 -1.2 0
2.799 0.052 3.006 -0 -1.2 0
2.99 0.053 3.211 -0 -1.2 0
3.215 0.057 3.452 -0 -1.2 0
3.521 0.076 3.78 -0 -1.2 0
3.821 0.079 4.102 -0 -1.2 0
4.249 0.103 4.56 -0 -1.2 0
4.713 0.115 5.057 -0 -1.2 0
5.3 0.131 5.685 -0 -1.2 0
6.036 0.149 6.474 -0 -1.2 0
6.999 0.172 7.505 -0 -1.2 0
8.302 0.199 8.899 -0 -1.2 0
10.003 0.212 10.72 -0 -1.2 0
11.29 0.094 12.099 -0 -1.2 0
11.274 -0.194 12.083 -0 -1.2 0
11.276 -0.481 12.086 -0 -1.2 0
11.275 -0.767 12.085 -0 -1.2 0
11.277 -1.053 12.088 -0 -1.2 0
11.282 -1.34 12.095 -0 -1.2 0
11.284 -1.626 12.097 -0 -1.2 0
11.289 -1.913 12.104 -0 -1.2 0
11.298 -2.202 12.114 -0 -1.2 0
11.296 -2.49 12.113 -0 -1.2 0
11.305 -2.781 12.123 -0 -1.2 0
11.27 -3.066 12.086 -0 -1.2 0
10.946 -3.292 11.74 -0 -1.2 0
10.979 -3.583 11.776 -0 -1.2 0
10.92 -3.855 11.714 -0 -1.2 0
10.979 -4.158 11.778 -0 -1.2 0
10.988 -4.451 11.788 -0 -1.2 0
6.781 -6.293 7.288 -0 -1.2 0
4.069 -4.597 4.379 -0 -1.2 0
0.851 0.029 0.858 -0 -1.2 0
0.875 0.024 0.881 -0 -1.2 0
0.909 0.032 0.915 -0 -1.2 0
0.938 0.031 0.945 -0 -1.2 0
0.963 0.024 0.969 -0 -1.2 0
0.998 0.028 1.004 -0 -1.2 0
1.028 0.025 1.034 -0 -1.2 0
1.064 0.027 1.07 -0 -1.2 0
1.1 0.027 1.106 -0 -1.2 0
1.142 0.032 1.148 -0 -1.2 0
1.179 0.029 1.184 -0 -1.2 0
1.221 0.031 1.227 -0 -1.2 0
1.259 0.025 1.264 -0 -1.2 0
1.303 0.023 1.307 -0 -1.2 0
1.353 0.024 1.357 -0 -1.2 0
1.403 0.024 1.407 -0 -1.2 0
1.46 0.026 1.463 -0 -1.2 0
1.517 0.027 1.52 -0 -1.2 0
1.574 0.025 1.577 -0 -1.2 0
1.638 0.024 1.641 -0 -1.2 0
1.721 0.034 1.724 -0 -1.2 0
1.799 0.036 1.802 -0 -1.2 0
1.878 0.034 1.88 -0 -1.2 0
1.97 0.037 1.972 -0 -1.2 0
2.063 0.036 2.064 -0 -1.2 0
2.169 0.037 2.17 -0 -1.2 0
2.283 0.037 2.283 -0 -1.2 0
2.41 0.039 2.41 -0 -1.2 0
2.559 0.043 2.558 -0 -1.2 0
2.721 0.047 2.72 -0 -1.2 0
2.905 0.052 2.903 -0 -1.2 0
3.111 0.055 3.108 -0 -1.2 0
3.358 0.064 3.354 -0 -1.2 0
3.648 0.073 3.643 -0 -1.2 0
3.974 0.081 3.967 -0 -1.2 0
4.418 0.104 4.41 -0 -1.2 0
4.949 0.128 4.938 -0 -1.2 0
5.523 0.135 5.51 -0 -1.2 0
6.288 0.153 6.272 -0 -1.2 0
7.308 0.178 7.288 -0 -1.2 0
8.59 0.193 8.565 -0 -1.2 0
10.349 0.206 10.315 -0 -1.2 0
16.069 0.144 16.014 -0 -1.2 0
16.245 -0.24 16.189 -0 -1.2 0
10.806 -1.852 10.779 -0 -1.2 0
10.872 -2.123 10.846 -0 -1.2 0
10.837 -2.387 10.81 -0 -1.2 0
10.896 -2.662 10.871 -0 -1.2 0
11.198 -2.983 11.173 -0 -1.2 0
11.222 -3.267 11.198 -0 -1.2 0
12.095 -3.739 12.069 -0 -1.2 0
12.123 -4.05 12.098 -0 -1.2 0
12.126 -4.358 12.102 -0 -1.2 0
11.224 -4.4 11.204 -0 -1.2 0
11.084 -4.643 11.066 -0 -1.2 0
7.407 -5.677 7.407 -0 -1.2 0
6.939 -5.795 6.941 -0 -1.2 0
6.987 -6.257 6.99 -0 -1.2 0
4.388 -4.594 4.396 -0 -1.2 0
6.444 -6.688 6.451 -0 -1.2 0
7.028 -7.44 7.035 -0 -1.2 0
6.782 -7.946 6.792 -0 -1.2 0
6.47 -7.87 6.481 -0 -1.2 0
6.237 -8.113 6.25 -0 -1.2 0
0.879 0.029 0.828 -0 -1.2 0
0.909 0.031 0.856 -0 -1.2 0
0.934 0.024 0.879 -0 -1.2 0
0.964 0.025 0.908 -0 -1.2 0
0.994 0.024 0.936 -0 -1.2 0
1.031 0.028 0.97 -0 -1.2 0
1.062 0.025 0.999 -0 -1.2 0
1.099 0.027 1.033 -0 -1.2 0
1.13 0.021 1.062 -0 -1.2 0
1.174 0.026 1.103 -0 -1.2 0
1.212 0.023 1.138 -0 -1.2 0
1.262 0.03 1.185 -0 -1.2 0
1.306 0.031 1.226 -0 -1.2 0
1.351 0.028 1.268 -0 -1.2 0
1.403 0.03 1.316 -0 -1.2 0
1.449 0.024 1.359 -0 -1.2 0
1.508 0.026 1.413 -0 -1.2 0
1.567 0.027 1.468 -0 -1.2 0
1.626 0.024 1.523 -0 -1.2 0
1.699 0.028 1.591 -0 -1.2 0
1.778 0.034 1.665 -0 -1.2 0
1.865 0.04 1.747 -0 -1.2 0
1.946 0.038 1.822 -0 -1.2 0
2.035 0.037 1.904 -0 -1.2 0
2.131 0.035 1.993 -0 -1.2 0
2.247 0.041 2.102 -0 -1.2 0
2.358 0.037 2.205 -0 -1.2 0
2.49 0.038 2.327 -0 -1.2 0
