# .PCD v.7 - Point Cloud Data file format
FIELDS x y z vp_x vp_y vp_z
SIZE 4 4 4 4 4 4
TYPE F F F F F F
COUNT 1 1 1 1 1 1
WIDTH 1557
HEIGHT 1
VIEWPOINT 0 -1.20012 0 1 0 0 0
POINTS 1557
DATA ascii
2.927 -9.122 -19.504 -0 -1.2 0
0.129 0.011 -1.27 -0 -1.2 0
0.133 0.005 -1.303 -0 -1.2 0
0.138 0.005 -1.344 -0 -1.2 0
0.143 0.01 -1.393 -0 -1.2 0
0.147 0.007 -1.435 -0 -1.2 0
0.151 -0.001 -1.469 -0 -1.2 0
0.158 0.005 -1.527 -0 -1.2 0
0.163 0.005 -1.578 -0 -1.2 0
0.169 0.01 -1.637 -0 -1.2 0
0.175 0.006 -1.688 -0 -1.2 0
0.182 0.008 -1.748 -0 -1.2 0
0.188 0.006 -1.808 -0 -1.2 0
0.196 0.01 -1.878 -0 -1.2 0
0.203 0.005 -1.939 -0 -1.2 0
0.211 0.009 -2.018 -0 -1.2 0
0.217 -0.004 -2.071 -0 -1.2 0
0.227 -0.003 -2.151 -0 -1.2 0
0.235 -0.007 -2.232 -0 -1.2 0
0.244 -0.012 -2.313 -0 -1.2 0
0.255 -0.011 -2.412 -0 -1.2 0
0.266 -0.014 -2.512 -0 -1.2 0
0.278 -0.016 -2.622 -0 -1.2 0
0.291 -0.018 -2.742 -0 -1.2 0
0.305 -0.019 -2.871 -0 -1.2 0
0.322 -0.018 -3.02 -0 -1.2 0
0.339 -0.018 -3.178 -0 -1.2 0
0.356 -0.024 -3.338 -0 -1.2 0
0.376 -0.028 -3.517 -0 -1.2 0
0.4 -0.028 -3.735 -0 -1.2 0
0.429 -0.024 -3.993 -0 -1.2 0
0.455 -0.032 -4.242 -0 -1.2 0
0.49 -0.031 -4.56 -0 -1.2 0
0.527 -0.039 -4.888 -0 -1.2 0
0.573 -0.038 -5.315 -0 -1.2 0
0.623 -0.048 -5.762 -0 -1.2 0
0.683 -0.057 -6.31 -0 -1.2 0
0.761 -0.06 -7.024 -0 -1.2 0
0.855 -0.069 -7.879 -0 -1.2 0
0.966 -0.09 -8.893 -0 -1.2 0
1.114 -0.113 -10.235 -0 -1.2 0
1.3 -0.156 -11.925 -0 -1.2 0
1.562 -0.214 -14.31 -0 -1.2 0
1.9 -0.325 -17.372 -0 -1.2 0
2.142 -0.568 -19.54 -0 -1.2 0
2.149 -0.909 -19.544 -0 -1.2 0
2.155 -1.249 -19.544 -0 -1.2 0
2.161 -1.589 -19.538 -0 -1.2 0
2.168 -1.93 -19.537 -0 -1.2 0
2.173 -2.271 -19.528 -0 -1.2 0
2.18 -2.614 -19.534 -0 -1.2 0
2.185 -2.956 -19.524 -0 -1.2 0
2.192 -3.3 -19.528 -0 -1.2 0
2.197 -3.643 -19.515 -0 -1.2 0
2.204 -3.991 -19.517 -0 -1.2 0
2.211 -4.339 -19.512 -0 -1.2 0
2.217 -4.689 -19.51 -0 -1.2 0
2.221 -5.039 -19.493 -0 -1.2 0
1.382 -3.745 -12.056 -0 -1.2 0
2.236 -5.753 -19.498 -0 -1.2 0
2.243 -6.115 -19.501 -0 -1.2 0
2.249 -6.478 -19.496 -0 -1.2 0
2.255 -6.843 -19.485 -0 -1.2 0
2.263 -7.218 -19.495 -0 -1.2 0
2.237 -7.497 -19.207 -0 -1.2 0
2.245 -7.874 -19.214 -0 -1.2 0
2.254 -8.26 -19.232 -0 -1.2 0
2.286 -8.726 -19.437 -0 -1.2 0
2.293 -9.121 -19.439 -0 -1.2 0
0.088 0.008 -1.257 -0 -1.2 0
0.091 0.009 -1.298 -0 -1.2 0
0.095 0.015 -1.347 -0 -1.2 0
0.097 0.007 -1.381 -0 -1.2 0
0.101 0.003 -1.423 -0 -1.2 0
0.104 0 -1.465 -0 -1.2 0
0.107 0.002 -1.515 -0 -1.2 0
0.112 0.007 -1.575 -0 -1.2 0
0.116 0.011 -1.634 -0 -1.2 0
0.12 0.002 -1.677 -0 -1.2 0
0.124 0.003 -1.738 -0 -1.2 0
0.128 -0.002 -1.789 -0 -1.2 0
0.133 0 -1.859 -0 -1.2 0
0.139 0 -1.929 -0 -1.2 0
0.143 0 -2 -0 -1.2 0
0.148 -0.009 -2.061 -0 -1.2 0
0.155 -0.009 -2.143 -0 -1.2 0
0.162 -0.007 -2.232 -0 -1.2 0
0.167 -0.018 -2.303 -0 -1.2 0
0.175 -0.013 -2.413 -0 -1.2 0
0.183 -0.016 -2.513 -0 -1.2 0
0.19 -0.022 -2.614 -0 -1.2 0
0.2 -0.021 -2.743 -0 -1.2 0
0.21 -0.023 -2.873 -0 -1.2 0
0.221 -0.018 -3.032 -0 -1.2 0
0.232 -0.026 -3.172 -0 -1.2 0
0.245 -0.029 -3.342 -0 -1.2 0
0.259 -0.031 -3.531 -0 -1.2 0
0.275 -0.034 -3.741 -0 -1.2 0
0.294 -0.032 -3.999 -0 -1.2 0
0.313 -0.037 -4.258 -0 -1.2 0
0.338 -0.036 -4.587 -0 -1.2 0
0.364 -0.042 -4.926 -0 -1.2 0
0.397 -0.041 -5.364 -0 -1.2 0
0.43 -0.054 -5.813 -0 -1.2 0
0.473 -0.061 -6.382 -0 -1.2 0
0.529 -0.064 -7.119 -0 -1.2 0
0.592 -0.079 -7.957 -0 -1.2 0
0.67 -0.101 -8.994 -0 -1.2 0
0.771 -0.129 -10.34 -0 -1.2 0
0.903 -0.173 -12.085 -0 -1.2 0
1.078 -0.244 -14.4 -0 -1.2 0
1.312 -0.363 -17.5 -0 -1.2 0
1.467 -0.616 -19.504 -0 -1.2 0
1.472 -0.956 -19.489 -0 -1.2 0
1.478 -1.294 -19.489 -0 -1.2 0
1.484 -1.632 -19.482 -0 -1.2 0
1.491 -1.972 -19.479 -0 -1.2 0
1.498 -2.311 -19.48 -0 -1.2 0
1.504 -2.652 -19.486 -0 -1.2 0
1.51 -2.993 -19.475 -0 -1.2 0
1.516 -3.335 -19.469 -0 -1.2 0
1.522 -3.677 -19.466 -0 -1.2 0
1.528 -4.023 -19.467 -0 -1.2 0
1.535 -4.37 -19.461 -0 -1.2 0
1.541 -4.717 -19.45 -0 -1.2 0
1.548 -5.071 -19.462 -0 -1.2 0
1.552 -5.42 -19.439 -0 -1.2 0
1.559 -5.776 -19.438 -0 -1.2 0
1.565 -6.133 -19.43 -0 -1.2 0
1.574 -6.5 -19.445 -0 -1.2 0
1.579 -6.863 -19.433 -0 -1.2 0
1.588 -7.239 -19.453 -0 -1.2 0
1.571 -7.516 -19.163 -0 -1.2 0
1.579 -7.892 -19.17 -0 -1.2 0
1.588 -8.277 -19.189 -0 -1.2 0
1.612 -8.742 -19.394 -0 -1.2 0
1.618 -9.128 -19.377 -0 -1.2 0
1.619 -9.496 -19.307 -0 -1.2 0
0.05 0.005 -1.242 -0 -1.2 0
0.052 -0.001 -1.275 -0 -1.2 0
0.054 0.011 -1.331 -0 -1.2 0
0.056 0.003 -1.366 -0 -1.2 0
0.057 0.006 -1.415 -0 -1.2 0
0.06 -0.003 -1.45 -0 -1.2 0
0.061 -0.002 -1.5 -0 -1.2 0
0.064 0.003 -1.559 -0 -1.2 0
0.067 0.007 -1.618 -0 -1.2 0
0.069 -0.002 -1.662 -0 -1.2 0
0.071 -0.006 -1.714 -0 -1.2 0
0.074 0.003 -1.791 -0 -1.2 0
0.076 -0.005 -1.844 -0 -1.2 0
0.079 -0.004 -1.914 -0 -1.2 0
0.082 -0.01 -1.976 -0 -1.2 0
0.086 -0.009 -2.056 -0 -1.2 0
0.089 -0.01 -2.137 -0 -1.2 0
0.093 -0.013 -2.218 -0 -1.2 0
0.097 -0.019 -2.299 -0 -1.2 0
0.1 -0.02 -2.399 -0 -1.2 0
0.105 -0.023 -2.499 -0 -1.2 0
0.11 -0.025 -2.61 -0 -1.2 0
0.115 -0.024 -2.739 -0 -1.2 0
0.121 -0.022 -2.879 -0 -1.2 0
0.128 -0.026 -3.019 -0 -1.2 0
0.134 -0.028 -3.179 -0 -1.2 0
0.142 -0.034 -3.339 -0 -1.2 0
0.149 -0.037 -3.529 -0 -1.2 0
0.158 -0.047 -3.72 -0 -1.2 0
0.169 -0.044 -3.979 -0 -1.2 0
0.182 -0.043 -4.268 -0 -1.2 0
0.196 -0.042 -4.596 -0 -1.2 0
0.213 -0.042 -4.975 -0 -1.2 0
0.231 -0.047 -5.395 -0 -1.2 0
0.25 -0.063 -5.835 -0 -1.2 0
0.276 -0.068 -6.434 -0 -1.2 0
0.308 -0.071 -7.183 -0 -1.2 0
0.344 -0.092 -8.003 -0 -1.2 0
0.391 -0.113 -9.082 -0 -1.2 0
0.448 -0.15 -10.391 -0 -1.2 0
0.527 -0.195 -12.19 -0 -1.2 0
0.622 -0.281 -14.378 -0 -1.2 0
0.758 -0.407 -17.464 -0 -1.2 0
0.848 -0.665 -19.451 -0 -1.2 0
0.855 -1.004 -19.445 -0 -1.2 0
0.862 -1.341 -19.444 -0 -1.2 0
0.867 -1.677 -19.437 -0 -1.2 0
0.873 -2.016 -19.433 -0 -1.2 0
0.88 -2.354 -19.434 -0 -1.2 0
0.886 -2.693 -19.43 -0 -1.2 0
0.891 -3.032 -19.408 -0 -1.2 0
0.898 -3.375 -19.421 -0 -1.2 0
0.903 -3.716 -19.408 -0 -1.2 0
0.91 -4.059 -19.399 -0 -1.2 0
0.916 -4.404 -19.393 -0 -1.2 0
0.923 -4.753 -19.401 -0 -1.2 0
0.928 -5.102 -19.393 -0 -1.2 0
0.935 -5.454 -19.389 -0 -1.2 0
0.941 -5.804 -19.367 -0 -1.2 0
0.948 -6.165 -19.378 -0 -1.2 0
0.954 -6.525 -19.374 -0 -1.2 0
0.962 -6.89 -19.372 -0 -1.2 0
0.968 -7.262 -19.382 -0 -1.2 0
0.963 -7.553 -19.139 -0 -1.2 0
0.969 -7.912 -19.099 -0 -1.2 0
0.975 -8.289 -19.098 -0 -1.2 0
0.993 -8.759 -19.323 -0 -1.2 0
0.999 -9.141 -19.296 -0 -1.2 0
1.003 -9.507 -19.226 -0 -1.2 0
0.012 -0.011 -1.212 -0 -1.2 0
0.013 -0.004 -1.26 -0 -1.2 0
0.013 0.008 -1.315 -0 -1.2 0
0.014 0 -1.35 -0 -1.2 0
0.014 -0.003 -1.392 -0 -1.2 0
0.015 -0.007 -1.434 -0 -1.2 0
0.015 -0.005 -1.485 -0 -1.2 0
0.016 0.005 -1.551 -0 -1.2 0
0.017 -0.008 -1.587 -0 -1.2 0
0.017 -0.006 -1.647 -0 -1.2 0
0.018 0 -1.715 -0 -1.2 0
0.019 -0.007 -1.768 -0 -1.2 0
0.02 -0.009 -1.829 -0 -1.2 0
0.02 -0.004 -1.908 -0 -1.2 0
0.021 -0.01 -1.97 -0 -1.2 0
0.022 -0.01 -2.05 -0 -1.2 0
0.022 -0.019 -2.113 -0 -1.2 0
0.023 -0.024 -2.194 -0 -1.2 0
0.025 -0.025 -2.284 -0 -1.2 0
0.026 -0.029 -2.374 -0 -1.2 0
0.027 -0.029 -2.485 -0 -1.2 0
0.029 -0.031 -2.594 -0 -1.2 0
0.03 -0.026 -2.734 -0 -1.2 0
0.032 -0.029 -2.864 -0 -1.2 0
0.033 -0.033 -3.005 -0 -1.2 0
0.035 -0.036 -3.164 -0 -1.2 0
0.037 -0.039 -3.334 -0 -1.2 0
0.039 -0.046 -3.515 -0 -1.2 0
0.042 -0.056 -3.705 -0 -1.2 0
0.044 -0.053 -3.964 -0 -1.2 0
0.048 -0.053 -4.254 -0 -1.2 0
0.052 -0.05 -4.593 -0 -1.2 0
0.056 -0.052 -4.972 -0 -1.2 0
0.062 -0.054 -5.411 -0 -1.2 0
0.066 -0.071 -5.852 -0 -1.2 0
0.074 -0.077 -6.452 -0 -1.2 0
0.083 -0.08 -7.231 -0 -1.2 0
0.093 -0.096 -8.111 -0 -1.2 0
0.105 -0.125 -9.152 -0 -1.2 0
0.122 -0.162 -10.512 -0 -1.2 0
0.142 -0.221 -12.222 -0 -1.2 0
0.169 -0.311 -14.412 -0 -1.2 0
0.207 -0.444 -17.521 -0 -1.2 0
0.234 -0.71 -19.4 -0 -1.2 0
0.239 -1.048 -19.384 -0 -1.2 0
0.091 -1.194 -6.234 -0 -1.2 0
0.093 -1.301 -6.231 -0 -1.2 0
0.096 -1.409 -6.257 -0 -1.2 0
0.098 -1.52 -6.28 -0 -1.2 0
0.27 -2.733 -19.365 -0 -1.2 0
0.277 -3.073 -19.363 -0 -1.2 0
0.283 -3.413 -19.366 -0 -1.2 0
0.289 -3.754 -19.352 -0 -1.2 0
0.295 -4.097 -19.352 -0 -1.2 0
0.301 -4.441 -19.346 -0 -1.2 0
0.308 -4.788 -19.344 -0 -1.2 0
0.314 -5.136 -19.336 -0 -1.2 0
0.32 -5.487 -19.33 -0 -1.2 0
0.327 -5.839 -19.318 -0 -1.2 0
0.333 -6.197 -19.32 -0 -1.2 0
0.34 -6.554 -19.305 -0 -1.2 0
0.346 -6.92 -19.312 -0 -1.2 0
0.353 -7.288 -19.312 -0 -1.2 0
0.356 -7.577 -19.069 -0 -1.2 0
0.361 -7.935 -19.029 -0 -1.2 0
0.368 -8.307 -19.018 -0 -1.2 0
0.379 -8.775 -19.233 -0 -1.2 0
0.386 -9.166 -19.234 -0 -1.2 0
0.392 -9.535 -19.173 -0 -1.2 0
-0.025 -0.015 -1.195 -0 -1.2 0
-0.026 -0.014 -1.236 -0 -1.2 0
-0.028 -0.001 -1.292 -0 -1.2 0
-0.029 -0.003 -1.334 -0 -1.2 0
-0.029 -0.012 -1.368 -0 -1.2 0
-0.03 -0.01 -1.418 -0 -1.2 0
-0.032 -0.009 -1.468 -0 -1.2 0
-0.034 -0.004 -1.527 -0 -1.2 0
-0.035 -0.012 -1.571 -0 -1.2 0
-0.036 -0.01 -1.63 -0 -1.2 0
-0.036 -0.015 -1.682 -0 -1.2 0
-0.038 -0.016 -1.743 -0 -1.2 0
-0.039 -0.019 -1.804 -0 -1.2 0
-0.041 -0.018 -1.874 -0 -1.2 0
-0.043 -0.02 -1.945 -0 -1.2 0
-0.044 -0.024 -2.015 -0 -1.2 0
-0.045 -0.025 -2.097 -0 -1.2 0
-0.047 -0.029 -2.177 -0 -1.2 0
-0.049 -0.035 -2.258 -0 -1.2 0
-0.051 -0.035 -2.358 -0 -1.2 0
-0.053 -0.039 -2.458 -0 -1.2 0
-0.056 -0.038 -2.578 -0 -1.2 0
-0.059 -0.045 -2.689 -0 -1.2 0
-0.062 -0.044 -2.828 -0 -1.2 0
-0.065 -0.047 -2.969 -0 -1.2 0
-0.069 -0.049 -3.128 -0 -1.2 0
-0.072 -0.057 -3.289 -0 -1.2 0
-0.076 -0.06 -3.479 -0 -1.2 0
-0.081 -0.064 -3.689 -0 -1.2 0
-0.087 -0.065 -3.938 -0 -1.2 0
-0.094 -0.065 -4.227 -0 -1.2 0
-0.101 -0.069 -4.547 -0 -1.2 0
-0.109 -0.069 -4.926 -0 -1.2 0
-0.119 -0.074 -5.355 -0 -1.2 0
-0.129 -0.088 -5.816 -0 -1.2 0
-0.134 -0.152 -6.06 -0 -1.2 0
-0.131 -0.262 -6.036 -0 -1.2 0
-0.13 -0.366 -6.059 -0 -1.2 0
-0.127 -0.473 -6.052 -0 -1.2 0
-0.124 -0.578 -6.042 -0 -1.2 0
-0.123 -0.684 -6.05 -0 -1.2 0
-0.12 -0.789 -6.047 -0 -1.2 0
-0.12 -0.891 -6.092 -0 -1.2 0
-0.117 -0.997 -6.054 -0 -1.2 0
-0.115 -1.102 -6.066 -0 -1.2 0
-0.113 -1.206 -6.085 -0 -1.2 0
-0.11 -1.308 -6.012 -0 -1.2 0
-0.11 -1.418 -6.107 -0 -1.2 0
-0.109 -1.526 -6.152 -0 -1.2 0
-0.107 -1.633 -6.163 -0 -1.2 0
-0.105 -1.74 -6.153 -0 -1.2 0
-0.103 -1.845 -6.131 -0 -1.2 0
-0.363 -3.791 -19.287 -0 -1.2 0
-0.358 -4.138 -19.306 -0 -1.2 0
-0.35 -4.479 -19.289 -0 -1.2 0
-0.343 -4.826 -19.287 -0 -1.2 0
-0.336 -5.171 -19.268 -0 -1.2 0
-0.329 -5.523 -19.272 -0 -1.2 0
-0.322 -5.875 -19.261 -0 -1.2 0
-0.315 -6.23 -19.252 -0 -1.2 0
-0.308 -6.589 -19.246 -0 -1.2 0
-0.301 -6.951 -19.243 -0 -1.2 0
-0.294 -7.316 -19.233 -0 -1.2 0
-0.284 -7.643 -19.104 -0 -1.2 0
-0.276 -7.968 -18.968 -0 -1.2 0
-0.268 -8.35 -18.985 -0 -1.2 0
-0.262 -8.773 -19.088 -0 -1.2 0
-0.256 -9.193 -19.164 -0 -1.2 0
-0.248 -9.565 -19.111 -0 -1.2 0
-0.063 -0.015 -1.175 -0 -1.2 0
-0.065 -0.022 -1.208 -0 -1.2 0
-0.067 -0.023 -1.249 -0 -1.2 0
-0.071 -0.011 -1.307 -0 -1.2 0
-0.073 -0.013 -1.348 -0 -1.2 0
-0.076 -0.011 -1.398 -0 -1.2 0
-0.078 -0.01 -1.449 -0 -1.2 0
-0.081 -0.011 -1.499 -0 -1.2 0
-0.084 -0.007 -1.559 -0 -1.2 0
-0.087 -0.011 -1.61 -0 -1.2 0
-0.09 -0.022 -1.653 -0 -1.2 0
-0.093 -0.023 -1.714 -0 -1.2 0
-0.097 -0.02 -1.784 -0 -1.2 0
-0.101 -0.019 -1.854 -0 -1.2 0
-0.103 -0.026 -1.915 -0 -1.2 0
-0.107 -0.031 -1.986 -0 -1.2 0
-0.112 -0.026 -2.075 -0 -1.2 0
-0.116 -0.035 -2.147 -0 -1.2 0
-0.121 -0.037 -2.237 -0 -1.2 0
-0.126 -0.037 -2.337 -0 -1.2 0
-0.132 -0.04 -2.437 -0 -1.2 0
-0.138 -0.043 -2.547 -0 -1.2 0
-0.145 -0.043 -2.677 -0 -1.2 0
-0.151 -0.049 -2.797 -0 -1.2 0
-0.159 -0.053 -2.937 -0 -1.2 0
-0.167 -0.055 -3.097 -0 -1.2 0
-0.177 -0.056 -3.276 -0 -1.2 0
-0.186 -0.062 -3.457 -0 -1.2 0
-0.197 -0.07 -3.657 -0 -1.2 0
-0.212 -0.068 -3.915 -0 -1.2 0
-0.226 -0.073 -4.185 -0 -1.2 0
-0.244 -0.075 -4.504 -0 -1.2 0
-0.264 -0.077 -4.882 -0 -1.2 0
-0.287 -0.081 -5.311 -0 -1.2 0
-0.312 -0.097 -5.761 -0 -1.2 0
-0.342 -0.111 -6.32 -0 -1.2 0
-0.37 -0.147 -6.86 -0 -1.2 0
-0.434 -0.126 -8.016 -0 -1.2 0
-0.341 -0.436 -6.414 -0 -1.2 0
-0.329 -0.562 -6.255 -0 -1.2 0
-0.322 -0.677 -6.165 -0 -1.2 0
-0.32 -0.785 -6.161 -0 -1.2 0
-0.317 -0.893 -6.136 -0 -1.2 0
-0.316 -0.999 -6.148 -0 -1.2 0
-0.311 -1.106 -6.11 -0 -1.2 0
-0.301 -1.209 -5.959 -0 -1.2 0
-0.294 -1.308 -5.877 -0 -1.2 0
-0.299 -1.417 -6.002 -0 -1.2 0
-0.304 -1.53 -6.126 -0 -1.2 0
-0.305 -1.641 -6.177 -0 -1.2 0
-0.99 -3.126 -19.267 -0 -1.2 0
-0.982 -3.464 -19.248 -0 -1.2 0
-0.976 -3.806 -19.255 -0 -1.2 0
-0.969 -4.149 -19.254 -0 -1.2 0
-0.962 -4.491 -19.238 -0 -1.2 0
-0.955 -4.837 -19.235 -0 -1.2 0
-0.948 -5.184 -19.226 -0 -1.2 0
-0.94 -5.532 -19.211 -0 -1.2 0
-0.933 -5.886 -19.209 -0 -1.2 0
-0.926 -6.238 -19.19 -0 -1.2 0
-0.919 -6.599 -19.194 -0 -1.2 0
-0.912 -6.959 -19.182 -0 -1.2 0
-0.904 -7.326 -19.181 -0 -1.2 0
-0.892 -7.656 -19.061 -0 -1.2 0
-0.878 -7.974 -18.907 -0 -1.2 0
-0.87 -8.353 -18.915 -0 -1.2 0
-0.866 -8.756 -18.972 -0 -1.2 0
-0.863 -9.191 -19.084 -0 -1.2 0
-0.854 -9.571 -19.051 -0 -1.2 0
-0.102 -0.009 -1.164 -0 -1.2 0
-0.104 -0.022 -1.19 -0 -1.2 0
-0.108 -0.023 -1.23 -0 -1.2 0
-0.113 -0.011 -1.287 -0 -1.2 0
-0.116 -0.014 -1.329 -0 -1.2 0
-0.12 -0.018 -1.37 -0 -1.2 0
-0.125 -0.018 -1.42 -0 -1.2 0
-0.128 -0.017 -1.471 -0 -1.2 0
-0.134 -0.014 -1.531 -0 -1.2 0
-0.138 -0.017 -1.582 -0 -1.2 0
-0.143 -0.017 -1.642 -0 -1.2 0
-0.148 -0.018 -1.703 -0 -1.2 0
-0.153 -0.026 -1.755 -0 -1.2 0
-0.159 -0.026 -1.824 -0 -1.2 0
-0.166 -0.022 -1.904 -0 -1.2 0
-0.171 -0.031 -1.965 -0 -1.2 0
-0.179 -0.027 -2.054 -0 -1.2 0
-0.186 -0.031 -2.135 -0 -1.2 0
-0.192 -0.038 -2.216 -0 -1.2 0
-0.201 -0.038 -2.315 -0 -1.2 0
-0.21 -0.041 -2.416 -0 -1.2 0
-0.22 -0.04 -2.535 -0 -1.2 0
-0.23 -0.047 -2.645 -0 -1.2 0
-0.24 -0.05 -2.775 -0 -1.2 0
-0.252 -0.054 -2.915 -0 -1.2 0
-0.266 -0.056 -3.074 -0 -1.2 0
-0.281 -0.06 -3.243 -0 -1.2 0
-0.299 -0.061 -3.442 -0 -1.2 0
-0.316 -0.065 -3.651 -0 -1.2 0
-0.338 -0.067 -3.9 -0 -1.2 0
-0.361 -0.073 -4.169 -0 -1.2 0
-0.388 -0.075 -4.487 -0 -1.2 0
-0.421 -0.077 -4.865 -0 -1.2 0
-0.456 -0.085 -5.273 -0 -1.2 0
-0.494 -0.101 -5.722 -0 -1.2 0
-0.545 -0.112 -6.299 -0 -1.2 0
-0.615 -0.109 -7.115 -0 -1.2 0
-0.688 -0.131 -7.972 -0 -1.2 0
-0.781 -0.158 -9.048 -0 -1.2 0
-0.886 -0.211 -10.275 -0 -1.2 0
-1.014 -0.286 -11.779 -0 -1.2 0
-1.195 -0.382 -13.891 -0 -1.2 0
-1.427 -0.531 -16.61 -0 -1.2 0
-0.562 -0.992 -6.697 -0 -1.2 0
-0.561 -1.109 -6.708 -0 -1.2 0
-0.559 -1.225 -6.707 -0 -1.2 0
-0.555 -1.341 -6.694 -0 -1.2 0
-0.553 -1.458 -6.7 -0 -1.2 0
-0.554 -1.577 -6.722 -0 -1.2 0
-1.613 -2.798 -19.239 -0 -1.2 0
-1.605 -3.136 -19.228 -0 -1.2 0
-1.598 -3.475 -19.219 -0 -1.2 0
-1.59 -3.815 -19.206 -0 -1.2 0
-1.584 -4.159 -19.205 -0 -1.2 0
-1.577 -4.503 -19.199 -0 -1.2 0
-1.57 -4.848 -19.186 -0 -1.2 0
-1.563 -5.197 -19.187 -0 -1.2 0
-1.556 -5.547 -19.182 -0 -1.2 0
-1.547 -5.896 -19.16 -0 -1.2 0
-1.54 -6.251 -19.151 -0 -1.2 0
-1.533 -6.61 -19.146 -0 -1.2 0
-1.526 -6.973 -19.143 -0 -1.2 0
-1.518 -7.338 -19.133 -0 -1.2 0
-1.498 -7.652 -18.966 -0 -1.2 0
-1.483 -7.985 -18.859 -0 -1.2 0
-1.474 -8.356 -18.848 -0 -1.2 0
-1.473 -8.764 -18.915 -0 -1.2 0
-1.476 -9.206 -19.045 -0 -1.2 0
-1.465 -9.582 -19.002 -0 -1.2 0
-0.142 -0.016 -1.135 -0 -1.2 0
-0.147 -0.016 -1.175 -0 -1.2 0
-0.151 -0.024 -1.209 -0 -1.2 0
-0.156 -0.019 -1.257 -0 -1.2 0
-0.162 -0.021 -1.299 -0 -1.2 0
-0.169 -0.012 -1.357 -0 -1.2 0
-0.174 -0.018 -1.399 -0 -1.2 0
-0.181 -0.012 -1.457 -0 -1.2 0
-0.186 -0.02 -1.5 -0 -1.2 0
-0.194 -0.018 -1.559 -0 -1.2 0
-0.201 -0.017 -1.619 -0 -1.2 0
-0.208 -0.018 -1.679 -0 -1.2 0
-0.216 -0.021 -1.74 -0 -1.2 0
-0.223 -0.021 -1.81 -0 -1.2 0
-0.232 -0.023 -1.88 -0 -1.2 0
-0.24 -0.032 -1.942 -0 -1.2 0
-0.248 -0.037 -2.012 -0 -1.2 0
-0.259 -0.037 -2.102 -0 -1.2 0
-0.269 -0.039 -2.192 -0 -1.2 0
-0.283 -0.035 -2.3 -0 -1.2 0
-0.294 -0.042 -2.391 -0 -1.2 0
-0.307 -0.045 -2.5 -0 -1.2 0
-0.321 -0.049 -2.619 -0 -1.2 0
-0.337 -0.051 -2.749 -0 -1.2 0
-0.355 -0.052 -2.897 -0 -1.2 0
-0.373 -0.057 -3.046 -0 -1.2 0
-0.393 -0.062 -3.215 -0 -1.2 0
-0.416 -0.065 -3.404 -0 -1.2 0
-0.441 -0.07 -3.612 -0 -1.2 0
-0.473 -0.069 -3.869 -0 -1.2 0
-0.505 -0.074 -4.137 -0 -1.2 0
-0.541 -0.082 -4.435 -0 -1.2 0
-0.584 -0.088 -4.792 -0 -1.2 0
-0.636 -0.091 -5.218 -0 -1.2 0
-0.69 -0.108 -5.665 -0 -1.2 0
-0.761 -0.116 -6.25 -0 -1.2 0
-0.792 -0.19 -6.522 -0 -1.2 0
-0.8 -0.296 -6.606 -0 -1.2 0
-0.796 -0.416 -6.59 -0 -1.2 0
-0.792 -0.533 -6.571 -0 -1.2 0
-0.784 -0.652 -6.531 -0 -1.2 0
-0.783 -0.768 -6.539 -0 -1.2 0
-0.776 -0.884 -6.494 -0 -1.2 0
-0.776 -0.997 -6.517 -0 -1.2 0
-0.777 -1.112 -6.538 -0 -1.2 0
-0.776 -1.226 -6.547 -0 -1.2 0
-0.773 -1.34 -6.544 -0 -1.2 0
-0.773 -1.456 -6.559 -0 -1.2 0
-0.773 -1.572 -6.572 -0 -1.2 0
-0.777 -1.692 -6.623 -0 -1.2 0
-0.77 -1.805 -6.582 -0 -1.2 0
-0.762 -1.915 -6.529 -0 -1.2 0
-0.759 -2.032 -6.534 -0 -1.2 0
-2.251 -4.173 -19.159 -0 -1.2 0
-2.244 -4.518 -19.153 -0 -1.2 0
-2.237 -4.865 -19.15 -0 -1.2 0
-2.229 -5.212 -19.132 -0 -1.2 0
-2.221 -5.563 -19.126 -0 -1.2 0
-2.213 -5.914 -19.114 -0 -1.2 0
-2.206 -6.27 -19.105 -0 -1.2 0
-2.199 -6.629 -19.099 -0 -1.2 0
-2.191 -6.99 -19.087 -0 -1.2 0
-2.182 -7.356 -19.078 -0 -1.2 0
-2.16 -7.679 -18.938 -0 -1.2 0
-2.138 -8.004 -18.804 -0 -1.2 0
-2.131 -8.38 -18.803 -0 -1.2 0
-2.13 -8.784 -18.859 -0 -1.2 0
-2.138 -9.23 -18.998 -0 -1.2 0
-2.126 -9.603 -18.946 -0 -1.2 0
-0.179 -0.016 -1.112 -0 -1.2 0
-0.186 -0.016 -1.153 -0 -1.2 0
-0.193 -0.009 -1.2 -0 -1.2 0
-0.2 -0.011 -1.242 -0 -1.2 0
-0.205 -0.021 -1.276 -0 -1.2 0
-0.213 -0.018 -1.325 -0 -1.2 0
-0.219 -0.024 -1.367 -0 -1.2 0
-0.229 -0.012 -1.432 -0 -1.2 0
-0.235 -0.02 -1.475 -0 -1.2 0
-0.244 -0.018 -1.534 -0 -1.2 0
-0.254 -0.017 -1.594 -0 -1.2 0
-0.264 -0.013 -1.662 -0 -1.2 0
-0.271 -0.026 -1.706 -0 -1.2 0
-0.282 -0.026 -1.775 -0 -1.2 0
-0.293 -0.023 -1.853 -0 -1.2 0
-0.304 -0.027 -1.923 -0 -1.2 0
-0.317 -0.028 -2.003 -0 -1.2 0
-0.329 -0.032 -2.083 -0 -1.2 0
-0.341 -0.039 -2.163 -0 -1.2 0
-0.358 -0.035 -2.271 -0 -1.2 0
-0.373 -0.038 -2.37 -0 -1.2 0
-0.389 -0.041 -2.479 -0 -1.2 0
-0.406 -0.049 -2.589 -0 -1.2 0
-0.426 -0.051 -2.718 -0 -1.2 0
-0.449 -0.052 -2.866 -0 -1.2 0
-0.47 -0.06 -3.005 -0 -1.2 0
-0.497 -0.062 -3.182 -0 -1.2 0
-0.526 -0.065 -3.37 -0 -1.2 0
-0.556 -0.073 -3.568 -0 -1.2 0
-0.594 -0.075 -3.814 -0 -1.2 0
-0.637 -0.077 -4.09 -0 -1.2 0
-0.685 -0.08 -4.406 -0 -1.2 0
-0.742 -0.084 -4.772 -0 -1.2 0
-0.804 -0.09 -5.187 -0 -1.2 0
-0.876 -0.103 -5.651 -0 -1.2 0
-0.962 -0.116 -6.214 -0 -1.2 0
-1.083 -0.117 -7.003 -0 -1.2 0
-1.227 -0.129 -7.932 -0 -1.2 0
-1.389 -0.158 -9 -0 -1.2 0
-1.571 -0.216 -10.187 -0 -1.2 0
-1.012 -0.646 -6.593 -0 -1.2 0
-1.008 -0.764 -6.59 -0 -1.2 0
-1.001 -0.881 -6.556 -0 -1.2 0
-1 -0.997 -6.559 -0 -1.2 0
-1.001 -1.113 -6.579 -0 -1.2 0
-0.997 -1.228 -6.57 -0 -1.2 0
-1.002 -1.345 -6.616 -0 -1.2 0
-0.996 -1.462 -6.591 -0 -1.2 0
-0.993 -1.578 -6.584 -0 -1.2 0
-0.999 -1.7 -6.634 -0 -1.2 0
-0.219 -0.009 -1.096 -0 -1.2 0
-0.226 -0.009 -1.137 -0 -1.2 0
-0.234 -0.01 -1.177 -0 -1.2 0
-0.242 -0.012 -1.218 -0 -1.2 0
-0.249 -0.014 -1.259 -0 -1.2 0
-0.257 -0.018 -1.301 -0 -1.2 0
-0.267 -0.018 -1.35 -0 -1.2 0
-0.275 -0.018 -1.4 -0 -1.2 0
-0.286 -0.014 -1.458 -0 -1.2 0
-0.296 -0.018 -1.509 -0 -1.2 0
-0.307 -0.017 -1.568 -0 -1.2 0
-0.32 -0.014 -1.636 -0 -1.2 0
-0.33 -0.017 -1.696 -0 -1.2 0
-0.342 -0.021 -1.757 -0 -1.2 0
-0.355 -0.023 -1.826 -0 -1.2 0
-0.366 -0.033 -1.888 -0 -1.2 0
-0.382 -0.028 -1.975 -0 -1.2 0
-0.396 -0.038 -2.046 -0 -1.2 0
-0.414 -0.035 -2.143 -0 -1.2 0
-0.432 -0.035 -2.242 -0 -1.2 0
-0.453 -0.036 -2.349 -0 -1.2 0
-0.471 -0.042 -2.449 -0 -1.2 0
-0.495 -0.042 -2.577 -0 -1.2 0
-0.516 -0.049 -2.696 -0 -1.2 0
-0.541 -0.057 -2.824 -0 -1.2 0
-0.571 -0.055 -2.991 -0 -1.2 0
-0.6 -0.066 -3.14 -0 -1.2 0
-0.639 -0.061 -3.354 -0 -1.2 0
-0.674 -0.072 -3.542 -0 -1.2 0
-0.721 -0.07 -3.796 -0 -1.2 0
-0.771 -0.077 -4.061 -0 -1.2 0
-0.831 -0.078 -4.385 -0 -1.2 0
-0.899 -0.082 -4.749 -0 -1.2 0
-0.975 -0.091 -5.152 -0 -1.2 0
-1.062 -0.102 -5.623 -0 -1.2 0
-1.174 -0.109 -6.222 -0 -1.2 0
-1.319 -0.113 -6.998 -0 -1.2 0
-1.521 -0.106 -8.078 -0 -1.2 0
-1.704 -0.148 -9.061 -0 -1.2 0
-1.91 -0.214 -10.174 -0 -1.2 0
-2.191 -0.291 -11.688 -0 -1.2 0
-2.563 -0.396 -13.694 -0 -1.2 0
-3.168 -0.53 -16.947 -0 -1.2 0
-4.438 -12.404 -24.866 -0 -1.2 0
-0.259 -0.01 -1.071 -0 -1.2 0
-0.267 -0.016 -1.104 -0 -1.2 0
-0.277 -0.01 -1.151 -0 -1.2 0
-0.287 -0.012 -1.192 -0 -1.2 0
-0.294 -0.022 -1.225 -0 -1.2 0
-0.309 -0.007 -1.289 -0 -1.2 0
-0.315 -0.019 -1.323 -0 -1.2 0
-0.328 -0.013 -1.38 -0 -1.2 0
-0.34 -0.015 -1.43 -0 -1.2 0
-0.353 -0.013 -1.488 -0 -1.2 0
-0.362 -0.024 -1.531 -0 -1.2 0
-0.377 -0.019 -1.598 -0 -1.2 0
-0.39 -0.022 -1.658 -0 -1.2 0
-0.406 -0.022 -1.727 -0 -1.2 0
-0.419 -0.029 -1.788 -0 -1.2 0
-0.436 -0.029 -1.866 -0 -1.2 0
-0.454 -0.029 -1.944 -0 -1.2 0
-0.469 -0.038 -2.014 -0 -1.2 0
-0.491 -0.035 -2.111 -0 -1.2 0
-0.512 -0.036 -2.209 -0 -1.2 0
-0.534 -0.04 -2.307 -0 -1.2 0
-0.56 -0.04 -2.423 -0 -1.2 0
-0.584 -0.047 -2.532 -0 -1.2 0
-0.612 -0.05 -2.659 -0 -1.2 0
-0.645 -0.051 -2.805 -0 -1.2 0
-0.678 -0.056 -2.951 -0 -1.2 0
-0.712 -0.064 -3.108 -0 -1.2 0
-0.755 -0.065 -3.304 -0 -1.2 0
-0.801 -0.07 -3.508 -0 -1.2 0
-0.859 -0.067 -3.77 -0 -1.2 0
-0.922 -0.068 -4.053 -0 -1.2 0
-0.992 -0.072 -4.365 -0 -1.2 0
-1.069 -0.079 -4.716 -0 -1.2 0
-1.161 -0.087 -5.126 -0 -1.2 0
-1.265 -0.099 -5.595 -0 -1.2 0
-1.399 -0.106 -6.199 -0 -1.2 0
-1.584 -0.102 -7.027 -0 -1.2 0
-1.833 -0.091 -8.149 -0 -1.2 0
-2.04 -0.142 -9.077 -0 -1.2 0
-2.278 -0.212 -10.153 -0 -1.2 0
-2.611 -0.291 -11.656 -0 -1.2 0
-3.057 -0.397 -13.668 -0 -1.2 0
-3.815 -0.527 -17.083 -0 -1.2 0
-5.579 -10.248 -25.756 -0 -1.2 0
-5.064 -11.391 -23.531 -0 -1.2 0
-0.3 0.003 -1.059 -0 -1.2 0
-0.309 -0.003 -1.091 -0 -1.2 0
-0.319 -0.004 -1.132 -0 -1.2 0
-0.33 -0.006 -1.172 -0 -1.2 0
-0.337 -0.015 -1.205 -0 -1.2 0
-0.35 -0.013 -1.254 -0 -1.2 0
-0.363 -0.012 -1.303 -0 -1.2 0
-0.376 -0.013 -1.352 -0 -1.2 0
-0.387 -0.015 -1.402 -0 -1.2 0
-0.403 -0.014 -1.46 -0 -1.2 0
-0.418 -0.013 -1.518 -0 -1.2 0
-0.431 -0.02 -1.569 -0 -1.2 0
-0.448 -0.018 -1.636 -0 -1.2 0
-0.465 -0.017 -1.704 -0 -1.2 0
-0.481 -0.025 -1.764 -0 -1.2 0
-0.5 -0.024 -1.841 -0 -1.2 0
-0.518 -0.03 -1.911 -0 -1.2 0
-0.538 -0.034 -1.989 -0 -1.2 0
-0.561 -0.036 -2.077 -0 -1.2 0
-0.587 -0.033 -2.183 -0 -1.2 0
-0.611 -0.041 -2.272 -0 -1.2 0
-0.64 -0.04 -2.387 -0 -1.2 0
-0.668 -0.048 -2.495 -0 -1.2 0
-0.707 -0.04 -2.648 -0 -1.2 0
-0.741 -0.045 -2.784 -0 -1.2 0
-0.776 -0.054 -2.92 -0 -1.2 0
-0.821 -0.056 -3.095 -0 -1.2 0
-0.871 -0.058 -3.288 -0 -1.2 0
-0.933 -0.053 -3.529 -0 -1.2 0
-0.991 -0.058 -3.762 -0 -1.2 0
-1.061 -0.063 -4.033 -0 -1.2 0
-1.145 -0.063 -4.361 -0 -1.2 0
-1.237 -0.069 -4.72 -0 -1.2 0
-1.345 -0.074 -5.145 -0 -1.2 0
-1.462 -0.089 -5.601 -0 -1.2 0
-1.631 -0.087 -6.259 -0 -1.2 0
-1.856 -0.078 -7.139 -0 -1.2 0
-2.129 -0.078 -8.204 -0 -1.2 0
-2.372 -0.127 -9.154 -0 -1.2 0
-2.661 -0.196 -10.29 -0 -1.2 0
-3.035 -0.28 -11.754 -0 -1.2 0
-3.576 -0.385 -13.875 -0 -1.2 0
-7.062 -1.17 -27.535 -0 -1.2 0
-7.055 -1.668 -27.542 -0 -1.2 0
-7.059 -2.166 -27.588 -0 -1.2 0
-7.062 -2.667 -27.636 -0 -1.2 0
-7.044 -3.166 -27.597 -0 -1.2 0
-5.933 -9.104 -23.648 -0 -1.2 0
-5.7 -9.258 -22.749 -0 -1.2 0
-5.641 -10.601 -22.606 -0 -1.2 0
-5.753 -11.289 -23.087 -0 -1.2 0
-5.774 -11.839 -23.205 -0 -1.2 0
-0.336 -0.003 -1.025 -0 -1.2 0
-0.346 -0.01 -1.056 -0 -1.2 0
-0.358 -0.011 -1.097 -0 -1.2 0
-0.371 -0.006 -1.144 -0 -1.2 0
-0.386 -0.003 -1.191 -0 -1.2 0
-0.397 -0.007 -1.232 -0 -1.2 0
-0.409 -0.012 -1.273 -0 -1.2 0
-0.425 -0.008 -1.329 -0 -1.2 0
-0.44 -0.01 -1.379 -0 -1.2 0
-0.451 -0.019 -1.421 -0 -1.2 0
-0.471 -0.013 -1.486 -0 -1.2 0
-0.486 -0.02 -1.536 -0 -1.2 0
-0.505 -0.018 -1.603 -0 -1.2 0
-0.522 -0.023 -1.662 -0 -1.2 0
-0.542 -0.025 -1.73 -0 -1.2 0
-0.564 -0.025 -1.807 -0 -1.2 0
-0.587 -0.026 -1.885 -0 -1.2 0
-0.611 -0.025 -1.971 -0 -1.2 0
-0.634 -0.033 -2.049 -0 -1.2 0
-0.662 -0.034 -2.145 -0 -1.2 0
-0.693 -0.034 -2.251 -0 -1.2 0
-0.726 -0.034 -2.365 -0 -1.2 0
-0.755 -0.045 -2.463 -0 -1.2 0
-0.791 -0.048 -2.588 -0 -1.2 0
-0.838 -0.043 -2.75 -0 -1.2 0
-0.879 -0.049 -2.895 -0 -1.2 0
-0.931 -0.052 -3.067 -0 -1.2 0
-0.989 -0.051 -3.268 -0 -1.2 0
-1.053 -0.051 -3.489 -0 -1.2 0
-1.122 -0.055 -3.729 -0 -1.2 0
-1.214 -0.048 -4.044 -0 -1.2 0
-1.306 -0.052 -4.361 -0 -1.2 0
-1.409 -0.059 -4.716 -0 -1.2 0
-1.529 -0.067 -5.129 -0 -1.2 0
-1.68 -0.071 -5.647 -0 -1.2 0
-1.87 -0.073 -6.299 -0 -1.2 0
-2.148 -0.054 -7.257 -0 -1.2 0
-2.439 -0.065 -8.255 -0 -1.2 0
-2.696 -0.124 -9.141 -0 -1.2 0
-3.033 -0.19 -10.305 -0 -1.2 0
-3.482 -0.272 -11.852 -0 -1.2 0
-4.131 -0.375 -14.089 -0 -1.2 0
-7.903 -5.198 -27.328 -0 -1.2 0
-7.88 -5.697 -27.277 -0 -1.2 0
-7.846 -6.192 -27.188 -0 -1.2 0
-7.804 -6.68 -27.072 -0 -1.2 0
-7.196 -7.209 -25.011 -0 -1.2 0
-6.686 -7.689 -23.283 -0 -1.2 0
-6.38 -10.138 -22.37 -0 -1.2 0
-6.615 -13.604 -23.372 -0 -1.2 0
-0.38 0.002 -1.002 -0 -1.2 0
-0.395 0.009 -1.047 -0 -1.2 0
-0.403 -0.005 -1.073 -0 -1.2 0
-0.418 -0.001 -1.12 -0 -1.2 0
-0.429 -0.011 -1.153 -0 -1.2 0
-0.445 -0.009 -1.2 -0 -1.2 0
-0.461 -0.008 -1.248 -0 -1.2 0
-0.474 -0.015 -1.289 -0 -1.2 0
-0.495 -0.005 -1.353 -0 -1.2 0
-0.509 -0.015 -1.394 -0 -1.2 0
-0.527 -0.014 -1.451 -0 -1.2 0
-0.547 -0.017 -1.509 -0 -1.2 0
-0.566 -0.02 -1.567 -0 -1.2 0
-0.585 -0.024 -1.626 -0 -1.2 0
-0.61 -0.022 -1.701 -0 -1.2 0
-0.632 -0.026 -1.768 -0 -1.2 0
-0.654 -0.032 -1.837 -0 -1.2 0
-0.683 -0.032 -1.923 -0 -1.2 0
-0.717 -0.026 -2.025 -0 -1.2 0
-0.745 -0.031 -2.112 -0 -1.2 0
-0.78 -0.031 -2.216 -0 -1.2 0
-0.814 -0.036 -2.321 -0 -1.2 0
-0.852 -0.039 -2.435 -0 -1.2 0
-0.892 -0.043 -2.56 -0 -1.2 0
-0.939 -0.045 -2.702 -0 -1.2 0
-0.992 -0.045 -2.863 -0 -1.2 0
-1.046 -0.051 -3.024 -0 -1.2 0
-1.111 -0.051 -3.224 -0 -1.2 0
-1.186 -0.049 -3.451 -0 -1.2 0
-1.267 -0.051 -3.697 -0 -1.2 0
-1.37 -0.045 -4.009 -0 -1.2 0
-1.464 -0.056 -4.294 -0 -1.2 0
-1.601 -0.049 -4.711 -0 -1.2 0
-1.742 -0.055 -5.139 -0 -1.2 0
-1.908 -0.063 -5.642 -0 -1.2 0
-2.12 -0.067 -6.287 -0 -1.2 0
-2.423 -0.054 -7.207 -0 -1.2 0
-2.726 -0.075 -8.129 -0 -1.2 0
-3.014 -0.134 -9.004 -0 -1.2 0
-3.411 -0.196 -10.213 -0 -1.2 0
-3.929 -0.278 -11.79 -0 -1.2 0
-4.663 -0.383 -14.022 -0 -1.2 0
-7.668 -6.92 -23.459 -0 -1.2 0
-7.864 -7.543 -24.08 -0 -1.2 0
-7.508 -9.118 -23.079 -0 -1.2 0
-7.527 -9.621 -23.16 -0 -1.2 0
-8.019 -11.228 -24.73 -0 -1.2 0
-7.688 -11.849 -23.754 -0 -1.2 0
-0.417 0.001 -0.97 -0 -1.2 0
-0.432 0.001 -1.009 -0 -1.2 0
-0.449 0.006 -1.055 -0 -1.2 0
-0.461 -0.002 -1.087 -0 -1.2 0
-0.474 -0.005 -1.127 -0 -1.2 0
-0.492 -0.003 -1.174 -0 -1.2 0
-0.507 -0.009 -1.214 -0 -1.2 0
-0.527 -0.004 -1.269 -0 -1.2 0
-0.541 -0.012 -1.31 -0 -1.2 0
-0.562 -0.011 -1.366 -0 -1.2 0
-0.58 -0.016 -1.415 -0 -1.2 0
-0.601 -0.018 -1.472 -0 -1.2 0
-0.625 -0.016 -1.537 -0 -1.2 0
-0.646 -0.021 -1.595 -0 -1.2 0
-0.674 -0.019 -1.671 -0 -1.2 0
-0.698 -0.023 -1.738 -0 -1.2 0
-0.729 -0.02 -1.821 -0 -1.2 0
-0.754 -0.029 -1.889 -0 -1.2 0
-0.787 -0.028 -1.982 -0 -1.2 0
-0.825 -0.026 -2.085 -0 -1.2 0
-0.864 -0.026 -2.188 -0 -1.2 0
-0.901 -0.03 -2.292 -0 -1.2 0
-0.942 -0.034 -2.406 -0 -1.2 0
-0.987 -0.039 -2.528 -0 -1.2 0
-1.045 -0.034 -2.686 -0 -1.2 0
-1.101 -0.038 -2.837 -0 -1.2 0
-1.162 -0.041 -3.007 -0 -1.2 0
-1.234 -0.042 -3.203 -0 -1.2 0
-1.32 -0.038 -3.436 -0 -1.2 0
-1.406 -0.044 -3.672 -0 -1.2 0
-1.512 -0.044 -3.962 -0 -1.2 0
-1.632 -0.044 -4.29 -0 -1.2 0
-1.787 -0.037 -4.712 -0 -1.2 0
-1.945 -0.042 -5.143 -0 -1.2 0
-2.136 -0.048 -5.669 -0 -1.2 0
-2.371 -0.054 -6.307 -0 -1.2 0
-2.686 -0.051 -7.171 -0 -1.2 0
-3.017 -0.075 -8.073 -0 -1.2 0
-3.353 -0.13 -8.995 -0 -1.2 0
-3.813 -0.189 -10.254 -0 -1.2 0
-4.414 -0.269 -11.899 -0 -1.2 0
-5.182 -0.386 -14.003 -0 -1.2 0
-6.792 -0.507 -18.406 -0 -1.2 0
-8.471 -7.427 -23.283 -0 -1.2 0
-8.394 -8.78 -23.127 -0 -1.2 0
-8.667 -12.122 -24.014 -0 -1.2 0
-0.454 0 -0.94 -0 -1.2 0
-0.469 0 -0.979 -0 -1.2 0
-0.488 0.005 -1.024 -0 -1.2 0
-0.503 0.003 -1.063 -0 -1.2 0
-0.519 0 -1.102 -0 -1.2 0
-0.535 -0.004 -1.141 -0 -1.2 0
-0.554 -0.004 -1.188 -0 -1.2 0
-0.572 -0.006 -1.236 -0 -1.2 0
-0.591 -0.008 -1.283 -0 -1.2 0
-0.614 -0.006 -1.339 -0 -1.2 0
-0.634 -0.012 -1.387 -0 -1.2 0
-0.656 -0.014 -1.444 -0 -1.2 0
-0.679 -0.017 -1.501 -0 -1.2 0
-0.705 -0.018 -1.566 -0 -1.2 0
-0.732 -0.02 -1.631 -0 -1.2 0
-0.758 -0.025 -1.698 -0 -1.2 0
-0.791 -0.022 -1.781 -0 -1.2 0
-0.822 -0.027 -1.856 -0 -1.2 0
-0.862 -0.021 -1.957 -0 -1.2 0
-0.903 -0.019 -2.058 -0 -1.2 0
-0.94 -0.024 -2.152 -0 -1.2 0
-0.985 -0.025 -2.264 -0 -1.2 0
-1.031 -0.029 -2.376 -0 -1.2 0
-1.086 -0.027 -2.514 -0 -1.2 0
-1.145 -0.027 -2.662 -0 -1.2 0
-1.206 -0.031 -2.811 -0 -1.2 0
-1.276 -0.032 -2.987 -0 -1.2 0
-1.351 -0.036 -3.173 -0 -1.2 0
-1.451 -0.028 -3.422 -0 -1.2 0
-1.544 -0.034 -3.654 -0 -1.2 0
-1.653 -0.04 -3.923 -0 -1.2 0
-1.802 -0.031 -4.293 -0 -1.2 0
-1.961 -0.028 -4.691 -0 -1.2 0
-2.145 -0.031 -5.146 -0 -1.2 0
-2.345 -0.041 -5.647 -0 -1.2 0
-2.611 -0.043 -6.305 -0 -1.2 0
-2.921 -0.055 -7.075 -0 -1.2 0
-3.293 -0.076 -8.004 -0 -1.2 0
-3.681 -0.127 -8.971 -0 -1.2 0
-4.203 -0.184 -10.27 -0 -1.2 0
-4.923 -0.256 -12.061 -0 -1.2 0
-10.724 -0.757 -26.505 -0 -1.2 0
-10.684 -1.257 -26.426 -0 -1.2 0
-10.63 -1.753 -26.311 -0 -1.2 0
-10.589 -2.246 -26.224 -0 -1.2 0
-9.379 -6.623 -23.378 -0 -1.2 0
-9.871 -8.914 -24.686 -0 -1.2 0
-0.491 0 -0.907 -0 -1.2 0
-0.508 0 -0.944 -0 -1.2 0
-0.525 -0.001 -0.982 -0 -1.2 0
-0.542 -0.004 -1.021 -0 -1.2 0
-0.558 -0.007 -1.06 -0 -1.2 0
-0.582 0 -1.113 -0 -1.2 0
-0.596 -0.011 -1.145 -0 -1.2 0
-0.62 -0.007 -1.199 -0 -1.2 0
-0.641 -0.009 -1.246 -0 -1.2 0
-0.661 -0.013 -1.293 -0 -1.2 0
-0.683 -0.018 -1.341 -0 -1.2 0
-0.707 -0.021 -1.396 -0 -1.2 0
-0.736 -0.019 -1.46 -0 -1.2 0
-0.765 -0.019 -1.524 -0 -1.2 0
-0.796 -0.016 -1.597 -0 -1.2 0
-0.825 -0.022 -1.662 -0 -1.2 0
-0.858 -0.024 -1.736 -0 -1.2 0
-0.894 -0.024 -1.819 -0 -1.2 0
-0.934 -0.023 -1.91 -0 -1.2 0
-0.979 -0.021 -2.009 -0 -1.2 0
-1.019 -0.026 -2.102 -0 -1.2 0
-1.072 -0.023 -2.221 -0 -1.2 0
-1.12 -0.028 -2.331 -0 -1.2 0
-1.173 -0.033 -2.45 -0 -1.2 0
-1.237 -0.032 -2.596 -0 -1.2 0
-1.306 -0.034 -2.751 -0 -1.2 0
-1.386 -0.031 -2.934 -0 -1.2 0
-1.471 -0.033 -3.126 -0 -1.2 0
-1.569 -0.034 -3.345 -0 -1.2 0
-1.674 -0.037 -3.583 -0 -1.2 0
-1.803 -0.036 -3.875 -0 -1.2 0
-1.955 -0.032 -4.221 -0 -1.2 0
-2.121 -0.034 -4.596 -0 -1.2 0
-2.31 -0.04 -5.027 -0 -1.2 0
-2.533 -0.048 -5.53 -0 -1.2 0
-2.808 -0.056 -6.152 -0 -1.2 0
-3.151 -0.065 -6.929 -0 -1.2 0
-3.567 -0.082 -7.871 -0 -1.2 0
-3.992 -0.133 -8.834 -0 -1.2 0
-4.537 -0.196 -10.069 -0 -1.2 0
-5.324 -0.267 -11.853 -0 -1.2 0
-11.301 -3.726 -25.495 -0 -1.2 0
-11.251 -4.209 -25.397 -0 -1.2 0
-0.53 0.005 -0.879 -0 -1.2 0
-0.547 0.005 -0.916 -0 -1.2 0
-0.562 -0.002 -0.947 -0 -1.2 0
-0.583 0.001 -0.991 -0 -1.2 0
-0.602 -0.003 -1.03 -0 -1.2 0
-0.62 -0.007 -1.069 -0 -1.2 0
-0.635 -0.018 -1.099 -0 -1.2 0
-0.664 -0.008 -1.16 -0 -1.2 0
-0.69 -0.004 -1.214 -0 -1.2 0
-0.709 -0.015 -1.253 -0 -1.2 0
-0.731 -0.02 -1.3 -0 -1.2 0
-0.757 -0.022 -1.355 -0 -1.2 0
-0.787 -0.02 -1.418 -0 -1.2 0
-0.822 -0.015 -1.489 -0 -1.2 0
-0.852 -0.018 -1.553 -0 -1.2 0
-0.884 -0.023 -1.617 -0 -1.2 0
-0.918 -0.025 -1.69 -0 -1.2 0
-0.957 -0.025 -1.772 -0 -1.2 0
-1 -0.025 -1.861 -0 -1.2 0
-1.043 -0.026 -1.952 -0 -1.2 0
-1.095 -0.023 -2.059 -0 -1.2 0
-1.143 -0.029 -2.159 -0 -1.2 0
-1.195 -0.033 -2.267 -0 -1.2 0
-1.256 -0.035 -2.394 -0 -1.2 0
-1.324 -0.034 -2.538 -0 -1.2 0
-1.398 -0.036 -2.691 -0 -1.2 0
-1.484 -0.034 -2.871 -0 -1.2 0
-1.574 -0.036 -3.06 -0 -1.2 0
-1.683 -0.034 -3.284 -0 -1.2 0
-1.799 -0.036 -3.528 -0 -1.2 0
-1.937 -0.034 -3.815 -0 -1.2 0
-2.093 -0.035 -4.14 -0 -1.2 0
-2.254 -0.046 -4.475 -0 -1.2 0
-2.465 -0.048 -4.915 -0 -1.2 0
-2.698 -0.058 -5.402 -0 -1.2 0
-3.009 -0.06 -6.051 -0 -1.2 0
-3.355 -0.076 -6.773 -0 -1.2 0
-3.783 -0.098 -7.666 -0 -1.2 0
-4.242 -0.147 -8.623 -0 -1.2 0
-4.847 -0.206 -9.886 -0 -1.2 0
-5.724 -0.273 -11.717 -0 -1.2 0
-6.787 -0.392 -13.935 -0 -1.2 0
-11.638 -5.567 -24.196 -0 -1.2 0
-11.469 -6.467 -23.869 -0 -1.2 0
-0.564 0.004 -0.845 -0 -1.2 0
-0.583 0.004 -0.881 -0 -1.2 0
-0.599 -0.003 -0.912 -0 -1.2 0
-0.617 -0.006 -0.949 -0 -1.2 0
-0.64 -0.004 -0.993 -0 -1.2 0
-0.657 -0.014 -1.024 -0 -1.2 0
-0.684 -0.008 -1.076 -0 -1.2 0
-0.704 -0.015 -1.114 -0 -1.2 0
-0.731 -0.011 -1.168 -0 -1.2 0
-0.759 -0.01 -1.221 -0 -1.2 0
-0.782 -0.016 -1.267 -0 -1.2 0
-0.814 -0.012 -1.328 -0 -1.2 0
-0.843 -0.016 -1.383 -0 -1.2 0
-0.871 -0.022 -1.438 -0 -1.2 0
-0.907 -0.019 -1.508 -0 -1.2 0
-0.94 -0.025 -1.571 -0 -1.2 0
-0.982 -0.022 -1.651 -0 -1.2 0
-1.023 -0.022 -1.731 -0 -1.2 0
-1.065 -0.027 -1.812 -0 -1.2 0
-1.111 -0.028 -1.901 -0 -1.2 0
-1.158 -0.034 -1.99 -0 -1.2 0
-1.221 -0.027 -2.113 -0 -1.2 0
-1.273 -0.035 -2.212 -0 -1.2 0
-1.342 -0.033 -2.345 -0 -1.2 0
-1.406 -0.04 -2.47 -0 -1.2 0
-1.485 -0.041 -2.62 -0 -1.2 0
-1.58 -0.036 -2.805 -0 -1.2 0
-1.677 -0.039 -2.992 -0 -1.2 0
-1.792 -0.037 -3.213 -0 -1.2 0
-1.92 -0.036 -3.461 -0 -1.2 0
-2.067 -0.035 -3.744 -0 -1.2 0
-2.228 -0.038 -4.055 -0 -1.2 0
-2.403 -0.048 -4.393 -0 -1.2 0
-2.616 -0.055 -4.801 -0 -1.2 0
-2.873 -0.062 -5.298 -0 -1.2 0
-3.181 -0.072 -5.893 -0 -1.2 0
-3.554 -0.086 -6.612 -0 -1.2 0
-4.023 -0.105 -7.517 -0 -1.2 0
-4.498 -0.157 -8.433 -0 -1.2 0
-5.165 -0.213 -9.721 -0 -1.2 0
-6.072 -0.286 -11.47 -0 -1.2 0
-7.673 -0.358 -14.559 -0 -1.2 0
-12.82 -6.75 -24.644 -0 -1.2 0
-11.953 -6.845 -22.975 -0 -1.2 0
-11.712 -8.644 -22.556 -0 -1.2 0
-0.595 -0.009 -0.796 -0 -1.2 0
-0.619 -0.002 -0.838 -0 -1.2 0
-0.639 -0.003 -0.874 -0 -1.2 0
-0.66 -0.006 -0.911 -0 -1.2 0
-0.68 -0.009 -0.947 -0 -1.2 0
-0.705 -0.008 -0.991 -0 -1.2 0
-0.726 -0.014 -1.028 -0 -1.2 0
-0.759 -0.003 -1.086 -0 -1.2 0
-0.781 -0.012 -1.124 -0 -1.2 0
-0.809 -0.01 -1.176 -0 -1.2 0
-0.831 -0.021 -1.215 -0 -1.2 0
-0.865 -0.018 -1.275 -0 -1.2 0
-0.896 -0.022 -1.328 -0 -1.2 0
-0.93 -0.022 -1.39 -0 -1.2 0
-0.96 -0.03 -1.444 -0 -1.2 0
-0.999 -0.03 -1.514 -0 -1.2 0
-1.044 -0.027 -1.592 -0 -1.2 0
-1.088 -0.028 -1.67 -0 -1.2 0
-1.127 -0.036 -1.741 -0 -1.2 0
-1.181 -0.033 -1.836 -0 -1.2 0
-1.236 -0.034 -1.932 -0 -1.2 0
-1.29 -0.039 -2.028 -0 -1.2 0
-1.353 -0.039 -2.142 -0 -1.2 0
-1.418 -0.045 -2.255 -0 -1.2 0
-1.501 -0.041 -2.402 -0 -1.2 0
-1.589 -0.04 -2.558 -0 -1.2 0
-1.673 -0.047 -2.707 -0 -1.2 0
-1.785 -0.043 -2.906 -0 -1.2 0
-1.898 -0.047 -3.106 -0 -1.2 0
-2.031 -0.048 -3.342 -0 -1.2 0
-2.182 -0.049 -3.611 -0 -1.2 0
-2.35 -0.054 -3.907 -0 -1.2 0
-2.546 -0.059 -4.255 -0 -1.2 0
-2.772 -0.066 -4.656 -0 -1.2 0
-3.023 -0.08 -5.101 -0 -1.2 0
-3.361 -0.086 -5.701 -0 -1.2 0
-3.744 -0.104 -6.381 -0 -1.2 0
-4.235 -0.124 -7.252 -0 -1.2 0
-4.751 -0.173 -8.167 -0 -1.2 0
-5.429 -0.233 -9.37 -0 -1.2 0
-6.352 -0.309 -11.008 -0 -1.2 0
-7.928 -0.392 -13.803 -0 -1.2 0
-13.707 -7.805 -24.21 -0 -1.2 0
-11.11 -6.956 -19.588 -0 -1.2 0
-11.794 -7.77 -20.819 -0 -1.2 0
-0.639 0.003 -0.769 -0 -1.2 0
-0.66 0.003 -0.804 -0 -1.2 0
-0.677 -0.004 -0.834 -0 -1.2 0
-0.699 -0.007 -0.869 -0 -1.2 0
-0.725 -0.005 -0.912 -0 -1.2 0
-0.743 -0.015 -0.942 -0 -1.2 0
-0.769 -0.015 -0.985 -0 -1.2 0
-0.8 -0.01 -1.036 -0 -1.2 0
-0.823 -0.018 -1.072 -0 -1.2 0
-0.853 -0.017 -1.124 -0 -1.2 0
-0.885 -0.018 -1.176 -0 -1.2 0
-0.912 -0.025 -1.221 -0 -1.2 0
-0.953 -0.018 -1.287 -0 -1.2 0
-0.981 -0.028 -1.333 -0 -1.2 0
-1.022 -0.027 -1.401 -0 -1.2 0
-1.058 -0.031 -1.461 -0 -1.2 0
-1.1 -0.033 -1.53 -0 -1.2 0
-1.147 -0.034 -1.607 -0 -1.2 0
-1.194 -0.037 -1.684 -0 -1.2 0
-1.251 -0.035 -1.777 -0 -1.2 0
-1.304 -0.04 -1.864 -0 -1.2 0
-1.365 -0.041 -1.967 -0 -1.2 0
-1.433 -0.041 -2.078 -0 -1.2 0
-1.506 -0.043 -2.197 -0 -1.2 0
-1.584 -0.046 -2.325 -0 -1.2 0
-1.672 -0.048 -2.47 -0 -1.2 0
-1.766 -0.052 -2.624 -0 -1.2 0
-1.885 -0.048 -2.82 -0 -1.2 0
-2.004 -0.052 -3.016 -0 -1.2 0
-2.154 -0.048 -3.262 -0 -1.2 0
-2.29 -0.062 -3.486 -0 -1.2 0
-2.476 -0.061 -3.792 -0 -1.2 0
-2.689 -0.064 -4.143 -0 -1.2 0
-2.918 -0.075 -4.518 -0 -1.2 0
-3.178 -0.091 -4.946 -0 -1.2 0
-3.53 -0.098 -5.526 -0 -1.2 0
-3.916 -0.121 -6.159 -0 -1.2 0
-4.43 -0.141 -7.005 -0 -1.2 0
-4.98 -0.188 -7.912 -0 -1.2 0
-5.655 -0.253 -9.022 -0 -1.2 0
-6.617 -0.33 -10.603 -0 -1.2 0
-8.424 -0.401 -13.575 -0 -1.2 0
-14.814 -5.881 -24.188 -0 -1.2 0
-13.059 -6.686 -21.318 -0 -1.2 0
-13.637 -7.42 -22.282 -0 -1.2 0
-13.138 -7.66 -21.466 -0 -1.2 0
-12.205 -8.083 -19.941 -0 -1.2 0
-0.664 -0.011 -0.719 -0 -1.2 0
-0.691 -0.004 -0.759 -0 -1.2 0
-0.714 -0.005 -0.794 -0 -1.2 0
-0.737 -0.008 -0.829 -0 -1.2 0
-0.764 -0.005 -0.871 -0 -1.2 0
-0.783 -0.016 -0.9 -0 -1.2 0
-0.815 -0.01 -0.949 -0 -1.2 0
-0.839 -0.017 -0.985 -0 -1.2 0
-0.871 -0.014 -1.034 -0 -1.2 0
-0.9 -0.018 -1.078 -0 -1.2 0
-0.932 -0.019 -1.128 -0 -1.2 0
-0.961 -0.026 -1.172 -0 -1.2 0
-0.999 -0.024 -1.231 -0 -1.2 0
-1.028 -0.034 -1.275 -0 -1.2 0
-1.072 -0.033 -1.341 -0 -1.2 0
-1.116 -0.033 -1.408 -0 -1.2 0
-1.16 -0.035 -1.476 -0 -1.2 0
-1.203 -0.039 -1.543 -0 -1.2 0
-1.258 -0.039 -1.627 -0 -1.2 0
-1.318 -0.037 -1.719 -0 -1.2 0
-1.373 -0.041 -1.803 -0 -1.2 0
-1.439 -0.043 -1.903 -0 -1.2 0
-1.51 -0.043 -2.012 -0 -1.2 0
-1.592 -0.042 -2.137 -0 -1.2 0
-1.68 -0.041 -2.27 -0 -1.2 0
-1.762 -0.05 -2.396 -0 -1.2 0
-1.855 -0.057 -2.539 -0 -1.2 0
-1.975 -0.056 -2.722 -0 -1.2 0
-2.111 -0.055 -2.931 -0 -1.2 0
-2.248 -0.06 -3.14 -0 -1.2 0
-2.402 -0.069 -3.375 -0 -1.2 0
-2.593 -0.071 -3.667 -0 -1.2 0
-2.812 -0.075 -4.002 -0 -1.2 0
-3.047 -0.087 -4.362 -0 -1.2 0
-3.342 -0.097 -4.814 -0 -1.2 0
-3.676 -0.114 -5.324 -0 -1.2 0
-4.092 -0.133 -5.96 -0 -1.2 0
-4.601 -0.159 -6.738 -0 -1.2 0
-5.187 -0.205 -7.634 -0 -1.2 0
-5.871 -0.272 -8.682 -0 -1.2 0
-6.752 -0.361 -10.029 -0 -1.2 0
-6.893 -0.566 -10.249 -0 -1.2 0
-6.813 -1.437 -10.141 -0 -1.2 0
-6.84 -1.656 -10.187 -0 -1.2 0
-14.035 -5.877 -21.255 -0 -1.2 0
-13.122 -6.002 -19.863 -0 -1.2 0
-13.321 -6.522 -20.176 -0 -1.2 0
-13.189 -6.914 -19.982 -0 -1.2 0
-13.408 -7.467 -20.326 -0 -1.2 0
-14.667 -9.08 -22.277 -0 -1.2 0
-7.654 -9.065 -11.557 -0 -1.2 0
-7.504 -9.233 -11.332 -0 -1.2 0
-0.704 -0.005 -0.684 -0 -1.2 0
-0.732 0.001 -0.724 -0 -1.2 0
-0.756 0 -0.758 -0 -1.2 0
-0.776 -0.009 -0.786 -0 -1.2 0
-0.801 -0.012 -0.82 -0 -1.2 0
-0.83 -0.011 -0.861 -0 -1.2 0
-0.85 -0.022 -0.89 -0 -1.2 0
-0.888 -0.012 -0.944 -0 -1.2 0
-0.913 -0.02 -0.98 -0 -1.2 0
-0.943 -0.025 -1.022 -0 -1.2 0
-0.978 -0.025 -1.071 -0 -1.2 0
-1.007 -0.032 -1.114 -0 -1.2 0
-1.048 -0.031 -1.171 -0 -1.2 0
-1.088 -0.031 -1.228 -0 -1.2 0
-1.129 -0.034 -1.286 -0 -1.2 0
-1.175 -0.034 -1.351 -0 -1.2 0
-1.222 -0.036 -1.417 -0 -1.2 0
-1.274 -0.037 -1.491 -0 -1.2 0
-1.316 -0.049 -1.55 -0 -1.2 0
-1.384 -0.042 -1.648 -0 -1.2 0
-1.447 -0.043 -1.737 -0 -1.2 0
-1.511 -0.048 -1.828 -0 -1.2 0
-1.591 -0.045 -1.941 -0 -1.2 0
-1.683 -0.04 -2.07 -0 -1.2 0
-1.763 -0.047 -2.186 -0 -1.2 0
-1.856 -0.052 -2.316 -0 -1.2 0
-1.954 -0.059 -2.456 -0 -1.2 0
-2.075 -0.061 -2.627 -0 -1.2 0
-2.202 -0.067 -2.807 -0 -1.2 0
-2.357 -0.068 -3.027 -0 -1.2 0
-2.519 -0.076 -3.255 -0 -1.2 0
-2.709 -0.082 -3.526 -0 -1.2 0
-2.933 -0.089 -3.844 -0 -1.2 0
-3.198 -0.094 -4.219 -0 -1.2 0
-3.487 -0.11 -4.628 -0 -1.2 0
-3.838 -0.127 -5.126 -0 -1.2 0
-4.27 -0.147 -5.739 -0 -1.2 0
-4.766 -0.18 -6.442 -0 -1.2 0
-5.4 -0.22 -7.341 -0 -1.2 0
-6.12 -0.288 -8.363 -0 -1.2 0
-6.847 -0.398 -9.393 -0 -1.2 0
-6.857 -0.603 -9.411 -0 -1.2 0
-6.78 -1.426 -9.314 -0 -1.2 0
-6.757 -1.629 -9.284 -0 -1.2 0
-7.951 -1.962 -10.981 -0 -1.2 0
-7.957 -2.205 -10.993 -0 -1.2 0
-7.914 -2.44 -10.936 -0 -1.2 0
-7.973 -2.694 -11.022 -0 -1.2 0
-7.976 -2.94 -11.031 -0 -1.2 0
-7.977 -3.186 -11.037 -0 -1.2 0
-7.971 -3.432 -11.032 -0 -1.2 0
-7.973 -3.681 -11.037 -0 -1.2 0
-7.977 -3.935 -11.049 -0 -1.2 0
-7.974 -4.186 -11.047 -0 -1.2 0
-7.973 -4.441 -11.051 -0 -1.2 0
-7.971 -4.697 -11.05 -0 -1.2 0
-7.976 -4.958 -11.061 -0 -1.2 0
-7.967 -5.217 -11.053 -0 -1.2 0
-7.971 -5.485 -11.064 -0 -1.2 0
-7.968 -5.751 -11.063 -0 -1.2 0
-7.967 -6.022 -11.065 -0 -1.2 0
-7.969 -6.297 -11.072 -0 -1.2 0
-7.962 -6.571 -11.066 -0 -1.2 0
-7.962 -6.854 -11.071 -0 -1.2 0
-7.964 -7.142 -11.078 -0 -1.2 0
-7.969 -7.437 -11.089 -0 -1.2 0
-7.964 -7.73 -11.086 -0 -1.2 0
-7.966 -8.033 -11.093 -0 -1.2 0
-7.964 -8.338 -11.096 -0 -1.2 0
-7.954 -8.641 -11.086 -0 -1.2 0
-7.93 -8.936 -11.057 -0 -1.2 0
-7.641 -8.962 -10.648 -0 -1.2 0
-7.579 -9.214 -10.563 -0 -1.2 0
-7.701 -9.675 -10.744 -0 -1.2 0
-0.733 -0.011 -0.638 -0 -1.2 0
-0.762 -0.004 -0.676 -0 -1.2 0
-0.787 -0.006 -0.709 -0 -1.2 0
-0.816 -0.002 -0.748 -0 -1.2 0
-0.842 -0.006 -0.782 -0 -1.2 0
-0.868 -0.01 -0.816 -0 -1.2 0
-0.894 -0.017 -0.85 -0 -1.2 0
-0.919 -0.024 -0.884 -0 -1.2 0
-0.955 -0.02 -0.932 -0 -1.2 0
-0.986 -0.025 -0.972 -0 -1.2 0
-1.023 -0.025 -1.021 -0 -1.2 0
-1.065 -0.022 -1.077 -0 -1.2 0
-1.102 -0.025 -1.126 -0 -1.2 0
-1.138 -0.031 -1.174 -0 -1.2 0
-1.18 -0.034 -1.23 -0 -1.2 0
-1.218 -0.044 -1.28 -0 -1.2 0
-1.277 -0.037 -1.358 -0 -1.2 0
-1.326 -0.041 -1.423 -0 -1.2 0
-1.375 -0.049 -1.488 -0 -1.2 0
-1.447 -0.042 -1.582 -0 -1.2 0
-1.513 -0.044 -1.671 -0 -1.2 0
-1.585 -0.045 -1.767 -0 -1.2 0
-1.663 -0.046 -1.87 -0 -1.2 0
-1.753 -0.045 -1.989 -0 -1.2 0
-1.844 -0.048 -2.109 -0 -1.2 0
-1.941 -0.053 -2.237 -0 -1.2 0
-2.049 -0.057 -2.38 -0 -1.2 0
-2.17 -0.062 -2.54 -0 -1.2 0
-2.297 -0.071 -2.708 -0 -1.2 0
-2.465 -0.07 -2.931 -0 -1.2 0
-2.621 -0.082 -3.139 -0 -1.2 0
-2.826 -0.087 -3.409 -0 -1.2 0
-3.055 -0.094 -3.712 -0 -1.2 0
-3.326 -0.103 -4.071 -0 -1.2 0
-3.616 -0.121 -4.455 -0 -1.2 0
-4.008 -0.132 -4.973 -0 -1.2 0
-4.447 -0.154 -5.555 -0 -1.2 0
-4.954 -0.19 -6.225 -0 -1.2 0
-5.592 -0.234 -7.071 -0 -1.2 0
-6.328 -0.302 -8.045 -0 -1.2 0
-7.376 -0.382 -9.433 -0 -1.2 0
-7.237 -0.604 -9.252 -0 -1.2 0
-7.239 -0.814 -9.258 -0 -1.2 0
-7.21 -1.022 -9.221 -0 -1.2 0
-7.196 -1.23 -9.207 -0 -1.2 0
-7.894 -1.926 -10.139 -0 -1.2 0
-7.901 -2.156 -10.151 -0 -1.2 0
-7.833 -2.375 -10.064 -0 -1.2 0
-7.961 -2.629 -10.237 -0 -1.2 0
-7.954 -2.861 -10.23 -0 -1.2 0
-7.957 -3.097 -10.237 -0 -1.2 0
-7.951 -3.33 -10.232 -0 -1.2 0
-7.948 -3.568 -10.232 -0 -1.2 0
-7.944 -3.805 -10.229 -0 -1.2 0
-7.942 -4.046 -10.23 -0 -1.2 0
-7.943 -4.289 -10.234 -0 -1.2 0
-7.942 -4.533 -10.236 -0 -1.2 0
-7.944 -4.781 -10.242 -0 -1.2 0
-7.942 -5.03 -10.243 -0 -1.2 0
-7.933 -5.277 -10.234 -0 -1.2 0
-7.937 -5.535 -10.243 -0 -1.2 0
-7.933 -5.79 -10.242 -0 -1.2 0
-7.932 -6.051 -10.243 -0 -1.2 0
-7.933 -6.318 -10.249 -0 -1.2 0
-7.937 -6.588 -10.257 -0 -1.2 0
-7.936 -6.861 -10.26 -0 -1.2 0
-7.933 -7.136 -10.259 -0 -1.2 0
-7.927 -7.413 -10.254 -0 -1.2 0
-7.927 -7.7 -10.259 -0 -1.2 0
-7.919 -7.984 -10.252 -0 -1.2 0
-7.923 -8.284 -10.261 -0 -1.2 0
-7.892 -8.558 -10.223 -0 -1.2 0
-7.877 -8.852 -10.208 -0 -1.2 0
-7.666 -8.949 -9.929 -0 -1.2 0
-7.53 -9.116 -9.752 -0 -1.2 0
-7.369 -9.25 -9.54 -0 -1.2 0
-0.764 -0.012 -0.596 -0 -1.2 0
-0.79 -0.012 -0.628 -0 -1.2 0
-0.816 -0.013 -0.66 -0 -1.2 0
-0.847 -0.01 -0.698 -0 -1.2 0
-0.878 -0.007 -0.737 -0 -1.2 0
-0.905 -0.011 -0.77 -0 -1.2 0
-0.937 -0.012 -0.809 -0 -1.2 0
-0.969 -0.013 -0.849 -0 -1.2 0
-1.001 -0.016 -0.889 -0 -1.2 0
-1.034 -0.02 -0.929 -0 -1.2 0
-1.072 -0.021 -0.976 -0 -1.2 0
-1.104 -0.028 -1.017 -0 -1.2 0
-1.149 -0.026 -1.072 -0 -1.2 0
-1.186 -0.032 -1.12 -0 -1.2 0
-1.231 -0.035 -1.175 -0 -1.2 0
-1.281 -0.035 -1.237 -0 -1.2 0
-1.338 -0.033 -1.306 -0 -1.2 0
-1.377 -0.047 -1.355 -0 -1.2 0
-1.439 -0.046 -1.432 -0 -1.2 0
-1.509 -0.044 -1.517 -0 -1.2 0
-1.578 -0.045 -1.603 -0 -1.2 0
-1.653 -0.046 -1.696 -0 -1.2 0
-1.735 -0.047 -1.797 -0 -1.2 0
-1.823 -0.049 -1.906 -0 -1.2 0
-1.923 -0.05 -2.03 -0 -1.2 0
-2.024 -0.055 -2.155 -0 -1.2 0
-2.137 -0.059 -2.295 -0 -1.2 0
-2.251 -0.07 -2.436 -0 -1.2 0
-2.395 -0.073 -2.614 -0 -1.2 0
-2.558 -0.077 -2.816 -0 -1.2 0
-2.728 -0.087 -3.027 -0 -1.2 0
-2.941 -0.091 -3.291 -0 -1.2 0
-3.186 -0.097 -3.594 -0 -1.2 0
-3.462 -0.108 -3.935 -0 -1.2 0
-3.776 -0.123 -4.324 -0 -1.2 0
-4.147 -0.143 -4.784 -0 -1.2 0
-4.606 -0.165 -5.351 -0 -1.2 0
-5.139 -0.198 -6.013 -0 -1.2 0
-5.787 -0.246 -6.814 -0 -1.2 0
-6.653 -0.301 -7.887 -0 -1.2 0
-6.881 -0.465 -8.169 -0 -1.2 0
-7.859 -0.59 -9.382 -0 -1.2 0
-7.844 -0.809 -9.365 -0 -1.2 0
-7.831 -1.026 -9.353 -0 -1.2 0
-7.83 -1.243 -9.354 -0 -1.2 0
-7.763 -1.456 -9.274 -0 -1.2 0
-7.82 -1.674 -9.346 -0 -1.2 0
-7.843 -1.894 -9.376 -0 -1.2 0
-7.844 -2.113 -9.381 -0 -1.2 0
-7.774 -2.321 -9.296 -0 -1.2 0
-7.895 -2.561 -9.45 -0 -1.2 0
-7.896 -2.784 -9.452 -0 -1.2 0
-7.894 -3.007 -9.452 -0 -1.2 0
-7.895 -3.231 -9.457 -0 -1.2 0
-7.894 -3.457 -9.458 -0 -1.2 0
-7.891 -3.683 -9.456 -0 -1.2 0
-7.878 -3.908 -9.443 -0 -1.2 0
-7.881 -4.14 -9.45 -0 -1.2 0
-7.882 -4.373 -9.454 -0 -1.2 0
-7.886 -4.61 -9.462 -0 -1.2 0
-7.881 -4.845 -9.458 -0 -1.2 0
-7.88 -5.084 -9.458 -0 -1.2 0
-7.881 -5.329 -9.463 -0 -1.2 0
-7.867 -5.566 -9.45 -0 -1.2 0
-7.874 -5.82 -9.461 -0 -1.2 0
-7.873 -6.071 -9.462 -0 -1.2 0
-7.868 -6.323 -9.458 -0 -1.2 0
-7.865 -6.581 -9.459 -0 -1.2 0
-7.871 -6.848 -9.469 -0 -1.2 0
-7.868 -7.113 -9.468 -0 -1.2 0
-7.862 -7.38 -9.463 -0 -1.2 0
-7.862 -7.658 -9.467 -0 -1.2 0
-7.864 -7.942 -9.473 -0 -1.2 0
-7.863 -8.23 -9.475 -0 -1.2 0
-7.842 -8.503 -9.452 -0 -1.2 0
-7.816 -8.778 -9.424 -0 -1.2 0
-7.682 -8.945 -9.26 -0 -1.2 0
-7.48 -9.036 -9.009 -0 -1.2 0
-7.329 -9.174 -8.825 -0 -1.2 0
-0.792 -0.019 -0.545 -0 -1.2 0
-0.828 -0.006 -0.587 -0 -1.2 0
-0.845 -0.021 -0.608 -0 -1.2 0
-0.882 -0.01 -0.65 -0 -1.2 0
-0.905 -0.02 -0.676 -0 -1.2 0
-0.944 -0.012 -0.72 -0 -1.2 0
-0.966 -0.024 -0.747 -0 -1.2 0
-1.004 -0.02 -0.791 -0 -1.2 0
-1.038 -0.022 -0.83 -0 -1.2 0
-1.078 -0.021 -0.875 -0 -1.2 0
-1.111 -0.027 -0.915 -0 -1.2 0
-1.158 -0.024 -0.967 -0 -1.2 0
-1.198 -0.027 -1.013 -0 -1.2 0
-1.244 -0.028 -1.066 -0 -1.2 0
-1.285 -0.036 -1.113 -0 -1.2 0
-1.33 -0.041 -1.166 -0 -1.2 0
-1.383 -0.044 -1.227 -0 -1.2 0
-1.443 -0.043 -1.295 -0 -1.2 0
-1.495 -0.052 -1.357 -0 -1.2 0
-1.567 -0.049 -1.439 -0 -1.2 0
-1.645 -0.046 -1.529 -0 -1.2 0
-1.724 -0.048 -1.62 -0 -1.2 0
-1.803 -0.052 -1.711 -0 -1.2 0
-1.888 -0.058 -1.81 -0 -1.2 0
-1.999 -0.054 -1.937 -0 -1.2 0
-2.103 -0.06 -2.058 -0 -1.2 0
-2.228 -0.061 -2.202 -0 -1.2 0
-2.352 -0.069 -2.345 -0 -1.2 0
-2.504 -0.073 -2.518 -0 -1.2 0
-2.667 -0.079 -2.707 -0 -1.2 0
-2.851 -0.087 -2.919 -0 -1.2 0
-3.06 -0.096 -3.161 -0 -1.2 0
-3.302 -0.106 -3.44 -0 -1.2 0
-3.597 -0.114 -3.78 -0 -1.2 0
-3.925 -0.13 -4.157 -0 -1.2 0
-4.318 -0.147 -4.611 -0 -1.2 0
-4.796 -0.17 -5.162 -0 -1.2 0
-5.333 -0.208 -5.781 -0 -1.2 0
-5.976 -0.258 -6.522 -0 -1.2 0
-6.082 -0.406 -6.646 -0 -1.2 0
-6.082 -0.567 -6.647 -0 -1.2 0
-6.066 -0.73 -6.631 -0 -1.2 0
-6.069 -0.89 -6.636 -0 -1.2 0
-6.076 -1.051 -6.646 -0 -1.2 0
-6.068 -1.212 -6.639 -0 -1.2 0
-5.999 -1.369 -6.561 -0 -1.2 0
-6.048 -1.531 -6.617 -0 -1.2 0
-6.172 -1.704 -6.762 -0 -1.2 0
-6.248 -1.879 -6.852 -0 -1.2 0
-6.244 -2.044 -6.849 -0 -1.2 0
-6.193 -2.203 -6.791 -0 -1.2 0
-6.159 -2.363 -6.753 -0 -1.2 0
-7.877 -2.931 -8.739 -0 -1.2 0
-7.873 -3.144 -8.737 -0 -1.2 0
-7.867 -3.359 -8.732 -0 -1.2 0
-7.871 -3.577 -8.738 -0 -1.2 0
-7.866 -3.795 -8.736 -0 -1.2 0
-7.852 -4.01 -8.721 -0 -1.2 0
-7.854 -4.234 -8.727 -0 -1.2 0
-7.848 -4.455 -8.721 -0 -1.2 0
-7.851 -4.684 -8.727 -0 -1.2 0
-7.839 -4.906 -8.716 -0 -1.2 0
-7.837 -5.136 -8.715 -0 -1.2 0
-7.838 -5.372 -8.718 -0 -1.2 0
-7.829 -5.603 -8.711 -0 -1.2 0
-7.83 -5.844 -8.715 -0 -1.2 0
-7.835 -6.091 -8.721 -0 -1.2 0
-7.829 -6.335 -8.717 -0 -1.2 0
-7.827 -6.584 -8.717 -0 -1.2 0
-7.827 -6.839 -8.719 -0 -1.2 0
-7.828 -7.1 -8.724 -0 -1.2 0
-7.827 -7.363 -8.725 -0 -1.2 0
-7.816 -7.623 -8.715 -0 -1.2 0
-7.824 -7.904 -8.727 -0 -1.2 0
-7.824 -8.184 -8.729 -0 -1.2 0
-7.824 -8.47 -8.732 -0 -1.2 0
-7.781 -8.72 -8.684 -0 -1.2 0
-7.708 -8.943 -8.602 -0 -1.2 0
-7.439 -8.959 -8.293 -0 -1.2 0
-7.342 -9.15 -8.183 -0 -1.2 0
-7.525 -9.661 -8.399 -0 -1.2 0
-0.826 -0.012 -0.507 -0 -1.2 0
-0.854 -0.012 -0.537 -0 -1.2 0
-0.882 -0.013 -0.567 -0 -1.2 0
-0.911 -0.016 -0.597 -0 -1.2 0
-0.944 -0.013 -0.634 -0 -1.2 0
-0.973 -0.018 -0.665 -0 -1.2 0
-1.007 -0.018 -0.702 -0 -1.2 0
-1.042 -0.019 -0.739 -0 -1.2 0
-1.082 -0.016 -0.783 -0 -1.2 0
-1.112 -0.026 -0.815 -0 -1.2 0
-1.153 -0.026 -0.859 -0 -1.2 0
-1.2 -0.023 -0.91 -0 -1.2 0
-1.236 -0.033 -0.949 -0 -1.2 0
-1.283 -0.033 -1.001 -0 -1.2 0
-1.331 -0.036 -1.052 -0 -1.2 0
-1.38 -0.041 -1.104 -0 -1.2 0
-1.434 -0.043 -1.163 -0 -1.2 0
-1.489 -0.048 -1.222 -0 -1.2 0
-1.551 -0.051 -1.289 -0 -1.2 0
-1.626 -0.049 -1.369 -0 -1.2 0
-1.7 -0.05 -1.45 -0 -1.2 0
-1.769 -0.059 -1.524 -0 -1.2 0
-1.857 -0.06 -1.619 -0 -1.2 0
-1.952 -0.062 -1.721 -0 -1.2 0
-2.06 -0.061 -1.838 -0 -1.2 0
-2.17 -0.066 -1.956 -0 -1.2 0
-2.292 -0.071 -2.088 -0 -1.2 0
-2.427 -0.074 -2.235 -0 -1.2 0
-2.583 -0.078 -2.402 -0 -1.2 0
-2.746 -0.087 -2.579 -0 -1.2 0
-2.944 -0.092 -2.792 -0 -1.2 0
-3.135 -0.109 -2.997 -0 -1.2 0
-3.399 -0.115 -3.283 -0 -1.2 0
-3.69 -0.125 -3.598 -0 -1.2 0
-3.997 -0.148 -3.928 -0 -1.2 0
-4.418 -0.162 -4.383 -0 -1.2 0
-4.9 -0.186 -4.904 -0 -1.2 0
