# .PCD v.7 - Point Cloud Data file format
FIELDS x y z vp_x vp_y vp_z
SIZE 4 4 4 4 4 4
TYPE F F F F F F
COUNT 1 1 1 1 1 1
WIDTH 1670
HEIGHT 1
VIEWPOINT 0 -1.20014 0 1 0 0 0
POINTS 1670
DATA ascii
2.973 -0.019 11.453 -0 -1.2 0
3.035 -0.205 11.691 -0 -1.2 0
3.065 -0.406 11.8 -0 -1.2 0
3.128 -0.606 12.042 -0 -1.2 0
3.141 -0.817 12.088 -0 -1.2 0
3.135 -1.032 12.062 -0 -1.2 0
3.145 -1.245 12.099 -0 -1.2 0
3.149 -1.46 12.114 -0 -1.2 0
3.15 -1.675 12.116 -0 -1.2 0
3.155 -1.891 12.133 -0 -1.2 0
3.159 -2.109 12.147 -0 -1.2 0
3.165 -2.328 12.166 -0 -1.2 0
3.167 -2.547 12.172 -0 -1.2 0
3.17 -2.767 12.184 -0 -1.2 0
3.176 -2.991 12.202 -0 -1.2 0
3.179 -3.215 12.216 -0 -1.2 0
3.145 -3.412 12.083 -0 -1.2 0
2.956 -3.481 11.36 -0 -1.2 0
2.787 -3.54 10.715 -0 -1.2 0
2.605 -3.566 10.023 -0 -1.2 0
0.342 0.001 1.283 -0 -1.2 0
0.356 0.01 1.329 -0 -1.2 0
0.365 0.004 1.361 -0 -1.2 0
0.377 0.003 1.4 -0 -1.2 0
0.389 0.002 1.44 -0 -1.2 0
0.401 0 1.48 -0 -1.2 0
0.412 -0.004 1.521 -0 -1.2 0
0.429 0.002 1.577 -0 -1.2 0
0.444 0.003 1.626 -0 -1.2 0
0.457 -0.004 1.667 -0 -1.2 0
0.473 -0.002 1.724 -0 -1.2 0
0.488 -0.006 1.774 -0 -1.2 0
0.508 -0.001 1.84 -0 -1.2 0
0.528 0.001 1.907 -0 -1.2 0
0.546 -0.003 1.966 -0 -1.2 0
0.565 -0.004 2.033 -0 -1.2 0
0.588 -0.003 2.111 -0 -1.2 0
0.609 -0.008 2.179 -0 -1.2 0
0.637 -0.002 2.274 -0 -1.2 0
0.665 0 2.369 -0 -1.2 0
0.694 0 2.465 -0 -1.2 0
0.725 0 2.57 -0 -1.2 0
0.759 0.001 2.685 -0 -1.2 0
0.8 0.006 2.818 -0 -1.2 0
0.837 0.002 2.943 -0 -1.2 0
0.88 0.002 3.087 -0 -1.2 0
0.934 0.009 3.268 -0 -1.2 0
0.982 0.004 3.432 -0 -1.2 0
1.042 0.005 3.632 -0 -1.2 0
1.113 0.011 3.872 -0 -1.2 0
1.182 0.006 4.102 -0 -1.2 0
1.262 0.003 4.371 -0 -1.2 0
1.362 0.006 4.705 -0 -1.2 0
1.482 0.013 5.107 -0 -1.2 0
1.616 0.014 5.557 -0 -1.2 0
1.761 0.007 6.047 -0 -1.2 0
1.942 0.002 6.65 -0 -1.2 0
2.181 0.007 7.454 -0 -1.2 0
2.476 0.005 8.441 -0 -1.2 0
2.864 0.006 9.744 -0 -1.2 0
3.256 -0.039 11.059 -0 -1.2 0
3.301 -0.226 11.209 -0 -1.2 0
3.314 -0.424 11.251 -0 -1.2 0
3.319 -0.623 11.27 -0 -1.2 0
3.313 -0.826 11.247 -0 -1.2 0
3.319 -1.025 11.269 -0 -1.2 0
3.326 -1.226 11.288 -0 -1.2 0
3.333 -1.428 11.313 -0 -1.2 0
3.329 -1.629 11.296 -0 -1.2 0
3.339 -1.834 11.333 -0 -1.2 0
3.339 -2.036 11.328 -0 -1.2 0
3.328 -2.236 11.292 -0 -1.2 0
3.274 -2.418 11.109 -0 -1.2 0
3.114 -2.544 10.573 -0 -1.2 0
3.095 -2.726 10.509 -0 -1.2 0
3.096 -2.918 10.509 -0 -1.2 0
3.1 -3.114 10.524 -0 -1.2 0
3.096 -3.305 10.507 -0 -1.2 0
3.039 -3.456 10.319 -0 -1.2 0
2.875 -3.51 9.766 -0 -1.2 0
2.724 -3.557 9.261 -0 -1.2 0
2.568 -3.581 8.738 -0 -1.2 0
0.384 0.009 1.294 -0 -1.2 0
0.395 0.003 1.325 -0 -1.2 0
0.406 -0.002 1.357 -0 -1.2 0
0.421 0.004 1.403 -0 -1.2 0
0.432 -0.003 1.435 -0 -1.2 0
0.445 -0.006 1.475 -0 -1.2 0
0.461 -0.003 1.523 -0 -1.2 0
0.478 -0.002 1.571 -0 -1.2 0
0.491 -0.008 1.611 -0 -1.2 0
0.51 -0.003 1.667 -0 -1.2 0
0.527 -0.006 1.716 -0 -1.2 0
0.548 0 1.78 -0 -1.2 0
0.568 0 1.838 -0 -1.2 0
0.587 -0.003 1.896 -0 -1.2 0
0.607 -0.007 1.954 -0 -1.2 0
0.629 -0.009 2.022 -0 -1.2 0
0.655 -0.006 2.097 -0 -1.2 0
0.678 -0.012 2.165 -0 -1.2 0
0.71 -0.006 2.258 -0 -1.2 0
0.738 -0.007 2.344 -0 -1.2 0
0.776 0.001 2.455 -0 -1.2 0
0.808 -0.003 2.551 -0 -1.2 0
0.85 0.002 2.674 -0 -1.2 0
0.888 0 2.788 -0 -1.2 0
0.936 0.003 2.929 -0 -1.2 0
0.981 0 3.062 -0 -1.2 0
1.039 0.004 3.232 -0 -1.2 0
1.096 0.003 3.403 -0 -1.2 0
1.163 0.004 3.601 -0 -1.2 0
1.24 0.008 3.828 -0 -1.2 0
1.316 0.003 4.056 -0 -1.2 0
1.412 0.005 4.34 -0 -1.2 0
1.511 0 4.634 -0 -1.2 0
1.642 0.004 5.022 -0 -1.2 0
1.78 0 5.43 -0 -1.2 0
1.952 0 5.941 -0 -1.2 0
2.164 0 6.566 -0 -1.2 0
2.429 0.004 7.351 -0 -1.2 0
2.739 -0.002 8.271 -0 -1.2 0
2.936 -0.083 8.852 -0 -1.2 0
2.935 -0.244 8.85 -0 -1.2 0
2.946 -0.4 8.881 -0 -1.2 0
3.013 -0.547 9.08 -0 -1.2 0
3.019 -0.71 9.097 -0 -1.2 0
3.021 -0.872 9.102 -0 -1.2 0
3.022 -1.035 9.105 -0 -1.2 0
3.025 -1.198 9.114 -0 -1.2 0
3.034 -1.362 9.139 -0 -1.2 0
3.035 -1.526 9.143 -0 -1.2 0
3.033 -1.69 9.134 -0 -1.2 0
3.042 -1.855 9.162 -0 -1.2 0
3.043 -2.021 9.167 -0 -1.2 0
3.048 -2.189 9.178 -0 -1.2 0
3.044 -2.354 9.168 -0 -1.2 0
3.043 -2.521 9.165 -0 -1.2 0
3.053 -2.695 9.196 -0 -1.2 0
3.057 -2.867 9.205 -0 -1.2 0
3.059 -3.04 9.212 -0 -1.2 0
3.064 -3.216 9.224 -0 -1.2 0
3.039 -3.37 9.151 -0 -1.2 0
3.029 -3.537 9.121 -0 -1.2 0
2.802 -3.515 8.45 -0 -1.2 0
2.709 -3.591 8.173 -0 -1.2 0
2.542 -3.585 7.679 -0 -1.2 0
0.419 0.002 1.291 -0 -1.2 0
0.433 0.004 1.329 -0 -1.2 0
0.443 -0.008 1.353 -0 -1.2 0
0.46 -0.002 1.399 -0 -1.2 0
0.473 -0.003 1.438 -0 -1.2 0
0.488 -0.005 1.477 -0 -1.2 0
0.506 -0.003 1.523 -0 -1.2 0
0.521 -0.008 1.564 -0 -1.2 0
0.542 -0.001 1.619 -0 -1.2 0
0.559 -0.003 1.667 -0 -1.2 0
0.577 -0.005 1.715 -0 -1.2 0
0.599 -0.005 1.771 -0 -1.2 0
0.617 -0.01 1.82 -0 -1.2 0
0.641 -0.007 1.885 -0 -1.2 0
0.666 -0.006 1.95 -0 -1.2 0
0.691 -0.008 2.016 -0 -1.2 0
0.713 -0.015 2.075 -0 -1.2 0
0.741 -0.016 2.15 -0 -1.2 0
0.776 -0.01 2.242 -0 -1.2 0
0.807 -0.01 2.327 -0 -1.2 0
0.845 -0.007 2.429 -0 -1.2 0
0.883 -0.006 2.531 -0 -1.2 0
0.923 -0.008 2.636 -0 -1.2 0
0.971 -0.003 2.766 -0 -1.2 0
1.024 0.001 2.905 -0 -1.2 0
1.073 -0.002 3.036 -0 -1.2 0
1.132 0 3.195 -0 -1.2 0
1.198 0.001 3.373 -0 -1.2 0
1.266 -0.002 3.551 -0 -1.2 0
1.347 -0.001 3.766 -0 -1.2 0
1.438 0 4.01 -0 -1.2 0
1.535 -0.003 4.271 -0 -1.2 0
1.651 -0.002 4.581 -0 -1.2 0
1.777 -0.008 4.918 -0 -1.2 0
1.926 -0.013 5.311 -0 -1.2 0
2.111 -0.013 5.807 -0 -1.2 0
2.342 -0.01 6.425 -0 -1.2 0
2.637 -0.003 7.211 -0 -1.2 0
2.887 -0.042 7.877 -0 -1.2 0
2.878 -0.189 7.856 -0 -1.2 0
2.874 -0.333 7.842 -0 -1.2 0
2.947 -0.458 8.04 -0 -1.2 0
2.958 -0.602 8.068 -0 -1.2 0
2.968 -0.747 8.094 -0 -1.2 0
2.892 -0.898 7.893 -0 -1.2 0
3.111 -1.035 8.475 -0 -1.2 0
3.114 -1.188 8.484 -0 -1.2 0
3.127 -1.342 8.519 -0 -1.2 0
3.129 -1.496 8.523 -0 -1.2 0
3.122 -1.649 8.506 -0 -1.2 0
3.115 -1.801 8.486 -0 -1.2 0
3.113 -1.955 8.484 -0 -1.2 0
3.112 -2.109 8.478 -0 -1.2 0
3.122 -2.269 8.506 -0 -1.2 0
3.132 -2.43 8.532 -0 -1.2 0
3.138 -2.589 8.546 -0 -1.2 0
3.131 -2.746 8.53 -0 -1.2 0
2.993 -2.825 8.162 -0 -1.2 0
2.993 -2.979 8.16 -0 -1.2 0
2.998 -3.136 8.173 -0 -1.2 0
3.002 -3.296 8.184 -0 -1.2 0
2.974 -3.433 8.111 -0 -1.2 0
2.977 -3.593 8.117 -0 -1.2 0
2.757 -3.555 7.53 -0 -1.2 0
2.659 -3.61 7.267 -0 -1.2 0
2.503 -3.599 6.854 -0 -1.2 0
0.454 0.003 1.293 -0 -1.2 0
0.467 -0.002 1.324 -0 -1.2 0
0.483 -0.001 1.361 -0 -1.2 0
0.499 -0.001 1.399 -0 -1.2 0
0.515 -0.002 1.438 -0 -1.2 0
0.53 -0.005 1.476 -0 -1.2 0
0.546 -0.008 1.515 -0 -1.2 0
0.568 -0.001 1.57 -0 -1.2 0
0.585 -0.007 1.609 -0 -1.2 0
0.605 -0.008 1.656 -0 -1.2 0
0.624 -0.011 1.704 -0 -1.2 0
0.647 -0.009 1.759 -0 -1.2 0
0.67 -0.01 1.815 -0 -1.2 0
0.697 -0.006 1.879 -0 -1.2 0
0.717 -0.016 1.928 -0 -1.2 0
0.743 -0.017 1.993 -0 -1.2 0
0.774 -0.015 2.066 -0 -1.2 0
0.805 -0.015 2.141 -0 -1.2 0
0.838 -0.013 2.224 -0 -1.2 0
0.876 -0.01 2.316 -0 -1.2 0
0.915 -0.01 2.408 -0 -1.2 0
0.956 -0.009 2.509 -0 -1.2 0
0.999 -0.011 2.611 -0 -1.2 0
1.044 -0.013 2.723 -0 -1.2 0
1.105 -0.004 2.869 -0 -1.2 0
1.154 -0.011 2.99 -0 -1.2 0
1.22 -0.009 3.146 -0 -1.2 0
1.292 -0.006 3.322 -0 -1.2 0
1.36 -0.012 3.489 -0 -1.2 0
1.449 -0.011 3.701 -0 -1.2 0
1.544 -0.012 3.932 -0 -1.2 0
1.651 -0.013 4.191 -0 -1.2 0
1.772 -0.015 4.487 -0 -1.2 0
1.913 -0.017 4.828 -0 -1.2 0
2.062 -0.027 5.189 -0 -1.2 0
2.245 -0.034 5.633 -0 -1.2 0
2.504 -0.025 6.261 -0 -1.2 0
2.812 -0.021 7.008 -0 -1.2 0
2.842 -0.139 7.08 -0 -1.2 0
2.833 -0.273 7.058 -0 -1.2 0
2.83 -0.403 7.052 -0 -1.2 0
2.907 -0.516 7.237 -0 -1.2 0
2.914 -0.646 7.254 -0 -1.2 0
2.908 -0.779 7.242 -0 -1.2 0
2.922 -0.91 7.274 -0 -1.2 0
2.919 -1.041 7.267 -0 -1.2 0
2.918 -1.172 7.267 -0 -1.2 0
2.922 -1.304 7.274 -0 -1.2 0
2.927 -1.437 7.288 -0 -1.2 0
2.928 -1.57 7.291 -0 -1.2 0
2.929 -1.703 7.291 -0 -1.2 0
2.928 -1.836 7.29 -0 -1.2 0
2.937 -1.972 7.314 -0 -1.2 0
2.939 -2.107 7.317 -0 -1.2 0
2.943 -2.244 7.327 -0 -1.2 0
2.939 -2.378 7.317 -0 -1.2 0
2.945 -2.518 7.331 -0 -1.2 0
2.946 -2.657 7.334 -0 -1.2 0
2.951 -2.799 7.344 -0 -1.2 0
2.946 -2.936 7.334 -0 -1.2 0
2.944 -3.076 7.33 -0 -1.2 0
2.946 -3.22 7.333 -0 -1.2 0
2.945 -3.364 7.334 -0 -1.2 0
2.926 -3.494 7.286 -0 -1.2 0
2.902 -3.619 7.229 -0 -1.2 0
2.684 -3.563 6.7 -0 -1.2 0
2.614 -3.63 6.529 -0 -1.2 0
2.465 -3.612 6.169 -0 -1.2 0
2.437 -3.711 6.102 -0 -1.2 0
0.493 0.003 1.294 -0 -1.2 0
0.507 -0.002 1.325 -0 -1.2 0
0.521 -0.007 1.355 -0 -1.2 0
0.538 -0.008 1.392 -0 -1.2 0
0.555 -0.009 1.43 -0 -1.2 0
0.573 -0.011 1.468 -0 -1.2 0
0.594 -0.008 1.513 -0 -1.2 0
0.614 -0.007 1.559 -0 -1.2 0
0.635 -0.006 1.605 -0 -1.2 0
0.656 -0.008 1.652 -0 -1.2 0
0.677 -0.01 1.699 -0 -1.2 0
0.702 -0.009 1.753 -0 -1.2 0
0.724 -0.015 1.801 -0 -1.2 0
0.753 -0.012 1.864 -0 -1.2 0
0.778 -0.015 1.92 -0 -1.2 0
0.807 -0.017 1.984 -0 -1.2 0
0.84 -0.014 2.056 -0 -1.2 0
0.87 -0.019 2.121 -0 -1.2 0
0.91 -0.013 2.21 -0 -1.2 0
0.948 -0.014 2.293 -0 -1.2 0
0.985 -0.018 2.376 -0 -1.2 0
1.031 -0.016 2.476 -0 -1.2 0
1.08 -0.014 2.584 -0 -1.2 0
1.13 -0.016 2.693 -0 -1.2 0
1.187 -0.014 2.82 -0 -1.2 0
1.254 -0.01 2.966 -0 -1.2 0
1.319 -0.011 3.111 -0 -1.2 0
1.394 -0.011 3.275 -0 -1.2 0
1.469 -0.017 3.439 -0 -1.2 0
1.572 -0.009 3.666 -0 -1.2 0
1.659 -0.02 3.858 -0 -1.2 0
1.783 -0.017 4.13 -0 -1.2 0
1.911 -0.02 4.412 -0 -1.2 0
2.056 -0.025 4.731 -0 -1.2 0
2.222 -0.033 5.095 -0 -1.2 0
2.409 -0.045 5.506 -0 -1.2 0
2.665 -0.044 6.07 -0 -1.2 0
2.819 -0.102 6.41 -0 -1.2 0
2.822 -0.22 6.416 -0 -1.2 0
2.819 -0.34 6.411 -0 -1.2 0
2.84 -0.453 6.458 -0 -1.2 0
2.89 -0.562 6.568 -0 -1.2 0
2.906 -0.681 6.602 -0 -1.2 0
2.875 -0.805 6.536 -0 -1.2 0
2.823 -0.928 6.42 -0 -1.2 0
2.977 -1.041 6.76 -0 -1.2 0
2.977 -1.164 6.76 -0 -1.2 0
2.985 -1.289 6.776 -0 -1.2 0
2.982 -1.413 6.772 -0 -1.2 0
2.979 -1.536 6.766 -0 -1.2 0
2.98 -1.661 6.767 -0 -1.2 0
2.979 -1.786 6.766 -0 -1.2 0
2.982 -1.912 6.773 -0 -1.2 0
2.98 -2.037 6.768 -0 -1.2 0
2.981 -2.164 6.77 -0 -1.2 0
2.98 -2.291 6.77 -0 -1.2 0
2.98 -2.418 6.768 -0 -1.2 0
2.974 -2.545 6.755 -0 -1.2 0
2.974 -2.675 6.758 -0 -1.2 0
2.943 -2.786 6.688 -0 -1.2 0
2.922 -2.903 6.643 -0 -1.2 0
2.925 -3.035 6.648 -0 -1.2 0
2.926 -3.168 6.651 -0 -1.2 0
2.922 -3.298 6.644 -0 -1.2 0
2.91 -3.422 6.616 -0 -1.2 0
2.876 -3.53 6.545 -0 -1.2 0
2.75 -3.55 6.266 -0 -1.2 0
2.624 -3.562 5.989 -0 -1.2 0
2.591 -3.655 5.916 -0 -1.2 0
2.435 -3.619 5.574 -0 -1.2 0
2.398 -3.698 5.491 -0 -1.2 0
0.519 -0.018 1.276 -0 -1.2 0
0.539 -0.008 1.318 -0 -1.2 0
0.557 -0.007 1.355 -0 -1.2 0
0.575 -0.008 1.391 -0 -1.2 0
0.594 -0.008 1.429 -0 -1.2 0
0.613 -0.011 1.466 -0 -1.2 0
0.635 -0.008 1.51 -0 -1.2 0
0.657 -0.006 1.555 -0 -1.2 0
0.676 -0.012 1.593 -0 -1.2 0
0.695 -0.019 1.632 -0 -1.2 0
0.724 -0.01 1.692 -0 -1.2 0
0.747 -0.014 1.74 -0 -1.2 0
0.774 -0.015 1.794 -0 -1.2 0
0.805 -0.011 1.856 -0 -1.2 0
0.833 -0.015 1.911 -0 -1.2 0
0.868 -0.011 1.982 -0 -1.2 0
0.903 -0.008 2.053 -0 -1.2 0
0.93 -0.019 2.109 -0 -1.2 0
0.97 -0.017 2.189 -0 -1.2 0
1.01 -0.017 2.27 -0 -1.2 0
1.055 -0.017 2.359 -0 -1.2 0
1.103 -0.015 2.458 -0 -1.2 0
1.152 -0.017 2.557 -0 -1.2 0
1.205 -0.018 2.665 -0 -1.2 0
1.263 -0.02 2.781 -0 -1.2 0
1.329 -0.02 2.915 -0 -1.2 0
1.404 -0.016 3.067 -0 -1.2 0
1.484 -0.017 3.228 -0 -1.2 0
1.56 -0.025 3.382 -0 -1.2 0
1.665 -0.019 3.595 -0 -1.2 0
1.772 -0.022 3.81 -0 -1.2 0
1.904 -0.017 4.079 -0 -1.2 0
2.037 -0.023 4.348 -0 -1.2 0
2.184 -0.032 4.644 -0 -1.2 0
2.357 -0.04 4.994 -0 -1.2 0
2.557 -0.051 5.398 -0 -1.2 0
2.787 -0.067 5.865 -0 -1.2 0
2.786 -0.178 5.862 -0 -1.2 0
2.788 -0.287 5.867 -0 -1.2 0
2.789 -0.396 5.869 -0 -1.2 0
2.861 -0.489 6.014 -0 -1.2 0
2.864 -0.6 6.022 -0 -1.2 0
2.873 -0.711 6.038 -0 -1.2 0
2.817 -0.828 5.927 -0 -1.2 0
2.802 -0.939 5.895 -0 -1.2 0
3.045 -1.042 6.39 -0 -1.2 0
3.015 -1.158 6.328 -0 -1.2 0
3.102 -1.281 6.505 -0 -1.2 0
3.046 -1.396 6.394 -0 -1.2 0
3.026 -1.512 6.353 -0 -1.2 0
3.027 -1.63 6.354 -0 -1.2 0
3.026 -1.748 6.354 -0 -1.2 0
3.026 -1.867 6.352 -0 -1.2 0
3.036 -1.989 6.375 -0 -1.2 0
3.042 -2.112 6.387 -0 -1.2 0
3.033 -2.229 6.37 -0 -1.2 0
3.024 -2.347 6.351 -0 -1.2 0
3.031 -2.472 6.366 -0 -1.2 0
3.024 -2.591 6.353 -0 -1.2 0
3.081 -2.746 6.467 -0 -1.2 0
3.016 -2.835 6.337 -0 -1.2 0
2.883 -2.877 6.067 -0 -1.2 0
2.885 -3 6.073 -0 -1.2 0
2.891 -3.127 6.085 -0 -1.2 0
2.892 -3.252 6.087 -0 -1.2 0
2.887 -3.374 6.077 -0 -1.2 0
2.868 -3.485 6.041 -0 -1.2 0
2.871 -3.614 6.045 -0 -1.2 0
2.867 -3.741 6.038 -0 -1.2 0
2.582 -3.593 5.461 -0 -1.2 0
2.494 -3.622 5.283 -0 -1.2 0
2.405 -3.644 5.105 -0 -1.2 0
0.553 -0.018 1.275 -0 -1.2 0
0.572 -0.015 1.31 -0 -1.2 0
0.594 -0.007 1.352 -0 -1.2 0
0.613 -0.007 1.389 -0 -1.2 0
0.636 -0.001 1.432 -0 -1.2 0
0.656 -0.004 1.468 -0 -1.2 0
0.676 -0.007 1.505 -0 -1.2 0
0.696 -0.012 1.543 -0 -1.2 0
0.724 -0.005 1.594 -0 -1.2 0
0.744 -0.013 1.632 -0 -1.2 0
0.768 -0.015 1.677 -0 -1.2 0
0.801 -0.008 1.737 -0 -1.2 0
0.832 -0.003 1.798 -0 -1.2 0
0.853 -0.016 1.837 -0 -1.2 0
0.89 -0.009 1.906 -0 -1.2 0
0.92 -0.016 1.96 -0 -1.2 0
0.953 -0.018 2.024 -0 -1.2 0
0.991 -0.018 2.094 -0 -1.2 0
1.038 -0.011 2.181 -0 -1.2 0
1.072 -0.022 2.245 -0 -1.2 0
1.127 -0.011 2.349 -0 -1.2 0
1.175 -0.015 2.437 -0 -1.2 0
1.227 -0.017 2.534 -0 -1.2 0
1.28 -0.022 2.632 -0 -1.2 0
1.346 -0.019 2.755 -0 -1.2 0
1.42 -0.015 2.896 -0 -1.2 0
1.5 -0.012 3.045 -0 -1.2 0
1.576 -0.019 3.186 -0 -1.2 0
1.67 -0.018 3.362 -0 -1.2 0
1.774 -0.018 3.555 -0 -1.2 0
1.887 -0.021 3.768 -0 -1.2 0
2.024 -0.018 4.023 -0 -1.2 0
2.165 -0.023 4.287 -0 -1.2 0
2.326 -0.03 4.587 -0 -1.2 0
2.496 -0.045 4.905 -0 -1.2 0
2.727 -0.048 5.337 -0 -1.2 0
2.763 -0.137 5.405 -0 -1.2 0
2.762 -0.241 5.401 -0 -1.2 0
2.759 -0.344 5.396 -0 -1.2 0
2.778 -0.44 5.433 -0 -1.2 0
2.844 -0.529 5.557 -0 -1.2 0
2.848 -0.632 5.565 -0 -1.2 0
2.847 -0.737 5.563 -0 -1.2 0
2.845 -0.841 5.559 -0 -1.2 0
2.851 -0.944 5.571 -0 -1.2 0
2.847 -1.047 5.564 -0 -1.2 0
2.851 -1.15 5.573 -0 -1.2 0
2.851 -1.254 5.572 -0 -1.2 0
2.853 -1.358 5.578 -0 -1.2 0
2.85 -1.462 5.573 -0 -1.2 0
2.856 -1.567 5.585 -0 -1.2 0
2.861 -1.673 5.594 -0 -1.2 0
2.856 -1.776 5.585 -0 -1.2 0
2.863 -1.884 5.6 -0 -1.2 0
2.856 -1.988 5.587 -0 -1.2 0
2.858 -2.095 5.59 -0 -1.2 0
2.863 -2.205 5.6 -0 -1.2 0
2.862 -2.313 5.6 -0 -1.2 0
2.857 -2.419 5.589 -0 -1.2 0
2.864 -2.532 5.603 -0 -1.2 0
2.86 -2.641 5.597 -0 -1.2 0
2.86 -2.753 5.598 -0 -1.2 0
2.865 -2.868 5.606 -0 -1.2 0
2.867 -2.984 5.612 -0 -1.2 0
2.869 -3.101 5.615 -0 -1.2 0
2.865 -3.215 5.609 -0 -1.2 0
2.865 -3.333 5.608 -0 -1.2 0
2.841 -3.433 5.565 -0 -1.2 0
2.821 -3.536 5.529 -0 -1.2 0
2.702 -3.547 5.304 -0 -1.2 0
2.633 -3.599 5.178 -0 -1.2 0
2.549 -3.63 5.019 -0 -1.2 0
2.417 -3.606 4.774 -0 -1.2 0
2.363 -3.657 4.673 -0 -1.2 0
0.591 -0.01 1.278 -0 -1.2 0
0.615 -0.001 1.319 -0 -1.2 0
0.636 0 1.355 -0 -1.2 0
0.653 -0.007 1.384 -0 -1.2 0
0.677 -0.001 1.426 -0 -1.2 0
0.695 -0.01 1.457 -0 -1.2 0
0.719 -0.007 1.5 -0 -1.2 0
0.736 -0.018 1.529 -0 -1.2 0
0.765 -0.011 1.58 -0 -1.2 0
0.795 -0.007 1.631 -0 -1.2 0
0.821 -0.009 1.675 -0 -1.2 0
0.851 -0.007 1.727 -0 -1.2 0
0.886 -0.003 1.787 -0 -1.2 0
0.912 -0.01 1.832 -0 -1.2 0
0.948 -0.009 1.892 -0 -1.2 0
0.983 -0.01 1.953 -0 -1.2 0
1.019 -0.012 2.015 -0 -1.2 0
1.064 -0.007 2.092 -0 -1.2 0
1.104 -0.011 2.161 -0 -1.2 0
1.149 -0.012 2.239 -0 -1.2 0
1.204 -0.007 2.334 -0 -1.2 0
1.25 -0.014 2.413 -0 -1.2 0
1.301 -0.02 2.501 -0 -1.2 0
1.366 -0.017 2.613 -0 -1.2 0
1.427 -0.023 2.717 -0 -1.2 0
1.512 -0.014 2.862 -0 -1.2 0
1.591 -0.015 3 -0 -1.2 0
1.677 -0.018 3.147 -0 -1.2 0
1.777 -0.017 3.32 -0 -1.2 0
1.888 -0.017 3.51 -0 -1.2 0
2.009 -0.02 3.718 -0 -1.2 0
2.149 -0.02 3.96 -0 -1.2 0
2.3 -0.025 4.219 -0 -1.2 0
2.47 -0.031 4.513 -0 -1.2 0
2.662 -0.041 4.842 -0 -1.2 0
2.755 -0.102 5.001 -0 -1.2 0
2.753 -0.199 4.999 -0 -1.2 0
2.75 -0.296 4.995 -0 -1.2 0
2.752 -0.391 4.998 -0 -1.2 0
2.828 -0.468 5.129 -0 -1.2 0
2.837 -0.564 5.146 -0 -1.2 0
2.846 -0.66 5.163 -0 -1.2 0
2.844 -0.758 5.16 -0 -1.2 0
2.767 -0.862 5.027 -0 -1.2 0
2.768 -0.956 5.03 -0 -1.2 0
2.839 -1.049 5.152 -0 -1.2 0
2.838 -1.145 5.152 -0 -1.2 0
2.837 -1.242 5.15 -0 -1.2 0
2.841 -1.339 5.156 -0 -1.2 0
2.843 -1.437 5.161 -0 -1.2 0
2.844 -1.535 5.164 -0 -1.2 0
2.85 -1.634 5.174 -0 -1.2 0
2.845 -1.731 5.166 -0 -1.2 0
2.849 -1.831 5.173 -0 -1.2 0
2.851 -1.931 5.178 -0 -1.2 0
2.848 -2.03 5.174 -0 -1.2 0
2.849 -2.13 5.176 -0 -1.2 0
2.855 -2.234 5.185 -0 -1.2 0
2.849 -2.333 5.176 -0 -1.2 0
2.852 -2.437 5.182 -0 -1.2 0
2.849 -2.539 5.178 -0 -1.2 0
2.851 -2.644 5.181 -0 -1.2 0
2.856 -2.753 5.19 -0 -1.2 0
2.855 -2.859 5.189 -0 -1.2 0
2.848 -2.963 5.179 -0 -1.2 0
2.855 -3.077 5.191 -0 -1.2 0
2.851 -3.184 5.185 -0 -1.2 0
2.85 -3.296 5.185 -0 -1.2 0
2.844 -3.405 5.175 -0 -1.2 0
2.829 -3.505 5.148 -0 -1.2 0
2.829 -3.622 5.15 -0 -1.2 0
2.829 -3.74 5.15 -0 -1.2 0
2.541 -3.574 4.653 -0 -1.2 0
2.514 -3.655 4.608 -0 -1.2 0
2.381 -3.622 4.379 -0 -1.2 0
2.336 -3.679 4.302 -0 -1.2 0
0.632 0.004 1.287 -0 -1.2 0
0.649 -0.001 1.315 -0 -1.2 0
0.667 -0.007 1.344 -0 -1.2 0
0.689 -0.007 1.379 -0 -1.2 0
0.715 -0.001 1.42 -0 -1.2 0
0.733 -0.011 1.449 -0 -1.2 0
0.759 -0.007 1.491 -0 -1.2 0
0.778 -0.018 1.52 -0 -1.2 0
0.809 -0.011 1.57 -0 -1.2 0
0.836 -0.013 1.613 -0 -1.2 0
0.867 -0.009 1.663 -0 -1.2 0
0.895 -0.014 1.707 -0 -1.2 0
0.931 -0.008 1.766 -0 -1.2 0
0.964 -0.01 1.817 -0 -1.2 0
0.996 -0.014 1.869 -0 -1.2 0
1.037 -0.01 1.936 -0 -1.2 0
1.075 -0.012 1.996 -0 -1.2 0
1.118 -0.013 2.064 -0 -1.2 0
1.156 -0.02 2.125 -0 -1.2 0
1.208 -0.016 2.209 -0 -1.2 0
1.271 -0.007 2.309 -0 -1.2 0
1.319 -0.014 2.387 -0 -1.2 0
1.378 -0.016 2.48 -0 -1.2 0
1.437 -0.021 2.575 -0 -1.2 0
1.511 -0.019 2.693 -0 -1.2 0
1.585 -0.021 2.812 -0 -1.2 0
1.675 -0.019 2.955 -0 -1.2 0
1.765 -0.021 3.1 -0 -1.2 0
1.861 -0.027 3.253 -0 -1.2 0
1.993 -0.017 3.463 -0 -1.2 0
2.11 -0.025 3.65 -0 -1.2 0
2.253 -0.028 3.879 -0 -1.2 0
2.412 -0.032 4.133 -0 -1.2 0
2.597 -0.037 4.429 -0 -1.2 0
2.742 -0.068 4.661 -0 -1.2 0
2.736 -0.162 4.651 -0 -1.2 0
2.739 -0.252 4.655 -0 -1.2 0
2.74 -0.342 4.659 -0 -1.2 0
2.747 -0.431 4.67 -0 -1.2 0
2.821 -0.505 4.789 -0 -1.2 0
2.826 -0.596 4.798 -0 -1.2 0
2.825 -0.688 4.796 -0 -1.2 0
2.822 -0.78 4.793 -0 -1.2 0
2.75 -0.877 4.678 -0 -1.2 0
2.758 -0.965 4.69 -0 -1.2 0
2.939 -1.051 4.979 -0 -1.2 0
2.933 -1.145 4.971 -0 -1.2 0
2.937 -1.24 4.979 -0 -1.2 0
2.945 -1.335 4.993 -0 -1.2 0
2.949 -1.431 4.998 -0 -1.2 0
2.945 -1.526 4.992 -0 -1.2 0
2.945 -1.622 4.994 -0 -1.2 0
2.939 -1.718 4.985 -0 -1.2 0
2.944 -1.815 4.992 -0 -1.2 0
2.947 -1.913 4.998 -0 -1.2 0
2.944 -2.01 4.994 -0 -1.2 0
2.945 -2.108 4.996 -0 -1.2 0
2.941 -2.205 4.989 -0 -1.2 0
2.951 -2.309 5.005 -0 -1.2 0
2.949 -2.409 5.004 -0 -1.2 0
2.936 -2.505 4.984 -0 -1.2 0
2.943 -2.61 4.995 -0 -1.2 0
2.949 -2.716 5.005 -0 -1.2 0
2.897 -2.79 4.924 -0 -1.2 0
2.836 -2.855 4.825 -0 -1.2 0
2.839 -2.96 4.831 -0 -1.2 0
2.836 -3.062 4.827 -0 -1.2 0
2.832 -3.164 4.821 -0 -1.2 0
2.836 -3.275 4.829 -0 -1.2 0
2.831 -3.378 4.82 -0 -1.2 0
2.809 -3.47 4.786 -0 -1.2 0
2.805 -3.578 4.781 -0 -1.2 0
2.758 -3.646 4.706 -0 -1.2 0
2.56 -3.563 4.389 -0 -1.2 0
2.522 -3.632 4.329 -0 -1.2 0
2.403 -3.61 4.136 -0 -1.2 0
2.347 -3.651 4.047 -0 -1.2 0
0.657 -0.01 1.271 -0 -1.2 0
0.683 -0.001 1.309 -0 -1.2 0
0.702 -0.007 1.337 -0 -1.2 0
0.729 0 1.377 -0 -1.2 0
0.748 -0.008 1.406 -0 -1.2 0
0.771 -0.011 1.44 -0 -1.2 0
0.799 -0.007 1.481 -0 -1.2 0
0.818 -0.018 1.511 -0 -1.2 0
0.851 -0.011 1.558 -0 -1.2 0
0.879 -0.013 1.601 -0 -1.2 0
0.913 -0.009 1.65 -0 -1.2 0
0.941 -0.014 1.693 -0 -1.2 0
0.985 -0.003 1.757 -0 -1.2 0
1.019 -0.004 1.808 -0 -1.2 0
1.048 -0.014 1.852 -0 -1.2 0
1.088 -0.015 1.91 -0 -1.2 0
1.137 -0.007 1.983 -0 -1.2 0
1.177 -0.013 2.043 -0 -1.2 0
1.227 -0.011 2.117 -0 -1.2 0
1.277 -0.012 2.192 -0 -1.2 0
1.333 -0.011 2.275 -0 -1.2 0
1.389 -0.014 2.358 -0 -1.2 0
1.451 -0.016 2.45 -0 -1.2 0
1.518 -0.017 2.549 -0 -1.2 0
1.585 -0.023 2.649 -0 -1.2 0
1.674 -0.019 2.781 -0 -1.2 0
1.764 -0.019 2.914 -0 -1.2 0
1.859 -0.021 3.055 -0 -1.2 0
1.955 -0.03 3.197 -0 -1.2 0
2.094 -0.021 3.403 -0 -1.2 0
2.217 -0.029 3.586 -0 -1.2 0
2.367 -0.03 3.809 -0 -1.2 0
2.54 -0.032 4.066 -0 -1.2 0
2.714 -0.045 4.324 -0 -1.2 0
2.718 -0.13 4.331 -0 -1.2 0
2.717 -0.217 4.328 -0 -1.2 0
2.713 -0.303 4.325 -0 -1.2 0
2.709 -0.389 4.319 -0 -1.2 0
2.765 -0.461 4.403 -0 -1.2 0
2.798 -0.54 4.453 -0 -1.2 0
2.798 -0.627 4.453 -0 -1.2 0
2.808 -0.712 4.467 -0 -1.2 0
2.772 -0.802 4.414 -0 -1.2 0
2.729 -0.89 4.352 -0 -1.2 0
2.748 -0.973 4.379 -0 -1.2 0
3.033 -1.052 4.804 -0 -1.2 0
3.083 -1.145 4.879 -0 -1.2 0
2.992 -1.236 4.744 -0 -1.2 0
3.036 -1.331 4.808 -0 -1.2 0
3.005 -1.421 4.763 -0 -1.2 0
2.99 -1.512 4.741 -0 -1.2 0
2.985 -1.603 4.735 -0 -1.2 0
2.98 -1.695 4.728 -0 -1.2 0
2.979 -1.787 4.727 -0 -1.2 0
2.954 -1.874 4.691 -0 -1.2 0
2.968 -1.971 4.712 -0 -1.2 0
2.965 -2.064 4.707 -0 -1.2 0
2.971 -2.161 4.717 -0 -1.2 0
2.965 -2.254 4.71 -0 -1.2 0
2.965 -2.349 4.709 -0 -1.2 0
2.968 -2.448 4.714 -0 -1.2 0
2.96 -2.541 4.702 -0 -1.2 0
2.966 -2.643 4.713 -0 -1.2 0
3.025 -2.776 4.801 -0 -1.2 0
2.95 -2.833 4.689 -0 -1.2 0
2.833 -2.86 4.515 -0 -1.2 0
2.825 -2.954 4.505 -0 -1.2 0
2.827 -3.055 4.509 -0 -1.2 0
2.828 -3.157 4.51 -0 -1.2 0
2.828 -3.259 4.51 -0 -1.2 0
2.821 -3.358 4.501 -0 -1.2 0
2.798 -3.445 4.468 -0 -1.2 0
2.79 -3.543 4.456 -0 -1.2 0
2.712 -3.578 4.339 -0 -1.2 0
2.696 -3.671 4.317 -0 -1.2 0
2.506 -3.586 4.034 -0 -1.2 0
2.476 -3.656 3.99 -0 -1.2 0
2.356 -3.627 3.811 -0 -1.2 0
2.312 -3.678 3.746 -0 -1.2 0
0.696 -0.003 1.269 -0 -1.2 0
0.724 0.005 1.307 -0 -1.2 0
0.74 -0.007 1.329 -0 -1.2 0
0.768 0 1.368 -0 -1.2 0
0.793 -0.001 1.401 -0 -1.2 0
0.813 -0.011 1.429 -0 -1.2 0
0.842 -0.007 1.469 -0 -1.2 0
0.871 -0.006 1.51 -0 -1.2 0
0.901 -0.005 1.551 -0 -1.2 0
0.931 -0.007 1.592 -0 -1.2 0
0.967 -0.003 1.64 -0 -1.2 0
0.998 -0.008 1.682 -0 -1.2 0
1.033 -0.008 1.731 -0 -1.2 0
1.069 -0.011 1.779 -0 -1.2 0
1.115 -0.004 1.843 -0 -1.2 0
1.162 0 1.907 -0 -1.2 0
1.198 -0.008 1.958 -0 -1.2 0
1.246 -0.008 2.023 -0 -1.2 0
1.298 -0.007 2.095 -0 -1.2 0
1.351 -0.007 2.168 -0 -1.2 0
1.416 -0.003 2.256 -0 -1.2 0
1.475 -0.006 2.338 -0 -1.2 0
1.534 -0.012 2.42 -0 -1.2 0
1.606 -0.014 2.517 -0 -1.2 0
1.688 -0.012 2.63 -0 -1.2 0
1.77 -0.015 2.743 -0 -1.2 0
1.87 -0.012 2.88 -0 -1.2 0
1.964 -0.019 3.01 -0 -1.2 0
2.076 -0.021 3.163 -0 -1.2 0
2.218 -0.016 3.356 -0 -1.2 0
2.342 -0.026 3.527 -0 -1.2 0
2.506 -0.026 3.753 -0 -1.2 0
2.688 -0.028 4.004 -0 -1.2 0
2.716 -0.1 4.042 -0 -1.2 0
2.72 -0.181 4.048 -0 -1.2 0
2.711 -0.265 4.037 -0 -1.2 0
2.713 -0.346 4.04 -0 -1.2 0
2.721 -0.424 4.05 -0 -1.2 0
2.791 -0.489 4.148 -0 -1.2 0
2.797 -0.57 4.156 -0 -1.2 0
2.808 -0.65 4.171 -0 -1.2 0
2.8 -0.733 4.161 -0 -1.2 0
2.739 -0.821 4.077 -0 -1.2 0
2.729 -0.902 4.064 -0 -1.2 0
2.795 -0.978 4.155 -0 -1.2 0
3.014 -1.055 4.456 -0 -1.2 0
3.019 -1.142 4.464 -0 -1.2 0
2.978 -1.229 4.407 -0 -1.2 0
2.999 -1.316 4.436 -0 -1.2 0
2.99 -1.403 4.425 -0 -1.2 0
2.98 -1.49 4.412 -0 -1.2 0
2.976 -1.576 4.407 -0 -1.2 0
2.971 -1.662 4.4 -0 -1.2 0
2.964 -1.749 4.39 -0 -1.2 0
2.95 -1.833 4.373 -0 -1.2 0
2.96 -1.924 4.386 -0 -1.2 0
2.957 -2.011 4.382 -0 -1.2 0
2.964 -2.103 4.393 -0 -1.2 0
2.958 -2.192 4.387 -0 -1.2 0
2.964 -2.284 4.393 -0 -1.2 0
2.963 -2.375 4.392 -0 -1.2 0
2.96 -2.467 4.389 -0 -1.2 0
2.962 -2.561 4.393 -0 -1.2 0
2.964 -2.656 4.395 -0 -1.2 0
3.086 -2.821 4.564 -0 -1.2 0
2.94 -2.834 4.364 -0 -1.2 0
2.817 -2.853 4.196 -0 -1.2 0
2.815 -2.946 4.193 -0 -1.2 0
2.834 -3.054 4.219 -0 -1.2 0
2.829 -3.148 4.214 -0 -1.2 0
2.834 -3.251 4.22 -0 -1.2 0
2.833 -3.35 4.219 -0 -1.2 0
2.804 -3.427 4.18 -0 -1.2 0
2.805 -3.532 4.182 -0 -1.2 0
2.795 -3.628 4.169 -0 -1.2 0
2.795 -3.734 4.168 -0 -1.2 0
2.514 -3.56 3.782 -0 -1.2 0
2.503 -3.649 3.768 -0 -1.2 0
2.377 -3.613 3.594 -0 -1.2 0
2.326 -3.655 3.525 -0 -1.2 0
6.21 -8.295 8.881 -0 -1.2 0
0.728 -0.004 1.261 -0 -1.2 0
0.752 -0.001 1.293 -0 -1.2 0
0.773 -0.007 1.319 -0 -1.2 0
0.798 -0.007 1.352 -0 -1.2 0
0.824 -0.008 1.384 -0 -1.2 0
0.859 0.001 1.429 -0 -1.2 0
0.881 -0.007 1.457 -0 -1.2 0
0.907 -0.012 1.49 -0 -1.2 0
0.943 -0.005 1.536 -0 -1.2 0
0.974 -0.007 1.576 -0 -1.2 0
1.006 -0.009 1.617 -0 -1.2 0
1.043 -0.008 1.664 -0 -1.2 0
1.085 -0.003 1.719 -0 -1.2 0
1.122 -0.005 1.767 -0 -1.2 0
1.165 -0.004 1.821 -0 -1.2 0
1.209 -0.005 1.877 -0 -1.2 0
1.258 -0.003 1.94 -0 -1.2 0
1.297 -0.013 1.989 -0 -1.2 0
1.352 -0.011 2.06 -0 -1.2 0
1.408 -0.012 2.131 -0 -1.2 0
1.469 -0.011 2.21 -0 -1.2 0
1.537 -0.01 2.297 -0 -1.2 0
1.604 -0.012 2.384 -0 -1.2 0
1.679 -0.014 2.479 -0 -1.2 0
1.759 -0.016 2.58 -0 -1.2 0
1.845 -0.019 2.691 -0 -1.2 0
1.938 -0.022 2.81 -0 -1.2 0
2.049 -0.022 2.951 -0 -1.2 0
2.16 -0.027 3.094 -0 -1.2 0
2.301 -0.024 3.274 -0 -1.2 0
2.443 -0.029 3.455 -0 -1.2 0
2.609 -0.03 3.668 -0 -1.2 0
2.71 -0.068 3.797 -0 -1.2 0
2.702 -0.15 3.788 -0 -1.2 0
2.706 -0.227 3.793 -0 -1.2 0
2.702 -0.305 3.789 -0 -1.2 0
2.699 -0.384 3.784 -0 -1.2 0
2.742 -0.45 3.84 -0 -1.2 0
2.779 -0.519 3.888 -0 -1.2 0
2.784 -0.596 3.896 -0 -1.2 0
2.79 -0.674 3.902 -0 -1.2 0
2.794 -0.751 3.908 -0 -1.2 0
2.754 -0.832 3.857 -0 -1.2 0
2.756 -0.909 3.861 -0 -1.2 0
2.782 -0.984 3.894 -0 -1.2 0
2.795 -1.061 3.911 -0 -1.2 0
2.795 -1.138 3.912 -0 -1.2 0
2.793 -1.215 3.91 -0 -1.2 0
2.799 -1.293 3.916 -0 -1.2 0
2.796 -1.371 3.914 -0 -1.2 0
2.792 -1.448 3.909 -0 -1.2 0
2.793 -1.527 3.912 -0 -1.2 0
2.795 -1.605 3.914 -0 -1.2 0
2.795 -1.684 3.915 -0 -1.2 0
2.794 -1.763 3.913 -0 -1.2 0
2.792 -1.842 3.912 -0 -1.2 0
2.796 -1.923 3.917 -0 -1.2 0
2.799 -2.004 3.921 -0 -1.2 0
2.8 -2.086 3.923 -0 -1.2 0
2.795 -2.166 3.917 -0 -1.2 0
2.801 -2.251 3.925 -0 -1.2 0
2.794 -2.331 3.917 -0 -1.2 0
2.797 -2.417 3.921 -0 -1.2 0
2.795 -2.501 3.918 -0 -1.2 0
2.797 -2.587 3.921 -0 -1.2 0
2.803 -2.678 3.93 -0 -1.2 0
2.802 -2.766 3.929 -0 -1.2 0
2.802 -2.855 3.928 -0 -1.2 0
2.81 -2.951 3.94 -0 -1.2 0
2.807 -3.041 3.936 -0 -1.2 0
2.814 -3.139 3.945 -0 -1.2 0
2.808 -3.23 3.938 -0 -1.2 0
2.806 -3.326 3.937 -0 -1.2 0
2.792 -3.413 3.919 -0 -1.2 0
2.784 -3.504 3.908 -0 -1.2 0
2.784 -3.606 3.909 -0 -1.2 0
2.782 -3.708 3.908 -0 -1.2 0
2.518 -3.55 3.569 -0 -1.2 0
2.491 -3.619 3.536 -0 -1.2 0
2.382 -3.6 3.395 -0 -1.2 0
2.329 -3.637 3.328 -0 -1.2 0
6.297 -8.338 8.428 -0 -1.2 0
6.287 -8.597 8.416 -0 -1.2 0
6.303 -8.894 8.438 -0 -1.2 0
6.309 -9.189 8.447 -0 -1.2 0
0.759 -0.004 1.252 -0 -1.2 0
0.785 -0.001 1.284 -0 -1.2 0
0.802 -0.014 1.304 -0 -1.2 0
0.833 -0.007 1.34 -0 -1.2 0
0.859 -0.008 1.372 -0 -1.2 0
0.891 -0.004 1.409 -0 -1.2 0
0.919 -0.007 1.442 -0 -1.2 0
0.951 -0.006 1.48 -0 -1.2 0
0.978 -0.011 1.513 -0 -1.2 0
1.016 -0.007 1.559 -0 -1.2 0
1.054 -0.003 1.604 -0 -1.2 0
1.087 -0.008 1.644 -0 -1.2 0
1.121 -0.014 1.684 -0 -1.2 0
1.165 -0.011 1.737 -0 -1.2 0
1.211 -0.009 1.79 -0 -1.2 0
1.25 -0.016 1.838 -0 -1.2 0
1.307 -0.008 1.906 -0 -1.2 0
1.358 -0.008 1.967 -0 -1.2 0
1.416 -0.007 2.036 -0 -1.2 0
1.462 -0.017 2.092 -0 -1.2 0
1.533 -0.012 2.175 -0 -1.2 0
1.597 -0.015 2.252 -0 -1.2 0
1.662 -0.021 2.329 -0 -1.2 0
1.745 -0.018 2.429 -0 -1.2 0
1.823 -0.023 2.522 -0 -1.2 0
1.913 -0.025 2.629 -0 -1.2 0
2.015 -0.026 2.751 -0 -1.2 0
2.125 -0.028 2.881 -0 -1.2 0
2.24 -0.034 3.02 -0 -1.2 0
2.394 -0.027 3.202 -0 -1.2 0
2.535 -0.034 3.372 -0 -1.2 0
2.69 -0.044 3.557 -0 -1.2 0
2.701 -0.115 3.57 -0 -1.2 0
2.693 -0.193 3.56 -0 -1.2 0
2.691 -0.269 3.558 -0 -1.2 0
2.693 -0.342 3.56 -0 -1.2 0
2.694 -0.415 3.563 -0 -1.2 0
2.765 -0.472 3.647 -0 -1.2 0
2.772 -0.546 3.656 -0 -1.2 0
2.771 -0.62 3.655 -0 -1.2 0
2.781 -0.693 3.668 -0 -1.2 0
2.773 -0.768 3.659 -0 -1.2 0
2.776 -0.842 3.663 -0 -1.2 0
2.778 -0.916 3.666 -0 -1.2 0
2.78 -0.99 3.668 -0 -1.2 0
2.781 -1.063 3.67 -0 -1.2 0
2.781 -1.136 3.669 -0 -1.2 0
2.779 -1.21 3.669 -0 -1.2 0
2.777 -1.284 3.667 -0 -1.2 0
2.782 -1.358 3.671 -0 -1.2 0
2.784 -1.433 3.675 -0 -1.2 0
2.786 -1.508 3.679 -0 -1.2 0
2.787 -1.583 3.68 -0 -1.2 0
2.788 -1.658 3.681 -0 -1.2 0
2.794 -1.735 3.689 -0 -1.2 0
2.786 -1.809 3.679 -0 -1.2 0
2.79 -1.887 3.685 -0 -1.2 0
2.787 -1.963 3.682 -0 -1.2 0
2.796 -2.043 3.692 -0 -1.2 0
2.797 -2.122 3.694 -0 -1.2 0
2.792 -2.199 3.688 -0 -1.2 0
2.797 -2.281 3.695 -0 -1.2 0
2.795 -2.361 3.693 -0 -1.2 0
2.793 -2.441 3.691 -0 -1.2 0
2.796 -2.524 3.694 -0 -1.2 0
2.803 -2.612 3.703 -0 -1.2 0
2.803 -2.697 3.704 -0 -1.2 0
2.804 -2.782 3.704 -0 -1.2 0
2.796 -2.864 3.696 -0 -1.2 0
2.799 -2.954 3.7 -0 -1.2 0
2.8 -3.045 3.702 -0 -1.2 0
2.802 -3.136 3.704 -0 -1.2 0
2.807 -3.232 3.711 -0 -1.2 0
2.799 -3.321 3.703 -0 -1.2 0
2.785 -3.404 3.686 -0 -1.2 0
2.77 -3.488 3.669 -0 -1.2 0
2.77 -3.586 3.669 -0 -1.2 0
2.599 -3.523 3.465 -0 -1.2 0
2.539 -3.56 3.394 -0 -1.2 0
2.495 -3.611 3.341 -0 -1.2 0
2.403 -3.608 3.232 -0 -1.2 0
2.338 -3.631 3.154 -0 -1.2 0
2.304 -3.687 3.114 -0 -1.2 0
0.792 -0.004 1.241 -0 -1.2 0
0.814 -0.008 1.266 -0 -1.2 0
0.841 -0.007 1.296 -0 -1.2 0
0.868 -0.008 1.327 -0 -1.2 0
0.897 -0.008 1.358 -0 -1.2 0
0.93 -0.004 1.393 -0 -1.2 0
0.953 -0.013 1.419 -0 -1.2 0
0.992 -0.006 1.462 -0 -1.2 0
1.025 -0.005 1.5 -0 -1.2 0
1.06 -0.007 1.538 -0 -1.2 0
1.094 -0.009 1.576 -0 -1.2 0
1.124 -0.019 1.608 -0 -1.2 0
1.17 -0.014 1.66 -0 -1.2 0
1.21 -0.016 1.705 -0 -1.2 0
1.257 -0.014 1.756 -0 -1.2 0
1.31 -0.011 1.815 -0 -1.2 0
1.351 -0.018 1.861 -0 -1.2 0
1.412 -0.013 1.927 -0 -1.2 0
1.472 -0.011 1.993 -0 -1.2 0
1.52 -0.022 2.047 -0 -1.2 0
1.594 -0.017 2.128 -0 -1.2 0
1.661 -0.019 2.203 -0 -1.2 0
1.734 -0.021 2.285 -0 -1.2 0
1.814 -0.022 2.373 -0 -1.2 0
1.896 -0.027 2.463 -0 -1.2 0
1.99 -0.029 2.567 -0 -1.2 0
2.104 -0.026 2.692 -0 -1.2 0
2.211 -0.031 2.812 -0 -1.2 0
2.332 -0.037 2.946 -0 -1.2 0
2.472 -0.039 3.101 -0 -1.2 0
2.633 -0.04 3.278 -0 -1.2 0
2.697 -0.087 3.35 -0 -1.2 0
2.696 -0.16 3.348 -0 -1.2 0
2.693 -0.233 3.346 -0 -1.2 0
2.689 -0.305 3.342 -0 -1.2 0
2.691 -0.375 3.344 -0 -1.2 0
2.699 -0.444 3.354 -0 -1.2 0
2.766 -0.499 3.428 -0 -1.2 0
2.772 -0.569 3.436 -0 -1.2 0
2.778 -0.64 3.442 -0 -1.2 0
2.776 -0.712 3.441 -0 -1.2 0
2.773 -0.783 3.438 -0 -1.2 0
2.777 -0.854 3.441 -0 -1.2 0
2.779 -0.924 3.445 -0 -1.2 0
2.78 -0.995 3.446 -0 -1.2 0
2.781 -1.065 3.448 -0 -1.2 0
2.781 -1.135 3.448 -0 -1.2 0
2.78 -1.206 3.447 -0 -1.2 0
2.785 -1.277 3.453 -0 -1.2 0
2.782 -1.348 3.451 -0 -1.2 0
2.786 -1.419 3.454 -0 -1.2 0
2.788 -1.491 3.457 -0 -1.2 0
2.789 -1.563 3.459 -0 -1.2 0
2.79 -1.635 3.46 -0 -1.2 0
2.79 -1.707 3.461 -0 -1.2 0
2.795 -1.782 3.466 -0 -1.2 0
2.793 -1.854 3.465 -0 -1.2 0
2.798 -1.928 3.47 -0 -1.2 0
2.794 -2.003 3.465 -0 -1.2 0
2.795 -2.078 3.468 -0 -1.2 0
2.802 -2.156 3.477 -0 -1.2 0
2.797 -2.229 3.47 -0 -1.2 0
2.802 -2.309 3.476 -0 -1.2 0
2.8 -2.386 3.475 -0 -1.2 0
2.796 -2.463 3.471 -0 -1.2 0
2.806 -2.548 3.482 -0 -1.2 0
2.801 -2.626 3.477 -0 -1.2 0
2.8 -2.708 3.478 -0 -1.2 0
2.806 -2.794 3.483 -0 -1.2 0
2.798 -2.873 3.475 -0 -1.2 0
2.801 -2.961 3.479 -0 -1.2 0
2.809 -3.054 3.488 -0 -1.2 0
2.798 -3.134 3.475 -0 -1.2 0
2.803 -3.228 3.482 -0 -1.2 0
2.801 -3.318 3.48 -0 -1.2 0
2.786 -3.4 3.464 -0 -1.2 0
2.77 -3.48 3.447 -0 -1.2 0
2.707 -3.519 3.378 -0 -1.2 0
2.667 -3.576 3.334 -0 -1.2 0
2.638 -3.644 3.302 -0 -1.2 0
2.491 -3.592 3.14 -0 -1.2 0
2.472 -3.667 3.119 -0 -1.2 0
2.351 -3.628 2.984 -0 -1.2 0
2.31 -3.675 2.939 -0 -1.2 0
0.822 -0.004 1.229 -0 -1.2 0
0.845 -0.008 1.253 -0 -1.2 0
0.868 -0.014 1.277 -0 -1.2 0
0.902 -0.008 1.312 -0 -1.2 0
0.925 -0.015 1.336 -0 -1.2 0
0.96 -0.011 1.372 -0 -1.2 0
0.995 -0.007 1.407 -0 -1.2 0
1.024 -0.012 1.437 -0 -1.2 0
1.059 -0.012 1.474 -0 -1.2 0
1.094 -0.013 1.511 -0 -1.2 0
1.13 -0.016 1.548 -0 -1.2 0
1.178 -0.008 1.597 -0 -1.2 0
1.208 -0.02 1.628 -0 -1.2 0
1.256 -0.016 1.677 -0 -1.2 0
1.299 -0.019 1.722 -0 -1.2 0
1.353 -0.016 1.779 -0 -1.2 0
1.397 -0.023 1.823 -0 -1.2 0
1.453 -0.022 1.88 -0 -1.2 0
1.521 -0.017 1.951 -0 -1.2 0
1.584 -0.017 2.016 -0 -1.2 0
1.654 -0.017 2.088 -0 -1.2 0
1.723 -0.019 2.16 -0 -1.2 0
1.8 -0.021 2.239 -0 -1.2 0
1.871 -0.03 2.312 -0 -1.2 0
1.961 -0.031 2.405 -0 -1.2 0
2.052 -0.037 2.499 -0 -1.2 0
2.156 -0.039 2.607 -0 -1.2 0
2.288 -0.035 2.743 -0 -1.2 0
2.4 -0.045 2.858 -0 -1.2 0
2.552 -0.044 3.016 -0 -1.2 0
2.692 -0.056 3.16 -0 -1.2 0
2.684 -0.129 3.152 -0 -1.2 0
2.683 -0.199 3.15 -0 -1.2 0
2.686 -0.267 3.154 -0 -1.2 0
2.682 -0.337 3.151 -0 -1.2 0
2.676 -0.407 3.145 -0 -1.2 0
2.719 -0.464 3.19 -0 -1.2 0
2.76 -0.522 3.233 -0 -1.2 0
2.766 -0.59 3.24 -0 -1.2 0
2.766 -0.659 3.239 -0 -1.2 0
2.777 -0.726 3.252 -0 -1.2 0
2.767 -0.795 3.241 -0 -1.2 0
2.771 -0.863 3.245 -0 -1.2 0
2.773 -0.931 3.248 -0 -1.2 0
2.767 -0.999 3.242 -0 -1.2 0
2.768 -1.066 3.244 -0 -1.2 0
2.768 -1.133 3.243 -0 -1.2 0
2.774 -1.201 3.25 -0 -1.2 0
2.772 -1.269 3.249 -0 -1.2 0
2.776 -1.338 3.253 -0 -1.2 0
2.78 -1.406 3.258 -0 -1.2 0
2.776 -1.474 3.253 -0 -1.2 0
2.777 -1.543 3.255 -0 -1.2 0
2.778 -1.612 3.257 -0 -1.2 0
2.786 -1.683 3.264 -0 -1.2 0
2.785 -1.753 3.264 -0 -1.2 0
2.789 -1.825 3.269 -0 -1.2 0
2.788 -1.895 3.267 -0 -1.2 0
2.784 -1.965 3.264 -0 -1.2 0
2.793 -2.04 3.273 -0 -1.2 0
2.787 -2.111 3.269 -0 -1.2 0
2.789 -2.185 3.27 -0 -1.2 0
2.788 -2.258 3.269 -0 -1.2 0
2.793 -2.336 3.275 -0 -1.2 0
2.785 -2.407 3.266 -0 -1.2 0
2.794 -2.488 3.277 -0 -1.2 0
2.789 -2.563 3.273 -0 -1.2 0
2.797 -2.646 3.281 -0 -1.2 0
2.791 -2.722 3.274 -0 -1.2 0
2.796 -2.806 3.28 -0 -1.2 0
2.793 -2.887 3.279 -0 -1.2 0
2.79 -2.968 3.275 -0 -1.2 0
2.785 -3.049 3.27 -0 -1.2 0
2.792 -3.141 3.278 -0 -1.2 0
2.791 -3.228 3.278 -0 -1.2 0
2.789 -3.316 3.276 -0 -1.2 0
2.779 -3.399 3.266 -0 -1.2 0
2.763 -3.477 3.249 -0 -1.2 0
2.757 -3.566 3.244 -0 -1.2 0
2.755 -3.661 3.243 -0 -1.2 0
2.746 -3.751 3.234 -0 -1.2 0
2.488 -3.585 2.965 -0 -1.2 0
2.479 -3.669 2.957 -0 -1.2 0
2.359 -3.633 2.833 -0 -1.2 0
2.312 -3.671 2.785 -0 -1.2 0
0.85 -0.003 1.218 -0 -1.2 0
0.874 -0.007 1.241 -0 -1.2 0
0.903 -0.006 1.269 -0 -1.2 0
0.927 -0.013 1.292 -0 -1.2 0
0.957 -0.014 1.321 -0 -1.2 0
0.998 -0.003 1.36 -0 -1.2 0
1.023 -0.013 1.384 -0 -1.2 0
1.059 -0.011 1.419 -0 -1.2 0
1.095 -0.011 1.454 -0 -1.2 0
1.126 -0.018 1.483 -0 -1.2 0
1.163 -0.021 1.519 -0 -1.2 0
1.206 -0.018 1.561 -0 -1.2 0
1.25 -0.019 1.603 -0 -1.2 0
1.3 -0.015 1.65 -0 -1.2 0
1.343 -0.018 1.693 -0 -1.2 0
1.388 -0.025 1.736 -0 -1.2 0
1.446 -0.022 1.792 -0 -1.2 0
1.497 -0.027 1.841 -0 -1.2 0
1.567 -0.02 1.909 -0 -1.2 0
1.626 -0.025 1.965 -0 -1.2 0
1.704 -0.02 2.04 -0 -1.2 0
1.769 -0.026 2.104 -0 -1.2 0
1.843 -0.031 2.174 -0 -1.2 0
1.922 -0.036 2.25 -0 -1.2 0
2.023 -0.034 2.347 -0 -1.2 0
2.116 -0.039 2.439 -0 -1.2 0
2.218 -0.045 2.536 -0 -1.2 0
2.346 -0.043 2.66 -0 -1.2 0
2.483 -0.044 2.792 -0 -1.2 0
2.621 -0.051 2.924 -0 -1.2 0
2.668 -0.101 2.969 -0 -1.2 0
2.658 -0.171 2.961 -0 -1.2 0
2.656 -0.238 2.959 -0 -1.2 0
2.652 -0.305 2.956 -0 -1.2 0
2.654 -0.37 2.959 -0 -1.2 0
2.656 -0.435 2.96 -0 -1.2 0
2.721 -0.484 3.023 -0 -1.2 0
2.742 -0.546 3.044 -0 -1.2 0
2.741 -0.612 3.044 -0 -1.2 0
2.74 -0.678 3.042 -0 -1.2 0
2.745 -0.742 3.047 -0 -1.2 0
2.748 -0.807 3.051 -0 -1.2 0
2.744 -0.873 3.048 -0 -1.2 0
2.747 -0.938 3.051 -0 -1.2 0
2.734 -1.003 3.038 -0 -1.2 0
2.734 -1.067 3.039 -0 -1.2 0
2.734 -1.131 3.04 -0 -1.2 0
2.74 -1.196 3.046 -0 -1.2 0
2.739 -1.261 3.045 -0 -1.2 0
2.743 -1.326 3.049 -0 -1.2 0
2.747 -1.392 3.053 -0 -1.2 0
2.756 -1.458 3.063 -0 -1.2 0
2.752 -1.524 3.059 -0 -1.2 0
2.767 -1.593 3.075 -0 -1.2 0
2.767 -1.659 3.075 -0 -1.2 0
2.767 -1.726 3.075 -0 -1.2 0
2.773 -1.794 3.081 -0 -1.2 0
2.77 -1.863 3.079 -0 -1.2 0
2.774 -1.932 3.083 -0 -1.2 0
2.777 -2.002 3.086 -0 -1.2 0
2.779 -2.072 3.088 -0 -1.2 0
2.78 -2.143 3.09 -0 -1.2 0
2.773 -2.212 3.083 -0 -1.2 0
2.78 -2.286 3.09 -0 -1.2 0
2.778 -2.358 3.089 -0 -1.2 0
2.775 -2.43 3.086 -0 -1.2 0
2.777 -2.506 3.089 -0 -1.2 0
2.78 -2.583 3.092 -0 -1.2 0
2.78 -2.66 3.093 -0 -1.2 0
2.779 -2.737 3.093 -0 -1.2 0
2.778 -2.815 3.092 -0 -1.2 0
2.782 -2.898 3.096 -0 -1.2 0
2.784 -2.981 3.099 -0 -1.2 0
2.773 -3.056 3.088 -0 -1.2 0
2.78 -3.145 3.095 -0 -1.2 0
2.772 -3.226 3.088 -0 -1.2 0
2.775 -3.316 3.092 -0 -1.2 0
2.765 -3.398 3.083 -0 -1.2 0
2.742 -3.468 3.06 -0 -1.2 0
2.741 -3.561 3.061 -0 -1.2 0
2.739 -3.653 3.059 -0 -1.2 0
2.736 -3.747 3.057 -0 -1.2 0
2.477 -3.579 2.806 -0 -1.2 0
2.474 -3.668 2.804 -0 -1.2 0
2.351 -3.627 2.685 -0 -1.2 0
2.319 -3.681 2.655 -0 -1.2 0
0.874 -0.01 1.199 -0 -1.2 0
0.9 -0.015 1.221 -0 -1.2 0
0.93 -0.013 1.248 -0 -1.2 0
0.96 -0.013 1.276 -0 -1.2 0
0.991 -0.015 1.303 -0 -1.2 0
1.027 -0.01 1.336 -0 -1.2 0
1.053 -0.02 1.359 -0 -1.2 0
1.091 -0.017 1.392 -0 -1.2 0
1.122 -0.023 1.421 -0 -1.2 0
1.16 -0.024 1.455 -0 -1.2 0
1.204 -0.021 1.494 -0 -1.2 0
1.242 -0.024 1.528 -0 -1.2 0
1.294 -0.019 1.574 -0 -1.2 0
1.339 -0.02 1.615 -0 -1.2 0
1.384 -0.025 1.655 -0 -1.2 0
1.443 -0.02 1.708 -0 -1.2 0
1.49 -0.027 1.75 -0 -1.2 0
1.549 -0.027 1.802 -0 -1.2 0
1.602 -0.034 1.85 -0 -1.2 0
1.677 -0.029 1.917 -0 -1.2 0
1.757 -0.024 1.989 -0 -1.2 0
1.825 -0.03 2.05 -0 -1.2 0
1.9 -0.035 2.116 -0 -1.2 0
1.996 -0.032 2.203 -0 -1.2 0
2.08 -0.041 2.277 -0 -1.2 0
2.183 -0.043 2.371 -0 -1.2 0
2.274 -0.055 2.452 -0 -1.2 0
2.408 -0.053 2.571 -0 -1.2 0
2.548 -0.054 2.697 -0 -1.2 0
2.669 -0.069 2.805 -0 -1.2 0
2.653 -0.14 2.791 -0 -1.2 0
2.658 -0.203 2.796 -0 -1.2 0
2.655 -0.269 2.793 -0 -1.2 0
2.65 -0.333 2.79 -0 -1.2 0
2.652 -0.396 2.793 -0 -1.2 0
2.653 -0.458 2.794 -0 -1.2 0
2.728 -0.504 2.86 -0 -1.2 0
2.727 -0.567 2.861 -0 -1.2 0
2.733 -0.63 2.867 -0 -1.2 0
2.746 -0.691 2.879 -0 -1.2 0
2.737 -0.756 2.87 -0 -1.2 0
2.733 -0.819 2.868 -0 -1.2 0
2.743 -0.881 2.877 -0 -1.2 0
2.738 -0.944 2.873 -0 -1.2 0
2.732 -1.006 2.868 -0 -1.2 0
2.733 -1.068 2.869 -0 -1.2 0
2.74 -1.13 2.876 -0 -1.2 0
2.739 -1.192 2.875 -0 -1.2 0
2.737 -1.255 2.874 -0 -1.2 0
2.741 -1.318 2.879 -0 -1.2 0
2.739 -1.38 2.876 -0 -1.2 0
2.734 -1.443 2.873 -0 -1.2 0
2.744 -1.507 2.882 -0 -1.2 0
2.745 -1.571 2.884 -0 -1.2 0
2.745 -1.635 2.885 -0 -1.2 0
2.753 -1.701 2.891 -0 -1.2 0
2.752 -1.766 2.891 -0 -1.2 0
2.757 -1.833 2.896 -0 -1.2 0
2.754 -1.898 2.894 -0 -1.2 0
2.751 -1.963 2.891 -0 -1.2 0
2.753 -2.03 2.894 -0 -1.2 0
2.755 -2.098 2.896 -0 -1.2 0
2.769 -2.173 2.91 -0 -1.2 0
2.777 -2.245 2.916 -0 -1.2 0
2.761 -2.308 2.903 -0 -1.2 0
2.772 -2.384 2.914 -0 -1.2 0
2.769 -2.454 2.912 -0 -1.2 0
2.772 -2.528 2.914 -0 -1.2 0
2.766 -2.599 2.91 -0 -1.2 0
2.766 -2.674 2.911 -0 -1.2 0
2.765 -2.75 2.911 -0 -1.2 0
2.77 -2.83 2.915 -0 -1.2 0
2.768 -2.906 2.913 -0 -1.2 0
2.776 -2.992 2.922 -0 -1.2 0
2.77 -3.07 2.917 -0 -1.2 0
2.771 -3.153 2.918 -0 -1.2 0
2.769 -3.236 2.916 -0 -1.2 0
2.765 -3.32 2.914 -0 -1.2 0
2.761 -3.404 2.911 -0 -1.2 0
2.736 -3.472 2.89 -0 -1.2 0
2.736 -3.563 2.889 -0 -1.2 0
2.727 -3.648 2.883 -0 -1.2 0
2.729 -3.746 2.885 -0 -1.2 0
2.482 -3.589 2.663 -0 -1.2 0
2.467 -3.664 2.649 -0 -1.2 0
2.353 -3.631 2.547 -0 -1.2 0
2.302 -3.665 2.502 -0 -1.2 0
2.269 -3.717 2.472 -0 -1.2 0
0.895 -0.017 1.181 -0 -1.2 0
0.925 -0.015 1.206 -0 -1.2 0
0.962 -0.006 1.237 -0 -1.2 0
0.982 -0.02 1.254 -0 -1.2 0
1.014 -0.021 1.28 -0 -1.2 0
1.052 -0.016 1.312 -0 -1.2 0
1.084 -0.02 1.339 -0 -1.2 0
1.122 -0.018 1.37 -0 -1.2 0
1.154 -0.023 1.398 -0 -1.2 0
1.188 -0.03 1.425 -0 -1.2 0
1.233 -0.026 1.464 -0 -1.2 0
1.272 -0.031 1.496 -0 -1.2 0
1.318 -0.03 1.535 -0 -1.2 0
1.372 -0.027 1.579 -0 -1.2 0
1.425 -0.025 1.623 -0 -1.2 0
1.479 -0.025 1.669 -0 -1.2 0
1.526 -0.032 1.709 -0 -1.2 0
1.581 -0.037 1.755 -0 -1.2 0
1.656 -0.029 1.817 -0 -1.2 0
1.718 -0.035 1.869 -0 -1.2 0
1.802 -0.029 1.939 -0 -1.2 0
1.871 -0.035 1.997 -0 -1.2 0
1.949 -0.04 2.062 -0 -1.2 0
2.048 -0.037 2.145 -0 -1.2 0
2.127 -0.049 2.21 -0 -1.2 0
2.233 -0.05 2.3 -0 -1.2 0
2.334 -0.059 2.384 -0 -1.2 0
2.472 -0.057 2.498 -0 -1.2 0
2.602 -0.063 2.607 -0 -1.2 0
2.66 -0.103 2.656 -0 -1.2 0
2.65 -0.171 2.648 -0 -1.2 0
2.654 -0.232 2.653 -0 -1.2 0
2.658 -0.293 2.656 -0 -1.2 0
2.675 -0.349 2.672 -0 -1.2 0
2.685 -0.408 2.68 -0 -1.2 0
2.664 -0.475 2.662 -0 -1.2 0
2.724 -0.523 2.713 -0 -1.2 0
2.738 -0.582 2.726 -0 -1.2 0
2.738 -0.644 2.726 -0 -1.2 0
2.72 -0.708 2.711 -0 -1.2 0
2.725 -0.768 2.716 -0 -1.2 0
2.729 -0.828 2.72 -0 -1.2 0
2.724 -0.889 2.716 -0 -1.2 0
2.718 -0.95 2.712 -0 -1.2 0
2.728 -1.01 2.721 -0 -1.2 0
2.728 -1.07 2.721 -0 -1.2 0
2.728 -1.13 2.722 -0 -1.2 0
2.734 -1.191 2.727 -0 -1.2 0
2.732 -1.251 2.726 -0 -1.2 0
2.731 -1.312 2.725 -0 -1.2 0
2.727 -1.372 2.722 -0 -1.2 0
2.73 -1.433 2.726 -0 -1.2 0
2.74 -1.496 2.735 -0 -1.2 0
2.741 -1.557 2.736 -0 -1.2 0
2.743 -1.619 2.738 -0 -1.2 0
2.743 -1.681 2.739 -0 -1.2 0
2.742 -1.744 2.738 -0 -1.2 0
2.74 -1.808 2.737 -0 -1.2 0
2.744 -1.872 2.742 -0 -1.2 0
2.742 -1.935 2.739 -0 -1.2 0
2.737 -1.999 2.736 -0 -1.2 0
2.739 -2.065 2.739 -0 -1.2 0
2.74 -2.13 2.739 -0 -1.2 0
2.74 -2.196 2.74 -0 -1.2 0
2.747 -2.267 2.747 -0 -1.2 0
2.745 -2.334 2.745 -0 -1.2 0
2.728 -2.395 2.731 -0 -1.2 0
2.724 -2.463 2.729 -0 -1.2 0
2.754 -2.549 2.756 -0 -1.2 0
2.756 -2.622 2.756 -0 -1.2 0
2.756 -2.696 2.757 -0 -1.2 0
2.754 -2.769 2.757 -0 -1.2 0
2.758 -2.848 2.761 -0 -1.2 0
2.762 -2.928 2.765 -0 -1.2 0
2.757 -3.003 2.76 -0 -1.2 0
2.757 -3.084 2.762 -0 -1.2 0
2.756 -3.165 2.762 -0 -1.2 0
2.754 -3.246 2.761 -0 -1.2 0
2.751 -3.329 2.758 -0 -1.2 0
2.752 -3.417 2.76 -0 -1.2 0
2.72 -3.479 2.734 -0 -1.2 0
2.719 -3.568 2.734 -0 -1.2 0
2.716 -3.657 2.732 -0 -1.2 0
2.718 -3.754 2.734 -0 -1.2 0
2.472 -3.596 2.527 -0 -1.2 0
2.456 -3.669 2.514 -0 -1.2 0
2.351 -3.645 2.427 -0 -1.2 0
2.288 -3.664 2.374 -0 -1.2 0
2.258 -3.721 2.35 -0 -1.2 0
0.92 -0.018 1.167 -0 -1.2 0
0.958 -0.008 1.196 -0 -1.2 0
0.99 -0.007 1.221 -0 -1.2 0
1.01 -0.021 1.237 -0 -1.2 0
1.042 -0.021 1.262 -0 -1.2 0
1.081 -0.017 1.293 -0 -1.2 0
1.121 -0.013 1.324 -0 -1.2 0
1.148 -0.024 1.345 -0 -1.2 0
1.187 -0.024 1.375 -0 -1.2 0
1.221 -0.03 1.402 -0 -1.2 0
1.267 -0.027 1.438 -0 -1.2 0
1.308 -0.031 1.47 -0 -1.2 0
1.349 -0.036 1.501 -0 -1.2 0
1.403 -0.032 1.544 -0 -1.2 0
1.458 -0.03 1.586 -0 -1.2 0
1.514 -0.031 1.63 -0 -1.2 0
1.562 -0.037 1.668 -0 -1.2 0
1.618 -0.042 1.711 -0 -1.2 0
1.682 -0.044 1.761 -0 -1.2 0
1.759 -0.039 1.821 -0 -1.2 0
1.845 -0.033 1.888 -0 -1.2 0
1.917 -0.039 1.944 -0 -1.2 0
2.003 -0.04 2.012 -0 -1.2 0
2.091 -0.045 2.08 -0 -1.2 0
2.186 -0.049 2.154 -0 -1.2 0
2.281 -0.057 2.228 -0 -1.2 0
2.399 -0.06 2.32 -0 -1.2 0
2.525 -0.063 2.419 -0 -1.2 0
2.659 -0.07 2.524 -0 -1.2 0
2.704 -0.115 2.558 -0 -1.2 0
2.709 -0.176 2.562 -0 -1.2 0
2.705 -0.239 2.561 -0 -1.2 0
2.716 -0.298 2.57 -0 -1.2 0
2.727 -0.356 2.578 -0 -1.2 0
2.745 -0.413 2.593 -0 -1.2 0
2.73 -0.478 2.582 -0 -1.2 0
2.738 -0.536 2.589 -0 -1.2 0
2.729 -0.598 2.583 -0 -1.2 0
2.728 -0.658 2.582 -0 -1.2 0
2.733 -0.717 2.587 -0 -1.2 0
2.729 -0.777 2.585 -0 -1.2 0
2.742 -0.835 2.595 -0 -1.2 0
2.729 -0.895 2.585 -0 -1.2 0
2.739 -0.954 2.594 -0 -1.2 0
2.724 -1.013 2.583 -0 -1.2 0
2.725 -1.071 2.583 -0 -1.2 0
2.724 -1.129 2.584 -0 -1.2 0
2.732 -1.188 2.59 -0 -1.2 0
2.73 -1.247 2.589 -0 -1.2 0
2.727 -1.306 2.588 -0 -1.2 0
2.724 -1.364 2.586 -0 -1.2 0
2.735 -1.425 2.595 -0 -1.2 0
2.73 -1.484 2.591 -0 -1.2 0
2.731 -1.544 2.594 -0 -1.2 0
2.733 -1.604 2.594 -0 -1.2 0
2.733 -1.664 2.595 -0 -1.2 0
2.732 -1.725 2.596 -0 -1.2 0
2.746 -1.79 2.607 -0 -1.2 0
2.743 -1.851 2.606 -0 -1.2 0
2.74 -1.912 2.604 -0 -1.2 0
2.721 -1.969 2.588 -0 -1.2 0
2.746 -2.041 2.609 -0 -1.2 0
2.74 -2.103 2.605 -0 -1.2 0
2.733 -2.164 2.6 -0 -1.2 0
2.74 -2.233 2.606 -0 -1.2 0
2.738 -2.298 2.606 -0 -1.2 0
2.685 -2.339 2.564 -0 -1.2 0
2.674 -2.401 2.556 -0 -1.2 0
2.685 -2.473 2.565 -0 -1.2 0
2.737 -2.571 2.607 -0 -1.2 0
2.724 -2.634 2.597 -0 -1.2 0
2.731 -2.71 2.602 -0 -1.2 0
2.75 -2.796 2.618 -0 -1.2 0
2.747 -2.869 2.617 -0 -1.2 0
2.749 -2.947 2.62 -0 -1.2 0
2.75 -3.026 2.622 -0 -1.2 0
2.751 -3.105 2.622 -0 -1.2 0
2.749 -3.185 2.622 -0 -1.2 0
2.746 -3.265 2.621 -0 -1.2 0
2.749 -3.352 2.622 -0 -1.2 0
2.73 -3.422 2.609 -0 -1.2 0
2.71 -3.492 2.594 -0 -1.2 0
2.709 -3.58 2.593 -0 -1.2 0
2.568 -3.535 2.483 -0 -1.2 0
2.515 -3.571 2.443 -0 -1.2 0
2.45 -3.593 2.392 -0 -1.2 0
2.446 -3.678 2.389 -0 -1.2 0
2.333 -3.644 2.301 -0 -1.2 0
2.28 -3.674 2.26 -0 -1.2 0
2.238 -3.715 2.228 -0 -1.2 0
0.94 -0.025 1.146 -0 -1.2 0
0.978 -0.016 1.174 -0 -1.2 0
1.018 -0.007 1.203 -0 -1.2 0
1.039 -0.021 1.218 -0 -1.2 0
1.078 -0.015 1.246 -0 -1.2 0
1.112 -0.017 1.271 -0 -1.2 0
1.145 -0.021 1.295 -0 -1.2 0
1.186 -0.018 1.325 -0 -1.2 0
1.221 -0.024 1.349 -0 -1.2 0
1.255 -0.031 1.374 -0 -1.2 0
1.31 -0.022 1.414 -0 -1.2 0
1.351 -0.026 1.444 -0 -1.2 0
1.394 -0.031 1.474 -0 -1.2 0
1.443 -0.033 1.51 -0 -1.2 0
1.499 -0.031 1.55 -0 -1.2 0
1.542 -0.041 1.582 -0 -1.2 0
1.606 -0.038 1.629 -0 -1.2 0
1.671 -0.038 1.675 -0 -1.2 0
1.736 -0.039 1.722 -0 -1.2 0
1.809 -0.04 1.774 -0 -1.2 0
1.882 -0.043 1.828 -0 -1.2 0
1.971 -0.04 1.892 -0 -1.2 0
2.059 -0.041 1.956 -0 -1.2 0
2.157 -0.042 2.026 -0 -1.2 0
2.246 -0.05 2.091 -0 -1.2 0
2.352 -0.055 2.167 -0 -1.2 0
2.459 -0.064 2.245 -0 -1.2 0
2.595 -0.064 2.344 -0 -1.2 0
2.672 -0.094 2.398 -0 -1.2 0
2.732 -0.134 2.442 -0 -1.2 0
2.721 -0.199 2.436 -0 -1.2 0
2.726 -0.258 2.44 -0 -1.2 0
2.722 -0.32 2.437 -0 -1.2 0
2.716 -0.381 2.433 -0 -1.2 0
2.718 -0.44 2.435 -0 -1.2 0
2.718 -0.499 2.437 -0 -1.2 0
2.718 -0.557 2.436 -0 -1.2 0
2.717 -0.616 2.437 -0 -1.2 0
2.723 -0.673 2.442 -0 -1.2 0
2.721 -0.731 2.44 -0 -1.2 0
2.733 -0.787 2.45 -0 -1.2 0
2.729 -0.845 2.448 -0 -1.2 0
2.732 -0.902 2.45 -0 -1.2 0
2.726 -0.959 2.446 -0 -1.2 0
2.719 -1.017 2.442 -0 -1.2 0
2.727 -1.073 2.449 -0 -1.2 0
2.736 -1.13 2.455 -0 -1.2 0
2.727 -1.187 2.449 -0 -1.2 0
2.741 -1.244 2.46 -0 -1.2 0
2.738 -1.302 2.459 -0 -1.2 0
2.734 -1.359 2.457 -0 -1.2 0
2.73 -1.416 2.454 -0 -1.2 0
2.725 -1.473 2.451 -0 -1.2 0
2.736 -1.533 2.459 -0 -1.2 0
2.729 -1.59 2.454 -0 -1.2 0
2.721 -1.647 2.45 -0 -1.2 0
2.728 -1.708 2.456 -0 -1.2 0
2.735 -1.769 2.461 -0 -1.2 0
2.733 -1.828 2.46 -0 -1.2 0
2.722 -1.885 2.453 -0 -1.2 0
2.725 -1.947 2.457 -0 -1.2 0
2.737 -2.011 2.464 -0 -1.2 0
2.731 -2.072 2.461 -0 -1.2 0
2.739 -2.138 2.468 -0 -1.2 0
2.732 -2.199 2.463 -0 -1.2 0
2.738 -2.265 2.468 -0 -1.2 0
2.721 -2.323 2.457 -0 -1.2 0
2.68 -2.369 2.428 -0 -1.2 0
2.677 -2.432 2.426 -0 -1.2 0
2.732 -2.529 2.466 -0 -1.2 0
2.726 -2.594 2.462 -0 -1.2 0
2.733 -2.667 2.469 -0 -1.2 0
2.731 -2.739 2.469 -0 -1.2 0
2.729 -2.81 2.468 -0 -1.2 0
2.733 -2.885 2.471 -0 -1.2 0
2.742 -2.967 2.478 -0 -1.2 0
2.743 -3.044 2.479 -0 -1.2 0
2.742 -3.122 2.48 -0 -1.2 0
2.74 -3.201 2.479 -0 -1.2 0
2.744 -3.286 2.482 -0 -1.2 0
2.739 -3.366 2.48 -0 -1.2 0
2.719 -3.435 2.466 -0 -1.2 0
2.705 -3.51 2.457 -0 -1.2 0
2.632 -3.53 2.404 -0 -1.2 0
2.59 -3.578 2.375 -0 -1.2 0
2.586 -3.664 2.372 -0 -1.2 0
2.439 -3.601 2.265 -0 -1.2 0
2.445 -3.698 2.27 -0 -1.2 0
2.312 -3.641 2.175 -0 -1.2 0
2.276 -3.688 2.148 -0 -1.2 0
0.963 -0.025 1.132 -0 -1.2 0
0.996 -0.023 1.154 -0 -1.2 0
1.041 -0.008 1.184 -0 -1.2 0
1.075 -0.008 1.207 -0 -1.2 0
1.097 -0.022 1.222 -0 -1.2 0
1.138 -0.018 1.249 -0 -1.2 0
1.173 -0.021 1.273 -0 -1.2 0
1.208 -0.025 1.296 -0 -1.2 0
1.249 -0.024 1.325 -0 -1.2 0
1.291 -0.026 1.352 -0 -1.2 0
1.341 -0.023 1.386 -0 -1.2 0
1.384 -0.026 1.414 -0 -1.2 0
1.426 -0.032 1.443 -0 -1.2 0
1.477 -0.033 1.477 -0 -1.2 0
1.528 -0.037 1.511 -0 -1.2 0
1.586 -0.037 1.55 -0 -1.2 0
1.644 -0.038 1.59 -0 -1.2 0
1.711 -0.039 1.634 -0 -1.2 0
1.77 -0.045 1.674 -0 -1.2 0
1.845 -0.045 1.724 -0 -1.2 0
1.942 -0.034 1.789 -0 -1.2 0
2.026 -0.036 1.845 -0 -1.2 0
2.109 -0.042 1.902 -0 -1.2 0
2.209 -0.043 1.968 -0 -1.2 0
2.3 -0.051 2.03 -0 -1.2 0
2.409 -0.056 2.103 -0 -1.2 0
2.533 -0.057 2.187 -0 -1.2 0
2.65 -0.068 2.266 -0 -1.2 0
2.696 -0.111 2.297 -0 -1.2 0
2.718 -0.162 2.311 -0 -1.2 0
2.707 -0.226 2.305 -0 -1.2 0
2.711 -0.283 2.308 -0 -1.2 0
2.714 -0.341 2.311 -0 -1.2 0
2.716 -0.399 2.313 -0 -1.2 0
2.709 -0.458 2.309 -0 -1.2 0
2.717 -0.514 2.316 -0 -1.2 0
2.717 -0.571 2.316 -0 -1.2 0
2.717 -0.628 2.316 -0 -1.2 0
2.714 -0.685 2.315 -0 -1.2 0
2.72 -0.74 2.319 -0 -1.2 0
2.716 -0.796 2.317 -0 -1.2 0
2.719 -0.852 2.321 -0 -1.2 0
2.722 -0.908 2.324 -0 -1.2 0
2.724 -0.963 2.325 -0 -1.2 0
2.725 -1.019 2.327 -0 -1.2 0
2.718 -1.074 2.322 -0 -1.2 0
2.718 -1.129 2.322 -0 -1.2 0
2.725 -1.185 2.328 -0 -1.2 0
2.723 -1.24 2.328 -0 -1.2 0
2.72 -1.296 2.326 -0 -1.2 0
2.725 -1.352 2.33 -0 -1.2 0
2.729 -1.409 2.333 -0 -1.2 0
2.724 -1.465 2.33 -0 -1.2 0
2.718 -1.52 2.327 -0 -1.2 0
2.719 -1.577 2.329 -0 -1.2 0
2.712 -1.633 2.324 -0 -1.2 0
2.728 -1.694 2.335 -0 -1.2 0
2.727 -1.751 2.335 -0 -1.2 0
2.725 -1.809 2.335 -0 -1.2 0
2.73 -1.869 2.338 -0 -1.2 0
2.726 -1.928 2.337 -0 -1.2 0
2.721 -1.986 2.334 -0 -1.2 0
2.723 -2.047 2.337 -0 -1.2 0
2.726 -2.109 2.338 -0 -1.2 0
2.726 -2.171 2.339 -0 -1.2 0
2.725 -2.233 2.34 -0 -1.2 0
2.723 -2.296 2.339 -0 -1.2 0
2.675 -2.337 2.306 -0 -1.2 0
2.671 -2.399 2.305 -0 -1.2 0
2.675 -2.466 2.308 -0 -1.2 0
2.722 -2.557 2.341 -0 -1.2 0
2.723 -2.625 2.342 -0 -1.2 0
2.722 -2.694 2.342 -0 -1.2 0
2.72 -2.764 2.342 -0 -1.2 0
2.725 -2.838 2.346 -0 -1.2 0
2.72 -2.909 2.344 -0 -1.2 0
2.715 -2.979 2.341 -0 -1.2 0
2.722 -3.061 2.347 -0 -1.2 0
2.735 -3.149 2.356 -0 -1.2 0
