# .PCD v.7 - Point Cloud Data file format
FIELDS x y z vp_x vp_y vp_z
SIZE 4 4 4 4 4 4
TYPE F F F F F F
COUNT 1 1 1 1 1 1
WIDTH 1476
HEIGHT 1
VIEWPOINT 0 -1.20013 0 1 0 0 0
POINTS 1476
DATA ascii
18.292 -1.781 -23.867 -0 -1.2 0
18.29 -2.304 -23.848 -0 -1.2 0
18.283 -2.828 -23.821 -0 -1.2 0
18.269 -3.349 -23.788 -0 -1.2 0
18.251 -3.871 -23.746 -0 -1.2 0
18.228 -4.392 -23.698 -0 -1.2 0
18.198 -4.912 -23.642 -0 -1.2 0
18.163 -5.431 -23.58 -0 -1.2 0
18.122 -5.948 -23.511 -0 -1.2 0
18.077 -6.464 -23.433 -0 -1.2 0
18.025 -6.978 -23.349 -0 -1.2 0
17.839 -8.509 -23.054 -0 -1.2 0
15.211 -18.434 -19.292 -0 -1.2 0
13.438 -22.05 -16.855 -0 -1.2 0
13.22 -22.422 -16.557 -0 -1.2 0
17.485 -1.801 -24.463 -0 -1.2 0
17.483 -2.324 -24.443 -0 -1.2 0
17.477 -2.847 -24.416 -0 -1.2 0
17.464 -3.369 -24.381 -0 -1.2 0
17.447 -3.891 -24.34 -0 -1.2 0
17.425 -4.411 -24.291 -0 -1.2 0
17.397 -4.932 -24.234 -0 -1.2 0
17.364 -5.45 -24.17 -0 -1.2 0
17.325 -5.968 -24.099 -0 -1.2 0
17.119 -8.02 -23.74 -0 -1.2 0
16.911 -9.538 -23.396 -0 -1.2 0
14.203 -19.293 -19.265 -0 -1.2 0
15.628 -12.035 -23.25 -0 -1.2 0
12.018 -22.451 -17.411 -0 -1.2 0
15.735 -0.795 -25.629 -0 -1.2 0
15.743 -1.318 -25.625 -0 -1.2 0
15.748 -1.841 -25.612 -0 -1.2 0
15.747 -2.364 -25.592 -0 -1.2 0
15.742 -2.888 -25.564 -0 -1.2 0
15.732 -3.409 -25.529 -0 -1.2 0
15.717 -3.931 -25.486 -0 -1.2 0
15.697 -4.452 -25.434 -0 -1.2 0
15.672 -4.972 -25.375 -0 -1.2 0
15.644 -5.49 -25.308 -0 -1.2 0
15.61 -6.008 -25.234 -0 -1.2 0
15.528 -7.037 -25.062 -0 -1.2 0
15.427 -8.06 -24.861 -0 -1.2 0
11.419 -22.464 -17.792 -0 -1.2 0
14.839 0.231 -26.124 -0 -1.2 0
14.857 -0.292 -26.135 -0 -1.2 0
14.871 -0.815 -26.139 -0 -1.2 0
14.884 -1.86 -26.122 -0 -1.2 0
14.883 -2.383 -26.102 -0 -1.2 0
14.879 -2.907 -26.073 -0 -1.2 0
14.87 -3.429 -26.038 -0 -1.2 0
14.856 -3.95 -25.993 -0 -1.2 0
14.838 -4.471 -25.941 -0 -1.2 0
14.545 -4.92 -25.408 -0 -1.2 0
13.652 -13.991 -23.486 -0 -1.2 0
13.905 0.211 -26.633 -0 -1.2 0
13.922 -0.312 -26.645 -0 -1.2 0
13.924 -3.97 -26.501 -0 -1.2 0
13.681 -4.435 -26.017 -0 -1.2 0
13.721 -6.53 -26.009 -0 -1.2 0
13.762 -7.076 -26.064 -0 -1.2 0
13.632 -8.077 -25.777 -0 -1.2 0
13.457 -9.044 -25.4 -0 -1.2 0
12.989 -13.056 -24.341 -0 -1.2 0
12.898 -13.535 -24.149 -0 -1.2 0
10.145 -22.492 -18.515 -0 -1.2 0
13.023 0.193 -27.075 -0 -1.2 0
13.039 -0.33 -27.088 -0 -1.2 0
12.892 -0.856 -26.758 -0 -1.2 0
12.882 -1.372 -26.718 -0 -1.2 0
12.896 -1.888 -26.724 -0 -1.2 0
12.888 -2.404 -26.685 -0 -1.2 0
12.868 -2.917 -26.62 -0 -1.2 0
13.044 -3.988 -26.942 -0 -1.2 0
12.654 -6.982 -26.004 -0 -1.2 0
12.49 -7.938 -25.621 -0 -1.2 0
9.519 -22.505 -18.828 -0 -1.2 0
12.127 0.175 -27.489 -0 -1.2 0
12.142 -0.348 -27.5 -0 -1.2 0
12.155 -0.871 -27.505 -0 -1.2 0
12.163 -1.394 -27.501 -0 -1.2 0
12.168 -1.917 -27.488 -0 -1.2 0
11.914 -2.411 -26.891 -0 -1.2 0
12.151 -4.006 -27.355 -0 -1.2 0
12.013 -7.111 -26.904 -0 -1.2 0
9.168 -21.771 -19.798 -0 -1.2 0
9.027 -22.147 -19.462 -0 -1.2 0
8.884 -22.518 -19.121 -0 -1.2 0
11.143 0.156 -27.902 -0 -1.2 0
11.169 -4.025 -27.766 -0 -1.2 0
11.046 -7.13 -27.31 -0 -1.2 0
8.573 -21.403 -20.436 -0 -1.2 0
8.447 -21.785 -20.101 -0 -1.2 0
8.317 -22.161 -19.761 -0 -1.2 0
8.186 -22.531 -19.414 -0 -1.2 0
10.193 0.138 -28.262 -0 -1.2 0
10.112 -7.148 -27.665 -0 -1.2 0
10.083 -7.659 -27.559 -0 -1.2 0
7.978 -21.028 -21.038 -0 -1.2 0
7.75 -21.798 -20.366 -0 -1.2 0
7.633 -22.174 -20.021 -0 -1.2 0
7.512 -22.544 -19.67 -0 -1.2 0
9.231 0.121 -28.591 -0 -1.2 0
9.113 -8.186 -27.764 -0 -1.2 0
7.251 -21.041 -21.286 -0 -1.2 0
7.149 -21.429 -20.95 -0 -1.2 0
7.045 -21.811 -20.607 -0 -1.2 0
6.939 -22.187 -20.258 -0 -1.2 0
6.831 -22.556 -19.903 -0 -1.2 0
8.184 0.102 -28.908 -0 -1.2 0
6.796 -19.444 -22.82 -0 -1.2 0
6.632 -20.261 -22.187 -0 -1.2 0
6.546 -20.661 -21.86 -0 -1.2 0
6.458 -21.055 -21.526 -0 -1.2 0
6.369 -21.443 -21.186 -0 -1.2 0
6.277 -21.824 -20.84 -0 -1.2 0
6.184 -22.2 -20.487 -0 -1.2 0
6.088 -22.569 -20.128 -0 -1.2 0
7.243 -4.095 -29.029 -0 -1.2 0
6.405 -15.15 -24.893 -0 -1.2 0
6.218 -18.19 -23.934 -0 -1.2 0
6.153 -18.618 -23.639 -0 -1.2 0
6.085 -19.04 -23.336 -0 -1.2 0
6.015 -19.457 -23.027 -0 -1.2 0
5.944 -19.868 -22.711 -0 -1.2 0
5.871 -20.274 -22.388 -0 -1.2 0
5.796 -20.674 -22.058 -0 -1.2 0
5.719 -21.068 -21.722 -0 -1.2 0
5.641 -21.455 -21.379 -0 -1.2 0
5.561 -21.837 -21.03 -0 -1.2 0
5.48 -22.212 -20.673 -0 -1.2 0
5.396 -22.581 -20.311 -0 -1.2 0
6.252 -0.976 -29.41 -0 -1.2 0
6.26 -1.499 -29.406 -0 -1.2 0
6.269 -4.111 -29.252 -0 -1.2 0
6.203 -7.726 -28.665 -0 -1.2 0
6.045 -11.243 -27.65 -0 -1.2 0
6.014 -11.733 -27.471 -0 -1.2 0
5.753 -15.073 -25.988 -0 -1.2 0
5.407 -15.871 -24.293 -0 -1.2 0
5.566 -16.891 -24.966 -0 -1.2 0
5.515 -17.333 -24.692 -0 -1.2 0
5.462 -17.771 -24.408 -0 -1.2 0
5.407 -18.203 -24.119 -0 -1.2 0
5.352 -18.631 -23.823 -0 -1.2 0
5.293 -19.053 -23.518 -0 -1.2 0
5.234 -19.47 -23.207 -0 -1.2 0
5.174 -19.881 -22.888 -0 -1.2 0
5.111 -20.287 -22.563 -0 -1.2 0
5.047 -20.686 -22.23 -0 -1.2 0
4.981 -21.08 -21.891 -0 -1.2 0
4.914 -21.467 -21.546 -0 -1.2 0
4.846 -21.848 -21.193 -0 -1.2 0
4.776 -22.223 -20.834 -0 -1.2 0
4.705 -22.593 -20.469 -0 -1.2 0
5.192 -0.993 -29.615 -0 -1.2 0
5.2 -1.516 -29.611 -0 -1.2 0
5.206 -2.039 -29.599 -0 -1.2 0
5.042 -11.259 -27.844 -0 -1.2 0
4.843 -14.623 -26.408 -0 -1.2 0
4.559 -16.573 -24.615 -0 -1.2 0
4.615 -17.347 -24.865 -0 -1.2 0
4.573 -17.785 -24.581 -0 -1.2 0
4.528 -18.217 -24.289 -0 -1.2 0
4.483 -18.645 -23.99 -0 -1.2 0
4.435 -19.067 -23.684 -0 -1.2 0
4.388 -19.484 -23.371 -0 -1.2 0
4.338 -19.894 -23.05 -0 -1.2 0
4.287 -20.3 -22.722 -0 -1.2 0
4.234 -20.699 -22.387 -0 -1.2 0
4.181 -21.092 -22.046 -0 -1.2 0
4.126 -21.479 -21.698 -0 -1.2 0
4.07 -21.86 -21.343 -0 -1.2 0
4.013 -22.235 -20.982 -0 -1.2 0
3.954 -22.604 -20.615 -0 -1.2 0
4.202 -1.008 -29.771 -0 -1.2 0
4.21 -1.531 -29.767 -0 -1.2 0
4.216 -2.054 -29.754 -0 -1.2 0
4.224 -3.1 -29.701 -0 -1.2 0
4.227 -3.622 -29.661 -0 -1.2 0
4.227 -4.143 -29.612 -0 -1.2 0
4.227 -4.663 -29.554 -0 -1.2 0
4.068 -12.252 -27.621 -0 -1.2 0
3.953 -14.636 -26.549 -0 -1.2 0
3.926 -15.101 -26.31 -0 -1.2 0
3.699 -16.465 -24.553 -0 -1.2 0
3.775 -17.36 -24.997 -0 -1.2 0
3.742 -17.798 -24.712 -0 -1.2 0
3.706 -18.23 -24.419 -0 -1.2 0
3.671 -18.658 -24.118 -0 -1.2 0
3.634 -19.079 -23.81 -0 -1.2 0
3.596 -19.496 -23.495 -0 -1.2 0
3.557 -19.906 -23.173 -0 -1.2 0
3.516 -20.311 -22.843 -0 -1.2 0
3.475 -20.71 -22.507 -0 -1.2 0
3.432 -21.104 -22.165 -0 -1.2 0
3.389 -21.491 -21.814 -0 -1.2 0
3.345 -21.871 -21.458 -0 -1.2 0
3.299 -22.246 -21.095 -0 -1.2 0
3.253 -22.615 -20.725 -0 -1.2 0
3.195 -1.023 -29.895 -0 -1.2 0
3.202 -1.546 -29.892 -0 -1.2 0
3.208 -2.069 -29.878 -0 -1.2 0
3.217 -3.115 -29.825 -0 -1.2 0
3.221 -3.636 -29.785 -0 -1.2 0
3.223 -4.158 -29.736 -0 -1.2 0
3.224 -4.678 -29.678 -0 -1.2 0
3.219 -6.747 -29.355 -0 -1.2 0
3.216 -7.261 -29.251 -0 -1.2 0
3.211 -7.772 -29.139 -0 -1.2 0
3.174 -10.296 -28.447 -0 -1.2 0
3.163 -10.792 -28.282 -0 -1.2 0
3.152 -11.287 -28.109 -0 -1.2 0
3.114 -11.689 -27.695 -0 -1.2 0
3.109 -12.202 -27.581 -0 -1.2 0
3.082 -13.707 -27.116 -0 -1.2 0
3.065 -14.18 -26.893 -0 -1.2 0
3.047 -14.65 -26.661 -0 -1.2 0
3.028 -15.114 -26.422 -0 -1.2 0
2.954 -15.314 -25.703 -0 -1.2 0
2.919 -15.688 -25.323 -0 -1.2 0
2.944 -16.931 -25.382 -0 -1.2 0
2.92 -17.373 -25.103 -0 -1.2 0
2.896 -17.81 -24.816 -0 -1.2 0
2.87 -18.242 -24.522 -0 -1.2 0
2.845 -18.67 -24.22 -0 -1.2 0
2.798 -18.959 -23.736 -0 -1.2 0
2.79 -19.507 -23.594 -0 -1.2 0
2.762 -19.918 -23.271 -0 -1.2 0
2.732 -20.323 -22.94 -0 -1.2 0
2.702 -20.722 -22.603 -0 -1.2 0
2.671 -21.115 -22.258 -0 -1.2 0
2.639 -21.502 -21.907 -0 -1.2 0
2.607 -21.882 -21.549 -0 -1.2 0
2.573 -22.257 -21.185 -0 -1.2 0
2.539 -22.625 -20.814 -0 -1.2 0
2.093 -1.038 -29.992 -0 -1.2 0
2.1 -1.561 -29.988 -0 -1.2 0
2.106 -2.084 -29.975 -0 -1.2 0
2.117 -3.13 -29.922 -0 -1.2 0
2.121 -3.652 -29.882 -0 -1.2 0
2.125 -4.173 -29.832 -0 -1.2 0
2.128 -4.693 -29.774 -0 -1.2 0
2.131 -5.213 -29.706 -0 -1.2 0
2.132 -5.731 -29.63 -0 -1.2 0
2.134 -6.248 -29.545 -0 -1.2 0
2.134 -6.762 -29.449 -0 -1.2 0
2.134 -7.276 -29.346 -0 -1.2 0
2.133 -7.787 -29.234 -0 -1.2 0
2.132 -8.296 -29.113 -0 -1.2 0
2.13 -8.803 -28.983 -0 -1.2 0
2.128 -9.308 -28.843 -0 -1.2 0
2.124 -9.811 -28.696 -0 -1.2 0
2.12 -10.311 -28.539 -0 -1.2 0
2.116 -10.807 -28.374 -0 -1.2 0
2.11 -11.302 -28.201 -0 -1.2 0
2.104 -11.792 -28.018 -0 -1.2 0
2.097 -12.28 -27.827 -0 -1.2 0
2.09 -12.764 -27.629 -0 -1.2 0
2.083 -13.244 -27.421 -0 -1.2 0
2.075 -13.721 -27.205 -0 -1.2 0
2.066 -14.194 -26.98 -0 -1.2 0
2.056 -14.663 -26.748 -0 -1.2 0
2.046 -15.128 -26.507 -0 -1.2 0
2.035 -15.589 -26.259 -0 -1.2 0
2.023 -16.045 -26.002 -0 -1.2 0
2.011 -16.497 -25.737 -0 -1.2 0
1.998 -16.944 -25.465 -0 -1.2 0
1.984 -17.386 -25.185 -0 -1.2 0
1.971 -17.823 -24.898 -0 -1.2 0
1.957 -18.255 -24.603 -0 -1.2 0
1.941 -18.682 -24.3 -0 -1.2 0
1.925 -19.104 -23.989 -0 -1.2 0
1.91 -19.52 -23.672 -0 -1.2 0
1.892 -19.93 -23.348 -0 -1.2 0
1.875 -20.335 -23.016 -0 -1.2 0
1.857 -20.734 -22.677 -0 -1.2 0
1.838 -21.126 -22.331 -0 -1.2 0
1.819 -21.513 -21.979 -0 -1.2 0
1.8 -21.894 -21.62 -0 -1.2 0
1.78 -22.268 -21.255 -0 -1.2 0
1.759 -22.636 -20.882 -0 -1.2 0
1.067 -1.052 -30.045 -0 -1.2 0
1.074 -1.575 -30.042 -0 -1.2 0
1.08 -2.098 -30.029 -0 -1.2 0
1.092 -3.144 -29.976 -0 -1.2 0
1.098 -3.666 -29.935 -0 -1.2 0
1.103 -4.187 -29.886 -0 -1.2 0
1.108 -4.707 -29.828 -0 -1.2 0
1.113 -5.227 -29.759 -0 -1.2 0
1.116 -5.745 -29.683 -0 -1.2 0
1.121 -6.261 -29.598 -0 -1.2 0
1.124 -6.776 -29.502 -0 -1.2 0
1.127 -7.289 -29.399 -0 -1.2 0
1.13 -7.801 -29.287 -0 -1.2 0
1.133 -8.31 -29.164 -0 -1.2 0
1.134 -8.817 -29.034 -0 -1.2 0
1.137 -9.322 -28.895 -0 -1.2 0
1.138 -9.824 -28.747 -0 -1.2 0
1.138 -10.324 -28.591 -0 -1.2 0
1.14 -10.82 -28.425 -0 -1.2 0
1.14 -11.315 -28.251 -0 -1.2 0
1.14 -11.805 -28.069 -0 -1.2 0
1.139 -12.293 -27.877 -0 -1.2 0
1.14 -12.777 -27.678 -0 -1.2 0
1.139 -13.256 -27.47 -0 -1.2 0
1.137 -13.734 -27.254 -0 -1.2 0
1.136 -14.207 -27.029 -0 -1.2 0
1.134 -14.676 -26.796 -0 -1.2 0
1.131 -15.14 -26.555 -0 -1.2 0
1.129 -15.601 -26.306 -0 -1.2 0
1.125 -16.057 -26.049 -0 -1.2 0
1.122 -16.509 -25.784 -0 -1.2 0
1.119 -16.956 -25.511 -0 -1.2 0
1.115 -17.398 -25.231 -0 -1.2 0
1.11 -17.835 -24.943 -0 -1.2 0
1.106 -18.266 -24.647 -0 -1.2 0
1.1 -18.694 -24.344 -0 -1.2 0
1.095 -19.115 -24.033 -0 -1.2 0
1.09 -19.531 -23.715 -0 -1.2 0
1.083 -19.941 -23.389 -0 -1.2 0
1.077 -20.346 -23.057 -0 -1.2 0
1.07 -20.744 -22.717 -0 -1.2 0
1.063 -21.137 -22.372 -0 -1.2 0
1.056 -21.523 -22.019 -0 -1.2 0
1.048 -21.904 -21.659 -0 -1.2 0
1.041 -22.278 -21.292 -0 -1.2 0
1.033 -22.646 -20.92 -0 -1.2 0
0.112 -6.789 -29.521 -0 -1.2 0
0.119 -7.302 -29.417 -0 -1.2 0
0.125 -7.814 -29.304 -0 -1.2 0
0.132 -8.323 -29.183 -0 -1.2 0
0.137 -8.83 -29.052 -0 -1.2 0
0.144 -9.334 -28.913 -0 -1.2 0
0.15 -9.837 -28.765 -0 -1.2 0
0.156 -10.337 -28.609 -0 -1.2 0
0.163 -10.833 -28.443 -0 -1.2 0
0.169 -11.327 -28.269 -0 -1.2 0
0.174 -11.817 -28.086 -0 -1.2 0
0.18 -12.305 -27.895 -0 -1.2 0
0.187 -12.789 -27.695 -0 -1.2 0
0.193 -13.269 -27.487 -0 -1.2 0
0.199 -13.746 -27.271 -0 -1.2 0
0.204 -14.219 -27.046 -0 -1.2 0
0.21 -14.688 -26.812 -0 -1.2 0
0.216 -15.152 -26.572 -0 -1.2 0
0.222 -15.613 -26.322 -0 -1.2 0
0.226 -16.069 -26.065 -0 -1.2 0
0.232 -16.521 -25.8 -0 -1.2 0
0.238 -16.967 -25.528 -0 -1.2 0
0.243 -17.409 -25.246 -0 -1.2 0
0.248 -17.846 -24.958 -0 -1.2 0
0.254 -18.277 -24.662 -0 -1.2 0
0.258 -18.705 -24.358 -0 -1.2 0
0.264 -19.126 -24.048 -0 -1.2 0
0.269 -19.542 -23.73 -0 -1.2 0
0.273 -19.951 -23.404 -0 -1.2 0
0.278 -20.356 -23.072 -0 -1.2 0
0.283 -20.755 -22.732 -0 -1.2 0
0.287 -21.147 -22.386 -0 -1.2 0
0.292 -21.533 -22.033 -0 -1.2 0
0.296 -21.914 -21.672 -0 -1.2 0
0.301 -22.288 -21.306 -0 -1.2 0
0.306 -22.656 -20.933 -0 -1.2 0
-0.977 -7.316 -29.398 -0 -1.2 0
-0.934 -9.348 -28.894 -0 -1.2 0
-0.923 -9.85 -28.747 -0 -1.2 0
-0.911 -10.35 -28.59 -0 -1.2 0
-0.899 -10.846 -28.425 -0 -1.2 0
-0.887 -11.34 -28.251 -0 -1.2 0
-0.875 -11.83 -28.068 -0 -1.2 0
-0.861 -12.318 -27.877 -0 -1.2 0
-0.848 -12.802 -27.677 -0 -1.2 0
-0.835 -13.281 -27.469 -0 -1.2 0
-0.821 -13.759 -27.252 -0 -1.2 0
-0.808 -14.231 -27.028 -0 -1.2 0
-0.793 -14.7 -26.795 -0 -1.2 0
-0.779 -15.164 -26.554 -0 -1.2 0
-0.764 -15.625 -26.305 -0 -1.2 0
-0.749 -16.081 -26.048 -0 -1.2 0
-0.735 -16.533 -25.783 -0 -1.2 0
-0.719 -16.979 -25.51 -0 -1.2 0
-0.704 -17.421 -25.229 -0 -1.2 0
-0.688 -17.858 -24.941 -0 -1.2 0
-0.672 -18.289 -24.645 -0 -1.2 0
-0.656 -18.716 -24.342 -0 -1.2 0
-0.639 -19.137 -24.031 -0 -1.2 0
-0.623 -19.553 -23.714 -0 -1.2 0
-0.607 -19.962 -23.388 -0 -1.2 0
-0.59 -20.367 -23.056 -0 -1.2 0
-0.572 -20.765 -22.717 -0 -1.2 0
-0.555 -21.157 -22.371 -0 -1.2 0
-0.537 -21.544 -22.017 -0 -1.2 0
-0.52 -21.924 -21.658 -0 -1.2 0
-0.502 -22.298 -21.292 -0 -1.2 0
-0.484 -22.665 -20.919 -0 -1.2 0
-1.923 -9.862 -28.692 -0 -1.2 0
-1.906 -10.362 -28.536 -0 -1.2 0
-1.888 -10.858 -28.371 -0 -1.2 0
-1.871 -11.352 -28.197 -0 -1.2 0
-1.852 -11.842 -28.015 -0 -1.2 0
-1.832 -12.33 -27.825 -0 -1.2 0
-1.813 -12.813 -27.625 -0 -1.2 0
-1.793 -13.293 -27.417 -0 -1.2 0
-1.772 -13.77 -27.201 -0 -1.2 0
-1.751 -14.242 -26.978 -0 -1.2 0
-1.729 -14.711 -26.745 -0 -1.2 0
-1.706 -15.175 -26.505 -0 -1.2 0
-1.683 -15.636 -26.256 -0 -1.2 0
-1.66 -16.092 -25.999 -0 -1.2 0
-1.636 -16.543 -25.734 -0 -1.2 0
-1.612 -16.99 -25.462 -0 -1.2 0
-1.586 -17.431 -25.182 -0 -1.2 0
-1.561 -17.868 -24.895 -0 -1.2 0
-1.535 -18.299 -24.599 -0 -1.2 0
-1.509 -18.726 -24.297 -0 -1.2 0
-1.482 -19.147 -23.986 -0 -1.2 0
-1.455 -19.562 -23.67 -0 -1.2 0
-1.427 -19.972 -23.345 -0 -1.2 0
-1.399 -20.376 -23.012 -0 -1.2 0
-1.37 -20.775 -22.674 -0 -1.2 0
-1.341 -21.167 -22.329 -0 -1.2 0
-1.311 -21.553 -21.976 -0 -1.2 0
-1.282 -21.933 -21.617 -0 -1.2 0
-1.252 -22.306 -21.252 -0 -1.2 0
-1.221 -22.674 -20.88 -0 -1.2 0
-3.095 -7.34 -29.244 -0 -1.2 0
-3.077 -7.851 -29.133 -0 -1.2 0
-3.059 -8.36 -29.012 -0 -1.2 0
-3.039 -8.867 -28.881 -0 -1.2 0
-3.018 -9.372 -28.743 -0 -1.2 0
-2.997 -9.874 -28.596 -0 -1.2 0
-2.974 -10.374 -28.44 -0 -1.2 0
-2.951 -10.87 -28.276 -0 -1.2 0
-2.927 -11.364 -28.102 -0 -1.2 0
-2.902 -11.854 -27.921 -0 -1.2 0
-2.876 -12.341 -27.73 -0 -1.2 0
-2.849 -12.825 -27.533 -0 -1.2 0
-2.822 -13.304 -27.325 -0 -1.2 0
-2.793 -13.782 -27.11 -0 -1.2 0
-2.764 -14.254 -26.886 -0 -1.2 0
-2.733 -14.723 -26.655 -0 -1.2 0
-2.702 -15.186 -26.415 -0 -1.2 0
-2.67 -15.647 -26.167 -0 -1.2 0
-2.637 -16.103 -25.912 -0 -1.2 0
-2.605 -16.554 -25.648 -0 -1.2 0
-2.57 -17 -25.376 -0 -1.2 0
-2.534 -17.442 -25.097 -0 -1.2 0
-2.499 -17.879 -24.811 -0 -1.2 0
-2.462 -18.309 -24.516 -0 -1.2 0
-2.425 -18.736 -24.214 -0 -1.2 0
-2.386 -19.157 -23.905 -0 -1.2 0
-2.348 -19.572 -23.589 -0 -1.2 0
-2.308 -19.982 -23.266 -0 -1.2 0
-2.267 -20.386 -22.935 -0 -1.2 0
-2.226 -20.784 -22.598 -0 -1.2 0
-2.185 -21.176 -22.252 -0 -1.2 0
-2.142 -21.562 -21.902 -0 -1.2 0
-2.099 -21.942 -21.544 -0 -1.2 0
-2.056 -22.315 -21.18 -0 -1.2 0
-2.012 -22.683 -20.809 -0 -1.2 0
-4.127 -6.838 -29.219 -0 -1.2 0
-4.108 -7.351 -29.117 -0 -1.2 0
-4.086 -7.862 -29.006 -0 -1.2 0
-4.064 -8.371 -28.884 -0 -1.2 0
-4.04 -8.878 -28.755 -0 -1.2 0
-4.015 -9.382 -28.618 -0 -1.2 0
-3.989 -9.885 -28.471 -0 -1.2 0
-3.961 -10.384 -28.316 -0 -1.2 0
-3.933 -10.88 -28.152 -0 -1.2 0
-3.903 -11.374 -27.98 -0 -1.2 0
-3.871 -11.864 -27.799 -0 -1.2 0
-3.839 -12.351 -27.609 -0 -1.2 0
-3.806 -12.835 -27.411 -0 -1.2 0
-3.772 -13.314 -27.206 -0 -1.2 0
-3.736 -13.792 -26.991 -0 -1.2 0
-3.699 -14.264 -26.768 -0 -1.2 0
-3.661 -14.732 -26.538 -0 -1.2 0
-3.622 -15.196 -26.299 -0 -1.2 0
-3.581 -15.657 -26.053 -0 -1.2 0
-3.54 -16.112 -25.797 -0 -1.2 0
-3.497 -16.564 -25.535 -0 -1.2 0
-3.455 -17.01 -25.265 -0 -1.2 0
-3.41 -17.451 -24.987 -0 -1.2 0
-3.365 -17.888 -24.702 -0 -1.2 0
-3.318 -18.319 -24.409 -0 -1.2 0
-3.271 -18.745 -24.108 -0 -1.2 0
-3.222 -19.166 -23.8 -0 -1.2 0
-3.172 -19.581 -23.485 -0 -1.2 0
-3.122 -19.99 -23.163 -0 -1.2 0
-3.07 -20.395 -22.834 -0 -1.2 0
-3.017 -20.793 -22.498 -0 -1.2 0
-2.964 -21.184 -22.154 -0 -1.2 0
-2.91 -21.57 -21.805 -0 -1.2 0
-2.855 -21.95 -21.449 -0 -1.2 0
-2.799 -22.323 -21.086 -0 -1.2 0
-2.742 -22.691 -20.717 -0 -1.2 0
-5.246 -2.694 -29.558 -0 -1.2 0
-5.177 -5.299 -29.314 -0 -1.2 0
-5.158 -5.817 -29.239 -0 -1.2 0
-5.138 -6.334 -29.154 -0 -1.2 0
-5.116 -6.848 -29.06 -0 -1.2 0
-5.093 -7.361 -28.958 -0 -1.2 0
-5.068 -7.872 -28.847 -0 -1.2 0
-5.042 -8.381 -28.727 -0 -1.2 0
-5.014 -8.888 -28.599 -0 -1.2 0
-4.985 -9.392 -28.462 -0 -1.2 0
-4.954 -9.894 -28.316 -0 -1.2 0
-4.921 -10.394 -28.162 -0 -1.2 0
-4.887 -10.89 -27.999 -0 -1.2 0
-4.852 -11.384 -27.827 -0 -1.2 0
-4.815 -11.873 -27.647 -0 -1.2 0
-4.776 -12.361 -27.458 -0 -1.2 0
-4.737 -12.844 -27.262 -0 -1.2 0
-4.696 -13.324 -27.056 -0 -1.2 0
-4.653 -13.801 -26.844 -0 -1.2 0
-4.609 -14.273 -26.622 -0 -1.2 0
-4.563 -14.742 -26.393 -0 -1.2 0
-4.516 -15.205 -26.155 -0 -1.2 0
-4.468 -15.666 -25.91 -0 -1.2 0
-4.418 -16.121 -25.656 -0 -1.2 0
-4.367 -16.572 -25.395 -0 -1.2 0
-4.315 -17.019 -25.127 -0 -1.2 0
-4.261 -17.459 -24.85 -0 -1.2 0
-4.206 -17.896 -24.565 -0 -1.2 0
-4.15 -18.327 -24.275 -0 -1.2 0
-4.092 -18.754 -23.976 -0 -1.2 0
-4.034 -19.174 -23.669 -0 -1.2 0
-3.975 -19.589 -23.356 -0 -1.2 0
-3.914 -19.998 -23.035 -0 -1.2 0
-3.85 -20.402 -22.708 -0 -1.2 0
-3.787 -20.8 -22.373 -0 -1.2 0
-3.722 -21.192 -22.032 -0 -1.2 0
-3.657 -21.578 -21.685 -0 -1.2 0
-3.59 -21.957 -21.331 -0 -1.2 0
-3.522 -22.331 -20.97 -0 -1.2 0
-3.453 -22.698 -20.603 -0 -1.2 0
-5.986 -9.904 -28.113 -0 -1.2 0
-5.948 -10.403 -27.959 -0 -1.2 0
-5.909 -10.899 -27.797 -0 -1.2 0
-5.867 -11.393 -27.627 -0 -1.2 0
-5.824 -11.883 -27.448 -0 -1.2 0
-5.78 -12.37 -27.261 -0 -1.2 0
-5.733 -12.854 -27.065 -0 -1.2 0
-5.685 -13.333 -26.861 -0 -1.2 0
-5.635 -13.81 -26.65 -0 -1.2 0
-5.583 -14.282 -26.43 -0 -1.2 0
-5.529 -14.751 -26.202 -0 -1.2 0
-5.474 -15.214 -25.966 -0 -1.2 0
-5.417 -15.675 -25.722 -0 -1.2 0
-5.358 -16.13 -25.471 -0 -1.2 0
-5.298 -16.581 -25.212 -0 -1.2 0
-5.237 -17.027 -24.945 -0 -1.2 0
-5.173 -17.468 -24.67 -0 -1.2 0
-5.108 -17.905 -24.388 -0 -1.2 0
-5.042 -18.335 -24.098 -0 -1.2 0
-4.973 -18.762 -23.801 -0 -1.2 0
-4.904 -19.182 -23.498 -0 -1.2 0
-4.833 -19.597 -23.187 -0 -1.2 0
-4.76 -20.006 -22.868 -0 -1.2 0
-4.686 -20.41 -22.544 -0 -1.2 0
-4.611 -20.808 -22.211 -0 -1.2 0
-4.534 -21.2 -21.873 -0 -1.2 0
-4.456 -21.585 -21.528 -0 -1.2 0
-4.376 -21.965 -21.176 -0 -1.2 0
-4.295 -22.338 -20.816 -0 -1.2 0
-4.213 -22.705 -20.452 -0 -1.2 0
-6.895 -10.412 -27.737 -0 -1.2 0
-6.851 -10.908 -27.576 -0 -1.2 0
-6.803 -11.402 -27.407 -0 -1.2 0
-6.755 -11.891 -27.231 -0 -1.2 0
-6.704 -12.379 -27.045 -0 -1.2 0
-6.651 -12.862 -26.851 -0 -1.2 0
-6.596 -13.341 -26.648 -0 -1.2 0
-6.539 -13.818 -26.438 -0 -1.2 0
-6.48 -14.29 -26.22 -0 -1.2 0
-6.419 -14.759 -25.994 -0 -1.2 0
-6.356 -15.222 -25.76 -0 -1.2 0
-6.291 -15.683 -25.518 -0 -1.2 0
-6.224 -16.138 -25.268 -0 -1.2 0
-6.155 -16.589 -25.011 -0 -1.2 0
-6.086 -17.035 -24.746 -0 -1.2 0
-6.013 -17.476 -24.473 -0 -1.2 0
-5.938 -17.912 -24.194 -0 -1.2 0
-5.863 -18.343 -23.906 -0 -1.2 0
-5.784 -18.769 -23.612 -0 -1.2 0
-5.705 -19.189 -23.31 -0 -1.2 0
-5.624 -19.604 -23.002 -0 -1.2 0
-5.54 -20.013 -22.686 -0 -1.2 0
-5.456 -20.417 -22.364 -0 -1.2 0
-5.37 -20.815 -22.034 -0 -1.2 0
-5.282 -21.206 -21.698 -0 -1.2 0
-5.192 -21.592 -21.355 -0 -1.2 0
-5.101 -21.971 -21.005 -0 -1.2 0
-5.008 -22.344 -20.65 -0 -1.2 0
-4.914 -22.711 -20.288 -0 -1.2 0
-8.053 -7.899 -28.153 -0 -1.2 0
-8.015 -8.407 -28.036 -0 -1.2 0
-7.974 -8.914 -27.911 -0 -1.2 0
-7.932 -9.418 -27.776 -0 -1.2 0
-7.886 -9.921 -27.633 -0 -1.2 0
-7.839 -10.42 -27.482 -0 -1.2 0
-7.79 -10.916 -27.323 -0 -1.2 0
-7.737 -11.409 -27.155 -0 -1.2 0
-7.682 -11.899 -26.979 -0 -1.2 0
-7.626 -12.386 -26.796 -0 -1.2 0
-7.567 -12.87 -26.604 -0 -1.2 0
-7.505 -13.349 -26.403 -0 -1.2 0
-7.441 -13.826 -26.195 -0 -1.2 0
-7.375 -14.297 -25.979 -0 -1.2 0
-7.307 -14.766 -25.754 -0 -1.2 0
-7.236 -15.229 -25.523 -0 -1.2 0
-7.163 -15.69 -25.283 -0 -1.2 0
-7.088 -16.145 -25.036 -0 -1.2 0
-7.011 -16.596 -24.78 -0 -1.2 0
-6.931 -17.042 -24.517 -0 -1.2 0
-6.85 -17.483 -24.248 -0 -1.2 0
-6.767 -17.919 -23.97 -0 -1.2 0
-6.682 -18.35 -23.685 -0 -1.2 0
-6.504 -19.196 -23.094 -0 -1.2 0
-6.413 -19.611 -22.789 -0 -1.2 0
-6.319 -20.02 -22.476 -0 -1.2 0
-6.224 -20.424 -22.156 -0 -1.2 0
-6.127 -20.821 -21.83 -0 -1.2 0
-6.028 -21.213 -21.497 -0 -1.2 0
-5.926 -21.598 -21.156 -0 -1.2 0
-5.824 -21.977 -20.81 -0 -1.2 0
-5.719 -22.35 -20.458 -0 -1.2 0
-5.613 -22.717 -20.099 -0 -1.2 0
-9.177 -6.883 -28.036 -0 -1.2 0
-9.14 -7.396 -27.937 -0 -1.2 0
-9.101 -7.907 -27.83 -0 -1.2 0
-9.059 -8.415 -27.714 -0 -1.2 0
-9.015 -8.922 -27.589 -0 -1.2 0
-8.968 -9.426 -27.456 -0 -1.2 0
-8.917 -9.929 -27.315 -0 -1.2 0
-8.865 -10.428 -27.166 -0 -1.2 0
-8.81 -10.923 -27.009 -0 -1.2 0
-8.751 -11.417 -26.843 -0 -1.2 0
-8.69 -11.907 -26.669 -0 -1.2 0
-8.627 -12.394 -26.487 -0 -1.2 0
-8.561 -12.877 -26.297 -0 -1.2 0
-8.42 -13.833 -25.893 -0 -1.2 0
-8.346 -14.305 -25.678 -0 -1.2 0
-8.27 -14.773 -25.457 -0 -1.2 0
-8.192 -15.237 -25.227 -0 -1.2 0
-8.11 -15.697 -24.991 -0 -1.2 0
-8.026 -16.152 -24.746 -0 -1.2 0
-7.94 -16.603 -24.493 -0 -1.2 0
-7.165 -20.026 -22.215 -0 -1.2 0
-7.058 -20.43 -21.898 -0 -1.2 0
-6.949 -20.827 -21.576 -0 -1.2 0
-6.837 -21.219 -21.247 -0 -1.2 0
-6.724 -21.604 -20.91 -0 -1.2 0
-6.609 -21.983 -20.568 -0 -1.2 0
-6.491 -22.356 -20.22 -0 -1.2 0
-6.372 -22.723 -19.865 -0 -1.2 0
-10.375 -0.12 -28.196 -0 -1.2 0
-10.376 -0.644 -28.21 -0 -1.2 0
-10.373 -1.168 -28.214 -0 -1.2 0
-10.369 -1.691 -28.21 -0 -1.2 0
-10.36 -2.213 -28.198 -0 -1.2 0
-10.35 -2.736 -28.176 -0 -1.2 0
-10.335 -3.259 -28.146 -0 -1.2 0
-10.317 -3.781 -28.107 -0 -1.2 0
-10.297 -4.302 -28.061 -0 -1.2 0
-10.272 -4.822 -28.006 -0 -1.2 0
-10.245 -5.341 -27.941 -0 -1.2 0
-10.215 -5.859 -27.869 -0 -1.2 0
-10.182 -6.375 -27.787 -0 -1.2 0
-10.146 -6.89 -27.698 -0 -1.2 0
-10.106 -7.403 -27.601 -0 -1.2 0
-10.064 -7.913 -27.495 -0 -1.2 0
-10.018 -8.422 -27.379 -0 -1.2 0
-9.97 -8.929 -27.257 -0 -1.2 0
-9.918 -9.433 -27.126 -0 -1.2 0
-9.863 -9.935 -26.986 -0 -1.2 0
-9.806 -10.434 -26.839 -0 -1.2 0
-9.744 -10.93 -26.683 -0 -1.2 0
-9.681 -11.424 -26.519 -0 -1.2 0
-9.615 -11.913 -26.347 -0 -1.2 0
-9.238 -14.311 -25.368 -0 -1.2 0
-9.154 -14.78 -25.149 -0 -1.2 0
-8.979 -15.703 -24.688 -0 -1.2 0
-8.387 -18.362 -23.127 -0 -1.2 0
-7.823 -20.435 -21.632 -0 -1.2 0
-7.703 -20.833 -21.313 -0 -1.2 0
-7.581 -21.224 -20.987 -0 -1.2 0
-7.456 -21.609 -20.656 -0 -1.2 0
-7.329 -21.988 -20.318 -0 -1.2 0
-7.2 -22.361 -19.973 -0 -1.2 0
-7.069 -22.728 -19.623 -0 -1.2 0
-11.339 0.395 -27.8 -0 -1.2 0
-11.345 -0.126 -27.821 -0 -1.2 0
-11.346 -0.651 -27.834 -0 -1.2 0
-11.345 -1.174 -27.837 -0 -1.2 0
-11.34 -1.697 -27.834 -0 -1.2 0
-11.332 -2.22 -27.82 -0 -1.2 0
-11.319 -2.742 -27.8 -0 -1.2 0
-11.305 -3.266 -27.771 -0 -1.2 0
-11.286 -3.787 -27.732 -0 -1.2 0
-11.264 -4.308 -27.686 -0 -1.2 0
-11.238 -4.828 -27.63 -0 -1.2 0
-11.209 -5.348 -27.568 -0 -1.2 0
-11.177 -5.865 -27.496 -0 -1.2 0
-11.141 -6.382 -27.416 -0 -1.2 0
-11.102 -6.896 -27.328 -0 -1.2 0
-11.059 -7.409 -27.231 -0 -1.2 0
-11.014 -7.92 -27.126 -0 -1.2 0
-10.964 -8.428 -27.013 -0 -1.2 0
-10.912 -8.935 -26.891 -0 -1.2 0
-10.856 -9.439 -26.762 -0 -1.2 0
-10.735 -10.44 -26.479 -0 -1.2 0
-10.668 -10.936 -26.325 -0 -1.2 0
-10.6 -11.43 -26.163 -0 -1.2 0
-10.528 -11.919 -25.993 -0 -1.2 0
-10.452 -12.406 -25.815 -0 -1.2 0
-9.837 -15.709 -24.356 -0 -1.2 0
-8.448 -20.838 -21.025 -0 -1.2 0
-8.315 -21.229 -20.703 -0 -1.2 0
-8.179 -21.614 -20.376 -0 -1.2 0
-8.04 -21.993 -20.042 -0 -1.2 0
-7.756 -22.732 -19.356 -0 -1.2 0
-12.371 -0.132 -27.38 -0 -1.2 0
-12.369 -1.703 -27.392 -0 -1.2 0
-12.36 -2.225 -27.379 -0 -1.2 0
-12.347 -2.748 -27.358 -0 -1.2 0
-12.332 -3.272 -27.329 -0 -1.2 0
-12.312 -3.793 -27.291 -0 -1.2 0
-12.289 -4.314 -27.246 -0 -1.2 0
-12.261 -4.834 -27.191 -0 -1.2 0
-12.23 -5.353 -27.129 -0 -1.2 0
-12.196 -5.871 -27.058 -0 -1.2 0
-12.157 -6.387 -26.979 -0 -1.2 0
-12.115 -6.902 -26.893 -0 -1.2 0
-12.069 -7.415 -26.798 -0 -1.2 0
-12.02 -7.925 -26.694 -0 -1.2 0
-11.849 -9.445 -26.335 -0 -1.2 0
-8.484 -22.737 -19.044 -0 -1.2 0
-13.31 -1.184 -26.953 -0 -1.2 0
-13.306 -1.707 -26.949 -0 -1.2 0
-13.297 -2.23 -26.936 -0 -1.2 0
-13.284 -2.753 -26.916 -0 -1.2 0
-13.268 -3.276 -26.886 -0 -1.2 0
-13.247 -3.798 -26.85 -0 -1.2 0
-13.222 -4.319 -26.804 -0 -1.2 0
-13.194 -4.838 -26.751 -0 -1.2 0
-13.16 -5.358 -26.69 -0 -1.2 0
-13.124 -5.876 -26.619 -0 -1.2 0
-13.083 -6.392 -26.542 -0 -1.2 0
-13.039 -6.906 -26.456 -0 -1.2 0
-12.989 -7.419 -26.362 -0 -1.2 0
-12.937 -7.93 -26.26 -0 -1.2 0
-12.376 -11.929 -25.162 -0 -1.2 0
-14.219 -2.234 -26.461 -0 -1.2 0
-14.206 -2.757 -26.441 -0 -1.2 0
-14.189 -3.28 -26.412 -0 -1.2 0
-14.167 -3.802 -26.376 -0 -1.2 0
-14.14 -4.323 -26.331 -0 -1.2 0
-14.11 -4.842 -26.278 -0 -1.2 0
-14.075 -5.362 -26.218 -0 -1.2 0
-14.037 -5.88 -26.149 -0 -1.2 0
-13.993 -6.396 -26.073 -0 -1.2 0
-13.946 -6.91 -25.989 -0 -1.2 0
-13.894 -7.423 -25.896 -0 -1.2 0
-13.839 -7.934 -25.796 -0 -1.2 0
-13.714 -8.949 -25.572 -0 -1.2 0
-13.645 -9.453 -25.449 -0 -1.2 0
-10.825 -20.452 -20.282 -0 -1.2 0
-10.662 -20.849 -19.981 -0 -1.2 0
-15.201 -1.715 -25.926 -0 -1.2 0
-15.193 -2.238 -25.914 -0 -1.2 0
-15.179 -2.76 -25.894 -0 -1.2 0
-15.16 -3.284 -25.866 -0 -1.2 0
-15.138 -3.805 -25.83 -0 -1.2 0
-15.11 -4.326 -25.786 -0 -1.2 0
-15.079 -4.846 -25.735 -0 -1.2 0
-15.042 -5.366 -25.674 -0 -1.2 0
-15.001 -5.883 -25.608 -0 -1.2 0
-14.955 -6.399 -25.533 -0 -1.2 0
-14.904 -6.914 -25.449 -0 -1.2 0
-14.85 -7.427 -25.359 -0 -1.2 0
-14.79 -7.937 -25.261 -0 -1.2 0
-14.659 -8.952 -25.042 -0 -1.2 0
-14.586 -9.457 -24.919 -0 -1.2 0
-14.509 -9.959 -24.791 -0 -1.2 0
-14.427 -10.457 -24.654 -0 -1.2 0
-13.735 -13.862 -23.493 -0 -1.2 0
-13.5 -14.802 -23.096 -0 -1.2 0
-16.07 -1.717 -25.397 -0 -1.2 0
-16.062 -2.24 -25.385 -0 -1.2 0
-16.047 -2.763 -25.365 -0 -1.2 0
-16.028 -3.286 -25.337 -0 -1.2 0
-16.005 -3.807 -25.301 -0 -1.2 0
-15.976 -4.329 -25.259 -0 -1.2 0
-15.943 -4.848 -25.208 -0 -1.2 0
-15.904 -5.368 -25.149 -0 -1.2 0
-15.861 -5.886 -25.083 -0 -1.2 0
-15.814 -6.402 -25.01 -0 -1.2 0
-15.76 -6.916 -24.928 -0 -1.2 0
-15.703 -7.429 -24.839 -0 -1.2 0
-15.426 -9.459 -24.408 -0 -1.2 0
-15.345 -9.961 -24.282 -0 -1.2 0
-15.168 -10.956 -24.007 -0 -1.2 0
-14.76 -12.909 -23.371 -0 -1.2 0
-14.408 -14.335 -22.819 -0 -1.2 0
-12.784 -19.23 -20.272 -0 -1.2 0
-16.907 -2.242 -24.83 -0 -1.2 0
-16.893 -2.765 -24.81 -0 -1.2 0
-16.873 -3.288 -24.783 -0 -1.2 0
-16.849 -3.809 -24.747 -0 -1.2 0
-16.819 -4.33 -24.705 -0 -1.2 0
-16.785 -4.85 -24.656 -0 -1.2 0
-16.744 -5.37 -24.598 -0 -1.2 0
-16.699 -5.887 -24.533 -0 -1.2 0
-15.768 -11.94 -23.181 -0 -1.2 0
-15.659 -12.427 -23.022 -0 -1.2 0
-15.426 -13.389 -22.682 -0 -1.2 0
-16.116 -13.867 -21.927 -0 -1.2 0
-18.611 -1.721 -23.6 -0 -1.2 0
-18.385 -2.23 -23.313 -0 -1.2 0
-18.586 -2.766 -23.568 -0 -1.2 0
-18.565 -3.289 -23.542 -0 -1.2 0
-18.54 -3.811 -23.508 -0 -1.2 0
-18.507 -4.332 -23.468 -0 -1.2 0
-18.469 -4.852 -23.419 -0 -1.2 0
-18.426 -5.371 -23.365 -0 -1.2 0
-18.377 -5.889 -23.303 -0 -1.2 0
-18.323 -6.405 -23.233 -0 -1.2 0
-18.126 -7.943 -22.985 -0 -1.2 0
-18.05 -8.451 -22.887 -0 -1.2 0
-17.688 -10.463 -22.429 -0 -1.2 0
-17.241 -12.429 -21.862 -0 -1.2 0
-14.441 -20.055 -18.309 -0 -1.2 0
-19.413 -1.72 -22.945 -0 -1.2 0
-19.403 -2.243 -22.932 -0 -1.2 0
-19.388 -2.766 -22.914 -0 -1.2 0
-19.366 -3.289 -22.889 -0 -1.2 0
-19.339 -3.81 -22.855 -0 -1.2 0
-19.306 -4.331 -22.816 -0 -1.2 0
-19.266 -4.851 -22.768 -0 -1.2 0
-19.222 -5.371 -22.715 -0 -1.2 0
-19.171 -5.888 -22.655 -0 -1.2 0
-19.115 -6.405 -22.587 -0 -1.2 0
-19.052 -6.919 -22.513 -0 -1.2 0
-18.985 -7.432 -22.432 -0 -1.2 0
-18.91 -7.942 -22.344 -0 -1.2 0
-18.655 -9.462 -22.039 -0 -1.2 0
-17.86 -12.911 -21.096 -0 -1.2 0
-17.129 -15.269 -20.229 -0 -1.2 0
-16.967 -15.729 -20.037 -0 -1.2 0
-15.284 -19.647 -18.042 -0 -1.2 0
-20.252 -1.719 -22.208 -0 -1.2 0
-20.242 -2.242 -22.196 -0 -1.2 0
-20.226 -2.764 -22.178 -0 -1.2 0
-20.204 -3.288 -22.152 -0 -1.2 0
-20.176 -3.809 -22.12 -0 -1.2 0
-20.142 -4.33 -22.082 -0 -1.2 0
-20.101 -4.85 -22.036 -0 -1.2 0
-20.055 -5.37 -21.984 -0 -1.2 0
-20.002 -5.887 -21.925 -0 -1.2 0
-19.944 -6.403 -21.859 -0 -1.2 0
-19.879 -6.918 -21.787 -0 -1.2 0
-19.809 -7.431 -21.709 -0 -1.2 0
-19.731 -7.941 -21.623 -0 -1.2 0
-19.649 -8.45 -21.531 -0 -1.2 0
-19.56 -8.956 -21.433 -0 -1.2 0
-19.258 -10.461 -21.098 -0 -1.2 0
-19.146 -10.957 -20.974 -0 -1.2 0
-19.027 -11.451 -20.843 -0 -1.2 0
-18.903 -11.94 -20.706 -0 -1.2 0
-18.041 -14.805 -19.753 -0 -1.2 0
-17.709 -15.728 -19.387 -0 -1.2 0
-14.066 -22.748 -15.373 -0 -1.2 0
-21.006 -1.717 -21.497 -0 -1.2 0
-20.996 -2.24 -21.485 -0 -1.2 0
-20.98 -2.762 -21.467 -0 -1.2 0
-20.957 -3.286 -21.441 -0 -1.2 0
-20.928 -3.807 -21.411 -0 -1.2 0
-20.893 -4.328 -21.373 -0 -1.2 0
-20.851 -4.848 -21.328 -0 -1.2 0
-20.804 -5.368 -21.278 -0 -1.2 0
-20.749 -5.885 -21.22 -0 -1.2 0
-20.689 -6.402 -21.157 -0 -1.2 0
-20.622 -6.916 -21.087 -0 -1.2 0
-20.548 -7.429 -21.01 -0 -1.2 0
-20.469 -7.939 -20.927 -0 -1.2 0
-20.384 -8.448 -20.838 -0 -1.2 0
-20.292 -8.954 -20.742 -0 -1.2 0
-20.194 -9.459 -20.64 -0 -1.2 0
-19.863 -10.955 -20.297 -0 -1.2 0
-19.74 -11.449 -20.17 -0 -1.2 0
-19.612 -11.938 -20.037 -0 -1.2 0
-16.781 -19.23 -17.114 -0 -1.2 0
-15.117 -22.008 -15.402 -0 -1.2 0
-14.861 -22.38 -15.138 -0 -1.2 0
-14.6 -22.747 -14.87 -0 -1.2 0
-21.735 -1.714 -20.76 -0 -1.2 0
-21.725 -2.237 -20.748 -0 -1.2 0
-21.709 -2.76 -20.731 -0 -1.2 0
-21.685 -3.283 -20.706 -0 -1.2 0
-21.655 -3.804 -20.676 -0 -1.2 0
-21.619 -4.326 -20.639 -0 -1.2 0
-21.576 -4.845 -20.596 -0 -1.2 0
-21.527 -5.365 -20.547 -0 -1.2 0
-21.471 -5.883 -20.491 -0 -1.2 0
-21.408 -6.399 -20.429 -0 -1.2 0
-21.339 -6.913 -20.361 -0 -1.2 0
-21.264 -7.426 -20.287 -0 -1.2 0
-21.182 -7.937 -20.206 -0 -1.2 0
-21.093 -8.445 -20.12 -0 -1.2 0
-20.999 -8.952 -20.027 -0 -1.2 0
-20.898 -9.456 -19.929 -0 -1.2 0
-20.676 -10.457 -19.713 -0 -1.2 0
-20.557 -10.953 -19.597 -0 -1.2 0
-20.297 -11.936 -19.345 -0 -1.2 0
-20.159 -12.423 -19.21 -0 -1.2 0
-15.651 -22.006 -14.863 -0 -1.2 0
-15.386 -22.378 -14.608 -0 -1.2 0
-15.116 -22.745 -14.348 -0 -1.2 0
-22.488 -1.711 -19.943 -0 -1.2 0
-22.478 -2.234 -19.931 -0 -1.2 0
-22.461 -2.756 -19.914 -0 -1.2 0
-22.437 -3.28 -19.89 -0 -1.2 0
-22.406 -3.801 -19.86 -0 -1.2 0
-22.37 -4.322 -19.824 -0 -1.2 0
-22.325 -4.842 -19.783 -0 -1.2 0
-22.275 -5.362 -19.735 -0 -1.2 0
-22.217 -5.879 -19.681 -0 -1.2 0
-22.152 -6.395 -19.622 -0 -1.2 0
-22.081 -6.909 -19.556 -0 -1.2 0
-22.003 -7.422 -19.485 -0 -1.2 0
-21.919 -7.933 -19.407 -0 -1.2 0
-21.827 -8.442 -19.323 -0 -1.2 0
-21.73 -8.948 -19.234 -0 -1.2 0
-21.626 -9.453 -19.139 -0 -1.2 0
-21.514 -9.955 -19.038 -0 -1.2 0
-21.397 -10.454 -18.932 -0 -1.2 0
-21.273 -10.949 -18.819 -0 -1.2 0
-21.142 -11.443 -18.701 -0 -1.2 0
-16.472 -21.624 -14.505 -0 -1.2 0
-16.202 -22.003 -14.264 -0 -1.2 0
-15.928 -22.376 -14.019 -0 -1.2 0
-15.649 -22.742 -13.769 -0 -1.2 0
-23.162 -1.184 -19.164 -0 -1.2 0
-23.16 -1.707 -19.159 -0 -1.2 0
-23.149 -2.229 -19.147 -0 -1.2 0
-23.132 -2.752 -19.131 -0 -1.2 0
-23.108 -3.276 -19.107 -0 -1.2 0
-23.077 -3.797 -19.079 -0 -1.2 0
-23.039 -4.318 -19.043 -0 -1.2 0
-22.993 -4.838 -19.003 -0 -1.2 0
-22.941 -5.357 -18.958 -0 -1.2 0
-22.882 -5.875 -18.905 -0 -1.2 0
-22.815 -6.391 -18.848 -0 -1.2 0
-22.743 -6.905 -18.785 -0 -1.2 0
-22.662 -7.418 -18.715 -0 -1.2 0
-22.576 -7.929 -18.64 -0 -1.2 0
-22.482 -8.438 -18.56 -0 -1.2 0
-22.382 -8.944 -18.474 -0 -1.2 0
-22.275 -9.449 -18.382 -0 -1.2 0
-22.16 -9.951 -18.285 -0 -1.2 0
-22.039 -10.45 -18.182 -0 -1.2 0
-21.912 -10.945 -18.074 -0 -1.2 0
-21.175 -13.377 -17.449 -0 -1.2 0
-16.694 -22 -13.691 -0 -1.2 0
-16.412 -22.373 -13.455 -0 -1.2 0
-16.125 -22.739 -13.215 -0 -1.2 0
-23.805 -1.702 -18.353 -0 -1.2 0
-21.768 -13.373 -16.707 -0 -1.2 0
-17.166 -21.996 -13.1 -0 -1.2 0
-16.876 -22.369 -12.874 -0 -1.2 0
-16.581 -22.736 -12.644 -0 -1.2 0
-24.461 -1.697 -17.469 -0 -1.2 0
-24.45 -2.22 -17.459 -0 -1.2 0
-24.432 -2.742 -17.443 -0 -1.2 0
-24.407 -3.266 -17.42 -0 -1.2 0
-24.374 -3.787 -17.394 -0 -1.2 0
-24.335 -4.308 -17.361 -0 -1.2 0
-24.287 -4.828 -17.324 -0 -1.2 0
-24.232 -5.348 -17.28 -0 -1.2 0
-24.17 -5.865 -17.232 -0 -1.2 0
-24.1 -6.381 -17.179 -0 -1.2 0
-24.024 -6.896 -17.12 -0 -1.2 0
-23.939 -7.409 -17.057 -0 -1.2 0
-23.848 -7.919 -16.988 -0 -1.2 0
-23.749 -8.428 -16.914 -0 -1.2 0
-23.644 -8.935 -16.834 -0 -1.2 0
-23.53 -9.439 -16.75 -0 -1.2 0
-23.41 -9.941 -16.66 -0 -1.2 0
-23.283 -10.44 -16.566 -0 -1.2 0
-23.007 -11.429 -16.362 -0 -1.2 0
-22.542 -12.889 -16.018 -0 -1.2 0
-18.508 -20.837 -13.077 -0 -1.2 0
-18.226 -21.229 -12.873 -0 -1.2 0
-17.939 -21.614 -12.665 -0 -1.2 0
-17.646 -21.993 -12.453 -0 -1.2 0
-17.348 -22.366 -12.237 -0 -1.2 0
-17.046 -22.732 -12.018 -0 -1.2 0
-25.035 -1.168 -16.647 -0 -1.2 0
-25.004 -2.737 -16.613 -0 -1.2 0
-24.979 -3.26 -16.593 -0 -1.2 0
-24.945 -3.782 -16.566 -0 -1.2 0
-24.905 -4.303 -16.535 -0 -1.2 0
-24.856 -4.823 -16.499 -0 -1.2 0
-24.8 -5.342 -16.457 -0 -1.2 0
-24.737 -5.86 -16.412 -0 -1.2 0
-24.665 -6.376 -16.36 -0 -1.2 0
-24.587 -6.89 -16.304 -0 -1.2 0
-24.501 -7.403 -16.243 -0 -1.2 0
-24.408 -7.914 -16.176 -0 -1.2 0
-24.307 -8.423 -16.105 -0 -1.2 0
-24.199 -8.929 -16.03 -0 -1.2 0
-24.083 -9.434 -15.949 -0 -1.2 0
-23.831 -10.435 -15.773 -0 -1.2 0
-23.693 -10.931 -15.678 -0 -1.2 0
-23.548 -11.424 -15.578 -0 -1.2 0
-23.238 -12.401 -15.363 -0 -1.2 0
-20.797 -17.932 -13.695 -0 -1.2 0
-19.229 -20.436 -12.631 -0 -1.2 0
-18.947 -20.833 -12.441 -0 -1.2 0
-18.658 -21.225 -12.245 -0 -1.2 0
-18.365 -21.61 -12.047 -0 -1.2 0
-18.065 -21.989 -11.845 -0 -1.2 0
-17.76 -22.362 -11.639 -0 -1.2 0
-17.451 -22.728 -11.43 -0 -1.2 0
-25.577 -1.685 -15.793 -0 -1.2 0
-25.566 -2.208 -15.782 -0 -1.2 0
-25.547 -2.731 -15.766 -0 -1.2 0
-25.522 -3.254 -15.746 -0 -1.2 0
-25.488 -3.775 -15.72 -0 -1.2 0
-25.446 -4.296 -15.691 -0 -1.2 0
-25.397 -4.816 -15.655 -0 -1.2 0
-25.34 -5.336 -15.616 -0 -1.2 0
-25.276 -5.854 -15.572 -0 -1.2 0
-25.203 -6.37 -15.523 -0 -1.2 0
-25.123 -6.884 -15.469 -0 -1.2 0
-25.035 -7.397 -15.41 -0 -1.2 0
-24.94 -7.908 -15.347 -0 -1.2 0
-24.837 -8.417 -15.279 -0 -1.2 0
-24.727 -8.924 -15.207 -0 -1.2 0
-24.609 -9.428 -15.129 -0 -1.2 0
-24.484 -9.93 -15.047 -0 -1.2 0
-24.351 -10.429 -14.961 -0 -1.2 0
-24.21 -10.925 -14.87 -0 -1.2 0
-24.063 -11.419 -14.775 -0 -1.2 0
-20.745 -18.784 -12.661 -0 -1.2 0
-19.934 -20.028 -12.15 -0 -1.2 0
-19.652 -20.431 -11.971 -0 -1.2 0
-19.364 -20.829 -11.79 -0 -1.2 0
-19.069 -21.22 -11.604 -0 -1.2 0
-18.769 -21.605 -11.416 -0 -1.2 0
-18.464 -21.984 -11.223 -0 -1.2 0
-18.152 -22.357 -11.028 -0 -1.2 0
-17.836 -22.724 -10.829 -0 -1.2 0
-26.13 -1.678 -14.86 -0 -1.2 0
-26.12 -2.201 -14.85 -0 -1.2 0
-26.101 -2.723 -14.834 -0 -1.2 0
-26.075 -3.247 -14.815 -0 -1.2 0
-26.04 -3.768 -14.79 -0 -1.2 0
-25.998 -4.289 -14.762 -0 -1.2 0
-25.948 -4.809 -14.728 -0 -1.2 0
-25.889 -5.329 -14.69 -0 -1.2 0
-25.824 -5.846 -14.648 -0 -1.2 0
-25.75 -6.363 -14.601 -0 -1.2 0
-25.669 -6.877 -14.55 -0 -1.2 0
-25.579 -7.39 -14.494 -0 -1.2 0
-25.482 -7.901 -14.435 -0 -1.2 0
-25.377 -8.41 -14.37 -0 -1.2 0
-25.264 -8.916 -14.301 -0 -1.2 0
-25.144 -9.421 -14.228 -0 -1.2 0
-25.016 -9.923 -14.151 -0 -1.2 0
-22.679 -16.147 -12.762 -0 -1.2 0
-21.969 -17.485 -12.346 -0 -1.2 0
-21.199 -18.778 -11.895 -0 -1.2 0
-20.929 -19.198 -11.738 -0 -1.2 0
-20.083 -20.425 -11.245 -0 -1.2 0
-19.788 -20.823 -11.074 -0 -1.2 0
-19.488 -21.214 -10.898 -0 -1.2 0
-19.181 -21.6 -10.721 -0 -1.2 0
-18.869 -21.979 -10.54 -0 -1.2 0
-18.551 -22.352 -10.355 -0 -1.2 0
-18.228 -22.719 -10.168 -0 -1.2 0
-26.619 -1.67 -13.966 -0 -1.2 0
-26.609 -2.193 -13.956 -0 -1.2 0
-26.59 -2.716 -13.94 -0 -1.2 0
-26.564 -3.239 -13.921 -0 -1.2 0
-26.529 -3.76 -13.898 -0 -1.2 0
-26.485 -4.281 -13.87 -0 -1.2 0
-26.435 -4.801 -13.838 -0 -1.2 0
-26.375 -5.321 -13.802 -0 -1.2 0
-26.309 -5.839 -13.762 -0 -1.2 0
-26.233 -6.355 -13.718 -0 -1.2 0
-26.151 -6.869 -13.669 -0 -1.2 0
-26.059 -7.382 -13.616 -0 -1.2 0
-25.961 -7.893 -13.559 -0 -1.2 0
-25.854 -8.402 -13.498 -0 -1.2 0
-25.74 -8.909 -13.433 -0 -1.2 0
-25.617 -9.413 -13.364 -0 -1.2 0
-25.487 -9.915 -13.29 -0 -1.2 0
-25.349 -10.415 -13.213 -0 -1.2 0
-23.766 -14.761 -12.339 -0 -1.2 0
-22.632 -17.037 -11.721 -0 -1.2 0
-22.384 -17.478 -11.587 -0 -1.2 0
-22.129 -17.915 -11.448 -0 -1.2 0
-21.869 -18.345 -11.306 -0 -1.2 0
-21.6 -18.771 -11.161 -0 -1.2 0
-21.326 -19.192 -11.013 -0 -1.2 0
-21.044 -19.607 -10.862 -0 -1.2 0
-20.757 -20.016 -10.707 -0 -1.2 0
-20.464 -20.419 -10.548 -0 -1.2 0
-20.164 -20.817 -10.387 -0 -1.2 0
-19.858 -21.209 -10.222 -0 -1.2 0
-19.546 -21.594 -10.054 -0 -1.2 0
-19.228 -21.973 -9.884 -0 -1.2 0
-18.904 -22.346 -9.71 -0 -1.2 0
-18.575 -22.713 -9.533 -0 -1.2 0
-27.072 -2.184 -13.039 -0 -1.2 0
-27.052 -2.707 -13.024 -0 -1.2 0
-27.026 -3.23 -13.005 -0 -1.2 0
-26.99 -3.752 -12.983 -0 -1.2 0
-26.946 -4.273 -12.956 -0 -1.2 0
-26.895 -4.793 -12.926 -0 -1.2 0
-26.834 -5.313 -12.891 -0 -1.2 0
-26.767 -5.83 -12.854 -0 -1.2 0
-26.69 -6.347 -12.811 -0 -1.2 0
-26.606 -6.861 -12.765 -0 -1.2 0
-26.513 -7.374 -12.715 -0 -1.2 0
-26.413 -7.885 -12.661 -0 -1.2 0
-26.304 -8.394 -12.604 -0 -1.2 0
-26.188 -8.9 -12.542 -0 -1.2 0
-26.063 -9.405 -12.477 -0 -1.2 0
-25.643 -10.902 -12.259 -0 -1.2 0
-24.592 -13.813 -11.722 -0 -1.2 0
-24.182 -14.754 -11.513 -0 -1.2 0
-23.273 -16.584 -11.056 -0 -1.2 0
-22.251 -18.338 -10.545 -0 -1.2 0
-21.979 -18.764 -10.409 -0 -1.2 0
-21.7 -19.185 -10.27 -0 -1.2 0
-21.414 -19.6 -10.128 -0 -1.2 0
-21.122 -20.009 -9.982 -0 -1.2 0
-20.823 -20.413 -9.833 -0 -1.2 0
-20.518 -20.81 -9.683 -0 -1.2 0
-20.207 -21.202 -9.529 -0 -1.2 0
-19.89 -21.588 -9.371 -0 -1.2 0
-19.566 -21.967 -9.211 -0 -1.2 0
-19.237 -22.34 -9.048 -0 -1.2 0
-18.902 -22.707 -8.883 -0 -1.2 0
-27.527 -0.081 -12.053 -0 -1.2 0
-27.544 -1.652 -12.044 -0 -1.2 0
-27.534 -2.174 -12.033 -0 -1.2 0
-27.515 -2.697 -12.019 -0 -1.2 0
-27.488 -3.22 -12.001 -0 -1.2 0
-27.452 -3.742 -11.98 -0 -1.2 0
-27.407 -4.263 -11.955 -0 -1.2 0
-27.355 -4.783 -11.927 -0 -1.2 0
-27.294 -5.303 -11.894 -0 -1.2 0
-27.225 -5.82 -11.858 -0 -1.2 0
-27.147 -6.337 -11.818 -0 -1.2 0
-27.061 -6.851 -11.776 -0 -1.2 0
-26.968 -7.364 -11.728 -0 -1.2 0
-26.865 -7.875 -11.678 -0 -1.2 0
-26.755 -8.384 -11.624 -0 -1.2 0
-26.637 -8.891 -11.567 -0 -1.2 0
-26.51 -9.395 -11.506 -0 -1.2 0
-26.233 -10.397 -11.373 -0 -1.2 0
-26.083 -10.893 -11.302 -0 -1.2 0
-25.924 -11.387 -11.227 -0 -1.2 0
-25.758 -11.876 -11.149 -0 -1.2 0
-25.212 -13.327 -10.894 -0 -1.2 0
-25.015 -13.804 -10.802 -0 -1.2 0
-24.81 -14.276 -10.708 -0 -1.2 0
-24.598 -14.744 -10.61 -0 -1.2 0
-24.378 -15.208 -10.508 -0 -1.2 0
-23.425 -17.021 -10.07 -0 -1.2 0
-23.169 -17.462 -9.954 -0 -1.2 0
-22.906 -17.899 -9.834 -0 -1.2 0
-22.635 -18.33 -9.711 -0 -1.2 0
-22.075 -19.177 -9.456 -0 -1.2 0
-21.784 -19.592 -9.324 -0 -1.2 0
-21.487 -20.001 -9.189 -0 -1.2 0
-21.183 -20.405 -9.052 -0 -1.2 0
-20.873 -20.803 -8.911 -0 -1.2 0
-20.557 -21.194 -8.769 -0 -1.2 0
-20.234 -21.58 -8.622 -0 -1.2 0
-19.905 -21.96 -8.474 -0 -1.2 0
-19.57 -22.333 -8.324 -0 -1.2 0
-19.23 -22.7 -8.17 -0 -1.2 0
-27.911 -2.687 -11.072 -0 -1.2 0
-27.883 -3.21 -11.054 -0 -1.2 0
-27.847 -3.732 -11.035 -0 -1.2 0
-27.802 -4.253 -11.01 -0 -1.2 0
-27.749 -4.773 -10.983 -0 -1.2 0
-27.687 -5.293 -10.953 -0 -1.2 0
-27.617 -5.81 -10.919 -0 -1.2 0
-27.539 -6.327 -10.882 -0 -1.2 0
-27.451 -6.841 -10.841 -0 -1.2 0
-27.357 -7.354 -10.798 -0 -1.2 0
-27.253 -7.865 -10.75 -0 -1.2 0
-27.141 -8.374 -10.7 -0 -1.2 0
-27.022 -8.881 -10.647 -0 -1.2 0
-26.893 -9.386 -10.59 -0 -1.2 0
-26.757 -9.888 -10.53 -0 -1.2 0
-26.612 -10.387 -10.467 -0 -1.2 0
-26.46 -10.883 -10.401 -0 -1.2 0
-26.299 -11.377 -10.331 -0 -1.2 0
-26.131 -11.867 -10.257 -0 -1.2 0
-25.953 -12.355 -10.182 -0 -1.2 0
-25.769 -12.838 -10.103 -0 -1.2 0
-25.577 -13.317 -10.021 -0 -1.2 0
-25.377 -13.795 -9.936 -0 -1.2 0
-25.169 -14.267 -9.848 -0 -1.2 0
-24.954 -14.735 -9.757 -0 -1.2 0
-24.731 -15.199 -9.663 -0 -1.2 0
-24.018 -16.566 -9.363 -0 -1.2 0
-23.765 -17.013 -9.258 -0 -1.2 0
-23.506 -17.454 -9.148 -0 -1.2 0
-23.238 -17.891 -9.037 -0 -1.2 0
-22.964 -18.321 -8.923 -0 -1.2 0
-22.683 -18.748 -8.807 -0 -1.2 0
-22.396 -19.168 -8.687 -0 -1.2 0
-22.1 -19.584 -8.565 -0 -1.2 0
-21.799 -19.993 -8.44 -0 -1.2 0
-21.491 -20.397 -8.314 -0 -1.2 0
-21.177 -20.795 -8.183 -0 -1.2 0
-20.856 -21.187 -8.052 -0 -1.2 0
-20.529 -21.573 -7.916 -0 -1.2 0
-20.195 -21.952 -7.779 -0 -1.2 0
-19.855 -22.326 -7.64 -0 -1.2 0
-19.51 -22.693 -7.498 -0 -1.2 0
-28.299 -1.631 -10.151 -0 -1.2 0
-28.268 -2.676 -10.128 -0 -1.2 0
-28.24 -3.2 -10.111 -0 -1.2 0
-28.204 -3.721 -10.092 -0 -1.2 0
-28.158 -4.242 -10.069 -0 -1.2 0
-28.105 -4.762 -10.043 -0 -1.2 0
-28.042 -5.282 -10.015 -0 -1.2 0
-27.972 -5.8 -9.983 -0 -1.2 0
-27.892 -6.316 -9.949 -0 -1.2 0
-27.804 -6.831 -9.911 -0 -1.2 0
-27.708 -7.344 -9.87 -0 -1.2 0
-27.603 -7.855 -9.826 -0 -1.2 0
-27.49 -8.364 -9.78 -0 -1.2 0
-27.369 -8.87 -9.73 -0 -1.2 0
-27.239 -9.375 -9.677 -0 -1.2 0
-27.101 -9.878 -9.622 -0 -1.2 0
-26.954 -10.377 -9.563 -0 -1.2 0
-26.8 -10.873 -9.502 -0 -1.2 0
-26.638 -11.367 -9.437 -0 -1.2 0
-26.467 -11.857 -9.369 -0 -1.2 0
-26.288 -12.344 -9.299 -0 -1.2 0
-26.101 -12.828 -9.226 -0 -1.2 0
-25.907 -13.307 -9.151 -0 -1.2 0
-25.704 -13.785 -9.072 -0 -1.2 0
-25.494 -14.257 -8.991 -0 -1.2 0
-25.276 -14.726 -8.907 -0 -1.2 0
-25.05 -15.19 -8.82 -0 -1.2 0
-24.816 -15.65 -8.731 -0 -1.2 0
-24.576 -16.106 -8.639 -0 -1.2 0
-24.328 -16.557 -8.544 -0 -1.2 0
-24.072 -17.003 -8.446 -0 -1.2 0
-23.808 -17.444 -8.347 -0 -1.2 0
-23.539 -17.881 -8.244 -0 -1.2 0
-23.261 -18.312 -8.14 -0 -1.2 0
-22.977 -18.739 -8.032 -0 -1.2 0
-22.685 -19.16 -7.922 -0 -1.2 0
-22.386 -19.575 -7.81 -0 -1.2 0
-22.081 -19.984 -7.695 -0 -1.2 0
-21.77 -20.389 -7.578 -0 -1.2 0
-21.451 -20.787 -7.459 -0 -1.2 0
-21.126 -21.179 -7.337 -0 -1.2 0
-20.795 -21.565 -7.213 -0 -1.2 0
-20.457 -21.944 -7.088 -0 -1.2 0
-20.113 -22.318 -6.959 -0 -1.2 0
-19.764 -22.685 -6.828 -0 -1.2 0
-28.647 -1.618 -9.124 -0 -1.2 0
-28.617 -2.664 -9.101 -0 -1.2 0
-28.588 -3.187 -9.085 -0 -1.2 0
-28.552 -3.708 -9.068 -0 -1.2 0
-28.506 -4.23 -9.046 -0 -1.2 0
-28.452 -4.75 -9.022 -0 -1.2 0
-28.388 -5.27 -8.996 -0 -1.2 0
-28.316 -5.787 -8.966 -0 -1.2 0
-28.237 -6.304 -8.934 -0 -1.2 0
-28.147 -6.818 -8.899 -0 -1.2 0
-28.05 -7.331 -8.862 -0 -1.2 0
-27.944 -7.843 -8.821 -0 -1.2 0
-27.83 -8.352 -8.779 -0 -1.2 0
-27.708 -8.858 -8.734 -0 -1.2 0
-27.576 -9.363 -8.685 -0 -1.2 0
-27.436 -9.865 -8.634 -0 -1.2 0
-27.288 -10.365 -8.581 -0 -1.2 0
-27.132 -10.861 -8.525 -0 -1.2 0
-26.968 -11.355 -8.465 -0 -1.2 0
-26.795 -11.845 -8.404 -0 -1.2 0
-26.613 -12.333 -8.34 -0 -1.2 0
-26.425 -12.816 -8.274 -0 -1.2 0
-26.228 -13.296 -8.205 -0 -1.2 0
-26.023 -13.773 -8.134 -0 -1.2 0
-25.81 -14.245 -8.06 -0 -1.2 0
-25.589 -14.714 -7.984 -0 -1.2 0
-25.361 -15.178 -7.905 -0 -1.2 0
-25.124 -15.639 -7.824 -0 -1.2 0
-24.881 -16.095 -7.74 -0 -1.2 0
-24.63 -16.546 -7.654 -0 -1.2 0
-24.371 -16.993 -7.566 -0 -1.2 0
-24.104 -17.434 -7.475 -0 -1.2 0
-23.831 -17.871 -7.383 -0 -1.2 0
-23.55 -18.302 -7.288 -0 -1.2 0
-23.262 -18.729 -7.19 -0 -1.2 0
-22.968 -19.149 -7.091 -0 -1.2 0
-22.665 -19.565 -6.989 -0 -1.2 0
-22.357 -19.975 -6.885 -0 -1.2 0
-22.041 -20.379 -6.779 -0 -1.2 0
-21.719 -20.777 -6.671 -0 -1.2 0
-21.39 -21.169 -6.561 -0 -1.2 0
-21.054 -21.555 -6.449 -0 -1.2 0
-20.712 -21.935 -6.336 -0 -1.2 0
-20.364 -22.309 -6.22 -0 -1.2 0
-20.011 -22.677 -6.101 -0 -1.2 0
-28.938 -1.606 -8.159 -0 -1.2 0
-28.907 -2.651 -8.138 -0 -1.2 0
-28.878 -3.175 -8.122 -0 -1.2 0
-28.842 -3.696 -8.106 -0 -1.2 0
-28.795 -4.217 -8.085 -0 -1.2 0
-28.741 -4.737 -8.064 -0 -1.2 0
-28.677 -5.257 -8.039 -0 -1.2 0
-28.604 -5.775 -8.011 -0 -1.2 0
-28.524 -6.292 -7.982 -0 -1.2 0
-28.433 -6.806 -7.949 -0 -1.2 0
-28.336 -7.319 -7.915 -0 -1.2 0
-28.228 -7.831 -7.878 -0 -1.2 0
-28.113 -8.34 -7.839 -0 -1.2 0
-27.988 -8.846 -7.798 -0 -1.2 0
-27.856 -9.351 -7.753 -0 -1.2 0
-27.716 -9.854 -7.707 -0 -1.2 0
-27.566 -10.353 -7.658 -0 -1.2 0
-27.408 -10.849 -7.608 -0 -1.2 0
-27.242 -11.344 -7.554 -0 -1.2 0
-27.068 -11.834 -7.498 -0 -1.2 0
-26.885 -12.321 -7.44 -0 -1.2 0
-26.694 -12.805 -7.38 -0 -1.2 0
-26.495 -13.285 -7.317 -0 -1.2 0
-26.288 -13.762 -7.253 -0 -1.2 0
-26.073 -14.234 -7.186 -0 -1.2 0
-25.85 -14.703 -7.117 -0 -1.2 0
-25.62 -15.167 -7.045 -0 -1.2 0
-25.381 -15.628 -6.972 -0 -1.2 0
-25.135 -16.084 -6.896 -0 -1.2 0
-24.882 -16.536 -6.819 -0 -1.2 0
-24.62 -16.982 -6.738 -0 -1.2 0
-24.351 -17.423 -6.657 -0 -1.2 0
-24.075 -17.861 -6.573 -0 -1.2 0
-23.791 -18.292 -6.488 -0 -1.2 0
-23.501 -18.719 -6.4 -0 -1.2 0
-23.203 -19.14 -6.31 -0 -1.2 0
-22.897 -19.555 -6.218 -0 -1.2 0
-22.586 -19.965 -6.124 -0 -1.2 0
-22.267 -20.369 -6.029 -0 -1.2 0
-21.942 -20.768 -5.932 -0 -1.2 0
-21.609 -21.16 -5.832 -0 -1.2 0
-21.271 -21.546 -5.732 -0 -1.2 0
-20.925 -21.926 -5.629 -0 -1.2 0
-20.573 -22.3 -5.525 -0 -1.2 0
-20.215 -22.668 -5.418 -0 -1.2 0
-29.165 -2.639 -7.165 -0 -1.2 0
-29.136 -3.162 -7.15 -0 -1.2 0
-29.099 -3.683 -7.134 -0 -1.2 0
-29.052 -4.205 -7.116 -0 -1.2 0
-28.997 -4.725 -7.095 -0 -1.2 0
-28.933 -5.245 -7.072 -0 -1.2 0
-28.86 -5.762 -7.047 -0 -1.2 0
-28.778 -6.279 -7.02 -0 -1.2 0
-28.687 -6.794 -6.991 -0 -1.2 0
-28.589 -7.307 -6.96 -0 -1.2 0
-28.481 -7.818 -6.927 -0 -1.2 0
-28.365 -8.327 -6.89 -0 -1.2 0
-28.239 -8.834 -6.853 -0 -1.2 0
-28.106 -9.339 -6.813 -0 -1.2 0
-27.964 -9.841 -6.771 -0 -1.2 0
-27.812 -10.341 -6.727 -0 -1.2 0
-27.654 -10.837 -6.682 -0 -1.2 0
-27.486 -11.331 -6.634 -0 -1.2 0
-27.311 -11.822 -6.583 -0 -1.2 0
-27.126 -12.309 -6.531 -0 -1.2 0
-26.933 -12.793 -6.477 -0 -1.2 0
-26.733 -13.273 -6.422 -0 -1.2 0
-26.524 -13.75 -6.363 -0 -1.2 0
-26.307 -14.223 -6.303 -0 -1.2 0
-26.083 -14.692 -6.241 -0 -1.2 0
-25.85 -15.156 -6.177 -0 -1.2 0
-25.609 -15.617 -6.112 -0 -1.2 0
-25.36 -16.073 -6.044 -0 -1.2 0
-25.105 -16.525 -5.975 -0 -1.2 0
-24.841 -16.971 -5.904 -0 -1.2 0
-24.57 -17.413 -5.831 -0 -1.2 0
-24.292 -17.85 -5.756 -0 -1.2 0
-24.005 -18.281 -5.68 -0 -1.2 0
-23.712 -18.708 -5.602 -0 -1.2 0
-23.412 -19.129 -5.522 -0 -1.2 0
-23.104 -19.545 -5.44 -0 -1.2 0
-22.789 -19.955 -5.357 -0 -1.2 0
-22.468 -20.359 -5.272 -0 -1.2 0
-22.139 -20.758 -5.185 -0 -1.2 0
-21.804 -21.15 -5.097 -0 -1.2 0
-21.463 -21.537 -5.008 -0 -1.2 0
-21.114 -21.917 -4.917 -0 -1.2 0
-20.759 -22.291 -4.824 -0 -1.2 0
-20.398 -22.659 -4.73 -0 -1.2 0
-29.441 -1.578 -6.112 -0 -1.2 0
-29.43 -2.101 -6.103 -0 -1.2 0
-29.41 -2.624 -6.092 -0 -1.2 0
-29.38 -3.148 -6.078 -0 -1.2 0
-29.343 -3.669 -6.063 -0 -1.2 0
-29.296 -4.19 -6.046 -0 -1.2 0
-29.241 -4.71 -6.028 -0 -1.2 0
-29.176 -5.23 -6.007 -0 -1.2 0
-29.102 -5.748 -5.985 -0 -1.2 0
-29.02 -6.265 -5.96 -0 -1.2 0
-28.928 -6.779 -5.934 -0 -1.2 0
-28.829 -7.293 -5.906 -0 -1.2 0
-28.72 -7.804 -5.876 -0 -1.2 0
-28.603 -8.313 -5.844 -0 -1.2 0
-28.476 -8.82 -5.811 -0 -1.2 0
-28.342 -9.325 -5.776 -0 -1.2 0
-28.199 -9.827 -5.739 -0 -1.2 0
-28.046 -10.327 -5.7 -0 -1.2 0
-27.886 -10.823 -5.66 -0 -1.2 0
-27.718 -11.318 -5.618 -0 -1.2 0
-27.541 -11.808 -5.575 -0 -1.2 0
-27.354 -12.296 -5.529 -0 -1.2 0
-27.16 -12.78 -5.482 -0 -1.2 0
-26.958 -13.259 -5.433 -0 -1.2 0
-26.748 -13.737 -5.382 -0 -1.2 0
-26.529 -14.209 -5.33 -0 -1.2 0
-26.303 -14.679 -5.276 -0 -1.2 0
-26.068 -15.143 -5.221 -0 -1.2 0
-25.825 -15.604 -5.164 -0 -1.2 0
-25.575 -16.06 -5.105 -0 -1.2 0
-25.317 -16.512 -5.045 -0 -1.2 0
-25.051 -16.959 -4.984 -0 -1.2 0
-24.777 -17.4 -4.92 -0 -1.2 0
-24.497 -17.838 -4.855 -0 -1.2 0
-24.208 -18.269 -4.789 -0 -1.2 0
-23.913 -18.696 -4.722 -0 -1.2 0
-23.61 -19.117 -4.653 -0 -1.2 0
-23.299 -19.533 -4.582 -0 -1.2 0
-22.982 -19.943 -4.51 -0 -1.2 0
-22.658 -20.348 -4.437 -0 -1.2 0
-22.327 -20.747 -4.362 -0 -1.2 0
-21.989 -21.139 -4.287 -0 -1.2 0
-21.645 -21.526 -4.209 -0 -1.2 0
-21.293 -21.906 -4.131 -0 -1.2 0
-20.935 -22.28 -4.051 -0 -1.2 0
-20.571 -22.648 -3.97 -0 -1.2 0
-29.612 0.005 -5.127 -0 -1.2 0
-29.635 -1.041 -5.116 -0 -1.2 0
-29.633 -1.564 -5.108 -0 -1.2 0
-29.622 -2.087 -5.099 -0 -1.2 0
-29.602 -2.61 -5.088 -0 -1.2 0
-29.572 -3.133 -5.076 -0 -1.2 0
-29.535 -3.655 -5.061 -0 -1.2 0
-29.487 -4.176 -5.045 -0 -1.2 0
-29.432 -4.696 -5.029 -0 -1.2 0
-29.366 -5.216 -5.01 -0 -1.2 0
-29.292 -5.734 -4.99 -0 -1.2 0
-29.21 -6.251 -4.968 -0 -1.2 0
-29.117 -6.765 -4.945 -0 -1.2 0
-29.017 -7.279 -4.92 -0 -1.2 0
-28.908 -7.79 -4.894 -0 -1.2 0
-28.79 -8.299 -4.865 -0 -1.2 0
-28.663 -8.806 -4.837 -0 -1.2 0
-28.527 -9.311 -4.806 -0 -1.2 0
-28.383 -9.814 -4.773 -0 -1.2 0
-28.23 -10.313 -4.74 -0 -1.2 0
-28.069 -10.81 -4.705 -0 -1.2 0
-27.899 -11.304 -4.668 -0 -1.2 0
