# .PCD v.7 - Point Cloud Data file format
FIELDS x y z vp_x vp_y vp_z
SIZE 4 4 4 4 4 4
TYPE F F F F F F
COUNT 1 1 1 1 1 1
WIDTH 1604
HEIGHT 1
VIEWPOINT 0 -1.20013 0 1 0 0 0
POINTS 1604
DATA ascii
-2.028 -0.018 0.498 -0 -1.2 0
-2.123 -0.011 0.521 -0 -1.2 0
-2.203 -0.017 0.54 -0 -1.2 0
-2.3 -0.016 0.563 -0 -1.2 0
-2.415 -0.011 0.591 -0 -1.2 0
-2.514 -0.017 0.614 -0 -1.2 0
-2.613 -0.027 0.638 -0 -1.2 0
-2.748 -0.024 0.671 -0 -1.2 0
-2.876 -0.03 0.701 -0 -1.2 0
-3.022 -0.034 0.737 -0 -1.2 0
-3.159 -0.045 0.77 -0 -1.2 0
-3.335 -0.05 0.812 -0 -1.2 0
-3.548 -0.049 0.863 -0 -1.2 0
-3.79 -0.047 0.921 -0 -1.2 0
-4.005 -0.061 0.974 -0 -1.2 0
-4.259 -0.073 1.035 -0 -1.2 0
-4.579 -0.079 1.112 -0 -1.2 0
-4.93 -0.09 1.196 -0 -1.2 0
-5.337 -0.103 1.295 -0 -1.2 0
-5.823 -0.116 1.413 -0 -1.2 0
-6.407 -0.132 1.553 -0 -1.2 0
-7.126 -0.15 1.726 -0 -1.2 0
-8.069 -0.169 1.954 -0 -1.2 0
-9.263 -0.195 2.241 -0 -1.2 0
-10.896 -0.229 2.635 -0 -1.2 0
-13.481 -0.261 3.257 -0 -1.2 0
-21.733 -0.519 5.247 -0 -1.2 0
-17.8 -0.944 4.309 -0 -1.2 0
-17.974 -1.263 4.357 -0 -1.2 0
-1.151 -0.011 0.331 -0 -1.2 0
-1.19 -0.01 0.342 -0 -1.2 0
-1.229 -0.011 0.353 -0 -1.2 0
-1.262 -0.018 0.362 -0 -1.2 0
-1.309 -0.013 0.375 -0 -1.2 0
-1.342 -0.024 0.385 -0 -1.2 0
-1.39 -0.021 0.398 -0 -1.2 0
-1.439 -0.021 0.412 -0 -1.2 0
-1.488 -0.022 0.425 -0 -1.2 0
-1.545 -0.018 0.441 -0 -1.2 0
-1.595 -0.023 0.455 -0 -1.2 0
-1.653 -0.022 0.471 -0 -1.2 0
-1.72 -0.019 0.49 -0 -1.2 0
-1.779 -0.023 0.507 -0 -1.2 0
-1.855 -0.018 0.528 -0 -1.2 0
-1.923 -0.021 0.547 -0 -1.2 0
-2 -0.021 0.568 -0 -1.2 0
-2.087 -0.019 0.593 -0 -1.2 0
-2.173 -0.02 0.617 -0 -1.2 0
-2.278 -0.014 0.646 -0 -1.2 0
-2.384 -0.013 0.676 -0 -1.2 0
-2.49 -0.015 0.705 -0 -1.2 0
-2.588 -0.025 0.733 -0 -1.2 0
-2.705 -0.03 0.765 -0 -1.2 0
-2.831 -0.035 0.8 -0 -1.2 0
-2.975 -0.038 0.841 -0 -1.2 0
-3.13 -0.043 0.884 -0 -1.2 0
-3.294 -0.051 0.93 -0 -1.2 0
-3.487 -0.055 0.984 -0 -1.2 0
-3.745 -0.047 1.056 -0 -1.2 0
-3.958 -0.061 1.116 -0 -1.2 0
-4.219 -0.07 1.189 -0 -1.2 0
-4.527 -0.078 1.275 -0 -1.2 0
-4.854 -0.093 1.367 -0 -1.2 0
-5.268 -0.103 1.482 -0 -1.2 0
-5.759 -0.114 1.62 -0 -1.2 0
-6.328 -0.131 1.779 -0 -1.2 0
-7.04 -0.149 1.978 -0 -1.2 0
-7.945 -0.169 2.232 -0 -1.2 0
-9.109 -0.196 2.557 -0 -1.2 0
-10.794 -0.222 3.028 -0 -1.2 0
-13.288 -0.256 3.725 -0 -1.2 0
-20.479 -0.534 5.739 -0 -1.2 0
-18.798 -0.92 5.277 -0 -1.2 0
-1.139 -0.01 0.37 -0 -1.2 0
-1.178 -0.01 0.382 -0 -1.2 0
-1.217 -0.01 0.394 -0 -1.2 0
-1.249 -0.017 0.405 -0 -1.2 0
-1.296 -0.013 0.419 -0 -1.2 0
-1.329 -0.023 0.43 -0 -1.2 0
-1.377 -0.02 0.445 -0 -1.2 0
-1.425 -0.021 0.46 -0 -1.2 0
-1.473 -0.021 0.475 -0 -1.2 0
-1.53 -0.017 0.493 -0 -1.2 0
-1.571 -0.028 0.506 -0 -1.2 0
-1.637 -0.021 0.527 -0 -1.2 0
-1.695 -0.024 0.545 -0 -1.2 0
-1.761 -0.022 0.566 -0 -1.2 0
-1.828 -0.022 0.587 -0 -1.2 0
-1.904 -0.02 0.611 -0 -1.2 0
-1.972 -0.025 0.633 -0 -1.2 0
-2.057 -0.022 0.66 -0 -1.2 0
-2.143 -0.023 0.687 -0 -1.2 0
-2.247 -0.018 0.72 -0 -1.2 0
-2.343 -0.02 0.75 -0 -1.2 0
-2.457 -0.018 0.786 -0 -1.2 0
-2.554 -0.027 0.817 -0 -1.2 0
-2.66 -0.035 0.85 -0 -1.2 0
-2.793 -0.037 0.892 -0 -1.2 0
-2.928 -0.043 0.935 -0 -1.2 0
-3.099 -0.041 0.989 -0 -1.2 0
-3.261 -0.049 1.04 -0 -1.2 0
-3.452 -0.053 1.1 -0 -1.2 0
-3.69 -0.05 1.175 -0 -1.2 0
-3.9 -0.064 1.243 -0 -1.2 0
-4.167 -0.071 1.327 -0 -1.2 0
-4.473 -0.078 1.424 -0 -1.2 0
-4.787 -0.094 1.523 -0 -1.2 0
-5.197 -0.104 1.653 -0 -1.2 0
-5.702 -0.11 1.813 -0 -1.2 0
-6.265 -0.127 1.991 -0 -1.2 0
-6.932 -0.149 2.202 -0 -1.2 0
-7.808 -0.171 2.48 -0 -1.2 0
-8.981 -0.194 2.85 -0 -1.2 0
-10.601 -0.222 3.363 -0 -1.2 0
-13.155 -0.248 4.17 -0 -1.2 0
-17.101 -0.301 5.417 -0 -1.2 0
-22.868 -0.446 7.243 -0 -1.2 0
-24.609 -0.845 7.8 -0 -1.2 0
-21.47 -1.269 6.817 -0 -1.2 0
-24.474 -1.739 7.776 -0 -1.2 0
-24.199 -2.174 7.698 -0 -1.2 0
-25.498 -2.698 8.119 -0 -1.2 0
-25.483 -3.165 8.125 -0 -1.2 0
-25.49 -3.634 8.136 -0 -1.2 0
-25.479 -4.104 8.142 -0 -1.2 0
-24.771 -4.479 7.926 -0 -1.2 0
-24.764 -4.94 7.934 -0 -1.2 0
-24.751 -5.401 7.939 -0 -1.2 0
-24.776 -5.873 7.956 -0 -1.2 0
-24.447 -6.274 7.861 -0 -1.2 0
-25.424 -6.966 8.183 -0 -1.2 0
-25.404 -7.451 8.187 -0 -1.2 0
-25.411 -7.947 8.2 -0 -1.2 0
-24.859 -8.285 8.032 -0 -1.2 0
-24.715 -8.733 7.997 -0 -1.2 0
-24.491 -9.153 7.934 -0 -1.2 0
-23.258 -9.217 7.545 -0 -1.2 0
-1.126 -0.01 0.408 -0 -1.2 0
-1.165 -0.009 0.421 -0 -1.2 0
-1.203 -0.009 0.435 -0 -1.2 0
-1.235 -0.016 0.446 -0 -1.2 0
-1.282 -0.012 0.463 -0 -1.2 0
-1.314 -0.022 0.474 -0 -1.2 0
-1.354 -0.026 0.488 -0 -1.2 0
-1.401 -0.026 0.505 -0 -1.2 0
-1.449 -0.026 0.522 -0 -1.2 0
-1.505 -0.022 0.542 -0 -1.2 0
-1.554 -0.027 0.559 -0 -1.2 0
-1.61 -0.026 0.579 -0 -1.2 0
-1.676 -0.023 0.602 -0 -1.2 0
-1.741 -0.021 0.625 -0 -1.2 0
-1.808 -0.02 0.649 -0 -1.2 0
-1.874 -0.024 0.672 -0 -1.2 0
-1.95 -0.024 0.699 -0 -1.2 0
-2.034 -0.021 0.729 -0 -1.2 0
-2.111 -0.026 0.756 -0 -1.2 0
-2.213 -0.02 0.792 -0 -1.2 0
-2.308 -0.023 0.825 -0 -1.2 0
-2.421 -0.02 0.865 -0 -1.2 0
-2.525 -0.026 0.902 -0 -1.2 0
-2.639 -0.03 0.942 -0 -1.2 0
-2.745 -0.042 0.98 -0 -1.2 0
-2.886 -0.045 1.03 -0 -1.2 0
-3.055 -0.042 1.089 -0 -1.2 0
-3.225 -0.047 1.149 -0 -1.2 0
-3.413 -0.051 1.216 -0 -1.2 0
-3.639 -0.051 1.296 -0 -1.2 0
-3.857 -0.061 1.374 -0 -1.2 0
-4.13 -0.065 1.47 -0 -1.2 0
-4.395 -0.081 1.564 -0 -1.2 0
-4.734 -0.091 1.684 -0 -1.2 0
-5.13 -0.102 1.824 -0 -1.2 0
-5.629 -0.109 2.001 -0 -1.2 0
-6.176 -0.126 2.194 -0 -1.2 0
-6.836 -0.147 2.427 -0 -1.2 0
-7.702 -0.167 2.735 -0 -1.2 0
-8.824 -0.193 3.131 -0 -1.2 0
-10.407 -0.222 3.691 -0 -1.2 0
-12.961 -0.243 4.594 -0 -1.2 0
-16.523 -0.309 5.854 -0 -1.2 0
-20.943 -0.482 7.419 -0 -1.2 0
-20.891 -0.868 7.409 -0 -1.2 0
-20.871 -1.253 7.41 -0 -1.2 0
-20.873 -1.638 7.418 -0 -1.2 0
-20.688 -2.015 7.362 -0 -1.2 0
-21.119 -2.425 7.522 -0 -1.2 0
-21.119 -2.817 7.531 -0 -1.2 0
-21.123 -3.21 7.54 -0 -1.2 0
-21.12 -3.604 7.548 -0 -1.2 0
-21.101 -3.997 7.549 -0 -1.2 0
-21.095 -4.393 7.555 -0 -1.2 0
-21.1 -4.794 7.566 -0 -1.2 0
-21.107 -5.197 7.576 -0 -1.2 0
-21.099 -5.6 7.582 -0 -1.2 0
-21.083 -6.004 7.585 -0 -1.2 0
-21.07 -6.412 7.589 -0 -1.2 0
-21.059 -6.823 7.594 -0 -1.2 0
-21.05 -7.237 7.6 -0 -1.2 0
-21.052 -7.659 7.609 -0 -1.2 0
-21.1 -8.101 7.635 -0 -1.2 0
-21.059 -8.517 7.63 -0 -1.2 0
-20.896 -8.893 7.58 -0 -1.2 0
-20.48 -9.166 7.439 -0 -1.2 0
-19.579 -9.227 7.122 -0 -1.2 0
-1.111 -0.009 0.448 -0 -1.2 0
-1.157 -0.001 0.466 -0 -1.2 0
-1.18 -0.014 0.476 -0 -1.2 0
-1.212 -0.022 0.488 -0 -1.2 0
-1.265 -0.011 0.509 -0 -1.2 0
-1.296 -0.021 0.521 -0 -1.2 0
-1.336 -0.025 0.537 -0 -1.2 0
-1.383 -0.025 0.555 -0 -1.2 0
-1.437 -0.019 0.577 -0 -1.2 0
-1.485 -0.021 0.596 -0 -1.2 0
-1.533 -0.026 0.615 -0 -1.2 0
-1.589 -0.025 0.637 -0 -1.2 0
-1.653 -0.021 0.662 -0 -1.2 0
-1.71 -0.025 0.685 -0 -1.2 0
-1.768 -0.03 0.707 -0 -1.2 0
-1.849 -0.023 0.739 -0 -1.2 0
-1.916 -0.027 0.766 -0 -1.2 0
-1.991 -0.029 0.795 -0 -1.2 0
-2.066 -0.033 0.825 -0 -1.2 0
-2.175 -0.024 0.868 -0 -1.2 0
-2.269 -0.025 0.905 -0 -1.2 0
-2.371 -0.026 0.945 -0 -1.2 0
-2.483 -0.027 0.989 -0 -1.2 0
-2.595 -0.031 1.034 -0 -1.2 0
-2.716 -0.037 1.081 -0 -1.2 0
-2.847 -0.043 1.133 -0 -1.2 0
-2.996 -0.047 1.192 -0 -1.2 0
-3.173 -0.047 1.261 -0 -1.2 0
-3.359 -0.051 1.335 -0 -1.2 0
-3.581 -0.051 1.423 -0 -1.2 0
-3.796 -0.061 1.508 -0 -1.2 0
-4.048 -0.069 1.607 -0 -1.2 0
-4.327 -0.081 1.718 -0 -1.2 0
-4.661 -0.09 1.85 -0 -1.2 0
-5.052 -0.099 2.004 -0 -1.2 0
-5.526 -0.11 2.192 -0 -1.2 0
-6.093 -0.121 2.416 -0 -1.2 0
-6.726 -0.145 2.665 -0 -1.2 0
-7.562 -0.167 2.996 -0 -1.2 0
-8.65 -0.194 3.426 -0 -1.2 0
-10.268 -0.214 4.065 -0 -1.2 0
-12.582 -0.247 4.978 -0 -1.2 0
-12.314 -0.496 4.877 -0 -1.2 0
-12.357 -0.724 4.899 -0 -1.2 0
-12.397 -0.954 4.92 -0 -1.2 0
-16.033 -1.209 6.36 -0 -1.2 0
-14.594 -1.471 5.799 -0 -1.2 0
-16.09 -1.81 6.395 -0 -1.2 0
-18.338 -2.252 7.292 -0 -1.2 0
-18.343 -2.597 7.301 -0 -1.2 0
-18.331 -2.942 7.304 -0 -1.2 0
-18.324 -3.288 7.309 -0 -1.2 0
-18.32 -3.636 7.314 -0 -1.2 0
-18.32 -3.985 7.322 -0 -1.2 0
-18.295 -4.332 7.32 -0 -1.2 0
-18.302 -4.687 7.33 -0 -1.2 0
-18.292 -5.041 7.334 -0 -1.2 0
-18.305 -5.402 7.347 -0 -1.2 0
-18.293 -5.76 7.349 -0 -1.2 0
-18.149 -6.084 7.3 -0 -1.2 0
-18.251 -6.478 7.349 -0 -1.2 0
-18.265 -6.853 7.362 -0 -1.2 0
-18.256 -7.224 7.367 -0 -1.2 0
-18.257 -7.603 7.375 -0 -1.2 0
-18.26 -7.987 7.384 -0 -1.2 0
-18.247 -8.37 7.387 -0 -1.2 0
-18.166 -8.728 7.364 -0 -1.2 0
-18.046 -9.072 7.324 -0 -1.2 0
-17.316 -9.132 7.037 -0 -1.2 0
-16.86 -9.298 6.861 -0 -1.2 0
-1.103 -0.001 0.488 -0 -1.2 0
-1.133 -0.007 0.501 -0 -1.2 0
-1.171 -0.007 0.518 -0 -1.2 0
-1.202 -0.015 0.531 -0 -1.2 0
-1.24 -0.017 0.548 -0 -1.2 0
-1.279 -0.02 0.564 -0 -1.2 0
-1.325 -0.017 0.584 -0 -1.2 0
-1.364 -0.024 0.601 -0 -1.2 0
-1.417 -0.018 0.625 -0 -1.2 0
-1.464 -0.02 0.645 -0 -1.2 0
-1.504 -0.029 0.662 -0 -1.2 0
-1.559 -0.03 0.686 -0 -1.2 0
-1.623 -0.025 0.714 -0 -1.2 0
-1.687 -0.024 0.741 -0 -1.2 0
-1.751 -0.024 0.769 -0 -1.2 0
-1.816 -0.026 0.797 -0 -1.2 0
-1.889 -0.026 0.829 -0 -1.2 0
-1.955 -0.032 0.858 -0 -1.2 0
-2.038 -0.032 0.893 -0 -1.2 0
-2.137 -0.026 0.937 -0 -1.2 0
-2.229 -0.028 0.976 -0 -1.2 0
-2.33 -0.028 1.02 -0 -1.2 0
-2.432 -0.033 1.064 -0 -1.2 0
-2.551 -0.034 1.116 -0 -1.2 0
-2.679 -0.035 1.172 -0 -1.2 0
-2.8 -0.044 1.224 -0 -1.2 0
-2.955 -0.045 1.291 -0 -1.2 0
-3.129 -0.045 1.367 -0 -1.2 0
-3.295 -0.054 1.44 -0 -1.2 0
-3.515 -0.053 1.535 -0 -1.2 0
-3.744 -0.059 1.634 -0 -1.2 0
-3.983 -0.069 1.738 -0 -1.2 0
-4.277 -0.075 1.865 -0 -1.2 0
-4.588 -0.089 2 -0 -1.2 0
-4.991 -0.095 2.175 -0 -1.2 0
-5.441 -0.108 2.371 -0 -1.2 0
-5.982 -0.122 2.606 -0 -1.2 0
-6.606 -0.144 2.876 -0 -1.2 0
-7.431 -0.165 3.235 -0 -1.2 0
-8.513 -0.19 3.704 -0 -1.2 0
-10.026 -0.215 4.361 -0 -1.2 0
-12.19 -0.254 5.299 -0 -1.2 0
-12.264 -0.481 5.337 -0 -1.2 0
-12.279 -0.713 5.349 -0 -1.2 0
-12.328 -0.944 5.375 -0 -1.2 0
-12.363 -1.177 5.396 -0 -1.2 0
-13.67 -1.443 5.968 -0 -1.2 0
-13.77 -1.706 6.017 -0 -1.2 0
-15.926 -2.104 6.96 -0 -1.2 0
-16.061 -2.419 7.026 -0 -1.2 0
-16.044 -2.723 7.025 -0 -1.2 0
-16.05 -3.031 7.034 -0 -1.2 0
-16.041 -3.339 7.037 -0 -1.2 0
-16.046 -3.65 7.047 -0 -1.2 0
-16.028 -3.959 7.046 -0 -1.2 0
-16.022 -4.271 7.05 -0 -1.2 0
-16.02 -4.586 7.056 -0 -1.2 0
-16.023 -4.905 7.064 -0 -1.2 0
-16.018 -5.224 7.07 -0 -1.2 0
-16.028 -5.55 7.081 -0 -1.2 0
-16.013 -5.872 7.081 -0 -1.2 0
-16.003 -6.198 7.084 -0 -1.2 0
-16.012 -6.533 7.096 -0 -1.2 0
-15.998 -6.865 7.098 -0 -1.2 0
-15.988 -7.2 7.1 -0 -1.2 0
-15.996 -7.548 7.112 -0 -1.2 0
-15.983 -7.891 7.113 -0 -1.2 0
-15.97 -8.239 7.115 -0 -1.2 0
-15.952 -8.589 7.115 -0 -1.2 0
-15.461 -8.71 6.905 -0 -1.2 0
-15.202 -9.294 6.806 -0 -1.2 0
-15.124 -9.613 6.779 -0 -1.2 0
-1.087 0 0.525 -0 -1.2 0
-1.116 -0.006 0.539 -0 -1.2 0
-1.147 -0.013 0.553 -0 -1.2 0
-1.184 -0.014 0.571 -0 -1.2 0
-1.222 -0.016 0.589 -0 -1.2 0
-1.259 -0.019 0.607 -0 -1.2 0
-1.298 -0.023 0.625 -0 -1.2 0
-1.343 -0.023 0.646 -0 -1.2 0
-1.389 -0.023 0.668 -0 -1.2 0
-1.442 -0.019 0.693 -0 -1.2 0
-1.497 -0.017 0.719 -0 -1.2 0
-1.529 -0.034 0.734 -0 -1.2 0
-1.598 -0.024 0.767 -0 -1.2 0
-1.661 -0.022 0.797 -0 -1.2 0
-1.725 -0.023 0.827 -0 -1.2 0
-1.789 -0.025 0.857 -0 -1.2 0
-1.853 -0.029 0.888 -0 -1.2 0
-1.926 -0.031 0.922 -0 -1.2 0
-2.007 -0.03 0.961 -0 -1.2 0
-2.097 -0.028 1.003 -0 -1.2 0
-2.196 -0.026 1.05 -0 -1.2 0
-2.287 -0.031 1.093 -0 -1.2 0
-2.387 -0.035 1.141 -0 -1.2 0
-2.513 -0.032 1.2 -0 -1.2 0
-2.631 -0.036 1.256 -0 -1.2 0
-2.758 -0.042 1.316 -0 -1.2 0
-2.902 -0.046 1.385 -0 -1.2 0
-3.074 -0.045 1.466 -0 -1.2 0
-3.237 -0.054 1.545 -0 -1.2 0
-3.453 -0.053 1.647 -0 -1.2 0
-3.688 -0.056 1.758 -0 -1.2 0
-3.915 -0.068 1.865 -0 -1.2 0
-4.212 -0.071 2.007 -0 -1.2 0
-4.519 -0.085 2.152 -0 -1.2 0
-4.89 -0.096 2.328 -0 -1.2 0
-5.342 -0.106 2.543 -0 -1.2 0
-5.884 -0.119 2.8 -0 -1.2 0
-6.489 -0.142 3.087 -0 -1.2 0
-7.292 -0.163 3.468 -0 -1.2 0
-8.358 -0.186 3.973 -0 -1.2 0
-9.822 -0.212 4.667 -0 -1.2 0
-12.043 -0.242 5.72 -0 -1.2 0
-14.591 -0.339 6.929 -0 -1.2 0
-12.194 -0.699 5.803 -0 -1.2 0
-15.153 -0.892 7.208 -0 -1.2 0
-15.151 -1.183 7.214 -0 -1.2 0
-12.2 -1.401 5.821 -0 -1.2 0
-15.116 -1.763 7.211 -0 -1.2 0
-15.119 -2.055 7.218 -0 -1.2 0
-15.126 -2.348 7.228 -0 -1.2 0
-15.111 -2.64 7.228 -0 -1.2 0
-15.108 -2.933 7.234 -0 -1.2 0
-14.743 -3.177 7.066 -0 -1.2 0
-14.679 -3.456 7.041 -0 -1.2 0
-14.13 -3.647 6.786 -0 -1.2 0
-14.698 -4.041 7.064 -0 -1.2 0
-14.515 -4.294 6.982 -0 -1.2 0
-14.829 -4.662 7.14 -0 -1.2 0
-14.812 -4.959 7.139 -0 -1.2 0
-14.825 -5.266 7.152 -0 -1.2 0
-14.816 -5.569 7.154 -0 -1.2 0
-14.801 -5.874 7.154 -0 -1.2 0
-14.807 -6.188 7.164 -0 -1.2 0
-14.756 -6.485 7.147 -0 -1.2 0
-14.683 -6.775 7.119 -0 -1.2 0
-14.497 -7.019 7.036 -0 -1.2 0
-14.777 -7.462 7.178 -0 -1.2 0
-14.763 -7.788 7.18 -0 -1.2 0
-14.727 -8.106 7.17 -0 -1.2 0
-14.538 -8.352 7.086 -0 -1.2 0
-14.289 -8.564 6.973 -0 -1.2 0
-13.723 -8.595 6.705 -0 -1.2 0
-13.464 -8.781 6.587 -0 -1.2 0
-1.068 0 0.563 -0 -1.2 0
-1.104 0.001 0.582 -0 -1.2 0
-1.126 -0.012 0.594 -0 -1.2 0
-1.163 -0.013 0.613 -0 -1.2 0
-1.2 -0.015 0.632 -0 -1.2 0
-1.237 -0.018 0.652 -0 -1.2 0
-1.282 -0.015 0.675 -0 -1.2 0
-1.319 -0.021 0.694 -0 -1.2 0
-1.364 -0.022 0.718 -0 -1.2 0
-1.417 -0.018 0.745 -0 -1.2 0
-1.463 -0.022 0.769 -0 -1.2 0
-1.509 -0.027 0.793 -0 -1.2 0
-1.563 -0.028 0.82 -0 -1.2 0
-1.632 -0.021 0.856 -0 -1.2 0
-1.679 -0.031 0.881 -0 -1.2 0
-1.749 -0.028 0.917 -0 -1.2 0
-1.82 -0.028 0.954 -0 -1.2 0
-1.884 -0.034 0.987 -0 -1.2 0
-1.964 -0.033 1.028 -0 -1.2 0
-2.044 -0.036 1.07 -0 -1.2 0
-2.141 -0.033 1.12 -0 -1.2 0
-2.238 -0.033 1.171 -0 -1.2 0
-2.353 -0.029 1.23 -0 -1.2 0
-2.468 -0.029 1.29 -0 -1.2 0
-2.576 -0.038 1.346 -0 -1.2 0
-2.709 -0.039 1.415 -0 -1.2 0
-2.851 -0.043 1.488 -0 -1.2 0
-3.019 -0.043 1.576 -0 -1.2 0
-3.188 -0.049 1.663 -0 -1.2 0
-3.384 -0.053 1.765 -0 -1.2 0
-3.597 -0.059 1.876 -0 -1.2 0
-3.837 -0.067 2 -0 -1.2 0
-4.111 -0.075 2.143 -0 -1.2 0
-4.431 -0.083 2.309 -0 -1.2 0
-4.812 -0.09 2.507 -0 -1.2 0
-5.247 -0.102 2.733 -0 -1.2 0
-5.762 -0.117 3 -0 -1.2 0
-6.366 -0.137 3.313 -0 -1.2 0
-7.164 -0.157 3.728 -0 -1.2 0
-8.202 -0.179 4.266 -0 -1.2 0
-9.604 -0.209 4.994 -0 -1.2 0
-11.609 -0.247 6.034 -0 -1.2 0
-11.76 -0.467 6.118 -0 -1.2 0
-13.089 -0.651 6.811 -0 -1.2 0
-13.064 -0.907 6.804 -0 -1.2 0
-13.081 -1.162 6.819 -0 -1.2 0
-13.076 -1.416 6.822 -0 -1.2 0
-13.094 -1.674 6.837 -0 -1.2 0
-12.929 -1.92 6.758 -0 -1.2 0
-13.222 -2.199 6.916 -0 -1.2 0
-13.218 -2.459 6.92 -0 -1.2 0
-13.219 -2.721 6.927 -0 -1.2 0
-13.208 -2.982 6.927 -0 -1.2 0
-12.928 -3.201 6.787 -0 -1.2 0
-13.189 -3.508 6.929 -0 -1.2 0
-13.034 -3.743 6.854 -0 -1.2 0
-13.197 -4.045 6.946 -0 -1.2 0
-13.19 -4.313 6.949 -0 -1.2 0
-13.179 -4.582 6.949 -0 -1.2 0
-13.189 -4.859 6.961 -0 -1.2 0
-13.178 -5.133 6.961 -0 -1.2 0
-13.179 -5.414 6.969 -0 -1.2 0
-13.176 -5.695 6.973 -0 -1.2 0
-13.167 -5.978 6.975 -0 -1.2 0
-13.162 -6.265 6.98 -0 -1.2 0
-13.161 -6.558 6.986 -0 -1.2 0
-13.147 -6.848 6.984 -0 -1.2 0
-13.151 -7.15 6.994 -0 -1.2 0
-13.15 -7.455 7 -0 -1.2 0
-13.136 -7.758 7 -0 -1.2 0
-13.132 -8.07 7.005 -0 -1.2 0
-13.036 -8.336 6.962 -0 -1.2 0
-12.825 -8.536 6.857 -0 -1.2 0
-12.317 -8.551 6.594 -0 -1.2 0
-12.22 -8.807 6.55 -0 -1.2 0
-1.049 0.001 0.598 -0 -1.2 0
-1.077 -0.005 0.615 -0 -1.2 0
-1.1 -0.018 0.628 -0 -1.2 0
-1.136 -0.019 0.648 -0 -1.2 0
-1.172 -0.02 0.668 -0 -1.2 0
-1.215 -0.017 0.692 -0 -1.2 0
-1.259 -0.014 0.717 -0 -1.2 0
-1.296 -0.02 0.737 -0 -1.2 0
-1.34 -0.02 0.762 -0 -1.2 0
-1.392 -0.017 0.791 -0 -1.2 0
-1.437 -0.021 0.816 -0 -1.2 0
-1.49 -0.02 0.846 -0 -1.2 0
-1.535 -0.027 0.872 -0 -1.2 0
-1.596 -0.024 0.906 -0 -1.2 0
-1.657 -0.025 0.94 -0 -1.2 0
-1.726 -0.022 0.979 -0 -1.2 0
-1.788 -0.026 1.014 -0 -1.2 0
-1.851 -0.032 1.049 -0 -1.2 0
-1.929 -0.032 1.093 -0 -1.2 0
-2 -0.038 1.132 -0 -1.2 0
-2.111 -0.026 1.195 -0 -1.2 0
-2.199 -0.032 1.244 -0 -1.2 0
-2.303 -0.031 1.302 -0 -1.2 0
-2.425 -0.027 1.371 -0 -1.2 0
-2.539 -0.032 1.434 -0 -1.2 0
-2.669 -0.034 1.508 -0 -1.2 0
-2.801 -0.041 1.582 -0 -1.2 0
-2.966 -0.04 1.674 -0 -1.2 0
-3.124 -0.049 1.764 -0 -1.2 0
-3.316 -0.054 1.871 -0 -1.2 0
-3.534 -0.056 1.994 -0 -1.2 0
-3.761 -0.066 2.121 -0 -1.2 0
-4.039 -0.071 2.277 -0 -1.2 0
-4.361 -0.077 2.458 -0 -1.2 0
-4.702 -0.092 2.649 -0 -1.2 0
-5.146 -0.099 2.899 -0 -1.2 0
-5.635 -0.116 3.174 -0 -1.2 0
-6.254 -0.132 3.521 -0 -1.2 0
-7.029 -0.152 3.957 -0 -1.2 0
-8.049 -0.174 4.53 -0 -1.2 0
-8.765 -0.265 4.934 -0 -1.2 0
-8.513 -0.459 4.797 -0 -1.2 0
-8.563 -0.625 4.829 -0 -1.2 0
-11.951 -0.673 6.73 -0 -1.2 0
-8.535 -0.966 4.821 -0 -1.2 0
-11.847 -1.147 6.684 -0 -1.2 0
-11.834 -1.382 6.682 -0 -1.2 0
-11.825 -1.618 6.683 -0 -1.2 0
-11.744 -1.849 6.643 -0 -1.2 0
-11.711 -2.081 6.63 -0 -1.2 0
-12.699 -2.418 7.191 -0 -1.2 0
-12.683 -2.672 7.189 -0 -1.2 0
-12.637 -2.923 7.17 -0 -1.2 0
-12.691 -3.188 7.206 -0 -1.2 0
-12.466 -3.406 7.085 -0 -1.2 0
-12.675 -3.706 7.209 -0 -1.2 0
-12.665 -3.966 7.21 -0 -1.2 0
-12.268 -4.131 6.991 -0 -1.2 0
-11.93 -4.298 6.805 -0 -1.2 0
-11.937 -4.553 6.814 -0 -1.2 0
-11.938 -4.809 6.822 -0 -1.2 0
-11.928 -5.063 6.822 -0 -1.2 0
-11.922 -5.322 6.824 -0 -1.2 0
-11.927 -5.587 6.834 -0 -1.2 0
-11.871 -5.83 6.809 -0 -1.2 0
-11.999 -6.154 6.888 -0 -1.2 0
-12.606 -6.7 7.241 -0 -1.2 0
-12.604 -6.992 7.248 -0 -1.2 0
-12.59 -7.283 7.247 -0 -1.2 0
-12.413 -7.493 7.151 -0 -1.2 0
-12.601 -7.898 7.267 -0 -1.2 0
-12.4 -8.096 7.159 -0 -1.2 0
-11.881 -8.101 6.867 -0 -1.2 0
-11.815 -8.366 6.837 -0 -1.2 0
-11.573 -8.518 6.704 -0 -1.2 0
-11.148 -8.543 6.467 -0 -1.2 0
-11.068 -8.791 6.428 -0 -1.2 0
-10.676 -8.815 6.209 -0 -1.2 0
-1.016 -0.011 0.625 -0 -1.2 0
-1.051 -0.011 0.646 -0 -1.2 0
-1.086 -0.01 0.667 -0 -1.2 0
-1.114 -0.018 0.685 -0 -1.2 0
-1.15 -0.019 0.706 -0 -1.2 0
-1.192 -0.016 0.732 -0 -1.2 0
-1.228 -0.02 0.754 -0 -1.2 0
-1.271 -0.019 0.78 -0 -1.2 0
-1.308 -0.025 0.802 -0 -1.2 0
-1.352 -0.027 0.828 -0 -1.2 0
-1.41 -0.02 0.863 -0 -1.2 0
-1.461 -0.019 0.894 -0 -1.2 0
-1.506 -0.026 0.922 -0 -1.2 0
-1.573 -0.018 0.962 -0 -1.2 0
-1.626 -0.023 0.994 -0 -1.2 0
-1.686 -0.025 1.03 -0 -1.2 0
-1.754 -0.025 1.072 -0 -1.2 0
-1.823 -0.026 1.113 -0 -1.2 0
-1.892 -0.03 1.155 -0 -1.2 0
-1.97 -0.032 1.202 -0 -1.2 0
-2.071 -0.024 1.263 -0 -1.2 0
-2.157 -0.03 1.315 -0 -1.2 0
-2.26 -0.029 1.377 -0 -1.2 0
-2.379 -0.025 1.449 -0 -1.2 0
-2.49 -0.03 1.517 -0 -1.2 0
-2.611 -0.035 1.59 -0 -1.2 0
-2.748 -0.038 1.673 -0 -1.2 0
-2.902 -0.041 1.766 -0 -1.2 0
-3.065 -0.046 1.864 -0 -1.2 0
-3.253 -0.051 1.979 -0 -1.2 0
-3.45 -0.059 2.099 -0 -1.2 0
-3.681 -0.066 2.238 -0 -1.2 0
-3.954 -0.07 2.404 -0 -1.2 0
-4.278 -0.074 2.6 -0 -1.2 0
-4.604 -0.09 2.797 -0 -1.2 0
-5.023 -0.1 3.052 -0 -1.2 0
-5.511 -0.115 3.347 -0 -1.2 0
-6.144 -0.126 3.73 -0 -1.2 0
-6.844 -0.153 4.155 -0 -1.2 0
-7.828 -0.175 4.75 -0 -1.2 0
-9.016 -0.216 5.471 -0 -1.2 0
-8.796 -0.417 5.342 -0 -1.2 0
-9.094 -0.578 5.526 -0 -1.2 0
-8.952 -0.768 5.446 -0 -1.2 0
-8.929 -0.95 5.435 -0 -1.2 0
-10.776 -1.135 6.557 -0 -1.2 0
-10.78 -1.353 6.566 -0 -1.2 0
-10.772 -1.572 6.566 -0 -1.2 0
-10.761 -1.79 6.565 -0 -1.2 0
-10.738 -2.008 6.556 -0 -1.2 0
-11.07 -2.262 6.763 -0 -1.2 0
-11.065 -2.489 6.765 -0 -1.2 0
-11.066 -2.716 6.771 -0 -1.2 0
-11.063 -2.945 6.775 -0 -1.2 0
-11.057 -3.174 6.777 -0 -1.2 0
-11.055 -3.406 6.782 -0 -1.2 0
-11.042 -3.636 6.779 -0 -1.2 0
-11.042 -3.871 6.785 -0 -1.2 0
-11.021 -4.102 6.778 -0 -1.2 0
-10.865 -4.294 6.688 -0 -1.2 0
-10.871 -4.533 6.698 -0 -1.2 0
-10.874 -4.773 6.705 -0 -1.2 0
-10.855 -5.007 6.7 -0 -1.2 0
-10.866 -5.256 6.712 -0 -1.2 0
-10.857 -5.499 6.712 -0 -1.2 0
-10.842 -5.744 6.709 -0 -1.2 0
-10.714 -5.939 6.636 -0 -1.2 0
-10.976 -6.319 6.805 -0 -1.2 0
-10.965 -6.576 6.804 -0 -1.2 0
-10.956 -6.84 6.805 -0 -1.2 0
-10.96 -7.114 6.814 -0 -1.2 0
-10.957 -7.389 6.819 -0 -1.2 0
-10.95 -7.666 6.821 -0 -1.2 0
-10.953 -7.955 6.83 -0 -1.2 0
-10.75 -8.115 6.711 -0 -1.2 0
-10.736 -8.399 6.71 -0 -1.2 0
-10.457 -8.498 6.542 -0 -1.2 0
-10.127 -8.55 6.344 -0 -1.2 0
-10.019 -8.761 6.285 -0 -1.2 0
-9.69 -8.796 6.086 -0 -1.2 0
-0.993 -0.011 0.661 -0 -1.2 0
-1.027 -0.01 0.683 -0 -1.2 0
-1.062 -0.009 0.705 -0 -1.2 0
-1.09 -0.017 0.724 -0 -1.2 0
-1.131 -0.012 0.751 -0 -1.2 0
-1.166 -0.015 0.773 -0 -1.2 0
-1.201 -0.019 0.797 -0 -1.2 0
-1.243 -0.018 0.824 -0 -1.2 0
-1.286 -0.018 0.852 -0 -1.2 0
-1.322 -0.026 0.876 -0 -1.2 0
-1.372 -0.023 0.908 -0 -1.2 0
-1.429 -0.017 0.946 -0 -1.2 0
-1.473 -0.025 0.974 -0 -1.2 0
-1.531 -0.022 1.012 -0 -1.2 0
-1.59 -0.022 1.051 -0 -1.2 0
-1.649 -0.024 1.089 -0 -1.2 0
-1.708 -0.027 1.128 -0 -1.2 0
-1.776 -0.029 1.172 -0 -1.2 0
-1.851 -0.028 1.222 -0 -1.2 0
-1.926 -0.03 1.271 -0 -1.2 0
-2.018 -0.028 1.331 -0 -1.2 0
-2.11 -0.028 1.391 -0 -1.2 0
-2.218 -0.023 1.462 -0 -1.2 0
-2.326 -0.023 1.533 -0 -1.2 0
-2.428 -0.031 1.599 -0 -1.2 0
-2.545 -0.037 1.676 -0 -1.2 0
-2.695 -0.033 1.774 -0 -1.2 0
-2.838 -0.038 1.867 -0 -1.2 0
-2.997 -0.043 1.972 -0 -1.2 0
-3.173 -0.05 2.088 -0 -1.2 0
-3.374 -0.056 2.219 -0 -1.2 0
-3.6 -0.063 2.367 -0 -1.2 0
-3.858 -0.069 2.537 -0 -1.2 0
-4.176 -0.072 2.745 -0 -1.2 0
-4.486 -0.089 2.948 -0 -1.2 0
-4.896 -0.099 3.217 -0 -1.2 0
-5.381 -0.111 3.534 -0 -1.2 0
-6.008 -0.12 3.945 -0 -1.2 0
-6.677 -0.15 4.384 -0 -1.2 0
-7.622 -0.172 5.003 -0 -1.2 0
-8.91 -0.199 5.846 -0 -1.2 0
-8.736 -0.398 5.737 -0 -1.2 0
-8.735 -0.58 5.741 -0 -1.2 0
-9.86 -0.716 6.48 -0 -1.2 0
-9.845 -0.92 6.476 -0 -1.2 0
-9.844 -1.124 6.48 -0 -1.2 0
-9.856 -1.328 6.493 -0 -1.2 0
-9.841 -1.532 6.489 -0 -1.2 0
-9.856 -1.737 6.504 -0 -1.2 0
-9.751 -1.933 6.44 -0 -1.2 0
-10.018 -2.166 6.62 -0 -1.2 0
-9.999 -2.374 6.613 -0 -1.2 0
-10.001 -2.585 6.62 -0 -1.2 0
-10 -2.796 6.624 -0 -1.2 0
-9.997 -3.009 6.627 -0 -1.2 0
-9.998 -3.223 6.634 -0 -1.2 0
-9.988 -3.436 6.632 -0 -1.2 0
-9.974 -3.649 6.629 -0 -1.2 0
-9.974 -3.867 6.633 -0 -1.2 0
-9.93 -4.074 6.61 -0 -1.2 0
-9.914 -4.29 6.605 -0 -1.2 0
-9.92 -4.516 6.615 -0 -1.2 0
-9.922 -4.742 6.622 -0 -1.2 0
-9.921 -4.97 6.626 -0 -1.2 0
-9.916 -5.199 6.628 -0 -1.2 0
-9.915 -5.432 6.634 -0 -1.2 0
-9.91 -5.667 6.636 -0 -1.2 0
-9.823 -5.865 6.585 -0 -1.2 0
-9.949 -6.171 6.675 -0 -1.2 0
-9.932 -6.41 6.669 -0 -1.2 0
-9.934 -6.663 6.676 -0 -1.2 0
-9.923 -6.913 6.676 -0 -1.2 0
-9.916 -7.17 6.678 -0 -1.2 0
-9.918 -7.437 6.686 -0 -1.2 0
-9.91 -7.701 6.686 -0 -1.2 0
-9.888 -7.962 6.68 -0 -1.2 0
-9.784 -8.167 6.616 -0 -1.2 0
-9.761 -8.434 6.608 -0 -1.2 0
-9.449 -8.48 6.405 -0 -1.2 0
-9.241 -8.597 6.272 -0 -1.2 0
-9.013 -8.692 6.125 -0 -1.2 0
-8.812 -8.802 5.995 -0 -1.2 0
-0.972 -0.01 0.693 -0 -1.2 0
-1.005 -0.009 0.716 -0 -1.2 0
-1.038 -0.008 0.74 -0 -1.2 0
-1.072 -0.009 0.763 -0 -1.2 0
-1.106 -0.011 0.787 -0 -1.2 0
-1.134 -0.02 0.807 -0 -1.2 0
-1.175 -0.018 0.836 -0 -1.2 0
-1.216 -0.017 0.865 -0 -1.2 0
-1.258 -0.017 0.894 -0 -1.2 0
-1.293 -0.025 0.919 -0 -1.2 0
-1.342 -0.022 0.953 -0 -1.2 0
-1.384 -0.027 0.983 -0 -1.2 0
-1.434 -0.028 1.017 -0 -1.2 0
-1.497 -0.02 1.062 -0 -1.2 0
-1.548 -0.025 1.098 -0 -1.2 0
-1.612 -0.022 1.143 -0 -1.2 0
-1.678 -0.021 1.189 -0 -1.2 0
-1.744 -0.023 1.235 -0 -1.2 0
-1.817 -0.022 1.287 -0 -1.2 0
-1.899 -0.02 1.344 -0 -1.2 0
-1.973 -0.026 1.396 -0 -1.2 0
-2.063 -0.026 1.46 -0 -1.2 0
-2.161 -0.025 1.528 -0 -1.2 0
-2.267 -0.025 1.603 -0 -1.2 0
-2.382 -0.025 1.683 -0 -1.2 0
-2.497 -0.03 1.764 -0 -1.2 0
-2.62 -0.037 1.851 -0 -1.2 0
-2.76 -0.042 1.949 -0 -1.2 0
-2.923 -0.044 2.064 -0 -1.2 0
-3.095 -0.05 2.185 -0 -1.2 0
-3.308 -0.05 2.335 -0 -1.2 0
-3.529 -0.057 2.49 -0 -1.2 0
-3.773 -0.066 2.662 -0 -1.2 0
-4.076 -0.07 2.875 -0 -1.2 0
-4.371 -0.089 3.082 -0 -1.2 0
-4.796 -0.093 3.381 -0 -1.2 0
-5.238 -0.111 3.692 -0 -1.2 0
-5.852 -0.119 4.123 -0 -1.2 0
-6.53 -0.144 4.6 -0 -1.2 0
-7.414 -0.171 5.222 -0 -1.2 0
-8.509 -0.212 5.993 -0 -1.2 0
-9.067 -0.347 6.387 -0 -1.2 0
-9.073 -0.539 6.397 -0 -1.2 0
-9.078 -0.731 6.405 -0 -1.2 0
-9.055 -0.924 6.394 -0 -1.2 0
-9.054 -1.115 6.398 -0 -1.2 0
-9.058 -1.306 6.406 -0 -1.2 0
-9.06 -1.498 6.412 -0 -1.2 0
-9.058 -1.69 6.416 -0 -1.2 0
-8.941 -1.873 6.338 -0 -1.2 0
-9.154 -2.087 6.493 -0 -1.2 0
-9.161 -2.284 6.503 -0 -1.2 0
-9.156 -2.481 6.505 -0 -1.2 0
-9.157 -2.679 6.511 -0 -1.2 0
-9.147 -2.877 6.509 -0 -1.2 0
-9.134 -3.074 6.504 -0 -1.2 0
-9.142 -3.277 6.515 -0 -1.2 0
-9.124 -3.475 6.507 -0 -1.2 0
-9.117 -3.678 6.508 -0 -1.2 0
-9.109 -3.881 6.507 -0 -1.2 0
-9.121 -4.093 6.521 -0 -1.2 0
-9.105 -4.297 6.515 -0 -1.2 0
-9.111 -4.511 6.525 -0 -1.2 0
-9.097 -4.72 6.52 -0 -1.2 0
-9.103 -4.939 6.53 -0 -1.2 0
-9.098 -5.156 6.532 -0 -1.2 0
-9.09 -5.374 6.532 -0 -1.2 0
-9.086 -5.598 6.535 -0 -1.2 0
-9.085 -5.826 6.539 -0 -1.2 0
-9.088 -6.059 6.548 -0 -1.2 0
-9.087 -6.295 6.553 -0 -1.2 0
-9.075 -6.526 6.551 -0 -1.2 0
-9.066 -6.765 6.551 -0 -1.2 0
-9.061 -7.009 6.553 -0 -1.2 0
-9.065 -7.265 6.562 -0 -1.2 0
-9.057 -7.518 6.563 -0 -1.2 0
-9.052 -7.777 6.567 -0 -1.2 0
-9.029 -8.028 6.557 -0 -1.2 0
-8.974 -8.258 6.524 -0 -1.2 0
-8.895 -8.471 6.473 -0 -1.2 0
-8.554 -8.459 6.234 -0 -1.2 0
-8.452 -8.647 6.167 -0 -1.2 0
-8.205 -8.7 5.995 -0 -1.2 0
-0.948 -0.009 0.725 -0 -1.2 0
-0.981 -0.008 0.749 -0 -1.2 0
-1.007 -0.014 0.77 -0 -1.2 0
-1.04 -0.015 0.794 -0 -1.2 0
-1.079 -0.01 0.824 -0 -1.2 0
-1.107 -0.019 0.844 -0 -1.2 0
-1.147 -0.017 0.874 -0 -1.2 0
-1.187 -0.016 0.905 -0 -1.2 0
-1.227 -0.016 0.935 -0 -1.2 0
-1.268 -0.018 0.966 -0 -1.2 0
-1.309 -0.021 0.997 -0 -1.2 0
-1.351 -0.026 1.028 -0 -1.2 0
-1.399 -0.027 1.065 -0 -1.2 0
-1.455 -0.024 1.106 -0 -1.2 0
-1.517 -0.019 1.154 -0 -1.2 0
-1.581 -0.016 1.201 -0 -1.2 0
-1.638 -0.02 1.244 -0 -1.2 0
-1.709 -0.016 1.298 -0 -1.2 0
-1.767 -0.025 1.341 -0 -1.2 0
-1.853 -0.018 1.407 -0 -1.2 0
-1.926 -0.024 1.461 -0 -1.2 0
-2.014 -0.024 1.528 -0 -1.2 0
-2.109 -0.023 1.6 -0 -1.2 0
-2.22 -0.019 1.683 -0 -1.2 0
-2.325 -0.023 1.762 -0 -1.2 0
-2.437 -0.028 1.846 -0 -1.2 0
-2.55 -0.038 1.931 -0 -1.2 0
-2.686 -0.042 2.034 -0 -1.2 0
-2.846 -0.044 2.154 -0 -1.2 0
-3.013 -0.05 2.282 -0 -1.2 0
-3.221 -0.05 2.438 -0 -1.2 0
-3.436 -0.056 2.6 -0 -1.2 0
-3.675 -0.064 2.781 -0 -1.2 0
-3.955 -0.073 2.991 -0 -1.2 0
-4.267 -0.086 3.226 -0 -1.2 0
-4.634 -0.099 3.504 -0 -1.2 0
-5.097 -0.11 3.853 -0 -1.2 0
-5.68 -0.12 4.292 -0 -1.2 0
-6.366 -0.139 4.809 -0 -1.2 0
-7.236 -0.164 5.466 -0 -1.2 0
-7.198 -0.326 5.442 -0 -1.2 0
-6.09 -0.579 4.613 -0 -1.2 0
-6.15 -0.707 4.662 -0 -1.2 0
-6.136 -0.841 4.655 -0 -1.2 0
-8.35 -0.925 6.326 -0 -1.2 0
-6.449 -1.106 4.897 -0 -1.2 0
-8.346 -1.287 6.332 -0 -1.2 0
-8.34 -1.468 6.332 -0 -1.2 0
-8.347 -1.65 6.342 -0 -1.2 0
-8.257 -1.824 6.278 -0 -1.2 0
-8.394 -2.02 6.387 -0 -1.2 0
-8.489 -2.217 6.463 -0 -1.2 0
-8.485 -2.403 6.466 -0 -1.2 0
-8.479 -2.59 6.466 -0 -1.2 0
-8.471 -2.778 6.464 -0 -1.2 0
-8.467 -2.967 6.466 -0 -1.2 0
-8.461 -3.157 6.467 -0 -1.2 0
-8.461 -3.349 6.472 -0 -1.2 0
-8.456 -3.542 6.474 -0 -1.2 0
-8.458 -3.738 6.479 -0 -1.2 0
-8.448 -3.932 6.477 -0 -1.2 0
-8.405 -4.115 6.449 -0 -1.2 0
-8.389 -4.31 6.443 -0 -1.2 0
-8.387 -4.511 6.446 -0 -1.2 0
-8.381 -4.713 6.447 -0 -1.2 0
-8.38 -4.919 6.451 -0 -1.2 0
-8.374 -5.125 6.453 -0 -1.2 0
-8.366 -5.334 6.452 -0 -1.2 0
-8.363 -5.547 6.455 -0 -1.2 0
-8.347 -5.758 6.449 -0 -1.2 0
-8.272 -5.935 6.396 -0 -1.2 0
-8.408 -6.242 6.506 -0 -1.2 0
-8.403 -6.471 6.509 -0 -1.2 0
-8.401 -6.705 6.514 -0 -1.2 0
-8.396 -6.942 6.516 -0 -1.2 0
-8.393 -7.185 6.521 -0 -1.2 0
-8.386 -7.429 6.522 -0 -1.2 0
-8.382 -7.681 6.525 -0 -1.2 0
-8.379 -7.94 6.529 -0 -1.2 0
-8.254 -8.1 6.44 -0 -1.2 0
-8.244 -8.36 6.438 -0 -1.2 0
-8.05 -8.458 6.295 -0 -1.2 0
-7.793 -8.489 6.101 -0 -1.2 0
-7.76 -8.733 6.084 -0 -1.2 0
-7.48 -8.725 5.872 -0 -1.2 0
-0.916 -0.016 0.754 -0 -1.2 0
-0.942 -0.021 0.775 -0 -1.2 0
-0.985 -0.006 0.81 -0 -1.2 0
-1.011 -0.014 0.831 -0 -1.2 0
-1.05 -0.009 0.862 -0 -1.2 0
-1.082 -0.012 0.888 -0 -1.2 0
-1.115 -0.016 0.915 -0 -1.2 0
-1.154 -0.015 0.947 -0 -1.2 0
-1.187 -0.021 0.974 -0 -1.2 0
-1.233 -0.017 1.011 -0 -1.2 0
-1.273 -0.02 1.043 -0 -1.2 0
-1.313 -0.025 1.076 -0 -1.2 0
-1.36 -0.026 1.114 -0 -1.2 0
-1.414 -0.023 1.158 -0 -1.2 0
-1.475 -0.018 1.207 -0 -1.2 0
-1.53 -0.02 1.252 -0 -1.2 0
-1.585 -0.022 1.297 -0 -1.2 0
-1.648 -0.024 1.347 -0 -1.2 0
-1.718 -0.023 1.404 -0 -1.2 0
-1.802 -0.016 1.472 -0 -1.2 0
-1.88 -0.017 1.535 -0 -1.2 0
-1.951 -0.026 1.593 -0 -1.2 0
-2.044 -0.025 1.669 -0 -1.2 0
-2.145 -0.025 1.75 -0 -1.2 0
-2.253 -0.025 1.838 -0 -1.2 0
-2.362 -0.03 1.927 -0 -1.2 0
-2.487 -0.032 2.028 -0 -1.2 0
-2.604 -0.044 2.123 -0 -1.2 0
-2.752 -0.048 2.244 -0 -1.2 0
-2.93 -0.047 2.388 -0 -1.2 0
-3.124 -0.049 2.546 -0 -1.2 0
-3.326 -0.057 2.71 -0 -1.2 0
-3.558 -0.065 2.899 -0 -1.2 0
-3.815 -0.077 3.107 -0 -1.2 0
-4.133 -0.085 3.365 -0 -1.2 0
-4.506 -0.094 3.668 -0 -1.2 0
-4.948 -0.107 4.027 -0 -1.2 0
-5.507 -0.118 4.481 -0 -1.2 0
-6.12 -0.144 4.979 -0 -1.2 0
-6.401 -0.243 5.209 -0 -1.2 0
-6.379 -0.389 5.196 -0 -1.2 0
-6.362 -0.533 5.186 -0 -1.2 0
-6.632 -0.657 5.408 -0 -1.2 0
-7.683 -0.757 6.264 -0 -1.2 0
-6.698 -0.951 5.469 -0 -1.2 0
-6.751 -1.099 5.516 -0 -1.2 0
-7.703 -1.27 6.293 -0 -1.2 0
-7.706 -1.443 6.3 -0 -1.2 0
-7.705 -1.615 6.304 -0 -1.2 0
-7.656 -1.784 6.269 -0 -1.2 0
-7.651 -1.955 6.27 -0 -1.2 0
-8.346 -2.221 6.84 -0 -1.2 0
-8.388 -2.417 6.88 -0 -1.2 0
-8.29 -2.591 6.805 -0 -1.2 0
-8.641 -2.853 7.096 -0 -1.2 0
-8.239 -2.961 6.774 -0 -1.2 0
-8.621 -3.248 7.091 -0 -1.2 0
-8.081 -3.301 6.655 -0 -1.2 0
-8.312 -3.561 6.848 -0 -1.2 0
-8.605 -3.853 7.094 -0 -1.2 0
-8.608 -4.06 7.102 -0 -1.2 0
-8.059 -4.066 6.657 -0 -1.2 0
-7.728 -4.132 6.389 -0 -1.2 0
-7.727 -4.324 6.395 -0 -1.2 0
-7.731 -4.519 6.403 -0 -1.2 0
-7.717 -4.709 6.397 -0 -1.2 0
-7.709 -4.903 6.395 -0 -1.2 0
-7.703 -5.102 6.396 -0 -1.2 0
-7.703 -5.306 6.401 -0 -1.2 0
-7.692 -5.507 6.397 -0 -1.2 0
-7.692 -5.717 6.403 -0 -1.2 0
-7.611 -5.88 6.342 -0 -1.2 0
-8.34 -6.576 6.952 -0 -1.2 0
-8.309 -6.796 6.933 -0 -1.2 0
-8.316 -7.045 6.946 -0 -1.2 0
-8.312 -7.292 6.949 -0 -1.2 0
-7.987 -7.292 6.685 -0 -1.2 0
-8.212 -7.726 6.879 -0 -1.2 0
-8.28 -8.046 6.943 -0 -1.2 0
-7.946 -8.025 6.672 -0 -1.2 0
-7.654 -8.025 6.435 -0 -1.2 0
-7.601 -8.238 6.396 -0 -1.2 0
-7.543 -8.451 6.356 -0 -1.2 0
-7.265 -8.441 6.129 -0 -1.2 0
-7.162 -8.604 6.051 -0 -1.2 0
-6.963 -8.663 5.891 -0 -1.2 0
-0.891 -0.015 0.784 -0 -1.2 0
-0.922 -0.013 0.811 -0 -1.2 0
-0.952 -0.012 0.838 -0 -1.2 0
-0.984 -0.013 0.864 -0 -1.2 0
-1.015 -0.014 0.892 -0 -1.2 0
-1.046 -0.017 0.919 -0 -1.2 0
-1.084 -0.015 0.952 -0 -1.2 0
-1.122 -0.014 0.985 -0 -1.2 0
-1.148 -0.026 1.008 -0 -1.2 0
-1.187 -0.028 1.041 -0 -1.2 0
-1.232 -0.025 1.08 -0 -1.2 0
-1.283 -0.019 1.125 -0 -1.2 0
-1.323 -0.024 1.159 -0 -1.2 0
-1.375 -0.021 1.204 -0 -1.2 0
-1.428 -0.021 1.25 -0 -1.2 0
-1.488 -0.018 1.302 -0 -1.2 0
-1.542 -0.021 1.349 -0 -1.2 0
-1.616 -0.013 1.413 -0 -1.2 0
-1.684 -0.013 1.472 -0 -1.2 0
-1.752 -0.015 1.532 -0 -1.2 0
-1.821 -0.021 1.591 -0 -1.2 0
-1.897 -0.025 1.657 -0 -1.2 0
-1.98 -0.027 1.73 -0 -1.2 0
-2.078 -0.026 1.815 -0 -1.2 0
-2.184 -0.026 1.906 -0 -1.2 0
-2.297 -0.028 2.005 -0 -1.2 0
-2.411 -0.034 2.103 -0 -1.2 0
-2.539 -0.038 2.215 -0 -1.2 0
-2.676 -0.045 2.334 -0 -1.2 0
-2.849 -0.045 2.485 -0 -1.2 0
-3.016 -0.055 2.629 -0 -1.2 0
-3.234 -0.054 2.819 -0 -1.2 0
-3.445 -0.067 3.003 -0 -1.2 0
-3.709 -0.074 3.232 -0 -1.2 0
-4.012 -0.083 3.495 -0 -1.2 0
-4.366 -0.095 3.804 -0 -1.2 0
-4.819 -0.101 4.197 -0 -1.2 0
-5.325 -0.118 4.636 -0 -1.2 0
-5.958 -0.138 5.186 -0 -1.2 0
-6.729 -0.167 5.856 -0 -1.2 0
-6.73 -0.322 5.862 -0 -1.2 0
-6.549 -0.494 5.709 -0 -1.2 0
-6.554 -0.644 5.718 -0 -1.2 0
-7.138 -0.766 6.228 -0 -1.2 0
-7.132 -0.93 6.228 -0 -1.2 0
-7.138 -1.093 6.237 -0 -1.2 0
-7.143 -1.256 6.246 -0 -1.2 0
-7.138 -1.42 6.246 -0 -1.2 0
-7.13 -1.584 6.243 -0 -1.2 0
-7.121 -1.748 6.24 -0 -1.2 0
-7.041 -1.903 6.175 -0 -1.2 0
-7.207 -2.089 6.325 -0 -1.2 0
-7.198 -2.255 6.322 -0 -1.2 0
-7.195 -2.423 6.323 -0 -1.2 0
-7.189 -2.592 6.322 -0 -1.2 0
-7.188 -2.762 6.327 -0 -1.2 0
-7.185 -2.933 6.329 -0 -1.2 0
-7.179 -3.104 6.329 -0 -1.2 0
-7.179 -3.278 6.333 -0 -1.2 0
-7.169 -3.45 6.329 -0 -1.2 0
-7.171 -3.628 6.335 -0 -1.2 0
-7.163 -3.804 6.334 -0 -1.2 0
-7.16 -3.983 6.336 -0 -1.2 0
-7.155 -4.163 6.336 -0 -1.2 0
-7.154 -4.347 6.34 -0 -1.2 0
-7.15 -4.532 6.342 -0 -1.2 0
-7.137 -4.715 6.335 -0 -1.2 0
-7.135 -4.905 6.339 -0 -1.2 0
-7.122 -5.093 6.333 -0 -1.2 0
-7.128 -5.293 6.344 -0 -1.2 0
-7.117 -5.487 6.34 -0 -1.2 0
-7.117 -5.69 6.345 -0 -1.2 0
-7.113 -5.895 6.348 -0 -1.2 0
-7.105 -6.101 6.347 -0 -1.2 0
-7.109 -6.318 6.356 -0 -1.2 0
-7.108 -6.537 6.361 -0 -1.2 0
-7.103 -6.757 6.363 -0 -1.2 0
-7.095 -6.979 6.361 -0 -1.2 0
-7.089 -7.207 6.363 -0 -1.2 0
-7.08 -7.437 6.361 -0 -1.2 0
-7.085 -7.687 6.372 -0 -1.2 0
-7.073 -7.926 6.369 -0 -1.2 0
-7.022 -8.132 6.329 -0 -1.2 0
-7.008 -8.38 6.325 -0 -1.2 0
-6.827 -8.455 6.171 -0 -1.2 0
-6.625 -8.496 5.995 -0 -1.2 0
-6.558 -8.689 5.943 -0 -1.2 0
-6.356 -8.72 5.768 -0 -1.2 0
-0.865 -0.014 0.814 -0 -1.2 0
-0.894 -0.012 0.841 -0 -1.2 0
-0.924 -0.011 0.869 -0 -1.2 0
-0.949 -0.019 0.892 -0 -1.2 0
-0.985 -0.013 0.925 -0 -1.2 0
-1.021 -0.01 0.959 -0 -1.2 0
-1.046 -0.02 0.982 -0 -1.2 0
-1.083 -0.019 1.016 -0 -1.2 0
-1.12 -0.019 1.051 -0 -1.2 0
-1.158 -0.021 1.086 -0 -1.2 0
-1.195 -0.024 1.121 -0 -1.2 0
-1.245 -0.017 1.167 -0 -1.2 0
-1.296 -0.012 1.214 -0 -1.2 0
-1.335 -0.02 1.25 -0 -1.2 0
-1.38 -0.025 1.292 -0 -1.2 0
-1.431 -0.027 1.34 -0 -1.2 0
-1.496 -0.02 1.4 -0 -1.2 0
-1.561 -0.017 1.46 -0 -1.2 0
-1.621 -0.02 1.516 -0 -1.2 0
-1.7 -0.013 1.589 -0 -1.2 0
-1.76 -0.023 1.645 -0 -1.2 0
-1.841 -0.023 1.72 -0 -1.2 0
-1.929 -0.022 1.801 -0 -1.2 0
-2.017 -0.024 1.883 -0 -1.2 0
-2.112 -0.028 1.972 -0 -1.2 0
-2.229 -0.026 2.08 -0 -1.2 0
-2.333 -0.035 2.176 -0 -1.2 0
-2.457 -0.039 2.292 -0 -1.2 0
-2.597 -0.043 2.423 -0 -1.2 0
-2.765 -0.043 2.579 -0 -1.2 0
-2.941 -0.047 2.742 -0 -1.2 0
-3.109 -0.062 2.899 -0 -1.2 0
-3.343 -0.064 3.117 -0 -1.2 0
-3.578 -0.077 3.335 -0 -1.2 0
-3.893 -0.08 3.627 -0 -1.2 0
-4.245 -0.089 3.953 -0 -1.2 0
-4.669 -0.099 4.349 -0 -1.2 0
-5.152 -0.116 4.798 -0 -1.2 0
-5.76 -0.136 5.362 -0 -1.2 0
-6.559 -0.157 6.104 -0 -1.2 0
-6.626 -0.305 6.171 -0 -1.2 0
-4.942 -0.627 4.616 -0 -1.2 0
-5.005 -0.739 4.678 -0 -1.2 0
-4.956 -0.859 4.636 -0 -1.2 0
-6.613 -0.931 6.177 -0 -1.2 0
-5.74 -1.09 5.37 -0 -1.2 0
-6.616 -1.243 6.189 -0 -1.2 0
-6.619 -1.4 6.195 -0 -1.2 0
-6.612 -1.556 6.193 -0 -1.2 0
-6.625 -1.714 6.21 -0 -1.2 0
-6.526 -1.86 6.122 -0 -1.2 0
-6.681 -2.039 6.271 -0 -1.2 0
-6.673 -2.198 6.268 -0 -1.2 0
-6.67 -2.359 6.27 -0 -1.2 0
-6.665 -2.519 6.27 -0 -1.2 0
-6.666 -2.682 6.275 -0 -1.2 0
-6.663 -2.846 6.277 -0 -1.2 0
-6.659 -3.01 6.278 -0 -1.2 0
-6.653 -3.174 6.278 -0 -1.2 0
-6.651 -3.341 6.28 -0 -1.2 0
-6.634 -3.504 6.269 -0 -1.2 0
-6.635 -3.675 6.275 -0 -1.2 0
-6.627 -3.844 6.272 -0 -1.2 0
-6.63 -4.019 6.28 -0 -1.2 0
-6.617 -4.189 6.272 -0 -1.2 0
-6.615 -4.366 6.276 -0 -1.2 0
-6.618 -4.548 6.283 -0 -1.2 0
-6.611 -4.728 6.282 -0 -1.2 0
-6.608 -4.911 6.285 -0 -1.2 0
-6.603 -5.096 6.285 -0 -1.2 0
-6.594 -5.282 6.283 -0 -1.2 0
-6.59 -5.474 6.285 -0 -1.2 0
-6.589 -5.671 6.289 -0 -1.2 0
-6.599 -5.879 6.303 -0 -1.2 0
-6.578 -6.069 6.29 -0 -1.2 0
-6.581 -6.281 6.299 -0 -1.2 0
-6.574 -6.488 6.297 -0 -1.2 0
-6.575 -6.708 6.305 -0 -1.2 0
-6.567 -6.924 6.303 -0 -1.2 0
-6.562 -7.147 6.305 -0 -1.2 0
-6.558 -7.378 6.308 -0 -1.2 0
-6.551 -7.61 6.308 -0 -1.2 0
-6.546 -7.85 6.31 -0 -1.2 0
-6.501 -8.055 6.275 -0 -1.2 0
-6.488 -8.298 6.269 -0 -1.2 0
-6.376 -8.433 6.169 -0 -1.2 0
-6.154 -8.434 5.963 -0 -1.2 0
-6.095 -8.628 5.914 -0 -1.2 0
-5.927 -8.684 5.759 -0 -1.2 0
-0.83 -0.021 0.84 -0 -1.2 0
-0.864 -0.011 0.873 -0 -1.2 0
-0.893 -0.01 0.902 -0 -1.2 0
-0.916 -0.018 0.926 -0 -1.2 0
-0.951 -0.012 0.96 -0 -1.2 0
-0.981 -0.015 0.99 -0 -1.2 0
-1.01 -0.019 1.02 -0 -1.2 0
-1.046 -0.018 1.055 -0 -1.2 0
-1.082 -0.018 1.091 -0 -1.2 0
-1.118 -0.02 1.127 -0 -1.2 0
-1.154 -0.022 1.163 -0 -1.2 0
-1.197 -0.021 1.206 -0 -1.2 0
-1.246 -0.017 1.254 -0 -1.2 0
-1.289 -0.019 1.297 -0 -1.2 0
-1.332 -0.024 1.341 -0 -1.2 0
-1.388 -0.021 1.397 -0 -1.2 0
-1.439 -0.023 1.447 -0 -1.2 0
-1.508 -0.015 1.516 -0 -1.2 0
-1.565 -0.019 1.573 -0 -1.2 0
-1.642 -0.012 1.65 -0 -1.2 0
-1.7 -0.021 1.708 -0 -1.2 0
-1.778 -0.021 1.785 -0 -1.2 0
-1.862 -0.02 1.87 -0 -1.2 0
-1.948 -0.022 1.955 -0 -1.2 0
-2.047 -0.022 2.054 -0 -1.2 0
-2.139 -0.03 2.146 -0 -1.2 0
-2.253 -0.032 2.259 -0 -1.2 0
-2.366 -0.04 2.373 -0 -1.2 0
-2.521 -0.034 2.528 -0 -1.2 0
-2.677 -0.037 2.683 -0 -1.2 0
-2.833 -0.046 2.84 -0 -1.2 0
-3.003 -0.059 3.01 -0 -1.2 0
-3.229 -0.061 3.236 -0 -1.2 0
-3.462 -0.072 3.469 -0 -1.2 0
-3.739 -0.082 3.745 -0 -1.2 0
-4.12 -0.08 4.125 -0 -1.2 0
-4.495 -0.097 4.501 -0 -1.2 0
-4.975 -0.111 4.981 -0 -1.2 0
-5.535 -0.135 5.54 -0 -1.2 0
-5.375 -0.296 5.385 -0 -1.2 0
-5.212 -0.448 5.228 -0 -1.2 0
-5.409 -0.557 5.426 -0 -1.2 0
-5.787 -0.659 5.808 -0 -1.2 0
-5.706 -0.806 5.73 -0 -1.2 0
-6.103 -0.933 6.131 -0 -1.2 0
-6.109 -1.082 6.141 -0 -1.2 0
-5.667 -1.222 5.704 -0 -1.2 0
-6.122 -1.381 6.163 -0 -1.2 0
-6.108 -1.531 6.154 -0 -1.2 0
-6.114 -1.681 6.164 -0 -1.2 0
-6.033 -1.822 6.087 -0 -1.2 0
-6.169 -1.992 6.228 -0 -1.2 0
-6.366 -2.179 6.429 -0 -1.2 0
-6.363 -2.337 6.431 -0 -1.2 0
-6.366 -2.498 6.439 -0 -1.2 0
-6.359 -2.657 6.436 -0 -1.2 0
-6.357 -2.819 6.44 -0 -1.2 0
-6.347 -2.979 6.433 -0 -1.2 0
-6.347 -3.143 6.439 -0 -1.2 0
-6.346 -3.309 6.443 -0 -1.2 0
-6.343 -3.475 6.445 -0 -1.2 0
-6.338 -3.641 6.444 -0 -1.2 0
-6.337 -3.81 6.448 -0 -1.2 0
-6.334 -3.981 6.45 -0 -1.2 0
-6.175 -4.079 6.295 -0 -1.2 0
-6.129 -4.227 6.253 -0 -1.2 0
-6.119 -4.395 6.249 -0 -1.2 0
-6.115 -4.568 6.249 -0 -1.2 0
-6.108 -4.742 6.248 -0 -1.2 0
-6.105 -4.92 6.249 -0 -1.2 0
-6.105 -5.104 6.255 -0 -1.2 0
-6.103 -5.289 6.259 -0 -1.2 0
-6.092 -5.471 6.253 -0 -1.2 0
-6.097 -5.667 6.263 -0 -1.2 0
-6.025 -5.807 6.196 -0 -1.2 0
-6.242 -6.185 6.424 -0 -1.2 0
-6.261 -6.41 6.449 -0 -1.2 0
-6.257 -6.622 6.452 -0 -1.2 0
-6.25 -6.836 6.451 -0 -1.2 0
-6.24 -7.052 6.447 -0 -1.2 0
-6.237 -7.28 6.451 -0 -1.2 0
-6.237 -7.516 6.458 -0 -1.2 0
-6.227 -7.748 6.455 -0 -1.2 0
-6.219 -7.987 6.453 -0 -1.2 0
-6.023 -8.016 6.257 -0 -1.2 0
-5.993 -8.235 6.235 -0 -1.2 0
-5.944 -8.435 6.191 -0 -1.2 0
-5.721 -8.414 5.968 -0 -1.2 0
-5.653 -8.59 5.906 -0 -1.2 0
-5.498 -8.646 5.752 -0 -1.2 0
-0.816 0.001 0.883 -0 -1.2 0
-0.839 -0.004 0.907 -0 -1.2 0
-0.857 -0.017 0.926 -0 -1.2 0
-0.89 -0.01 0.962 -0 -1.2 0
-0.924 -0.005 0.997 -0 -1.2 0
-0.947 -0.014 1.022 -0 -1.2 0
-0.976 -0.018 1.053 -0 -1.2 0
-1.016 -0.011 1.095 -0 -1.2 0
-1.045 -0.017 1.127 -0 -1.2 0
-1.091 -0.006 1.176 -0 -1.2 0
-1.12 -0.015 1.207 -0 -1.2 0
-1.161 -0.015 1.251 -0 -1.2 0
-1.209 -0.01 1.302 -0 -1.2 0
-1.25 -0.013 1.346 -0 -1.2 0
-1.293 -0.017 1.391 -0 -1.2 0
-1.341 -0.019 1.443 -0 -1.2 0
-1.389 -0.022 1.495 -0 -1.2 0
-1.456 -0.014 1.566 -0 -1.2 0
-1.512 -0.017 1.625 -0 -1.2 0
-1.586 -0.01 1.704 -0 -1.2 0
-1.654 -0.011 1.777 -0 -1.2 0
-1.723 -0.015 1.851 -0 -1.2 0
-1.799 -0.018 1.932 -0 -1.2 0
-1.881 -0.021 2.02 -0 -1.2 0
-1.983 -0.017 2.128 -0 -1.2 0
-2.085 -0.018 2.238 -0 -1.2 0
-2.176 -0.03 2.334 -0 -1.2 0
-2.305 -0.028 2.472 -0 -1.2 0
-2.435 -0.032 2.611 -0 -1.2 0
-2.585 -0.034 2.772 -0 -1.2 0
-2.73 -0.047 2.927 -0 -1.2 0
-2.913 -0.051 3.124 -0 -1.2 0
-3.112 -0.06 3.336 -0 -1.2 0
-3.337 -0.071 3.577 -0 -1.2 0
-3.624 -0.074 3.883 -0 -1.2 0
-3.972 -0.078 4.255 -0 -1.2 0
-4.308 -0.101 4.614 -0 -1.2 0
-4.792 -0.11 5.132 -0 -1.2 0
-5.352 -0.129 5.73 -0 -1.2 0
-5.865 -0.185 6.279 -0 -1.2 0
-5.17 -0.426 5.545 -0 -1.2 0
-5.844 -0.485 6.267 -0 -1.2 0
-5.685 -0.646 6.102 -0 -1.2 0
-5.681 -0.79 6.101 -0 -1.2 0
-5.675 -0.934 6.099 -0 -1.2 0
-5.667 -1.077 6.095 -0 -1.2 0
-5.671 -1.22 6.103 -0 -1.2 0
-5.68 -1.364 6.118 -0 -1.2 0
-5.667 -1.508 6.108 -0 -1.2 0
-5.673 -1.653 6.12 -0 -1.2 0
-5.609 -1.789 6.055 -0 -1.2 0
-5.639 -1.938 6.091 -0 -1.2 0
-5.984 -2.144 6.467 -0 -1.2 0
-5.971 -2.452 6.462 -0 -1.2 0
-8.904 -3.353 9.621 -0 -1.2 0
-8.899 -3.587 9.623 -0 -1.2 0
-5.975 -2.925 6.48 -0 -1.2 0
-8.888 -4.059 9.625 -0 -1.2 0
-5.976 -3.247 6.491 -0 -1.2 0
-5.928 -3.392 6.443 -0 -1.2 0
-8.871 -4.782 9.629 -0 -1.2 0
-7.067 -4.227 7.686 -0 -1.2 0
-7.976 -4.856 8.676 -0 -1.2 0
-5.929 -4.057 6.466 -0 -1.2 0
-5.681 -4.096 6.202 -0 -1.2 0
-5.668 -4.255 6.191 -0 -1.2 0
-5.678 -4.428 6.207 -0 -1.2 0
-5.679 -4.6 6.214 -0 -1.2 0
-5.664 -4.765 6.204 -0 -1.2 0
-5.667 -4.942 6.212 -0 -1.2 0
-5.661 -5.117 6.211 -0 -1.2 0
-5.658 -5.298 6.213 -0 -1.2 0
-5.658 -5.484 6.22 -0 -1.2 0
-5.645 -5.662 6.21 -0 -1.2 0
-5.581 -5.801 6.147 -0 -1.2 0
-5.569 -5.984 6.139 -0 -1.2 0
-6.143 -6.712 6.774 -0 -1.2 0
-6.662 -7.432 7.35 -0 -1.2 0
-6.656 -7.675 7.351 -0 -1.2 0
-6.115 -7.371 6.764 -0 -1.2 0
-5.836 -7.311 6.463 -0 -1.2 0
-5.871 -7.586 6.509 -0 -1.2 0
-6.014 -7.994 6.674 -0 -1.2 0
-5.803 -7.997 6.449 -0 -1.2 0
-5.594 -7.992 6.226 -0 -1.2 0
-5.559 -8.2 6.196 -0 -1.2 0
-5.526 -8.416 6.167 -0 -1.2 0
-5.342 -8.428 5.971 -0 -1.2 0
-5.243 -8.551 5.868 -0 -1.2 0
-5.113 -8.629 5.732 -0 -1.2 0
-0.782 -0.004 0.904 -0 -1.2 0
-0.804 -0.01 0.929 -0 -1.2 0
-0.835 -0.002 0.966 -0 -1.2 0
-0.858 -0.01 0.991 -0 -1.2 0
-0.89 -0.004 1.028 -0 -1.2 0
-0.917 -0.007 1.059 -0 -1.2 0
-0.95 -0.004 1.097 -0 -1.2 0
-0.984 -0.004 1.135 -0 -1.2 0
-1.012 -0.01 1.167 -0 -1.2 0
-1.045 -0.011 1.206 -0 -1.2 0
-1.079 -0.014 1.244 -0 -1.2 0
-1.119 -0.014 1.29 -0 -1.2 0
-1.164 -0.009 1.342 -0 -1.2 0
-1.205 -0.011 1.388 -0 -1.2 0
-1.251 -0.011 1.44 -0 -1.2 0
-1.297 -0.013 1.494 -0 -1.2 0
-1.344 -0.016 1.547 -0 -1.2 0
-1.397 -0.017 1.608 -0 -1.2 0
-1.456 -0.016 1.675 -0 -1.2 0
-1.528 -0.009 1.757 -0 -1.2 0
-1.6 -0.005 1.839 -0 -1.2 0
-1.66 -0.014 1.908 -0 -1.2 0
-1.733 -0.016 1.991 -0 -1.2 0
-1.806 -0.023 2.075 -0 -1.2 0
-1.898 -0.022 2.18 -0 -1.2 0
-1.991 -0.026 2.286 -0 -1.2 0
-2.096 -0.028 2.406 -0 -1.2 0
-2.208 -0.033 2.534 -0 -1.2 0
-2.333 -0.036 2.677 -0 -1.2 0
-2.491 -0.032 2.857 -0 -1.2 0
-2.643 -0.039 3.031 -0 -1.2 0
-2.8 -0.051 3.213 -0 -1.2 0
-2.998 -0.057 3.438 -0 -1.2 0
-3.222 -0.065 3.694 -0 -1.2 0
-3.485 -0.073 3.995 -0 -1.2 0
-3.821 -0.075 4.379 -0 -1.2 0
-4.15 -0.097 4.756 -0 -1.2 0
-4.604 -0.107 5.275 -0 -1.2 0
-5.17 -0.121 5.922 -0 -1.2 0
-5.277 -0.24 6.048 -0 -1.2 0
-4.824 -0.443 5.537 -0 -1.2 0
-5.269 -0.52 6.049 -0 -1.2 0
-5.273 -0.658 6.057 -0 -1.2 0
-5.268 -0.797 6.056 -0 -1.2 0
-5.263 -0.935 6.054 -0 -1.2 0
-5.262 -1.073 6.057 -0 -1.2 0
-5.266 -1.211 6.066 -0 -1.2 0
-5.275 -1.35 6.081 -0 -1.2 0
-5.262 -1.488 6.071 -0 -1.2 0
-5.262 -1.627 6.074 -0 -1.2 0
-5.22 -1.761 6.03 -0 -1.2 0
-5.196 -1.896 6.009 -0 -1.2 0
-5.321 -2.057 6.156 -0 -1.2 0
-5.301 -2.197 6.137 -0 -1.2 0
-5.304 -2.34 6.146 -0 -1.2 0
-5.333 -2.492 6.182 -0 -1.2 0
-5.34 -2.64 6.195 -0 -1.2 0
-5.332 -2.785 6.19 -0 -1.2 0
-5.316 -2.927 6.177 -0 -1.2 0
-5.311 -3.075 6.176 -0 -1.2 0
-5.355 -3.243 6.232 -0 -1.2 0
-5.353 -3.395 6.233 -0 -1.2 0
-5.349 -3.548 6.233 -0 -1.2 0
-5.323 -3.692 6.209 -0 -1.2 0
-5.34 -3.858 6.234 -0 -1.2 0
-5.324 -4.009 6.219 -0 -1.2 0
-5.257 -4.132 6.147 -0 -1.2 0
-5.262 -4.297 6.158 -0 -1.2 0
-5.258 -4.459 6.159 -0 -1.2 0
-5.252 -4.622 6.158 -0 -1.2 0
-5.251 -4.791 6.16 -0 -1.2 0
-5.246 -4.96 6.16 -0 -1.2 0
-5.251 -5.139 6.172 -0 -1.2 0
-5.248 -5.316 6.174 -0 -1.2 0
-5.242 -5.493 6.173 -0 -1.2 0
-5.239 -5.677 6.175 -0 -1.2 0
-5.173 -5.805 6.103 -0 -1.2 0
-5.331 -6.147 6.295 -0 -1.2 0
-5.351 -6.37 6.325 -0 -1.2 0
-5.337 -6.562 6.314 -0 -1.2 0
-5.318 -6.755 6.3 -0 -1.2 0
-5.314 -6.966 6.3 -0 -1.2 0
-5.3 -7.173 6.292 -0 -1.2 0
-5.283 -7.381 6.279 -0 -1.2 0
-5.284 -7.615 6.287 -0 -1.2 0
-5.261 -7.826 6.267 -0 -1.2 0
-5.196 -7.985 6.197 -0 -1.2 0
-5.152 -8.178 6.153 -0 -1.2 0
-5.119 -8.389 6.123 -0 -1.2 0
-4.963 -8.422 5.945 -0 -1.2 0
-4.854 -8.518 5.823 -0 -1.2 0
-0.749 -0.003 0.932 -0 -1.2 0
-0.775 -0.002 0.963 -0 -1.2 0
-0.801 -0.001 0.995 -0 -1.2 0
-0.822 -0.009 1.021 -0 -1.2 0
-0.848 -0.009 1.053 -0 -1.2 0
-0.884 0 1.098 -0 -1.2 0
-0.906 -0.01 1.124 -0 -1.2 0
-0.938 -0.009 1.163 -0 -1.2 0
-0.97 -0.009 1.203 -0 -1.2 0
-1.007 -0.004 1.249 -0 -1.2 0
-1.04 -0.008 1.289 -0 -1.2 0
-1.078 -0.007 1.335 -0 -1.2 0
-1.116 -0.007 1.383 -0 -1.2 0
-1.16 -0.005 1.437 -0 -1.2 0
-1.199 -0.01 1.484 -0 -1.2 0
-1.244 -0.012 1.539 -0 -1.2 0
-1.294 -0.01 1.601 -0 -1.2 0
-1.339 -0.016 1.657 -0 -1.2 0
-1.401 -0.009 1.733 -0 -1.2 0
-1.453 -0.016 1.796 -0 -1.2 0
-1.533 -0.003 1.895 -0 -1.2 0
-1.591 -0.012 1.966 -0 -1.2 0
-1.667 -0.01 2.059 -0 -1.2 0
-1.737 -0.017 2.145 -0 -1.2 0
-1.825 -0.016 2.254 -0 -1.2 0
-1.908 -0.024 2.355 -0 -1.2 0
-2.015 -0.023 2.487 -0 -1.2 0
-2.11 -0.033 2.604 -0 -1.2 0
-2.23 -0.036 2.752 -0 -1.2 0
-2.381 -0.032 2.937 -0 -1.2 0
-2.527 -0.038 3.117 -0 -1.2 0
-2.684 -0.048 3.311 -0 -1.2 0
-2.855 -0.061 3.521 -0 -1.2 0
-3.1 -0.057 3.823 -0 -1.2 0
-3.353 -0.065 4.133 -0 -1.2 0
-3.643 -0.077 4.49 -0 -1.2 0
-3.972 -0.094 4.894 -0 -1.2 0
-4.419 -0.101 5.444 -0 -1.2 0
-4.88 -0.131 6.011 -0 -1.2 0
-4.887 -0.265 6.026 -0 -1.2 0
-4.881 -0.4 6.022 -0 -1.2 0
-4.88 -0.534 6.025 -0 -1.2 0
-4.877 -0.669 6.025 -0 -1.2 0
-4.872 -0.803 6.025 -0 -1.2 0
-4.874 -0.936 6.03 -0 -1.2 0
-4.86 -1.069 6.017 -0 -1.2 0
-4.87 -1.202 6.034 -0 -1.2 0
-4.878 -1.336 6.049 -0 -1.2 0
-4.867 -1.469 6.039 -0 -1.2 0
-4.866 -1.604 6.043 -0 -1.2 0
-4.858 -1.737 6.037 -0 -1.2 0
-4.798 -1.862 5.967 -0 -1.2 0
-4.906 -2.016 6.105 -0 -1.2 0
-4.905 -2.153 6.108 -0 -1.2 0
-4.903 -2.291 6.11 -0 -1.2 0
-4.899 -2.429 6.11 -0 -1.2 0
-4.9 -2.569 6.116 -0 -1.2 0
-4.894 -2.708 6.112 -0 -1.2 0
-4.898 -2.851 6.121 -0 -1.2 0
-4.894 -2.993 6.122 -0 -1.2 0
-4.888 -3.135 6.119 -0 -1.2 0
-4.881 -3.278 6.115 -0 -1.2 0
-4.884 -3.427 6.124 -0 -1.2 0
-4.879 -3.574 6.123 -0 -1.2 0
-4.879 -3.724 6.127 -0 -1.2 0
-4.87 -3.872 6.122 -0 -1.2 0
-4.872 -4.028 6.129 -0 -1.2 0
-4.866 -4.18 6.126 -0 -1.2 0
-4.864 -4.338 6.129 -0 -1.2 0
-4.854 -4.492 6.121 -0 -1.2 0
-4.848 -4.651 6.119 -0 -1.2 0
-4.851 -4.82 6.129 -0 -1.2 0
-4.841 -4.981 6.12 -0 -1.2 0
-4.845 -5.157 6.131 -0 -1.2 0
-4.836 -5.324 6.125 -0 -1.2 0
-4.834 -5.503 6.13 -0 -1.2 0
-4.837 -5.687 6.139 -0 -1.2 0
-4.836 -5.873 6.144 -0 -1.2 0
-4.838 -6.066 6.153 -0 -1.2 0
-4.833 -6.256 6.151 -0 -1.2 0
-4.829 -6.452 6.154 -0 -1.2 0
-4.827 -6.656 6.159 -0 -1.2 0
-4.813 -6.85 6.147 -0 -1.2 0
-4.81 -7.063 6.151 -0 -1.2 0
-4.814 -7.29 6.164 -0 -1.2 0
-4.805 -7.507 6.159 -0 -1.2 0
-4.797 -7.732 6.157 -0 -1.2 0
-4.785 -7.959 6.15 -0 -1.2 0
-4.757 -8.166 6.121 -0 -1.2 0
-4.734 -8.388 6.101 -0 -1.2 0
-4.589 -8.421 5.924 -0 -1.2 0
-0.719 -0.002 0.956 -0 -1.2 0
-0.743 -0.001 0.988 -0 -1.2 0
-0.763 -0.007 1.015 -0 -1.2 0
-0.788 -0.008 1.047 -0 -1.2 0
-0.813 -0.009 1.08 -0 -1.2 0
-0.843 -0.005 1.12 -0 -1.2 0
-0.869 -0.009 1.153 -0 -1.2 0
-0.895 -0.014 1.187 -0 -1.2 0
-0.925 -0.014 1.227 -0 -1.2 0
-0.966 -0.003 1.281 -0 -1.2 0
-0.997 -0.007 1.322 -0 -1.2 0
-1.034 -0.006 1.37 -0 -1.2 0
-1.071 -0.006 1.418 -0 -1.2 0
-1.113 -0.004 1.474 -0 -1.2 0
-1.155 -0.004 1.53 -0 -1.2 0
-1.198 -0.005 1.586 -0 -1.2 0
-1.241 -0.009 1.643 -0 -1.2 0
-1.295 -0.004 1.714 -0 -1.2 0
-1.344 -0.008 1.778 -0 -1.2 0
-1.41 -0.001 1.864 -0 -1.2 0
-1.471 -0.002 1.944 -0 -1.2 0
-1.526 -0.01 2.017 -0 -1.2 0
-1.604 -0.005 2.12 -0 -1.2 0
-1.661 -0.019 2.194 -0 -1.2 0
-1.751 -0.014 2.312 -0 -1.2 0
-1.836 -0.019 2.424 -0 -1.2 0
-1.939 -0.017 2.559 -0 -1.2 0
-2.036 -0.024 2.687 -0 -1.2 0
-2.14 -0.034 2.823 -0 -1.2 0
-2.284 -0.03 3.013 -0 -1.2 0
-2.418 -0.039 3.19 -0 -1.2 0
-2.58 -0.042 3.405 -0 -1.2 0
-2.75 -0.053 3.628 -0 -1.2 0
-2.956 -0.061 3.899 -0 -1.2 0
-3.216 -0.062 4.24 -0 -1.2 0
-3.489 -0.074 4.599 -0 -1.2 0
-3.816 -0.089 5.029 -0 -1.2 0
-4.239 -0.097 5.586 -0 -1.2 0
-4.476 -0.17 5.9 -0 -1.2 0
-4.502 -0.294 5.937 -0 -1.2 0
-4.501 -0.423 5.941 -0 -1.2 0
-4.499 -0.551 5.943 -0 -1.2 0
-4.497 -0.68 5.943 -0 -1.2 0
-4.474 -0.811 5.919 -0 -1.2 0
-4.486 -0.937 5.94 -0 -1.2 0
-4.474 -1.066 5.927 -0 -1.2 0
-4.477 -1.192 5.936 -0 -1.2 0
-4.461 -1.321 5.919 -0 -1.2 0
-4.469 -1.448 5.933 -0 -1.2 0
-4.468 -1.577 5.936 -0 -1.2 0
-4.472 -1.706 5.946 -0 -1.2 0
-4.451 -1.832 5.923 -0 -1.2 0
-4.453 -1.961 5.93 -0 -1.2 0
-4.452 -2.092 5.934 -0 -1.2 0
-4.44 -2.219 5.921 -0 -1.2 0
-4.437 -2.349 5.922 -0 -1.2 0
-4.433 -2.48 5.921 -0 -1.2 0
-4.434 -2.613 5.926 -0 -1.2 0
-4.427 -2.745 5.922 -0 -1.2 0
-4.43 -2.881 5.93 -0 -1.2 0
-4.431 -3.019 5.937 -0 -1.2 0
-4.426 -3.154 5.934 -0 -1.2 0
-4.425 -3.292 5.937 -0 -1.2 0
-4.422 -3.432 5.938 -0 -1.2 0
-4.422 -3.575 5.944 -0 -1.2 0
-4.41 -3.712 5.932 -0 -1.2 0
-4.414 -3.86 5.942 -0 -1.2 0
-4.405 -4.001 5.934 -0 -1.2 0
-4.393 -4.143 5.925 -0 -1.2 0
-4.402 -4.302 5.941 -0 -1.2 0
-4.399 -4.454 5.942 -0 -1.2 0
-4.398 -4.611 5.946 -0 -1.2 0
-4.396 -4.769 5.948 -0 -1.2 0
-4.39 -4.928 5.948 -0 -1.2 0
-4.384 -5.088 5.944 -0 -1.2 0
-4.381 -5.255 5.946 -0 -1.2 0
-4.375 -5.422 5.944 -0 -1.2 0
