# .PCD v.7 - Point Cloud Data file format
FIELDS x y z vp_x vp_y vp_z
SIZE 4 4 4 4 4 4
TYPE F F F F F F
COUNT 1 1 1 1 1 1
WIDTH 1518
HEIGHT 1
VIEWPOINT 0 -1.20013 0 1 0 0 0
POINTS 1518
DATA ascii
-14.4 -7.882 25.233 -0 -1.2 0
-14.339 -8.39 25.125 -0 -1.2 0
-14.275 -8.897 25.01 -0 -1.2 0
-14.207 -9.401 24.887 -0 -1.2 0
-14.134 -9.903 24.756 -0 -1.2 0
-14.056 -10.403 24.618 -0 -1.2 0
-13.975 -10.899 24.472 -0 -1.2 0
-13.889 -11.392 24.32 -0 -1.2 0
-13.8 -11.882 24.159 -0 -1.2 0
-13.706 -12.369 23.991 -0 -1.2 0
-13.607 -12.853 23.814 -0 -1.2 0
-13.504 -13.332 23.632 -0 -1.2 0
-13.398 -13.808 23.442 -0 -1.2 0
-13.288 -14.281 23.244 -0 -1.2 0
-13.173 -14.748 23.04 -0 -1.2 0
-13.054 -15.213 22.828 -0 -1.2 0
-12.932 -15.672 22.609 -0 -1.2 0
-12.806 -16.128 22.384 -0 -1.2 0
-12.675 -16.578 22.152 -0 -1.2 0
-12.541 -17.025 21.912 -0 -1.2 0
-12.403 -17.466 21.666 -0 -1.2 0
-12.262 -17.901 21.413 -0 -1.2 0
-12.116 -18.333 21.154 -0 -1.2 0
-11.968 -18.758 20.889 -0 -1.2 0
-11.815 -19.179 20.616 -0 -1.2 0
-11.658 -19.593 20.338 -0 -1.2 0
-11.498 -20.003 20.053 -0 -1.2 0
-11.335 -20.406 19.762 -0 -1.2 0
-11.168 -20.804 19.465 -0 -1.2 0
-10.998 -21.195 19.162 -0 -1.2 0
-10.824 -21.581 18.853 -0 -1.2 0
-10.648 -21.96 18.538 -0 -1.2 0
-10.467 -22.332 18.217 -0 -1.2 0
-10.284 -22.699 17.891 -0 -1.2 0
-10.099 -23.059 17.56 -0 -1.2 0
-13.941 -3.232 26.297 -0 -1.2 0
-13.921 -3.755 26.259 -0 -1.2 0
-13.897 -4.275 26.214 -0 -1.2 0
-13.87 -4.795 26.16 -0 -1.2 0
-13.838 -5.314 26.099 -0 -1.2 0
-13.802 -5.832 26.03 -0 -1.2 0
-13.761 -6.349 25.952 -0 -1.2 0
-13.716 -6.863 25.867 -0 -1.2 0
-13.668 -7.376 25.774 -0 -1.2 0
-13.614 -7.887 25.672 -0 -1.2 0
-13.557 -8.396 25.563 -0 -1.2 0
-13.496 -8.902 25.446 -0 -1.2 0
-13.431 -9.407 25.322 -0 -1.2 0
-13.361 -9.908 25.189 -0 -1.2 0
-13.287 -10.408 25.049 -0 -1.2 0
-13.21 -10.904 24.901 -0 -1.2 0
-13.129 -11.397 24.746 -0 -1.2 0
-13.043 -11.888 24.582 -0 -1.2 0
-12.954 -12.374 24.412 -0 -1.2 0
-12.861 -12.858 24.233 -0 -1.2 0
-12.763 -13.337 24.047 -0 -1.2 0
-12.662 -13.813 23.854 -0 -1.2 0
-12.557 -14.286 23.654 -0 -1.2 0
-12.448 -14.753 23.446 -0 -1.2 0
-12.336 -15.218 23.232 -0 -1.2 0
-12.22 -15.677 23.009 -0 -1.2 0
-12.1 -16.133 22.78 -0 -1.2 0
-11.976 -16.583 22.544 -0 -1.2 0
-11.849 -17.03 22.301 -0 -1.2 0
-11.718 -17.471 22.051 -0 -1.2 0
-11.584 -17.906 21.794 -0 -1.2 0
-11.445 -18.338 21.53 -0 -1.2 0
-11.304 -18.763 21.261 -0 -1.2 0
-11.159 -19.183 20.984 -0 -1.2 0
-11.012 -19.598 20.701 -0 -1.2 0
-10.859 -20.007 20.411 -0 -1.2 0
-10.705 -20.41 20.116 -0 -1.2 0
-10.546 -20.808 19.814 -0 -1.2 0
-10.386 -21.2 19.506 -0 -1.2 0
-10.221 -21.585 19.192 -0 -1.2 0
-10.053 -21.964 18.873 -0 -1.2 0
-9.883 -22.337 18.547 -0 -1.2 0
-9.709 -22.703 18.215 -0 -1.2 0
-9.533 -23.063 17.878 -0 -1.2 0
-13.129 -3.236 26.72 -0 -1.2 0
-13.11 -3.758 26.682 -0 -1.2 0
-13.087 -4.279 26.637 -0 -1.2 0
-13.061 -4.799 26.583 -0 -1.2 0
-13.03 -5.318 26.52 -0 -1.2 0
-12.995 -5.836 26.451 -0 -1.2 0
-12.957 -6.352 26.372 -0 -1.2 0
-12.914 -6.867 26.286 -0 -1.2 0
-12.868 -7.38 26.191 -0 -1.2 0
-12.817 -7.891 26.089 -0 -1.2 0
-12.763 -8.4 25.978 -0 -1.2 0
-12.705 -8.906 25.859 -0 -1.2 0
-12.643 -9.41 25.733 -0 -1.2 0
-12.577 -9.912 25.598 -0 -1.2 0
-12.508 -10.412 25.456 -0 -1.2 0
-12.434 -10.908 25.305 -0 -1.2 0
-12.357 -11.401 25.147 -0 -1.2 0
-12.276 -11.891 24.982 -0 -1.2 0
-12.191 -12.377 24.809 -0 -1.2 0
-12.103 -12.861 24.628 -0 -1.2 0
-12.01 -13.341 24.44 -0 -1.2 0
-11.915 -13.816 24.244 -0 -1.2 0
-11.816 -14.289 24.04 -0 -1.2 0
-11.713 -14.757 23.83 -0 -1.2 0
-11.607 -15.221 23.612 -0 -1.2 0
-11.497 -15.68 23.387 -0 -1.2 0
-11.383 -16.136 23.154 -0 -1.2 0
-11.267 -16.587 22.914 -0 -1.2 0
-11.146 -17.033 22.667 -0 -1.2 0
-11.022 -17.474 22.414 -0 -1.2 0
-10.895 -17.909 22.153 -0 -1.2 0
-10.765 -18.341 21.886 -0 -1.2 0
-10.631 -18.766 21.612 -0 -1.2 0
-10.494 -19.187 21.331 -0 -1.2 0
-10.354 -19.601 21.044 -0 -1.2 0
-10.211 -20.01 20.75 -0 -1.2 0
-10.065 -20.413 20.45 -0 -1.2 0
-9.916 -20.811 20.144 -0 -1.2 0
-9.763 -21.202 19.831 -0 -1.2 0
-9.609 -21.588 19.513 -0 -1.2 0
-9.45 -21.967 19.188 -0 -1.2 0
-9.29 -22.339 18.857 -0 -1.2 0
-9.125 -22.706 18.521 -0 -1.2 0
-8.959 -23.066 18.179 -0 -1.2 0
-12.274 -0.098 27.201 -0 -1.2 0
-12.279 -0.621 27.213 -0 -1.2 0
-12.275 -1.669 27.212 -0 -1.2 0
-12.269 -2.192 27.199 -0 -1.2 0
-12.258 -2.714 27.177 -0 -1.2 0
-12.244 -3.236 27.148 -0 -1.2 0
-12.226 -3.759 27.11 -0 -1.2 0
-12.204 -4.279 27.064 -0 -1.2 0
-12.178 -4.8 27.009 -0 -1.2 0
-12.149 -5.318 26.947 -0 -1.2 0
-12.117 -5.837 26.875 -0 -1.2 0
-12.08 -6.353 26.795 -0 -1.2 0
-12.039 -6.868 26.708 -0 -1.2 0
-11.996 -7.38 26.612 -0 -1.2 0
-11.948 -7.891 26.508 -0 -1.2 0
-11.896 -8.4 26.397 -0 -1.2 0
-11.842 -8.907 26.276 -0 -1.2 0
-11.784 -9.411 26.148 -0 -1.2 0
-11.721 -9.913 26.011 -0 -1.2 0
-11.656 -10.412 25.867 -0 -1.2 0
-11.587 -10.908 25.715 -0 -1.2 0
-11.515 -11.401 25.555 -0 -1.2 0
-11.438 -11.892 25.387 -0 -1.2 0
-11.359 -12.378 25.212 -0 -1.2 0
-11.276 -12.862 25.028 -0 -1.2 0
-11.19 -13.342 24.837 -0 -1.2 0
-11.099 -13.817 24.639 -0 -1.2 0
-11.007 -14.29 24.433 -0 -1.2 0
-10.91 -14.757 24.218 -0 -1.2 0
-10.81 -15.222 23.997 -0 -1.2 0
-10.707 -15.681 23.769 -0 -1.2 0
-10.601 -16.137 23.533 -0 -1.2 0
-10.492 -16.587 23.29 -0 -1.2 0
-10.379 -17.033 23.04 -0 -1.2 0
-10.262 -17.474 22.783 -0 -1.2 0
-10.144 -17.91 22.518 -0 -1.2 0
-10.022 -18.341 22.247 -0 -1.2 0
-9.896 -18.766 21.969 -0 -1.2 0
-9.769 -19.187 21.684 -0 -1.2 0
-9.637 -19.602 21.393 -0 -1.2 0
-9.504 -20.011 21.095 -0 -1.2 0
-9.367 -20.414 20.791 -0 -1.2 0
-9.227 -20.812 20.48 -0 -1.2 0
-9.084 -21.203 20.162 -0 -1.2 0
-8.939 -21.588 19.839 -0 -1.2 0
-8.791 -21.967 19.509 -0 -1.2 0
-8.64 -22.34 19.174 -0 -1.2 0
-8.487 -22.706 18.833 -0 -1.2 0
-8.331 -23.067 18.486 -0 -1.2 0
-11.461 -0.084 27.566 -0 -1.2 0
-11.454 -2.177 27.566 -0 -1.2 0
-11.443 -2.7 27.545 -0 -1.2 0
-11.429 -3.222 27.515 -0 -1.2 0
-11.411 -3.745 27.478 -0 -1.2 0
-11.39 -4.265 27.431 -0 -1.2 0
-11.365 -4.785 27.376 -0 -1.2 0
-11.338 -5.304 27.313 -0 -1.2 0
-11.306 -5.823 27.241 -0 -1.2 0
-11.272 -6.339 27.161 -0 -1.2 0
-11.233 -6.854 27.073 -0 -1.2 0
-11.192 -7.366 26.976 -0 -1.2 0
-11.147 -7.877 26.871 -0 -1.2 0
-11.098 -8.386 26.759 -0 -1.2 0
-11.046 -8.893 26.638 -0 -1.2 0
-10.991 -9.397 26.508 -0 -1.2 0
-10.933 -9.899 26.37 -0 -1.2 0
-10.871 -10.398 26.225 -0 -1.2 0
-10.806 -10.895 26.071 -0 -1.2 0
-10.737 -11.388 25.91 -0 -1.2 0
-10.666 -11.878 25.74 -0 -1.2 0
-10.591 -12.365 25.562 -0 -1.2 0
-10.513 -12.849 25.377 -0 -1.2 0
-10.431 -13.328 25.185 -0 -1.2 0
-10.347 -13.804 24.984 -0 -1.2 0
-10.26 -14.277 24.775 -0 -1.2 0
-10.169 -14.745 24.559 -0 -1.2 0
-10.075 -15.209 24.335 -0 -1.2 0
-9.978 -15.668 24.105 -0 -1.2 0
-9.879 -16.124 23.866 -0 -1.2 0
-9.776 -16.575 23.62 -0 -1.2 0
-9.67 -17.021 23.367 -0 -1.2 0
-9.562 -17.462 23.107 -0 -1.2 0
-9.45 -17.898 22.84 -0 -1.2 0
-9.335 -18.329 22.566 -0 -1.2 0
-9.219 -18.755 22.284 -0 -1.2 0
-9.098 -19.176 21.997 -0 -1.2 0
-8.976 -19.59 21.701 -0 -1.2 0
-8.849 -20 21.4 -0 -1.2 0
-8.721 -20.403 21.093 -0 -1.2 0
-8.59 -20.801 20.778 -0 -1.2 0
-8.456 -21.192 20.457 -0 -1.2 0
-8.321 -21.578 20.13 -0 -1.2 0
-8.182 -21.957 19.797 -0 -1.2 0
-8.041 -22.33 19.457 -0 -1.2 0
-7.897 -22.696 19.112 -0 -1.2 0
-7.752 -23.057 18.761 -0 -1.2 0
-10.645 -2.161 27.902 -0 -1.2 0
-10.634 -2.684 27.88 -0 -1.2 0
-10.621 -3.206 27.851 -0 -1.2 0
-10.604 -3.729 27.813 -0 -1.2 0
-10.584 -4.249 27.767 -0 -1.2 0
-10.56 -4.77 27.711 -0 -1.2 0
-10.533 -5.288 27.648 -0 -1.2 0
-10.503 -5.807 27.576 -0 -1.2 0
-10.471 -6.323 27.495 -0 -1.2 0
-10.435 -6.838 27.406 -0 -1.2 0
-10.395 -7.351 27.309 -0 -1.2 0
-10.353 -7.862 27.204 -0 -1.2 0
-10.307 -8.371 27.09 -0 -1.2 0
-10.258 -8.877 26.967 -0 -1.2 0
-10.206 -9.382 26.838 -0 -1.2 0
-10.152 -9.884 26.698 -0 -1.2 0
-10.093 -10.383 26.551 -0 -1.2 0
-10.033 -10.88 26.397 -0 -1.2 0
-9.968 -11.373 26.234 -0 -1.2 0
-9.901 -11.863 26.063 -0 -1.2 0
-9.831 -12.35 25.884 -0 -1.2 0
-9.758 -12.834 25.697 -0 -1.2 0
-9.682 -13.314 25.502 -0 -1.2 0
-9.602 -13.789 25.299 -0 -1.2 0
-9.52 -14.263 25.088 -0 -1.2 0
-9.435 -14.73 24.871 -0 -1.2 0
-9.348 -15.195 24.645 -0 -1.2 0
-9.257 -15.654 24.411 -0 -1.2 0
-9.164 -16.11 24.171 -0 -1.2 0
-9.067 -16.561 23.922 -0 -1.2 0
-8.969 -17.008 23.667 -0 -1.2 0
-8.867 -17.449 23.405 -0 -1.2 0
-8.762 -17.885 23.134 -0 -1.2 0
-8.655 -18.316 22.857 -0 -1.2 0
-8.546 -18.742 22.574 -0 -1.2 0
-8.434 -19.163 22.282 -0 -1.2 0
-8.319 -19.578 21.985 -0 -1.2 0
-8.202 -19.987 21.681 -0 -1.2 0
-8.082 -20.391 21.369 -0 -1.2 0
-7.96 -20.789 21.051 -0 -1.2 0
-7.835 -21.181 20.727 -0 -1.2 0
-7.708 -21.566 20.397 -0 -1.2 0
-7.579 -21.945 20.06 -0 -1.2 0
-7.447 -22.319 19.717 -0 -1.2 0
-7.313 -22.685 19.368 -0 -1.2 0
-7.177 -23.046 19.013 -0 -1.2 0
-9.776 -0.051 28.233 -0 -1.2 0
-9.778 -0.573 28.247 -0 -1.2 0
-9.776 -1.098 28.252 -0 -1.2 0
-9.764 -2.144 28.236 -0 -1.2 0
-9.754 -2.666 28.216 -0 -1.2 0
-9.74 -3.188 28.186 -0 -1.2 0
-9.724 -3.711 28.149 -0 -1.2 0
-9.704 -4.232 28.102 -0 -1.2 0
-9.682 -4.752 28.047 -0 -1.2 0
-9.658 -5.271 27.984 -0 -1.2 0
-9.629 -5.79 27.91 -0 -1.2 0
-9.598 -6.306 27.83 -0 -1.2 0
-9.564 -6.821 27.741 -0 -1.2 0
-9.527 -7.333 27.643 -0 -1.2 0
-9.488 -7.845 27.536 -0 -1.2 0
-9.445 -8.354 27.422 -0 -1.2 0
-9.399 -8.86 27.299 -0 -1.2 0
-9.351 -9.365 27.167 -0 -1.2 0
-9.3 -9.867 27.027 -0 -1.2 0
-9.246 -10.367 26.879 -0 -1.2 0
-9.189 -10.863 26.723 -0 -1.2 0
-9.129 -11.356 26.559 -0 -1.2 0
-9.067 -11.847 26.386 -0 -1.2 0
-9.002 -12.334 26.205 -0 -1.2 0
-8.933 -12.818 26.017 -0 -1.2 0
-8.863 -13.298 25.82 -0 -1.2 0
-8.789 -13.773 25.615 -0 -1.2 0
-8.714 -14.247 25.403 -0 -1.2 0
-8.635 -14.715 25.183 -0 -1.2 0
-8.554 -15.18 24.955 -0 -1.2 0
-8.47 -15.639 24.72 -0 -1.2 0
-8.384 -16.095 24.476 -0 -1.2 0
-8.295 -16.546 24.226 -0 -1.2 0
-8.204 -16.993 23.968 -0 -1.2 0
-8.109 -17.434 23.702 -0 -1.2 0
-8.013 -17.87 23.43 -0 -1.2 0
-7.914 -18.302 23.15 -0 -1.2 0
-7.813 -18.728 22.863 -0 -1.2 0
-7.709 -19.149 22.57 -0 -1.2 0
-7.604 -19.564 22.269 -0 -1.2 0
-7.495 -19.974 21.962 -0 -1.2 0
-7.385 -20.377 21.647 -0 -1.2 0
-7.272 -20.776 21.326 -0 -1.2 0
-7.157 -21.168 20.999 -0 -1.2 0
-7.04 -21.553 20.665 -0 -1.2 0
-6.921 -21.933 20.325 -0 -1.2 0
-6.799 -22.306 19.978 -0 -1.2 0
-6.676 -22.673 19.625 -0 -1.2 0
-6.551 -23.034 19.267 -0 -1.2 0
-8.952 -0.555 28.532 -0 -1.2 0
-8.937 -2.125 28.523 -0 -1.2 0
-8.928 -2.648 28.503 -0 -1.2 0
-8.914 -3.17 28.474 -0 -1.2 0
-8.898 -3.693 28.435 -0 -1.2 0
-8.881 -4.213 28.389 -0 -1.2 0
-8.859 -4.734 28.334 -0 -1.2 0
-8.835 -5.253 28.271 -0 -1.2 0
-8.809 -5.771 28.198 -0 -1.2 0
-8.779 -6.287 28.116 -0 -1.2 0
-8.747 -6.802 28.027 -0 -1.2 0
-8.713 -7.315 27.928 -0 -1.2 0
-8.676 -7.827 27.822 -0 -1.2 0
-8.636 -8.336 27.705 -0 -1.2 0
-8.593 -8.842 27.582 -0 -1.2 0
-8.548 -9.347 27.45 -0 -1.2 0
-8.501 -9.849 27.308 -0 -1.2 0
-8.45 -10.349 27.16 -0 -1.2 0
-8.397 -10.845 27.002 -0 -1.2 0
-8.342 -11.339 26.837 -0 -1.2 0
-8.284 -11.83 26.662 -0 -1.2 0
-8.224 -12.316 26.481 -0 -1.2 0
-8.161 -12.801 26.291 -0 -1.2 0
-8.096 -13.281 26.093 -0 -1.2 0
-8.028 -13.756 25.886 -0 -1.2 0
-7.957 -14.23 25.672 -0 -1.2 0
-7.885 -14.698 25.451 -0 -1.2 0
-7.809 -15.163 25.221 -0 -1.2 0
-7.732 -15.623 24.984 -0 -1.2 0
-7.652 -16.079 24.738 -0 -1.2 0
-7.57 -16.53 24.486 -0 -1.2 0
-7.486 -16.977 24.226 -0 -1.2 0
-7.399 -17.418 23.959 -0 -1.2 0
-7.31 -17.855 23.683 -0 -1.2 0
-7.219 -18.287 23.402 -0 -1.2 0
-7.126 -18.712 23.112 -0 -1.2 0
-7.03 -19.134 22.816 -0 -1.2 0
-6.932 -19.549 22.513 -0 -1.2 0
-6.833 -19.959 22.203 -0 -1.2 0
-6.731 -20.363 21.886 -0 -1.2 0
-6.627 -20.761 21.562 -0 -1.2 0
-6.521 -21.154 21.232 -0 -1.2 0
-6.413 -21.54 20.895 -0 -1.2 0
-6.304 -21.919 20.552 -0 -1.2 0
-6.192 -22.293 20.202 -0 -1.2 0
-6.079 -22.66 19.847 -0 -1.2 0
-5.963 -23.021 19.485 -0 -1.2 0
-8.099 -2.106 28.788 -0 -1.2 0
-8.088 -2.629 28.768 -0 -1.2 0
-8.076 -3.151 28.739 -0 -1.2 0
-8.06 -3.674 28.701 -0 -1.2 0
-8.043 -4.194 28.654 -0 -1.2 0
-8.023 -4.715 28.598 -0 -1.2 0
-8 -5.234 28.535 -0 -1.2 0
-7.975 -5.752 28.461 -0 -1.2 0
-7.948 -6.269 28.38 -0 -1.2 0
-7.918 -6.784 28.29 -0 -1.2 0
-7.886 -7.297 28.191 -0 -1.2 0
-7.851 -7.808 28.084 -0 -1.2 0
-7.815 -8.317 27.967 -0 -1.2 0
-7.775 -8.824 27.843 -0 -1.2 0
-7.733 -9.329 27.71 -0 -1.2 0
-7.689 -9.831 27.568 -0 -1.2 0
-7.643 -10.331 27.418 -0 -1.2 0
-7.594 -10.827 27.26 -0 -1.2 0
-7.544 -11.321 27.093 -0 -1.2 0
-7.489 -11.812 26.918 -0 -1.2 0
-7.435 -12.299 26.735 -0 -1.2 0
-7.376 -12.783 26.543 -0 -1.2 0
-7.316 -13.263 26.345 -0 -1.2 0
-7.254 -13.739 26.137 -0 -1.2 0
-7.189 -14.213 25.921 -0 -1.2 0
-7.123 -14.681 25.698 -0 -1.2 0
-7.054 -15.146 25.466 -0 -1.2 0
-6.983 -15.606 25.227 -0 -1.2 0
-6.909 -16.063 24.98 -0 -1.2 0
-6.834 -16.514 24.726 -0 -1.2 0
-6.757 -16.961 24.464 -0 -1.2 0
-6.678 -17.403 24.194 -0 -1.2 0
-6.597 -17.839 23.918 -0 -1.2 0
-6.513 -18.271 23.633 -0 -1.2 0
-6.428 -18.697 23.342 -0 -1.2 0
-6.341 -19.119 23.043 -0 -1.2 0
-6.251 -19.534 22.738 -0 -1.2 0
-6.16 -19.945 22.426 -0 -1.2 0
-6.067 -20.348 22.106 -0 -1.2 0
-5.973 -20.747 21.78 -0 -1.2 0
-5.875 -21.14 21.447 -0 -1.2 0
-5.778 -21.526 21.108 -0 -1.2 0
-5.677 -21.906 20.762 -0 -1.2 0
-5.575 -22.28 20.41 -0 -1.2 0
-5.472 -22.647 20.051 -0 -1.2 0
-5.367 -23.009 19.687 -0 -1.2 0
-7.186 -1.56 29.059 -0 -1.2 0
-7.179 -2.083 29.047 -0 -1.2 0
-7.168 -2.606 29.028 -0 -1.2 0
-7.157 -3.128 28.999 -0 -1.2 0
-7.141 -3.651 28.961 -0 -1.2 0
-7.125 -4.172 28.914 -0 -1.2 0
-7.106 -4.692 28.858 -0 -1.2 0
-7.086 -5.211 28.794 -0 -1.2 0
-7.062 -5.73 28.721 -0 -1.2 0
-7.037 -6.246 28.639 -0 -1.2 0
-7.009 -6.761 28.549 -0 -1.2 0
-6.98 -7.274 28.45 -0 -1.2 0
-6.948 -7.786 28.342 -0 -1.2 0
-6.914 -8.295 28.226 -0 -1.2 0
-6.878 -8.802 28.1 -0 -1.2 0
-6.84 -9.306 27.966 -0 -1.2 0
-6.8 -9.809 27.824 -0 -1.2 0
-6.757 -10.309 27.674 -0 -1.2 0
-6.713 -10.806 27.514 -0 -1.2 0
-6.667 -11.299 27.346 -0 -1.2 0
-6.619 -11.79 27.17 -0 -1.2 0
-6.569 -12.277 26.986 -0 -1.2 0
-6.517 -12.762 26.793 -0 -1.2 0
-6.462 -13.242 26.592 -0 -1.2 0
-6.406 -13.718 26.384 -0 -1.2 0
-6.348 -14.192 26.167 -0 -1.2 0
-6.288 -14.661 25.942 -0 -1.2 0
-6.226 -15.126 25.709 -0 -1.2 0
-6.162 -15.586 25.469 -0 -1.2 0
-6.096 -16.043 25.22 -0 -1.2 0
-6.028 -16.494 24.964 -0 -1.2 0
-5.958 -16.941 24.7 -0 -1.2 0
-5.888 -17.383 24.428 -0 -1.2 0
-5.815 -17.82 24.149 -0 -1.2 0
-5.74 -18.252 23.864 -0 -1.2 0
-5.662 -18.678 23.57 -0 -1.2 0
-5.584 -19.1 23.269 -0 -1.2 0
-5.505 -19.516 22.961 -0 -1.2 0
-5.423 -19.926 22.646 -0 -1.2 0
-5.339 -20.331 22.325 -0 -1.2 0
-5.255 -20.73 21.996 -0 -1.2 0
-5.168 -21.122 21.661 -0 -1.2 0
-5.08 -21.509 21.319 -0 -1.2 0
-4.991 -21.889 20.97 -0 -1.2 0
-4.9 -22.263 20.616 -0 -1.2 0
-4.807 -22.631 20.255 -0 -1.2 0
-4.712 -22.993 19.888 -0 -1.2 0
-6.327 -1.539 29.274 -0 -1.2 0
-6.319 -2.062 29.264 -0 -1.2 0
-6.309 -2.584 29.244 -0 -1.2 0
-6.297 -3.106 29.215 -0 -1.2 0
-6.283 -3.629 29.178 -0 -1.2 0
-6.267 -4.15 29.131 -0 -1.2 0
-6.249 -4.67 29.076 -0 -1.2 0
-6.229 -5.189 29.011 -0 -1.2 0
-6.208 -5.708 28.938 -0 -1.2 0
-6.16 -6.74 28.765 -0 -1.2 0
-6.132 -7.253 28.665 -0 -1.2 0
-6.103 -7.764 28.557 -0 -1.2 0
-6.072 -8.274 28.44 -0 -1.2 0
-6.039 -8.781 28.314 -0 -1.2 0
-6.004 -9.286 28.18 -0 -1.2 0
-5.93 -10.288 27.886 -0 -1.2 0
-5.89 -10.785 27.726 -0 -1.2 0
-5.849 -11.279 27.557 -0 -1.2 0
-5.804 -11.77 27.38 -0 -1.2 0
-5.759 -12.257 27.195 -0 -1.2 0
-5.713 -12.742 27.001 -0 -1.2 0
-5.663 -13.222 26.799 -0 -1.2 0
-5.613 -13.699 26.59 -0 -1.2 0
-5.56 -14.173 26.371 -0 -1.2 0
-5.507 -14.641 26.145 -0 -1.2 0
-5.451 -15.107 25.911 -0 -1.2 0
-5.394 -15.567 25.669 -0 -1.2 0
-5.335 -16.024 25.419 -0 -1.2 0
-5.275 -16.475 25.162 -0 -1.2 0
-5.212 -16.923 24.896 -0 -1.2 0
-5.149 -17.365 24.623 -0 -1.2 0
-5.083 -17.802 24.343 -0 -1.2 0
-5.017 -18.235 24.056 -0 -1.2 0
-4.948 -18.661 23.76 -0 -1.2 0
-4.878 -19.083 23.457 -0 -1.2 0
-4.807 -19.499 23.148 -0 -1.2 0
-4.734 -19.91 22.831 -0 -1.2 0
-4.66 -20.314 22.508 -0 -1.2 0
-4.584 -20.713 22.177 -0 -1.2 0
-4.507 -21.106 21.84 -0 -1.2 0
-4.429 -21.493 21.496 -0 -1.2 0
-4.349 -21.874 21.145 -0 -1.2 0
-4.267 -22.248 20.789 -0 -1.2 0
-4.185 -22.616 20.425 -0 -1.2 0
-4.101 -22.978 20.055 -0 -1.2 0
-5.477 -2.057 29.448 -0 -1.2 0
-5.466 -2.579 29.427 -0 -1.2 0
-5.453 -3.102 29.399 -0 -1.2 0
-5.439 -3.625 29.361 -0 -1.2 0
-5.406 -4.666 29.259 -0 -1.2 0
-5.367 -5.704 29.121 -0 -1.2 0
-5.268 -7.76 28.738 -0 -1.2 0
-5.239 -8.269 28.621 -0 -1.2 0
-5.208 -8.776 28.494 -0 -1.2 0
-5.177 -9.281 28.36 -0 -1.2 0
-5.143 -9.783 28.216 -0 -1.2 0
-5.108 -10.284 28.064 -0 -1.2 0
-5.072 -10.78 27.903 -0 -1.2 0
-5.033 -11.274 27.733 -0 -1.2 0
-4.994 -11.765 27.556 -0 -1.2 0
-4.953 -12.252 27.37 -0 -1.2 0
-4.91 -12.737 27.175 -0 -1.2 0
-4.866 -13.218 26.972 -0 -1.2 0
-4.82 -13.694 26.761 -0 -1.2 0
-4.773 -14.168 26.542 -0 -1.2 0
-4.725 -14.637 26.315 -0 -1.2 0
-4.674 -15.102 26.079 -0 -1.2 0
-4.623 -15.562 25.836 -0 -1.2 0
-4.57 -16.019 25.585 -0 -1.2 0
-4.516 -16.471 25.325 -0 -1.2 0
-4.46 -16.918 25.059 -0 -1.2 0
-4.403 -17.361 24.784 -0 -1.2 0
-4.345 -17.798 24.503 -0 -1.2 0
-4.286 -18.23 24.214 -0 -1.2 0
-4.224 -18.657 23.916 -0 -1.2 0
-4.162 -19.079 23.612 -0 -1.2 0
-4.099 -19.495 23.301 -0 -1.2 0
-4.034 -19.905 22.983 -0 -1.2 0
-3.968 -20.31 22.658 -0 -1.2 0
-3.901 -20.709 22.325 -0 -1.2 0
-3.832 -21.102 21.987 -0 -1.2 0
-3.763 -21.489 21.64 -0 -1.2 0
-3.692 -21.87 21.288 -0 -1.2 0
-3.621 -22.244 20.929 -0 -1.2 0
-3.547 -22.612 20.564 -0 -1.2 0
-3.473 -22.974 20.192 -0 -1.2 0
-4.365 -7.239 29.021 -0 -1.2 0
-4.258 -9.272 28.532 -0 -1.2 0
-4.228 -9.774 28.387 -0 -1.2 0
-4.196 -10.274 28.235 -0 -1.2 0
-4.163 -10.771 28.073 -0 -1.2 0
-4.129 -11.265 27.903 -0 -1.2 0
-4.094 -11.756 27.725 -0 -1.2 0
-4.058 -12.243 27.537 -0 -1.2 0
-4.02 -12.728 27.342 -0 -1.2 0
-3.981 -13.209 27.138 -0 -1.2 0
-3.94 -13.685 26.926 -0 -1.2 0
-3.899 -14.159 26.706 -0 -1.2 0
-3.857 -14.628 26.477 -0 -1.2 0
-3.813 -15.093 26.241 -0 -1.2 0
-3.768 -15.554 25.996 -0 -1.2 0
-3.722 -16.011 25.744 -0 -1.2 0
-3.674 -16.462 25.484 -0 -1.2 0
-3.626 -16.91 25.216 -0 -1.2 0
-3.577 -17.352 24.941 -0 -1.2 0
-3.526 -17.789 24.657 -0 -1.2 0
-3.474 -18.222 24.366 -0 -1.2 0
-3.422 -18.648 24.068 -0 -1.2 0
-3.368 -19.071 23.763 -0 -1.2 0
-3.313 -19.487 23.449 -0 -1.2 0
-3.258 -19.897 23.13 -0 -1.2 0
-3.202 -20.302 22.803 -0 -1.2 0
-3.144 -20.701 22.469 -0 -1.2 0
-3.085 -21.094 22.128 -0 -1.2 0
-3.025 -21.481 21.78 -0 -1.2 0
-2.965 -21.862 21.426 -0 -1.2 0
-2.903 -22.237 21.065 -0 -1.2 0
-2.841 -22.605 20.698 -0 -1.2 0
-2.778 -22.967 20.325 -0 -1.2 0
-3.388 -9.26 28.668 -0 -1.2 0
-3.362 -9.762 28.524 -0 -1.2 0
-3.304 -10.76 28.208 -0 -1.2 0
-3.274 -11.253 28.037 -0 -1.2 0
-3.243 -11.745 27.859 -0 -1.2 0
-3.211 -12.232 27.67 -0 -1.2 0
-3.177 -12.717 27.474 -0 -1.2 0
-3.143 -13.198 27.27 -0 -1.2 0
-3.108 -13.674 27.057 -0 -1.2 0
-3.073 -14.148 26.836 -0 -1.2 0
-3.035 -14.617 26.607 -0 -1.2 0
-2.998 -15.082 26.37 -0 -1.2 0
-2.959 -15.543 26.124 -0 -1.2 0
-2.92 -16 25.871 -0 -1.2 0
-2.879 -16.452 25.61 -0 -1.2 0
-2.837 -16.899 25.34 -0 -1.2 0
-2.795 -17.342 25.064 -0 -1.2 0
-2.752 -17.779 24.779 -0 -1.2 0
-2.708 -18.212 24.488 -0 -1.2 0
-2.663 -18.638 24.188 -0 -1.2 0
-2.618 -19.061 23.881 -0 -1.2 0
-2.571 -19.477 23.567 -0 -1.2 0
-2.524 -19.888 23.247 -0 -1.2 0
-2.475 -20.292 22.918 -0 -1.2 0
-2.428 -20.692 22.582 -0 -1.2 0
-2.378 -21.085 22.241 -0 -1.2 0
-2.327 -21.472 21.892 -0 -1.2 0
-2.276 -21.853 21.537 -0 -1.2 0
-2.225 -22.228 21.174 -0 -1.2 0
-2.173 -22.596 20.806 -0 -1.2 0
-2.119 -22.958 20.431 -0 -1.2 0
-2.539 -8.739 28.915 -0 -1.2 0
-2.415 -11.237 28.147 -0 -1.2 0
-2.389 -11.729 27.967 -0 -1.2 0
-2.361 -12.216 27.779 -0 -1.2 0
-2.332 -12.701 27.582 -0 -1.2 0
-2.303 -13.182 27.377 -0 -1.2 0
-2.274 -13.658 27.164 -0 -1.2 0
-2.242 -14.132 26.942 -0 -1.2 0
-2.211 -14.601 26.712 -0 -1.2 0
-2.179 -15.067 26.474 -0 -1.2 0
-2.147 -15.528 26.228 -0 -1.2 0
-2.113 -15.985 25.974 -0 -1.2 0
-2.08 -16.437 25.712 -0 -1.2 0
-2.045 -16.884 25.442 -0 -1.2 0
-2.01 -17.327 25.164 -0 -1.2 0
-1.975 -17.764 24.879 -0 -1.2 0
-1.938 -18.197 24.586 -0 -1.2 0
-1.901 -18.624 24.286 -0 -1.2 0
-1.863 -19.047 23.979 -0 -1.2 0
-1.826 -19.463 23.664 -0 -1.2 0
-1.786 -19.874 23.342 -0 -1.2 0
-1.747 -20.279 23.012 -0 -1.2 0
-1.708 -20.678 22.676 -0 -1.2 0
-1.667 -21.072 22.333 -0 -1.2 0
-1.627 -21.459 21.984 -0 -1.2 0
-1.586 -21.84 21.627 -0 -1.2 0
-1.544 -22.215 21.263 -0 -1.2 0
-1.502 -22.583 20.894 -0 -1.2 0
-1.459 -22.946 20.518 -0 -1.2 0
-1.614 -8.211 29.135 -0 -1.2 0
-1.533 -10.226 28.57 -0 -1.2 0
-1.489 -11.217 28.237 -0 -1.2 0
-1.466 -11.709 28.056 -0 -1.2 0
-1.443 -12.196 27.868 -0 -1.2 0
-1.42 -12.681 27.671 -0 -1.2 0
-1.396 -13.162 27.465 -0 -1.2 0
-1.372 -13.639 27.252 -0 -1.2 0
-1.347 -14.113 27.029 -0 -1.2 0
-1.322 -14.582 26.8 -0 -1.2 0
-1.297 -15.048 26.561 -0 -1.2 0
-1.271 -15.509 26.314 -0 -1.2 0
-1.245 -15.966 26.06 -0 -1.2 0
-1.218 -16.418 25.797 -0 -1.2 0
-1.191 -16.866 25.527 -0 -1.2 0
-1.164 -17.309 25.249 -0 -1.2 0
-1.136 -17.746 24.963 -0 -1.2 0
-1.108 -18.179 24.67 -0 -1.2 0
-1.08 -18.606 24.369 -0 -1.2 0
-1.051 -19.029 24.06 -0 -1.2 0
-1.021 -19.445 23.745 -0 -1.2 0
-0.992 -19.857 23.422 -0 -1.2 0
-0.962 -20.262 23.092 -0 -1.2 0
-0.933 -20.662 22.755 -0 -1.2 0
-0.902 -21.055 22.411 -0 -1.2 0
-0.871 -21.443 22.061 -0 -1.2 0
-0.841 -21.824 21.704 -0 -1.2 0
-0.809 -22.199 21.339 -0 -1.2 0
-0.778 -22.568 20.968 -0 -1.2 0
-0.746 -22.931 20.592 -0 -1.2 0
-0.754 -8.187 29.193 -0 -1.2 0
-0.72 -9.2 28.929 -0 -1.2 0
-0.702 -9.702 28.783 -0 -1.2 0
-0.667 -10.7 28.466 -0 -1.2 0
-0.648 -11.194 28.294 -0 -1.2 0
-0.63 -11.686 28.114 -0 -1.2 0
-0.593 -12.659 27.728 -0 -1.2 0
-0.574 -13.14 27.522 -0 -1.2 0
-0.554 -13.616 27.309 -0 -1.2 0
-0.536 -14.091 27.086 -0 -1.2 0
-0.516 -14.56 26.855 -0 -1.2 0
-0.496 -15.026 26.617 -0 -1.2 0
-0.476 -15.487 26.371 -0 -1.2 0
-0.456 -15.944 26.115 -0 -1.2 0
-0.436 -16.397 25.852 -0 -1.2 0
-0.416 -16.845 25.582 -0 -1.2 0
-0.396 -17.288 25.304 -0 -1.2 0
-0.376 -17.725 25.018 -0 -1.2 0
-0.354 -18.159 24.724 -0 -1.2 0
-0.334 -18.586 24.423 -0 -1.2 0
-0.313 -19.009 24.114 -0 -1.2 0
-0.291 -19.426 23.799 -0 -1.2 0
-0.271 -19.837 23.475 -0 -1.2 0
-0.249 -20.242 23.145 -0 -1.2 0
-0.228 -20.643 22.807 -0 -1.2 0
-0.207 -21.036 22.463 -0 -1.2 0
-0.186 -21.424 22.112 -0 -1.2 0
-0.164 -21.806 21.755 -0 -1.2 0
-0.143 -22.181 21.39 -0 -1.2 0
-0.121 -22.55 21.019 -0 -1.2 0
-0.099 -22.913 20.641 -0 -1.2 0
0.131 -9.173 28.962 -0 -1.2 0
0.218 -12.147 27.959 -0 -1.2 0
0.26 -13.591 27.342 -0 -1.2 0
0.302 -15.001 26.65 -0 -1.2 0
0.316 -15.462 26.404 -0 -1.2 0
0.329 -15.92 26.149 -0 -1.2 0
0.343 -16.372 25.886 -0 -1.2 0
0.356 -16.821 25.615 -0 -1.2 0
0.37 -17.264 25.337 -0 -1.2 0
0.383 -17.702 25.051 -0 -1.2 0
0.396 -18.135 24.757 -0 -1.2 0
0.41 -18.563 24.455 -0 -1.2 0
0.422 -18.986 24.147 -0 -1.2 0
0.435 -19.403 23.831 -0 -1.2 0
0.448 -19.815 23.507 -0 -1.2 0
0.46 -20.22 23.178 -0 -1.2 0
0.473 -20.621 22.84 -0 -1.2 0
0.485 -21.015 22.496 -0 -1.2 0
0.498 -21.403 22.145 -0 -1.2 0
0.51 -21.785 21.787 -0 -1.2 0
0.522 -22.16 21.422 -0 -1.2 0
0.533 -22.53 21.051 -0 -1.2 0
0.544 -22.893 20.674 -0 -1.2 0
1.145 -9.143 28.966 -0 -1.2 0
1.174 -10.645 28.503 -0 -1.2 0
1.193 -11.631 28.152 -0 -1.2 0
1.209 -12.604 27.767 -0 -1.2 0
1.224 -13.563 27.347 -0 -1.2 0
1.239 -14.507 26.894 -0 -1.2 0
1.244 -14.974 26.656 -0 -1.2 0
1.251 -15.435 26.41 -0 -1.2 0
1.256 -15.893 26.155 -0 -1.2 0
1.262 -16.346 25.892 -0 -1.2 0
1.266 -16.794 25.622 -0 -1.2 0
1.271 -17.238 25.343 -0 -1.2 0
1.275 -17.676 25.058 -0 -1.2 0
1.279 -18.11 24.763 -0 -1.2 0
1.281 -18.538 24.462 -0 -1.2 0
1.285 -18.961 24.154 -0 -1.2 0
1.287 -19.378 23.838 -0 -1.2 0
1.29 -19.79 23.515 -0 -1.2 0
1.291 -20.196 23.184 -0 -1.2 0
1.293 -20.597 22.848 -0 -1.2 0
1.294 -20.992 22.504 -0 -1.2 0
1.294 -21.38 22.152 -0 -1.2 0
1.295 -21.762 21.794 -0 -1.2 0
1.294 -22.138 21.431 -0 -1.2 0
1.295 -22.508 21.059 -0 -1.2 0
1.294 -22.872 20.681 -0 -1.2 0
2.113 -9.114 28.937 -0 -1.2 0
2.136 -11.602 28.124 -0 -1.2 0
2.143 -14.947 26.631 -0 -1.2 0
2.141 -15.408 26.385 -0 -1.2 0
2.139 -15.866 26.13 -0 -1.2 0
2.136 -16.319 25.868 -0 -1.2 0
2.133 -16.768 25.598 -0 -1.2 0
2.128 -17.212 25.32 -0 -1.2 0
2.123 -17.65 25.035 -0 -1.2 0
2.118 -18.084 24.741 -0 -1.2 0
2.112 -18.512 24.44 -0 -1.2 0
2.105 -18.936 24.133 -0 -1.2 0
2.098 -19.354 23.817 -0 -1.2 0
2.09 -19.766 23.494 -0 -1.2 0
2.081 -20.172 23.164 -0 -1.2 0
2.072 -20.573 22.828 -0 -1.2 0
2.062 -20.968 22.484 -0 -1.2 0
2.052 -21.357 22.133 -0 -1.2 0
2.04 -21.74 21.776 -0 -1.2 0
2.029 -22.116 21.412 -0 -1.2 0
2.016 -22.486 21.043 -0 -1.2 0
2.004 -22.85 20.665 -0 -1.2 0
3.105 -13.028 27.474 -0 -1.2 0
3.099 -13.506 27.26 -0 -1.2 0
3.075 -14.918 26.572 -0 -1.2 0
3.066 -15.38 26.326 -0 -1.2 0
3.056 -15.838 26.072 -0 -1.2 0
3.044 -16.291 25.811 -0 -1.2 0
3.032 -16.74 25.541 -0 -1.2 0
3.019 -17.184 25.265 -0 -1.2 0
3.005 -17.623 24.98 -0 -1.2 0
2.99 -18.058 24.688 -0 -1.2 0
2.974 -18.486 24.387 -0 -1.2 0
2.957 -18.91 24.08 -0 -1.2 0
2.94 -19.328 23.766 -0 -1.2 0
2.921 -19.741 23.444 -0 -1.2 0
2.901 -20.147 23.116 -0 -1.2 0
2.882 -20.549 22.779 -0 -1.2 0
2.86 -20.944 22.437 -0 -1.2 0
2.838 -21.333 22.087 -0 -1.2 0
2.815 -21.716 21.731 -0 -1.2 0
2.792 -22.093 21.368 -0 -1.2 0
2.766 -22.463 20.999 -0 -1.2 0
2.741 -22.828 20.623 -0 -1.2 0
4.059 -15.346 26.228 -0 -1.2 0
4.04 -15.805 25.976 -0 -1.2 0
4.02 -16.259 25.715 -0 -1.2 0
3.998 -16.708 25.447 -0 -1.2 0
3.974 -17.152 25.172 -0 -1.2 0
3.951 -17.591 24.888 -0 -1.2 0
3.925 -18.026 24.596 -0 -1.2 0
3.899 -18.455 24.298 -0 -1.2 0
3.871 -18.879 23.992 -0 -1.2 0
3.843 -19.298 23.679 -0 -1.2 0
3.813 -19.711 23.359 -0 -1.2 0
3.782 -20.118 23.031 -0 -1.2 0
3.75 -20.52 22.696 -0 -1.2 0
3.716 -20.915 22.355 -0 -1.2 0
3.681 -21.305 22.007 -0 -1.2 0
3.647 -21.688 21.653 -0 -1.2 0
3.61 -22.065 21.291 -0 -1.2 0
3.572 -22.436 20.923 -0 -1.2 0
3.533 -22.801 20.549 -0 -1.2 0
5.185 -9.517 28.485 -0 -1.2 0
5.154 -11.011 28.003 -0 -1.2 0
5.002 -14.853 26.349 -0 -1.2 0
4.976 -15.315 26.105 -0 -1.2 0
4.949 -15.774 25.854 -0 -1.2 0
4.92 -16.228 25.595 -0 -1.2 0
4.89 -16.678 25.328 -0 -1.2 0
4.858 -17.122 25.053 -0 -1.2 0
4.825 -17.562 24.771 -0 -1.2 0
4.79 -17.997 24.481 -0 -1.2 0
4.754 -18.426 24.184 -0 -1.2 0
4.716 -18.851 23.879 -0 -1.2 0
4.678 -19.27 23.568 -0 -1.2 0
4.637 -19.683 23.249 -0 -1.2 0
4.595 -20.09 22.924 -0 -1.2 0
4.552 -20.493 22.591 -0 -1.2 0
4.507 -20.889 22.251 -0 -1.2 0
4.461 -21.278 21.905 -0 -1.2 0
4.414 -21.662 21.552 -0 -1.2 0
4.366 -22.04 21.193 -0 -1.2 0
4.316 -22.411 20.827 -0 -1.2 0
4.265 -22.776 20.454 -0 -1.2 0
6.125 -10.976 27.836 -0 -1.2 0
6.062 -12.444 27.281 -0 -1.2 0
5.922 -14.819 26.192 -0 -1.2 0
5.888 -15.282 25.95 -0 -1.2 0
5.853 -15.741 25.701 -0 -1.2 0
5.815 -16.195 25.442 -0 -1.2 0
5.776 -16.645 25.178 -0 -1.2 0
5.735 -17.09 24.905 -0 -1.2 0
5.693 -17.53 24.624 -0 -1.2 0
5.649 -17.966 24.336 -0 -1.2 0
5.603 -18.395 24.041 -0 -1.2 0
5.556 -18.82 23.739 -0 -1.2 0
5.507 -19.239 23.429 -0 -1.2 0
5.456 -19.653 23.112 -0 -1.2 0
5.404 -20.061 22.789 -0 -1.2 0
5.35 -20.463 22.458 -0 -1.2 0
5.294 -20.86 22.12 -0 -1.2 0
5.237 -21.25 21.776 -0 -1.2 0
5.177 -21.634 21.426 -0 -1.2 0
5.117 -22.012 21.069 -0 -1.2 0
5.055 -22.384 20.705 -0 -1.2 0
4.991 -22.75 20.335 -0 -1.2 0
7.164 -10.936 27.621 -0 -1.2 0
7.14 -11.429 27.445 -0 -1.2 0
7.112 -11.918 27.262 -0 -1.2 0
7.051 -12.888 26.87 -0 -1.2 0
6.904 -14.782 25.989 -0 -1.2 0
6.863 -15.245 25.749 -0 -1.2 0
6.819 -15.704 25.5 -0 -1.2 0
6.772 -16.159 25.245 -0 -1.2 0
6.725 -16.609 24.982 -0 -1.2 0
6.674 -17.054 24.711 -0 -1.2 0
6.622 -17.495 24.434 -0 -1.2 0
6.568 -17.93 24.148 -0 -1.2 0
6.512 -18.36 23.854 -0 -1.2 0
6.454 -18.786 23.555 -0 -1.2 0
6.394 -19.205 23.248 -0 -1.2 0
6.332 -19.62 22.934 -0 -1.2 0
6.268 -20.028 22.612 -0 -1.2 0
6.202 -20.431 22.284 -0 -1.2 0
6.135 -20.828 21.949 -0 -1.2 0
6.065 -21.219 21.608 -0 -1.2 0
5.993 -21.603 21.261 -0 -1.2 0
5.92 -21.982 20.906 -0 -1.2 0
5.846 -22.354 20.546 -0 -1.2 0
5.769 -22.72 20.179 -0 -1.2 0
8.108 -10.39 27.568 -0 -1.2 0
8.08 -10.885 27.402 -0 -1.2 0
8.018 -11.868 27.047 -0 -1.2 0
7.983 -12.355 26.856 -0 -1.2 0
7.865 -13.794 26.238 -0 -1.2 0
7.821 -14.266 26.015 -0 -1.2 0
7.774 -14.734 25.785 -0 -1.2 0
7.726 -15.197 25.548 -0 -1.2 0
7.675 -15.657 25.301 -0 -1.2 0
7.621 -16.112 25.048 -0 -1.2 0
7.565 -16.563 24.788 -0 -1.2 0
7.507 -17.009 24.519 -0 -1.2 0
7.447 -17.45 24.243 -0 -1.2 0
7.384 -17.886 23.961 -0 -1.2 0
7.319 -18.316 23.67 -0 -1.2 0
7.252 -18.742 23.373 -0 -1.2 0
7.182 -19.162 23.068 -0 -1.2 0
7.111 -19.577 22.757 -0 -1.2 0
7.037 -19.986 22.438 -0 -1.2 0
6.962 -20.39 22.113 -0 -1.2 0
6.884 -20.787 21.782 -0 -1.2 0
6.804 -21.178 21.443 -0 -1.2 0
6.722 -21.564 21.099 -0 -1.2 0
6.637 -21.943 20.748 -0 -1.2 0
6.552 -22.316 20.39 -0 -1.2 0
6.463 -22.683 20.027 -0 -1.2 0
8.995 -10.327 27.33 -0 -1.2 0
8.963 -10.823 27.167 -0 -1.2 0
8.893 -11.807 26.814 -0 -1.2 0
8.853 -12.294 26.626 -0 -1.2 0
8.81 -12.778 26.431 -0 -1.2 0
8.765 -13.257 26.226 -0 -1.2 0
8.718 -13.734 26.014 -0 -1.2 0
8.668 -14.206 25.794 -0 -1.2 0
8.615 -14.675 25.566 -0 -1.2 0
8.559 -15.139 25.331 -0 -1.2 0
8.502 -15.6 25.088 -0 -1.2 0
8.441 -16.055 24.837 -0 -1.2 0
8.378 -16.507 24.579 -0 -1.2 0
8.312 -16.953 24.313 -0 -1.2 0
8.244 -17.394 24.04 -0 -1.2 0
8.174 -17.831 23.76 -0 -1.2 0
8.1 -18.262 23.473 -0 -1.2 0
8.024 -18.689 23.178 -0 -1.2 0
7.947 -19.109 22.877 -0 -1.2 0
7.867 -19.525 22.568 -0 -1.2 0
7.783 -19.934 22.252 -0 -1.2 0
7.698 -20.339 21.931 -0 -1.2 0
7.611 -20.737 21.603 -0 -1.2 0
7.521 -21.129 21.267 -0 -1.2 0
7.43 -21.515 20.926 -0 -1.2 0
7.335 -21.895 20.578 -0 -1.2 0
7.239 -22.269 20.224 -0 -1.2 0
7.14 -22.636 19.865 -0 -1.2 0
9.893 -10.755 26.886 -0 -1.2 0
9.854 -11.249 26.716 -0 -1.2 0
9.811 -11.739 26.538 -0 -1.2 0
9.767 -12.227 26.352 -0 -1.2 0
9.719 -12.711 26.159 -0 -1.2 0
9.669 -13.191 25.957 -0 -1.2 0
9.615 -13.669 25.748 -0 -1.2 0
9.558 -14.141 25.53 -0 -1.2 0
9.5 -14.611 25.305 -0 -1.2 0
9.437 -15.075 25.072 -0 -1.2 0
9.372 -15.536 24.832 -0 -1.2 0
9.304 -15.992 24.584 -0 -1.2 0
9.233 -16.444 24.329 -0 -1.2 0
9.159 -16.891 24.067 -0 -1.2 0
9.083 -17.333 23.797 -0 -1.2 0
9.004 -17.771 23.52 -0 -1.2 0
8.923 -18.202 23.235 -0 -1.2 0
8.839 -18.63 22.944 -0 -1.2 0
8.751 -19.051 22.647 -0 -1.2 0
8.661 -19.467 22.342 -0 -1.2 0
8.569 -19.878 22.03 -0 -1.2 0
8.474 -20.283 21.712 -0 -1.2 0
8.377 -20.682 21.387 -0 -1.2 0
8.277 -21.075 21.056 -0 -1.2 0
8.174 -21.461 20.718 -0 -1.2 0
8.069 -21.842 20.375 -0 -1.2 0
7.962 -22.217 20.025 -0 -1.2 0
7.852 -22.585 19.669 -0 -1.2 0
10.739 -10.689 26.601 -0 -1.2 0
10.696 -11.183 26.434 -0 -1.2 0
10.65 -11.674 26.258 -0 -1.2 0
10.6 -12.162 26.074 -0 -1.2 0
10.548 -12.647 25.884 -0 -1.2 0
10.491 -13.127 25.684 -0 -1.2 0
10.433 -13.605 25.477 -0 -1.2 0
10.371 -14.078 25.262 -0 -1.2 0
10.305 -14.548 25.04 -0 -1.2 0
10.237 -15.013 24.81 -0 -1.2 0
10.165 -15.475 24.572 -0 -1.2 0
10.09 -15.931 24.328 -0 -1.2 0
10.013 -16.384 24.076 -0 -1.2 0
9.932 -16.831 23.817 -0 -1.2 0
9.848 -17.274 23.55 -0 -1.2 0
9.762 -17.712 23.276 -0 -1.2 0
9.673 -18.144 22.996 -0 -1.2 0
9.58 -18.572 22.708 -0 -1.2 0
9.485 -18.994 22.413 -0 -1.2 0
9.386 -19.411 22.113 -0 -1.2 0
9.285 -19.822 21.804 -0 -1.2 0
9.181 -20.228 21.49 -0 -1.2 0
9.074 -20.628 21.17 -0 -1.2 0
8.966 -21.022 20.842 -0 -1.2 0
8.853 -21.409 20.508 -0 -1.2 0
8.738 -21.791 20.169 -0 -1.2 0
8.62 -22.166 19.824 -0 -1.2 0
8.5 -22.536 19.472 -0 -1.2 0
11.637 -10.615 26.266 -0 -1.2 0
11.59 -11.11 26.1 -0 -1.2 0
11.54 -11.601 25.927 -0 -1.2 0
11.484 -12.09 25.747 -0 -1.2 0
11.427 -12.574 25.558 -0 -1.2 0
11.366 -13.055 25.361 -0 -1.2 0
11.301 -13.534 25.157 -0 -1.2 0
11.233 -14.007 24.945 -0 -1.2 0
11.161 -14.478 24.727 -0 -1.2 0
11.086 -14.943 24.5 -0 -1.2 0
11.008 -15.406 24.266 -0 -1.2 0
10.926 -15.863 24.024 -0 -1.2 0
10.84 -16.316 23.776 -0 -1.2 0
10.752 -16.764 23.52 -0 -1.2 0
10.661 -17.208 23.257 -0 -1.2 0
10.566 -17.647 22.988 -0 -1.2 0
10.468 -18.08 22.711 -0 -1.2 0
10.368 -18.508 22.428 -0 -1.2 0
10.263 -18.931 22.137 -0 -1.2 0
10.155 -19.349 21.84 -0 -1.2 0
10.046 -19.761 21.537 -0 -1.2 0
9.932 -20.167 21.226 -0 -1.2 0
9.815 -20.568 20.911 -0 -1.2 0
9.696 -20.963 20.587 -0 -1.2 0
9.574 -21.351 20.259 -0 -1.2 0
9.449 -21.733 19.924 -0 -1.2 0
9.321 -22.11 19.583 -0 -1.2 0
9.189 -22.48 19.236 -0 -1.2 0
12.41 -11.041 25.765 -0 -1.2 0
12.354 -11.532 25.595 -0 -1.2 0
12.295 -12.021 25.416 -0 -1.2 0
12.233 -12.506 25.231 -0 -1.2 0
12.167 -12.988 25.037 -0 -1.2 0
12.096 -13.467 24.835 -0 -1.2 0
12.023 -13.941 24.628 -0 -1.2 0
11.945 -14.412 24.411 -0 -1.2 0
11.864 -14.878 24.188 -0 -1.2 0
11.78 -15.341 23.958 -0 -1.2 0
11.692 -15.799 23.719 -0 -1.2 0
11.6 -16.253 23.474 -0 -1.2 0
11.505 -16.701 23.222 -0 -1.2 0
11.406 -17.145 22.963 -0 -1.2 0
11.304 -17.585 22.697 -0 -1.2 0
11.198 -18.019 22.425 -0 -1.2 0
11.089 -18.448 22.145 -0 -1.2 0
10.977 -18.872 21.859 -0 -1.2 0
10.861 -19.29 21.566 -0 -1.2 0
10.742 -19.703 21.267 -0 -1.2 0
10.62 -20.11 20.961 -0 -1.2 0
10.495 -20.512 20.649 -0 -1.2 0
10.366 -20.907 20.332 -0 -1.2 0
10.234 -21.296 20.007 -0 -1.2 0
10.1 -21.68 19.677 -0 -1.2 0
9.963 -22.057 19.34 -0 -1.2 0
9.822 -22.428 18.999 -0 -1.2 0
13.257 -10.966 25.386 -0 -1.2 0
13.196 -11.458 25.219 -0 -1.2 0
13.132 -11.948 25.043 -0 -1.2 0
13.065 -12.434 24.86 -0 -1.2 0
12.993 -12.915 24.669 -0 -1.2 0
12.917 -13.395 24.471 -0 -1.2 0
12.838 -13.87 24.267 -0 -1.2 0
12.755 -14.341 24.054 -0 -1.2 0
12.668 -14.808 23.834 -0 -1.2 0
12.577 -15.271 23.607 -0 -1.2 0
12.481 -15.73 23.373 -0 -1.2 0
12.383 -16.184 23.132 -0 -1.2 0
12.28 -16.634 22.885 -0 -1.2 0
12.175 -17.078 22.63 -0 -1.2 0
12.065 -17.519 22.368 -0 -1.2 0
11.951 -17.953 22.099 -0 -1.2 0
11.834 -18.384 21.825 -0 -1.2 0
11.713 -18.808 21.543 -0 -1.2 0
11.589 -19.227 21.254 -0 -1.2 0
11.462 -19.641 20.96 -0 -1.2 0
11.331 -20.049 20.659 -0 -1.2 0
11.196 -20.451 20.353 -0 -1.2 0
11.057 -20.847 20.04 -0 -1.2 0
10.916 -21.238 19.72 -0 -1.2 0
10.772 -21.622 19.395 -0 -1.2 0
10.624 -22 19.065 -0 -1.2 0
10.473 -22.372 18.728 -0 -1.2 0
14.098 -11.383 24.775 -0 -1.2 0
14.029 -11.873 24.603 -0 -1.2 0
13.956 -12.359 24.423 -0 -1.2 0
13.878 -12.841 24.237 -0 -1.2 0
13.797 -13.322 24.043 -0 -1.2 0
13.711 -13.797 23.841 -0 -1.2 0
13.621 -14.269 23.633 -0 -1.2 0
13.528 -14.736 23.416 -0 -1.2 0
13.429 -15.2 23.194 -0 -1.2 0
13.328 -15.66 22.965 -0 -1.2 0
13.221 -16.115 22.727 -0 -1.2 0
13.112 -16.565 22.484 -0 -1.2 0
12.998 -17.01 22.234 -0 -1.2 0
12.88 -17.451 21.978 -0 -1.2 0
12.758 -17.887 21.713 -0 -1.2 0
12.632 -18.318 21.444 -0 -1.2 0
12.503 -18.743 21.168 -0 -1.2 0
12.369 -19.163 20.885 -0 -1.2 0
12.232 -19.577 20.596 -0 -1.2 0
12.092 -19.986 20.3 -0 -1.2 0
11.947 -20.389 19.999 -0 -1.2 0
11.799 -20.787 19.692 -0 -1.2 0
11.647 -21.178 19.379 -0 -1.2 0
11.492 -21.563 19.06 -0 -1.2 0
11.334 -21.942 18.735 -0 -1.2 0
11.172 -22.315 18.404 -0 -1.2 0
14.915 -11.316 24.336 -0 -1.2 0
14.842 -11.807 24.166 -0 -1.2 0
14.764 -12.294 23.989 -0 -1.2 0
14.682 -12.776 23.806 -0 -1.2 0
14.595 -13.257 23.615 -0 -1.2 0
14.504 -13.733 23.417 -0 -1.2 0
14.409 -14.205 23.212 -0 -1.2 0
14.31 -14.673 23.001 -0 -1.2 0
14.205 -15.138 22.782 -0 -1.2 0
14.097 -15.597 22.556 -0 -1.2 0
13.984 -16.053 22.324 -0 -1.2 0
13.867 -16.504 22.085 -0 -1.2 0
13.746 -16.95 21.839 -0 -1.2 0
13.621 -17.392 21.586 -0 -1.2 0
13.492 -17.827 21.328 -0 -1.2 0
13.359 -18.259 21.063 -0 -1.2 0
13.221 -18.685 20.791 -0 -1.2 0
13.079 -19.106 20.513 -0 -1.2 0
12.934 -19.521 20.23 -0 -1.2 0
12.785 -19.931 19.94 -0 -1.2 0
12.632 -20.334 19.644 -0 -1.2 0
12.474 -20.732 19.342 -0 -1.2 0
12.314 -21.124 19.034 -0 -1.2 0
12.15 -21.51 18.721 -0 -1.2 0
11.981 -21.89 18.402 -0 -1.2 0
11.81 -22.264 18.077 -0 -1.2 0
15.716 -11.247 23.869 -0 -1.2 0
15.639 -11.738 23.702 -0 -1.2 0
15.557 -12.225 23.529 -0 -1.2 0
15.47 -12.708 23.349 -0 -1.2 0
15.378 -13.19 23.163 -0 -1.2 0
15.281 -13.666 22.968 -0 -1.2 0
15.18 -14.139 22.767 -0 -1.2 0
15.075 -14.607 22.559 -0 -1.2 0
14.966 -15.072 22.345 -0 -1.2 0
14.851 -15.533 22.123 -0 -1.2 0
14.732 -15.989 21.894 -0 -1.2 0
14.608 -16.441 21.661 -0 -1.2 0
14.48 -16.887 21.419 -0 -1.2 0
14.348 -17.329 21.172 -0 -1.2 0
14.211 -17.766 20.918 -0 -1.2 0
14.07 -18.198 20.657 -0 -1.2 0
13.925 -18.625 20.392 -0 -1.2 0
13.776 -19.046 20.119 -0 -1.2 0
13.622 -19.462 19.841 -0 -1.2 0
13.464 -19.873 19.557 -0 -1.2 0
13.302 -20.277 19.266 -0 -1.2 0
13.136 -20.676 18.97 -0 -1.2 0
12.967 -21.069 18.669 -0 -1.2 0
12.793 -21.456 18.361 -0 -1.2 0
12.616 -21.836 18.048 -0 -1.2 0
12.434 -22.211 17.731 -0 -1.2 0
16.582 -11.169 23.326 -0 -1.2 0
16.5 -11.66 23.163 -0 -1.2 0
16.413 -12.148 22.993 -0 -1.2 0
16.321 -12.631 22.818 -0 -1.2 0
16.224 -13.113 22.635 -0 -1.2 0
16.122 -13.59 22.445 -0 -1.2 0
16.014 -14.064 22.248 -0 -1.2 0
15.903 -14.533 22.045 -0 -1.2 0
15.786 -14.998 21.835 -0 -1.2 0
15.666 -15.459 21.618 -0 -1.2 0
15.539 -15.916 21.396 -0 -1.2 0
15.409 -16.368 21.166 -0 -1.2 0
15.273 -16.816 20.931 -0 -1.2 0
15.133 -17.259 20.689 -0 -1.2 0
14.989 -17.696 20.441 -0 -1.2 0
14.839 -18.129 20.186 -0 -1.2 0
14.686 -18.557 19.927 -0 -1.2 0
14.528 -18.979 19.661 -0 -1.2 0
14.365 -19.396 19.388 -0 -1.2 0
14.199 -19.807 19.111 -0 -1.2 0
14.027 -20.213 18.827 -0 -1.2 0
13.852 -20.612 18.538 -0 -1.2 0
13.673 -21.006 18.243 -0 -1.2 0
13.489 -21.394 17.943 -0 -1.2 0
13.301 -21.775 17.638 -0 -1.2 0
13.11 -22.151 17.327 -0 -1.2 0
17.28 -11.586 22.634 -0 -1.2 0
17.189 -12.074 22.469 -0 -1.2 0
17.092 -12.559 22.297 -0 -1.2 0
16.99 -13.041 22.117 -0 -1.2 0
16.882 -13.518 21.932 -0 -1.2 0
16.77 -13.992 21.739 -0 -1.2 0
16.652 -14.462 21.541 -0 -1.2 0
16.531 -14.928 21.335 -0 -1.2 0
16.403 -15.39 21.124 -0 -1.2 0
16.27 -15.848 20.907 -0 -1.2 0
16.133 -16.3 20.682 -0 -1.2 0
15.991 -16.748 20.452 -0 -1.2 0
15.845 -17.192 20.215 -0 -1.2 0
15.693 -17.63 19.974 -0 -1.2 0
15.537 -18.064 19.725 -0 -1.2 0
15.375 -18.492 19.47 -0 -1.2 0
15.21 -18.915 19.21 -0 -1.2 0
15.039 -19.333 18.944 -0 -1.2 0
14.863 -19.745 18.673 -0 -1.2 0
14.684 -20.151 18.396 -0 -1.2 0
14.5 -20.552 18.113 -0 -1.2 0
14.312 -20.946 17.825 -0 -1.2 0
14.12 -21.335 17.532 -0 -1.2 0
13.922 -21.718 17.234 -0 -1.2 0
13.722 -22.094 16.931 -0 -1.2 0
18.042 -11.509 22.081 -0 -1.2 0
17.946 -11.998 21.92 -0 -1.2 0
17.845 -12.482 21.751 -0 -1.2 0
17.738 -12.965 21.577 -0 -1.2 0
17.625 -13.443 21.395 -0 -1.2 0
17.508 -13.918 21.208 -0 -1.2 0
17.386 -14.388 21.014 -0 -1.2 0
17.257 -14.855 20.814 -0 -1.2 0
17.124 -15.317 20.607 -0 -1.2 0
16.985 -15.776 20.395 -0 -1.2 0
16.842 -16.229 20.177 -0 -1.2 0
16.693 -16.678 19.951 -0 -1.2 0
16.539 -17.122 19.721 -0 -1.2 0
16.381 -17.561 19.484 -0 -1.2 0
16.218 -17.996 19.242 -0 -1.2 0
16.049 -18.425 18.994 -0 -1.2 0
15.876 -18.849 18.741 -0 -1.2 0
15.697 -19.267 18.481 -0 -1.2 0
15.514 -19.68 18.216 -0 -1.2 0
15.326 -20.087 17.945 -0 -1.2 0
15.134 -20.489 17.67 -0 -1.2 0
14.937 -20.884 17.389 -0 -1.2 0
14.736 -21.274 17.103 -0 -1.2 0
14.53 -21.657 16.812 -0 -1.2 0
14.32 -22.035 16.516 -0 -1.2 0
18.818 -11.425 21.475 -0 -1.2 0
18.718 -11.914 21.319 -0 -1.2 0
18.613 -12.4 21.155 -0 -1.2 0
18.5 -12.883 20.985 -0 -1.2 0
18.384 -13.361 20.809 -0 -1.2 0
18.261 -13.837 20.626 -0 -1.2 0
18.132 -14.308 20.438 -0 -1.2 0
17.999 -14.775 20.242 -0 -1.2 0
17.86 -15.238 20.042 -0 -1.2 0
17.715 -15.697 19.835 -0 -1.2 0
17.565 -16.152 19.622 -0 -1.2 0
17.41 -16.601 19.404 -0 -1.2 0
17.249 -17.046 19.179 -0 -1.2 0
17.084 -17.486 18.949 -0 -1.2 0
16.912 -17.922 18.714 -0 -1.2 0
16.736 -18.351 18.473 -0 -1.2 0
16.555 -18.776 18.226 -0 -1.2 0
16.369 -19.195 17.973 -0 -1.2 0
16.179 -19.609 17.715 -0 -1.2 0
15.982 -20.018 17.453 -0 -1.2 0
15.781 -20.42 17.184 -0 -1.2 0
15.575 -20.816 16.912 -0 -1.2 0
15.366 -21.207 16.633 -0 -1.2 0
15.151 -21.591 16.35 -0 -1.2 0
14.931 -21.97 16.063 -0 -1.2 0
19.453 -11.354 20.951 -0 -1.2 0
19.349 -11.843 20.798 -0 -1.2 0
19.239 -12.329 20.638 -0 -1.2 0
19.124 -12.813 20.473 -0 -1.2 0
19.002 -13.292 20.301 -0 -1.2 0
18.875 -13.768 20.122 -0 -1.2 0
18.742 -14.239 19.938 -0 -1.2 0
18.604 -14.707 19.748 -0 -1.2 0
18.459 -15.171 19.553 -0 -1.2 0
18.31 -15.631 19.351 -0 -1.2 0
18.155 -16.085 19.143 -0 -1.2 0
17.994 -16.535 18.93 -0 -1.2 0
17.828 -16.982 18.711 -0 -1.2 0
17.656 -17.422 18.487 -0 -1.2 0
17.48 -17.858 18.257 -0 -1.2 0
17.297 -18.289 18.022 -0 -1.2 0
17.11 -18.714 17.782 -0 -1.2 0
16.917 -19.134 17.535 -0 -1.2 0
16.719 -19.549 17.284 -0 -1.2 0
16.516 -19.958 17.028 -0 -1.2 0
16.309 -20.361 16.766 -0 -1.2 0
16.096 -20.759 16.5 -0 -1.2 0
15.879 -21.15 16.229 -0 -1.2 0
15.656 -21.536 15.952 -0 -1.2 0
15.429 -21.915 15.672 -0 -1.2 0
20.009 -11.293 20.463 -0 -1.2 0
19.902 -11.783 20.313 -0 -1.2 0
19.788 -12.269 20.157 -0 -1.2 0
19.668 -12.753 19.996 -0 -1.2 0
19.543 -13.233 19.828 -0 -1.2 0
19.412 -13.709 19.655 -0 -1.2 0
19.274 -14.181 19.475 -0 -1.2 0
19.132 -14.65 19.29 -0 -1.2 0
18.983 -15.114 19.099 -0 -1.2 0
18.828 -15.574 18.902 -0 -1.2 0
18.667 -16.03 18.7 -0 -1.2 0
18.501 -16.48 18.492 -0 -1.2 0
18.33 -16.927 18.278 -0 -1.2 0
18.152 -17.368 18.06 -0 -1.2 0
17.97 -17.805 17.836 -0 -1.2 0
17.782 -18.236 17.606 -0 -1.2 0
17.588 -18.662 17.372 -0 -1.2 0
17.389 -19.083 17.132 -0 -1.2 0
17.186 -19.498 16.888 -0 -1.2 0
16.977 -19.908 16.637 -0 -1.2 0
16.762 -20.312 16.383 -0 -1.2 0
16.543 -20.71 16.123 -0 -1.2 0
16.319 -21.102 15.858 -0 -1.2 0
16.089 -21.489 15.59 -0 -1.2 0
15.855 -21.869 15.315 -0 -1.2 0
20.481 -11.719 19.776 -0 -1.2 0
20.364 -12.205 19.625 -0 -1.2 0
20.241 -12.69 19.468 -0 -1.2 0
20.11 -13.17 19.305 -0 -1.2 0
19.975 -13.647 19.137 -0 -1.2 0
19.833 -14.119 18.962 -0 -1.2 0
19.685 -14.589 18.782 -0 -1.2 0
19.531 -15.054 18.597 -0 -1.2 0
19.371 -15.514 18.405 -0 -1.2 0
19.205 -15.971 18.209 -0 -1.2 0
19.034 -16.422 18.007 -0 -1.2 0
18.856 -16.869 17.8 -0 -1.2 0
18.673 -17.311 17.587 -0 -1.2 0
18.485 -17.748 17.37 -0 -1.2 0
18.291 -18.18 17.147 -0 -1.2 0
18.091 -18.607 16.919 -0 -1.2 0
17.886 -19.028 16.686 -0 -1.2 0
17.675 -19.445 16.448 -0 -1.2 0
17.459 -19.855 16.205 -0 -1.2 0
17.238 -20.26 15.957 -0 -1.2 0
17.012 -20.659 15.706 -0 -1.2 0
16.78 -21.052 15.448 -0 -1.2 0
16.543 -21.439 15.187 -0 -1.2 0
16.302 -21.821 14.92 -0 -1.2 0
21.009 -11.661 19.257 -0 -1.2 0
20.888 -12.148 19.111 -0 -1.2 0
20.76 -12.633 18.958 -0 -1.2 0
20.626 -13.114 18.8 -0 -1.2 0
20.486 -13.591 18.635 -0 -1.2 0
20.34 -14.064 18.466 -0 -1.2 0
20.187 -14.534 18.292 -0 -1.2 0
20.029 -14.999 18.111 -0 -1.2 0
19.865 -15.461 17.925 -0 -1.2 0
19.694 -15.917 17.735 -0 -1.2 0
19.518 -16.369 17.538 -0 -1.2 0
19.335 -16.817 17.337 -0 -1.2 0
19.147 -17.259 17.13 -0 -1.2 0
18.953 -17.698 16.919 -0 -1.2 0
18.753 -18.13 16.702 -0 -1.2 0
18.548 -18.558 16.481 -0 -1.2 0
18.336 -18.98 16.254 -0 -1.2 0
18.12 -19.397 16.023 -0 -1.2 0
17.898 -19.808 15.786 -0 -1.2 0
17.671 -20.213 15.546 -0 -1.2 0
17.437 -20.613 15.301 -0 -1.2 0
17.2 -21.007 15.051 -0 -1.2 0
16.956 -21.395 14.797 -0 -1.2 0
16.707 -21.777 14.538 -0 -1.2 0
21.528 -11.603 18.718 -0 -1.2 0
21.402 -12.091 18.576 -0 -1.2 0
21.272 -12.576 18.428 -0 -1.2 0
21.134 -13.057 18.274 -0 -1.2 0
20.99 -13.535 18.115 -0 -1.2 0
20.839 -14.009 17.951 -0 -1.2 0
20.682 -14.479 17.782 -0 -1.2 0
20.52 -14.945 17.607 -0 -1.2 0
20.351 -15.407 17.427 -0 -1.2 0
20.175 -15.864 17.241 -0 -1.2 0
19.993 -16.316 17.051 -0 -1.2 0
19.806 -16.765 16.856 -0 -1.2 0
19.612 -17.208 16.655 -0 -1.2 0
19.413 -17.647 16.45 -0 -1.2 0
19.208 -18.08 16.24 -0 -1.2 0
18.997 -18.508 16.025 -0 -1.2 0
18.78 -18.931 15.805 -0 -1.2 0
18.557 -19.348 15.581 -0 -1.2 0
18.329 -19.76 15.352 -0 -1.2 0
18.096 -20.166 15.119 -0 -1.2 0
17.857 -20.567 14.881 -0 -1.2 0
17.612 -20.961 14.639 -0 -1.2 0
17.363 -21.35 14.391 -0 -1.2 0
17.107 -21.733 14.141 -0 -1.2 0
22.067 -11.544 18.123 -0 -1.2 0
21.938 -12.031 17.985 -0 -1.2 0
21.804 -12.517 17.842 -0 -1.2 0
21.661 -12.999 17.694 -0 -1.2 0
21.513 -13.477 17.541 -0 -1.2 0
21.358 -13.951 17.382 -0 -1.2 0
21.197 -14.422 17.218 -0 -1.2 0
21.03 -14.888 17.049 -0 -1.2 0
20.856 -15.351 16.876 -0 -1.2 0
20.676 -15.809 16.696 -0 -1.2 0
20.489 -16.262 16.513 -0 -1.2 0
20.296 -16.711 16.323 -0 -1.2 0
20.097 -17.154 16.131 -0 -1.2 0
19.892 -17.594 15.932 -0 -1.2 0
19.681 -18.028 15.729 -0 -1.2 0
19.465 -18.457 15.521 -0 -1.2 0
19.241 -18.88 15.309 -0 -1.2 0
19.013 -19.298 15.092 -0 -1.2 0
18.779 -19.711 14.871 -0 -1.2 0
18.539 -20.118 14.646 -0 -1.2 0
18.293 -20.519 14.416 -0 -1.2 0
18.041 -20.914 14.182 -0 -1.2 0
17.785 -21.304 13.944 -0 -1.2 0
17.523 -21.687 13.701 -0 -1.2 0
22.552 -11.489 17.556 -0 -1.2 0
22.42 -11.977 17.424 -0 -1.2 0
22.281 -12.463 17.285 -0 -1.2 0
22.136 -12.945 17.142 -0 -1.2 0
21.983 -13.424 16.993 -0 -1.2 0
21.825 -13.898 16.841 -0 -1.2 0
21.66 -14.37 16.683 -0 -1.2 0
21.488 -14.837 16.519 -0 -1.2 0
21.309 -15.3 16.351 -0 -1.2 0
21.125 -15.758 16.178 -0 -1.2 0
20.934 -16.211 16.001 -0 -1.2 0
20.736 -16.661 15.818 -0 -1.2 0
20.533 -17.105 15.63 -0 -1.2 0
20.323 -17.545 15.44 -0 -1.2 0
20.106 -17.98 15.243 -0 -1.2 0
19.885 -18.409 15.043 -0 -1.2 0
19.656 -18.833 14.837 -0 -1.2 0
19.422 -19.252 14.628 -0 -1.2 0
19.182 -19.666 14.414 -0 -1.2 0
18.937 -20.073 14.196 -0 -1.2 0
18.685 -20.475 13.974 -0 -1.2 0
18.428 -20.871 13.747 -0 -1.2 0
18.165 -21.261 13.518 -0 -1.2 0
17.897 -21.645 13.283 -0 -1.2 0
23.036 -11.435 16.954 -0 -1.2 0
22.901 -11.923 16.827 -0 -1.2 0
22.759 -12.41 16.694 -0 -1.2 0
22.61 -12.893 16.555 -0 -1.2 0
22.455 -13.372 16.413 -0 -1.2 0
22.292 -13.847 16.265 -0 -1.2 0
22.122 -14.319 16.112 -0 -1.2 0
21.946 -14.786 15.955 -0 -1.2 0
21.763 -15.249 15.793 -0 -1.2 0
21.574 -15.708 15.627 -0 -1.2 0
21.378 -16.162 15.456 -0 -1.2 0
21.177 -16.612 15.28 -0 -1.2 0
20.968 -17.057 15.1 -0 -1.2 0
20.753 -17.498 14.915 -0 -1.2 0
20.532 -17.933 14.727 -0 -1.2 0
20.304 -18.363 14.533 -0 -1.2 0
20.071 -18.788 14.336 -0 -1.2 0
19.831 -19.207 14.134 -0 -1.2 0
19.585 -19.621 13.928 -0 -1.2 0
19.334 -20.03 13.718 -0 -1.2 0
19.076 -20.432 13.504 -0 -1.2 0
18.813 -20.829 13.286 -0 -1.2 0
18.545 -21.22 13.064 -0 -1.2 0
18.27 -21.605 12.838 -0 -1.2 0
23.648 -11.391 16.11 -0 -1.2 0
23.508 -11.879 15.988 -0 -1.2 0
23.362 -12.367 15.862 -0 -1.2 0
23.209 -12.849 15.73 -0 -1.2 0
23.048 -13.329 15.594 -0 -1.2 0
22.88 -13.804 15.454 -0 -1.2 0
22.705 -14.277 15.308 -0 -1.2 0
22.524 -14.744 15.158 -0 -1.2 0
22.335 -15.208 15.005 -0 -1.2 0
22.141 -15.667 14.846 -0 -1.2 0
21.938 -16.122 14.683 -0 -1.2 0
21.731 -16.572 14.516 -0 -1.2 0
21.515 -17.017 14.345 -0 -1.2 0
21.294 -17.459 14.169 -0 -1.2 0
21.066 -17.894 13.989 -0 -1.2 0
20.831 -18.325 13.805 -0 -1.2 0
20.591 -18.75 13.617 -0 -1.2 0
20.345 -19.17 13.426 -0 -1.2 0
20.091 -19.585 13.229 -0 -1.2 0
19.833 -19.993 13.03 -0 -1.2 0
19.567 -20.396 12.826 -0 -1.2 0
19.296 -20.794 12.62 -0 -1.2 0
19.019 -21.185 12.409 -0 -1.2 0
18.737 -21.571 12.194 -0 -1.2 0
24.187 -11.35 15.306 -0 -1.2 0
24.044 -11.839 15.189 -0 -1.2 0
23.894 -12.327 15.069 -0 -1.2 0
23.735 -12.81 14.944 -0 -1.2 0
23.57 -13.29 14.815 -0 -1.2 0
23.398 -13.765 14.68 -0 -1.2 0
23.219 -14.238 14.542 -0 -1.2 0
23.032 -14.706 14.4 -0 -1.2 0
22.839 -15.17 14.253 -0 -1.2 0
22.639 -15.63 14.103 -0 -1.2 0
22.432 -16.085 13.947 -0 -1.2 0
22.218 -16.536 13.788 -0 -1.2 0
21.998 -16.981 13.625 -0 -1.2 0
21.77 -17.423 13.458 -0 -1.2 0
21.536 -17.859 13.287 -0 -1.2 0
21.296 -18.29 13.113 -0 -1.2 0
21.05 -18.716 12.934 -0 -1.2 0
20.796 -19.136 12.751 -0 -1.2 0
20.537 -19.551 12.565 -0 -1.2 0
20.272 -19.96 12.376 -0 -1.2 0
19.999 -20.364 12.182 -0 -1.2 0
19.722 -20.762 11.985 -0 -1.2 0
19.439 -21.154 11.785 -0 -1.2 0
19.149 -21.54 11.581 -0 -1.2 0
24.837 -10.817 14.589 -0 -1.2 0
24.697 -11.311 14.483 -0 -1.2 0
24.55 -11.8 14.373 -0 -1.2 0
24.396 -12.288 14.258 -0 -1.2 0
24.234 -12.771 14.139 -0 -1.2 0
24.064 -13.252 14.017 -0 -1.2 0
23.888 -13.727 13.889 -0 -1.2 0
23.705 -14.2 13.759 -0 -1.2 0
23.514 -14.669 13.623 -0 -1.2 0
23.316 -15.133 13.485 -0 -1.2 0
23.11 -15.593 13.342 -0 -1.2 0
22.899 -16.048 13.195 -0 -1.2 0
22.68 -16.5 13.044 -0 -1.2 0
22.454 -16.946 12.89 -0 -1.2 0
22.221 -17.388 12.732 -0 -1.2 0
21.982 -17.824 12.569 -0 -1.2 0
21.736 -18.256 12.404 -0 -1.2 0
21.483 -18.682 12.234 -0 -1.2 0
21.224 -19.103 12.062 -0 -1.2 0
20.959 -19.519 11.886 -0 -1.2 0
20.687 -19.928 11.706 -0 -1.2 0
20.409 -20.332 11.523 -0 -1.2 0
20.124 -20.73 11.336 -0 -1.2 0
19.835 -21.123 11.147 -0 -1.2 0
19.538 -21.51 10.954 -0 -1.2 0
25.33 -10.779 13.727 -0 -1.2 0
25.187 -11.272 13.627 -0 -1.2 0
25.037 -11.762 13.522 -0 -1.2 0
24.879 -12.25 13.415 -0 -1.2 0
24.713 -12.734 13.303 -0 -1.2 0
24.54 -13.214 13.186 -0 -1.2 0
