# .PCD v.7 - Point Cloud Data file format
FIELDS x y z vp_x vp_y vp_z
SIZE 4 4 4 4 4 4
TYPE F F F F F F
COUNT 1 1 1 1 1 1
WIDTH 1513
HEIGHT 1
VIEWPOINT 0 -1.20013 0 1 0 0 0
POINTS 1513
DATA ascii
20.838 -11.611 19.356 -0 -1.2 0
20.697 -12.099 19.232 -0 -1.2 0
20.549 -12.585 19.103 -0 -1.2 0
20.396 -13.066 18.968 -0 -1.2 0
20.235 -13.545 18.826 -0 -1.2 0
20.069 -14.019 18.68 -0 -1.2 0
19.897 -14.49 18.528 -0 -1.2 0
19.719 -14.956 18.371 -0 -1.2 0
19.535 -15.419 18.208 -0 -1.2 0
19.344 -15.876 18.039 -0 -1.2 0
19.149 -16.329 17.865 -0 -1.2 0
18.946 -16.778 17.687 -0 -1.2 0
18.739 -17.222 17.503 -0 -1.2 0
18.526 -17.661 17.313 -0 -1.2 0
18.307 -18.095 17.117 -0 -1.2 0
18.082 -18.524 16.918 -0 -1.2 0
17.853 -18.947 16.713 -0 -1.2 0
17.617 -19.365 16.504 -0 -1.2 0
17.377 -19.778 16.289 -0 -1.2 0
17.131 -20.184 16.069 -0 -1.2 0
16.88 -20.585 15.845 -0 -1.2 0
16.623 -20.98 15.616 -0 -1.2 0
16.362 -21.369 15.383 -0 -1.2 0
16.095 -21.753 15.144 -0 -1.2 0
23.034 -0.348 19.735 -0 -1.2 0
23.037 -0.871 19.744 -0 -1.2 0
23.035 -1.394 19.746 -0 -1.2 0
23.024 -1.919 19.743 -0 -1.2 0
23.007 -2.441 19.733 -0 -1.2 0
22.984 -2.964 19.719 -0 -1.2 0
22.953 -3.486 19.697 -0 -1.2 0
22.915 -4.008 19.671 -0 -1.2 0
22.87 -4.529 19.638 -0 -1.2 0
22.818 -5.049 19.599 -0 -1.2 0
22.759 -5.567 19.555 -0 -1.2 0
22.693 -6.084 19.505 -0 -1.2 0
22.621 -6.599 19.449 -0 -1.2 0
22.541 -7.113 19.387 -0 -1.2 0
22.455 -7.625 19.32 -0 -1.2 0
22.362 -8.135 19.247 -0 -1.2 0
22.262 -8.643 19.167 -0 -1.2 0
22.156 -9.149 19.083 -0 -1.2 0
22.042 -9.651 18.992 -0 -1.2 0
21.922 -10.152 18.897 -0 -1.2 0
21.796 -10.65 18.794 -0 -1.2 0
21.662 -11.145 18.687 -0 -1.2 0
21.522 -11.637 18.574 -0 -1.2 0
21.375 -12.124 18.456 -0 -1.2 0
21.222 -12.61 18.333 -0 -1.2 0
21.063 -13.092 18.203 -0 -1.2 0
20.897 -13.57 18.068 -0 -1.2 0
20.726 -14.044 17.928 -0 -1.2 0
20.548 -14.515 17.782 -0 -1.2 0
20.362 -14.981 17.631 -0 -1.2 0
20.172 -15.443 17.476 -0 -1.2 0
19.975 -15.901 17.315 -0 -1.2 0
19.772 -16.353 17.149 -0 -1.2 0
19.563 -16.802 16.977 -0 -1.2 0
19.348 -17.245 16.801 -0 -1.2 0
19.128 -17.684 16.619 -0 -1.2 0
18.901 -18.118 16.433 -0 -1.2 0
18.668 -18.546 16.241 -0 -1.2 0
18.43 -18.969 16.046 -0 -1.2 0
18.187 -19.387 15.845 -0 -1.2 0
17.424 -20.606 15.215 -0 -1.2 0
17.159 -21.001 14.995 -0 -1.2 0
16.888 -21.39 14.772 -0 -1.2 0
16.613 -21.773 14.544 -0 -1.2 0
23.684 0.148 18.921 -0 -1.2 0
23.695 -0.373 18.935 -0 -1.2 0
23.698 -0.896 18.943 -0 -1.2 0
23.694 -1.42 18.945 -0 -1.2 0
23.684 -1.944 18.942 -0 -1.2 0
23.666 -2.466 18.934 -0 -1.2 0
23.641 -2.989 18.92 -0 -1.2 0
23.609 -3.511 18.899 -0 -1.2 0
23.57 -4.034 18.875 -0 -1.2 0
23.523 -4.554 18.843 -0 -1.2 0
23.469 -5.074 18.807 -0 -1.2 0
23.408 -5.592 18.764 -0 -1.2 0
23.34 -6.109 18.717 -0 -1.2 0
23.265 -6.624 18.663 -0 -1.2 0
23.183 -7.138 18.604 -0 -1.2 0
23.094 -7.649 18.539 -0 -1.2 0
22.997 -8.159 18.47 -0 -1.2 0
22.895 -8.668 18.394 -0 -1.2 0
22.784 -9.173 18.313 -0 -1.2 0
22.667 -9.676 18.226 -0 -1.2 0
22.544 -10.177 18.135 -0 -1.2 0
22.413 -10.674 18.037 -0 -1.2 0
22.275 -11.169 17.935 -0 -1.2 0
22.131 -11.66 17.827 -0 -1.2 0
21.98 -12.148 17.714 -0 -1.2 0
21.823 -12.634 17.595 -0 -1.2 0
21.658 -13.115 17.471 -0 -1.2 0
21.487 -13.593 17.343 -0 -1.2 0
21.309 -14.067 17.209 -0 -1.2 0
21.126 -14.537 17.069 -0 -1.2 0
20.935 -15.003 16.926 -0 -1.2 0
20.74 -15.465 16.777 -0 -1.2 0
20.536 -15.922 16.622 -0 -1.2 0
20.327 -16.375 16.463 -0 -1.2 0
20.112 -16.823 16.299 -0 -1.2 0
19.891 -17.266 16.13 -0 -1.2 0
19.663 -17.705 15.956 -0 -1.2 0
19.429 -18.138 15.778 -0 -1.2 0
19.191 -18.567 15.595 -0 -1.2 0
18.695 -19.407 15.215 -0 -1.2 0
17.635 -21.02 14.402 -0 -1.2 0
17.357 -21.408 14.187 -0 -1.2 0
17.073 -21.791 13.969 -0 -1.2 0
24.315 0.121 18.097 -0 -1.2 0
24.326 -0.4 18.111 -0 -1.2 0
24.329 -0.923 18.119 -0 -1.2 0
24.325 -1.446 18.122 -0 -1.2 0
24.314 -1.971 18.119 -0 -1.2 0
24.295 -2.493 18.111 -0 -1.2 0
24.269 -3.016 18.098 -0 -1.2 0
24.236 -3.538 18.079 -0 -1.2 0
24.194 -4.06 18.055 -0 -1.2 0
23.577 -4.498 17.609 -0 -1.2 0
24.091 -5.1 17.991 -0 -1.2 0
24.027 -5.618 17.951 -0 -1.2 0
23.958 -6.135 17.905 -0 -1.2 0
23.88 -6.651 17.854 -0 -1.2 0
23.796 -7.164 17.798 -0 -1.2 0
23.703 -7.676 17.737 -0 -1.2 0
23.604 -8.186 17.67 -0 -1.2 0
23.499 -8.694 17.598 -0 -1.2 0
23.385 -9.199 17.521 -0 -1.2 0
23.265 -9.701 17.438 -0 -1.2 0
23.137 -10.202 17.351 -0 -1.2 0
23.002 -10.699 17.259 -0 -1.2 0
22.861 -11.194 17.16 -0 -1.2 0
22.712 -11.685 17.058 -0 -1.2 0
22.557 -12.173 16.95 -0 -1.2 0
22.395 -12.659 16.837 -0 -1.2 0
22.225 -13.139 16.719 -0 -1.2 0
22.05 -13.617 16.597 -0 -1.2 0
21.867 -14.091 16.469 -0 -1.2 0
21.678 -14.561 16.336 -0 -1.2 0
21.281 -15.489 16.056 -0 -1.2 0
20.408 -17.289 15.44 -0 -1.2 0
20.175 -17.728 15.274 -0 -1.2 0
19.934 -18.16 15.104 -0 -1.2 0
19.179 -19.428 14.567 -0 -1.2 0
17.513 -21.81 13.378 -0 -1.2 0
24.964 0.092 17.184 -0 -1.2 0
24.975 -0.43 17.197 -0 -1.2 0
24.978 -0.953 17.205 -0 -1.2 0
24.973 -1.476 17.208 -0 -1.2 0
24.961 -2 17.206 -0 -1.2 0
24.941 -2.523 17.199 -0 -1.2 0
24.914 -3.045 17.186 -0 -1.2 0
24.879 -3.567 17.169 -0 -1.2 0
24.837 -4.09 17.146 -0 -1.2 0
24.013 -4.5 16.597 -0 -1.2 0
24.73 -5.13 17.086 -0 -1.2 0
24.664 -5.647 17.048 -0 -1.2 0
24.593 -6.164 17.005 -0 -1.2 0
24.513 -6.679 16.957 -0 -1.2 0
24.425 -7.193 16.904 -0 -1.2 0
23.999 -7.614 16.623 -0 -1.2 0
23.906 -8.12 16.566 -0 -1.2 0
24.118 -8.722 16.716 -0 -1.2 0
24.002 -9.227 16.643 -0 -1.2 0
23.878 -9.73 16.565 -0 -1.2 0
23.747 -10.23 16.482 -0 -1.2 0
23.608 -10.727 16.396 -0 -1.2 0
23.462 -11.222 16.303 -0 -1.2 0
23.31 -11.713 16.206 -0 -1.2 0
23.149 -12.2 16.104 -0 -1.2 0
22.983 -12.686 15.997 -0 -1.2 0
22.809 -13.166 15.885 -0 -1.2 0
22.628 -13.644 15.769 -0 -1.2 0
20.453 -18.185 14.357 -0 -1.2 0
19.941 -19.034 14.022 -0 -1.2 0
25.551 -0.453 16.319 -0 -1.2 0
25.555 -0.976 16.327 -0 -1.2 0
25.55 -1.499 16.33 -0 -1.2 0
25.537 -2.023 16.329 -0 -1.2 0
25.517 -2.546 16.321 -0 -1.2 0
25.488 -3.069 16.31 -0 -1.2 0
25.453 -3.591 16.293 -0 -1.2 0
25.409 -4.113 16.273 -0 -1.2 0
25.357 -4.633 16.247 -0 -1.2 0
25.299 -5.152 16.217 -0 -1.2 0
25.232 -5.67 16.181 -0 -1.2 0
25.157 -6.187 16.14 -0 -1.2 0
25.075 -6.702 16.095 -0 -1.2 0
24.985 -7.215 16.046 -0 -1.2 0
24.888 -7.727 15.991 -0 -1.2 0
24.783 -8.237 15.932 -0 -1.2 0
24.671 -8.744 15.868 -0 -1.2 0
24.551 -9.249 15.799 -0 -1.2 0
24.425 -9.752 15.726 -0 -1.2 0
24.289 -10.252 15.648 -0 -1.2 0
24.148 -10.749 15.565 -0 -1.2 0
23.999 -11.243 15.478 -0 -1.2 0
23.842 -11.734 15.386 -0 -1.2 0
23.678 -12.222 15.29 -0 -1.2 0
23.507 -12.707 15.189 -0 -1.2 0
23.329 -13.187 15.084 -0 -1.2 0
22.951 -14.138 14.86 -0 -1.2 0
26.094 -0.988 15.438 -0 -1.2 0
26.089 -1.512 15.442 -0 -1.2 0
26.076 -2.036 15.44 -0 -1.2 0
26.054 -2.558 15.435 -0 -1.2 0
26.026 -3.081 15.424 -0 -1.2 0
25.989 -3.603 15.41 -0 -1.2 0
25.945 -4.125 15.39 -0 -1.2 0
25.892 -4.645 15.366 -0 -1.2 0
25.831 -5.165 15.338 -0 -1.2 0
25.763 -5.683 15.306 -0 -1.2 0
25.687 -6.199 15.267 -0 -1.2 0
25.603 -6.715 15.225 -0 -1.2 0
25.511 -7.228 15.179 -0 -1.2 0
25.412 -7.739 15.128 -0 -1.2 0
25.305 -8.249 15.073 -0 -1.2 0
25.068 -9.262 14.949 -0 -1.2 0
24.938 -9.764 14.88 -0 -1.2 0
24.801 -10.264 14.807 -0 -1.2 0
24.655 -10.761 14.73 -0 -1.2 0
24.503 -11.255 14.648 -0 -1.2 0
24.175 -12.233 14.472 -0 -1.2 0
24 -12.718 14.377 -0 -1.2 0
22.801 -15.546 13.721 -0 -1.2 0
21.352 -18.214 12.919 -0 -1.2 0
21.088 -18.641 12.773 -0 -1.2 0
26.625 0.042 14.439 -0 -1.2 0
26.636 -0.479 14.453 -0 -1.2 0
26.639 -1.002 14.46 -0 -1.2 0
26.634 -1.526 14.464 -0 -1.2 0
26.62 -2.05 14.463 -0 -1.2 0
26.599 -2.572 14.459 -0 -1.2 0
26.569 -3.095 14.45 -0 -1.2 0
26.532 -3.617 14.437 -0 -1.2 0
26.486 -4.139 14.419 -0 -1.2 0
26.432 -4.659 14.397 -0 -1.2 0
26.37 -5.179 14.371 -0 -1.2 0
26.301 -5.696 14.341 -0 -1.2 0
26.223 -6.213 14.307 -0 -1.2 0
26.137 -6.728 14.267 -0 -1.2 0
26.043 -7.241 14.225 -0 -1.2 0
25.941 -7.753 14.178 -0 -1.2 0
25.833 -8.262 14.127 -0 -1.2 0
25.716 -8.77 14.071 -0 -1.2 0
25.457 -9.777 13.948 -0 -1.2 0
25.169 -10.774 13.808 -0 -1.2 0
25.012 -11.268 13.732 -0 -1.2 0
24.313 -13.212 13.389 -0 -1.2 0
24.12 -13.689 13.294 -0 -1.2 0
23.92 -14.162 13.194 -0 -1.2 0
23.712 -14.632 13.09 -0 -1.2 0
27.083 0.551 13.491 -0 -1.2 0
27.114 -0.493 13.519 -0 -1.2 0
27.115 -1.016 13.527 -0 -1.2 0
27.11 -1.539 13.531 -0 -1.2 0
27.097 -2.063 13.531 -0 -1.2 0
27.074 -2.586 13.527 -0 -1.2 0
27.044 -3.108 13.52 -0 -1.2 0
27.006 -3.63 13.508 -0 -1.2 0
26.959 -4.152 13.491 -0 -1.2 0
26.905 -4.673 13.472 -0 -1.2 0
26.841 -5.192 13.449 -0 -1.2 0
26.771 -5.71 13.421 -0 -1.2 0
26.691 -6.226 13.39 -0 -1.2 0
26.604 -6.741 13.353 -0 -1.2 0
26.508 -7.254 13.314 -0 -1.2 0
26.405 -7.766 13.271 -0 -1.2 0
26.294 -8.275 13.224 -0 -1.2 0
25.912 -9.79 13.059 -0 -1.2 0
25.117 -12.258 12.708 -0 -1.2 0
24.134 -14.643 12.265 -0 -1.2 0
27.531 0.538 12.532 -0 -1.2 0
27.562 -0.507 12.559 -0 -1.2 0
27.564 -1.03 12.567 -0 -1.2 0
27.558 -1.553 12.572 -0 -1.2 0
27.544 -2.077 12.572 -0 -1.2 0
27.522 -2.6 12.569 -0 -1.2 0
27.491 -3.122 12.562 -0 -1.2 0
27.452 -3.644 12.553 -0 -1.2 0
27.404 -4.166 12.538 -0 -1.2 0
27.348 -4.686 12.52 -0 -1.2 0
27.285 -5.206 12.5 -0 -1.2 0
27.212 -5.723 12.474 -0 -1.2 0
27.131 -6.24 12.446 -0 -1.2 0
27.043 -6.755 12.414 -0 -1.2 0
26.945 -7.268 12.378 -0 -1.2 0
26.84 -7.779 12.339 -0 -1.2 0
26.726 -8.289 12.295 -0 -1.2 0
26.605 -8.796 12.249 -0 -1.2 0
26.192 -10.303 12.087 -0 -1.2 0
26.039 -10.799 12.026 -0 -1.2 0
24.53 -14.656 11.415 -0 -1.2 0
27.973 0.522 11.483 -0 -1.2 0
28.004 -0.522 11.51 -0 -1.2 0
28.006 -1.045 11.518 -0 -1.2 0
28 -1.568 11.523 -0 -1.2 0
27.986 -2.092 11.524 -0 -1.2 0
27.964 -2.615 11.522 -0 -1.2 0
27.932 -3.137 11.517 -0 -1.2 0
27.892 -3.659 11.508 -0 -1.2 0
27.844 -4.181 11.496 -0 -1.2 0
27.787 -4.701 11.48 -0 -1.2 0
27.722 -5.221 11.462 -0 -1.2 0
27.648 -5.738 11.44 -0 -1.2 0
27.566 -6.255 11.415 -0 -1.2 0
27.476 -6.77 11.386 -0 -1.2 0
27.378 -7.283 11.354 -0 -1.2 0
26.899 -9.316 11.193 -0 -1.2 0
26.455 -10.814 11.038 -0 -1.2 0
26.291 -11.308 10.98 -0 -1.2 0
26.119 -11.799 10.919 -0 -1.2 0
28.319 1.032 10.477 -0 -1.2 0
28.347 0.508 10.493 -0 -1.2 0
28.378 -0.536 10.52 -0 -1.2 0
28.381 -1.059 10.527 -0 -1.2 0
28.374 -1.582 10.532 -0 -1.2 0
28.36 -2.107 10.535 -0 -1.2 0
28.337 -2.629 10.534 -0 -1.2 0
28.305 -3.152 10.53 -0 -1.2 0
28.265 -3.674 10.522 -0 -1.2 0
28.215 -4.195 10.512 -0 -1.2 0
28.158 -4.716 10.499 -0 -1.2 0
28.091 -5.235 10.483 -0 -1.2 0
28.017 -5.752 10.464 -0 -1.2 0
27.934 -6.269 10.441 -0 -1.2 0
27.842 -6.784 10.417 -0 -1.2 0
27.742 -7.297 10.388 -0 -1.2 0
27.634 -7.808 10.357 -0 -1.2 0
27.517 -8.317 10.322 -0 -1.2 0
26.966 -10.331 10.156 -0 -1.2 0
26.467 -11.812 10 -0 -1.2 0
28.684 0.495 9.501 -0 -1.2 0
28.704 -0.027 9.514 -0 -1.2 0
28.718 -1.073 9.533 -0 -1.2 0
28.711 -1.596 9.539 -0 -1.2 0
28.697 -2.12 9.542 -0 -1.2 0
28.673 -2.643 9.541 -0 -1.2 0
28.641 -3.165 9.538 -0 -1.2 0
28.6 -3.687 9.533 -0 -1.2 0
28.55 -4.209 9.524 -0 -1.2 0
28.492 -4.729 9.514 -0 -1.2 0
28.425 -5.248 9.5 -0 -1.2 0
28.349 -5.766 9.484 -0 -1.2 0
28.265 -6.282 9.464 -0 -1.2 0
28.172 -6.797 9.443 -0 -1.2 0
28.071 -7.31 9.418 -0 -1.2 0
27.961 -7.821 9.39 -0 -1.2 0
27.842 -8.33 9.361 -0 -1.2 0
27.581 -9.342 9.293 -0 -1.2 0
27.437 -9.844 9.254 -0 -1.2 0
29.006 0.482 8.416 -0 -1.2 0
29.026 -0.039 8.43 -0 -1.2 0
29.038 -0.562 8.441 -0 -1.2 0
29.039 -1.085 8.449 -0 -1.2 0
29.033 -1.608 8.455 -0 -1.2 0
29.018 -2.132 8.459 -0 -1.2 0
28.994 -2.655 8.46 -0 -1.2 0
28.962 -3.177 8.459 -0 -1.2 0
28.921 -3.699 8.455 -0 -1.2 0
28.87 -4.221 8.449 -0 -1.2 0
28.811 -4.741 8.442 -0 -1.2 0
28.743 -5.26 8.43 -0 -1.2 0
28.667 -5.778 8.417 -0 -1.2 0
28.581 -6.294 8.402 -0 -1.2 0
28.488 -6.809 8.383 -0 -1.2 0
27.133 -12.334 7.098 -0 -1.2 0
26.937 -12.818 7.059 -0 -1.2 0
26.068 -14.716 6.884 -0 -1.2 0
25.832 -15.18 6.835 -0 -1.2 0
29.492 0.456 6.376 -0 -1.2 0
29.513 -0.065 6.388 -0 -1.2 0
29.525 -0.588 6.399 -0 -1.2 0
29.528 -1.111 6.408 -0 -1.2 0
29.52 -1.634 6.415 -0 -1.2 0
29.505 -2.158 6.421 -0 -1.2 0
29.48 -2.681 6.424 -0 -1.2 0
29.405 -3.725 6.426 -0 -1.2 0
29.354 -4.247 6.424 -0 -1.2 0
29.294 -4.767 6.421 -0 -1.2 0
28.495 -8.874 6.329 -0 -1.2 0
24.997 -17.004 5.767 -0 -1.2 0
29.525 2.526 5.183 -0 -1.2 0
29.697 0.44 5.245 -0 -1.2 0
29.717 -0.081 5.257 -0 -1.2 0
29.729 -0.604 5.268 -0 -1.2 0
29.731 -1.127 5.277 -0 -1.2 0
29.725 -1.65 5.285 -0 -1.2 0
29.709 -2.174 5.291 -0 -1.2 0
29.684 -2.697 5.297 -0 -1.2 0
29.651 -3.219 5.3 -0 -1.2 0
29.609 -3.741 5.303 -0 -1.2 0
29.557 -4.263 5.303 -0 -1.2 0
29.497 -4.783 5.303 -0 -1.2 0
29.427 -5.302 5.301 -0 -1.2 0
29.348 -5.819 5.296 -0 -1.2 0
29.261 -6.336 5.291 -0 -1.2 0
29.165 -6.85 5.285 -0 -1.2 0
29.06 -7.363 5.277 -0 -1.2 0
28.946 -7.874 5.268 -0 -1.2 0
28.824 -8.383 5.257 -0 -1.2 0
28.404 -9.896 5.216 -0 -1.2 0
27.906 -11.385 5.162 -0 -1.2 0
26.907 -13.801 5.045 -0 -1.2 0
26.683 -14.273 5.017 -0 -1.2 0
26.45 -14.742 4.988 -0 -1.2 0
23.697 -19.172 4.626 -0 -1.2 0
29.876 -1.666 4.226 -0 -1.2 0
29.86 -2.19 4.234 -0 -1.2 0
29.836 -2.713 4.239 -0 -1.2 0
29.802 -3.235 4.245 -0 -1.2 0
29.759 -3.757 4.248 -0 -1.2 0
29.707 -4.279 4.252 -0 -1.2 0
29.647 -4.799 4.254 -0 -1.2 0
29.577 -5.318 4.254 -0 -1.2 0
29.498 -5.835 4.253 -0 -1.2 0
29.41 -6.351 4.251 -0 -1.2 0
29.313 -6.866 4.25 -0 -1.2 0
29.208 -7.379 4.246 -0 -1.2 0
28.97 -8.398 4.234 -0 -1.2 0
28.838 -8.905 4.227 -0 -1.2 0
28.698 -9.409 4.22 -0 -1.2 0
28.048 -11.4 4.175 -0 -1.2 0
27.864 -11.89 4.162 -0 -1.2 0
27.262 -13.339 4.113 -0 -1.2 0
27.044 -13.815 4.096 -0 -1.2 0
29.994 -1.16 3.153 -0 -1.2 0
29.987 -1.683 3.163 -0 -1.2 0
29.971 -2.208 3.171 -0 -1.2 0
29.947 -2.73 3.179 -0 -1.2 0
29.913 -3.252 3.185 -0 -1.2 0
29.87 -3.774 3.191 -0 -1.2 0
29.818 -4.296 3.196 -0 -1.2 0
29.757 -4.816 3.201 -0 -1.2 0
29.687 -5.335 3.204 -0 -1.2 0
29.608 -5.852 3.207 -0 -1.2 0
29.52 -6.368 3.209 -0 -1.2 0
29.423 -6.883 3.21 -0 -1.2 0
29.317 -7.395 3.21 -0 -1.2 0
29.202 -7.906 3.21 -0 -1.2 0
29.078 -8.415 3.208 -0 -1.2 0
28.946 -8.922 3.206 -0 -1.2 0
28.654 -9.927 3.2 -0 -1.2 0
30.071 -1.18 2.007 -0 -1.2 0
30.064 -1.703 2.016 -0 -1.2 0
30.048 -2.227 2.026 -0 -1.2 0
30.023 -2.749 2.034 -0 -1.2 0
29.989 -3.272 2.043 -0 -1.2 0
29.946 -3.793 2.051 -0 -1.2 0
29.894 -4.315 2.058 -0 -1.2 0
29.833 -4.835 2.065 -0 -1.2 0
29.763 -5.354 2.072 -0 -1.2 0
29.683 -5.871 2.078 -0 -1.2 0
29.595 -6.387 2.083 -0 -1.2 0
29.498 -6.902 2.089 -0 -1.2 0
29.392 -7.414 2.094 -0 -1.2 0
29.153 -8.433 2.102 -0 -1.2 0
29.02 -8.94 2.106 -0 -1.2 0
27.433 -13.372 2.116 -0 -1.2 0
30.1 -0.675 0.961 -0 -1.2 0
30.102 -1.198 0.971 -0 -1.2 0
30.096 -1.721 0.982 -0 -1.2 0
30.08 -2.245 0.991 -0 -1.2 0
30.055 -2.767 1 -0 -1.2 0
30.021 -3.29 1.011 -0 -1.2 0
29.978 -3.811 1.02 -0 -1.2 0
29.926 -4.333 1.029 -0 -1.2 0
29.865 -4.853 1.039 -0 -1.2 0
29.795 -5.372 1.048 -0 -1.2 0
29.715 -5.889 1.057 -0 -1.2 0
29.627 -6.405 1.066 -0 -1.2 0
29.529 -6.919 1.074 -0 -1.2 0
29.423 -7.432 1.083 -0 -1.2 0
29.308 -7.942 1.092 -0 -1.2 0
29.051 -8.958 1.108 -0 -1.2 0
28.908 -9.462 1.116 -0 -1.2 0
30.096 -1.217 -0.059 -0 -1.2 0
30.09 -1.74 -0.049 -0 -1.2 0
30.074 -2.264 -0.038 -0 -1.2 0
30.049 -2.786 -0.028 -0 -1.2 0
30.016 -3.309 -0.016 -0 -1.2 0
29.973 -3.83 -0.006 -0 -1.2 0
29.92 -4.352 0.006 -0 -1.2 0
29.859 -4.871 0.017 -0 -1.2 0
29.789 -5.39 0.029 -0 -1.2 0
29.709 -5.907 0.04 -0 -1.2 0
29.621 -6.423 0.052 -0 -1.2 0
29.524 -6.938 0.065 -0 -1.2 0
29.417 -7.45 0.077 -0 -1.2 0
29.178 -8.469 0.102 -0 -1.2 0
28.903 -9.48 0.128 -0 -1.2 0
28.25 -11.468 0.181 -0 -1.2 0
26.281 -15.743 0.307 -0 -1.2 0
30.074 -0.084 -1.64 -0 -1.2 0
30.088 -0.606 -1.627 -0 -1.2 0
30.092 -1.129 -1.615 -0 -1.2 0
30.052 -2.699 -1.573 -0 -1.2 0
30.02 -3.221 -1.559 -0 -1.2 0
27.715 -12.847 -1.233 -0 -1.2 0
22.402 -21.193 -0.833 -0 -1.2 0
21.688 -21.959 -0.788 -0 -1.2 0
30.03 -1.163 -2.736 -0 -1.2 0
29.989 -2.733 -2.692 -0 -1.2 0
29.958 -3.255 -2.675 -0 -1.2 0
29.917 -3.777 -2.658 -0 -1.2 0
29.867 -4.298 -2.64 -0 -1.2 0
29.809 -4.818 -2.622 -0 -1.2 0
29.741 -5.337 -2.603 -0 -1.2 0
29.663 -5.854 -2.584 -0 -1.2 0
29.483 -6.885 -2.543 -0 -1.2 0
29.379 -7.398 -2.521 -0 -1.2 0
28.936 -7.831 -2.478 -0 -1.2 0
28.047 -11.908 -2.303 -0 -1.2 0
27.856 -12.394 -2.276 -0 -1.2 0
27.232 -13.833 -2.192 -0 -1.2 0
21.642 -21.983 -1.562 -0 -1.2 0
29.893 -2.77 -3.721 -0 -1.2 0
29.862 -3.292 -3.703 -0 -1.2 0
29.821 -3.814 -3.685 -0 -1.2 0
29.771 -4.335 -3.665 -0 -1.2 0
29.712 -4.855 -3.644 -0 -1.2 0
29.644 -5.374 -3.622 -0 -1.2 0
29.567 -5.891 -3.601 -0 -1.2 0
29.481 -6.407 -3.578 -0 -1.2 0
29.388 -6.922 -3.553 -0 -1.2 0
29.284 -7.434 -3.528 -0 -1.2 0
29.05 -8.453 -3.474 -0 -1.2 0
28.919 -8.96 -3.447 -0 -1.2 0
28.137 -11.453 -3.294 -0 -1.2 0
26.685 -14.807 -3.045 -0 -1.2 0
26.445 -15.27 -3.006 -0 -1.2 0
25.125 -17.52 -2.802 -0 -1.2 0
22.622 -20.854 -2.439 -0 -1.2 0
22.277 -21.245 -2.391 -0 -1.2 0
21.925 -21.63 -2.343 -0 -1.2 0
21.567 -22.01 -2.293 -0 -1.2 0
29.765 0.33 -4.808 -0 -1.2 0
29.788 -0.192 -4.797 -0 -1.2 0
29.801 -0.714 -4.784 -0 -1.2 0
29.806 -1.237 -4.771 -0 -1.2 0
29.765 -2.807 -4.722 -0 -1.2 0
29.733 -3.329 -4.703 -0 -1.2 0
29.692 -3.85 -4.682 -0 -1.2 0
29.642 -4.372 -4.662 -0 -1.2 0
29.584 -4.892 -4.639 -0 -1.2 0
29.516 -5.41 -4.614 -0 -1.2 0
29.439 -5.927 -4.59 -0 -1.2 0
29.354 -6.443 -4.563 -0 -1.2 0
29.259 -6.957 -4.535 -0 -1.2 0
29.156 -7.47 -4.506 -0 -1.2 0
29.044 -7.98 -4.477 -0 -1.2 0
28.655 -9.499 -4.379 -0 -1.2 0
28.187 -10.994 -4.271 -0 -1.2 0
28.013 -11.487 -4.233 -0 -1.2 0
27.642 -12.462 -4.153 -0 -1.2 0
27.022 -13.9 -4.024 -0 -1.2 0
26.798 -14.371 -3.979 -0 -1.2 0
26.568 -14.839 -3.933 -0 -1.2 0
24.433 -18.416 -3.53 -0 -1.2 0
23.824 -19.26 -3.419 -0 -1.2 0
23.509 -19.675 -3.362 -0 -1.2 0
22.855 -20.485 -3.246 -0 -1.2 0
22.519 -20.882 -3.187 -0 -1.2 0
29.612 -0.231 -5.872 -0 -1.2 0
29.626 -0.754 -5.859 -0 -1.2 0
29.63 -1.277 -5.846 -0 -1.2 0
29.588 -2.846 -5.794 -0 -1.2 0
29.557 -3.368 -5.774 -0 -1.2 0
29.517 -3.889 -5.752 -0 -1.2 0
29.467 -4.411 -5.729 -0 -1.2 0
29.408 -4.93 -5.704 -0 -1.2 0
29.341 -5.449 -5.678 -0 -1.2 0
29.264 -5.966 -5.649 -0 -1.2 0
29.179 -6.482 -5.62 -0 -1.2 0
29.085 -6.996 -5.588 -0 -1.2 0
28.75 -8.527 -5.485 -0 -1.2 0
28.337 -10.037 -5.368 -0 -1.2 0
28.018 -11.031 -5.283 -0 -1.2 0
27.665 -12.013 -5.191 -0 -1.2 0
27.476 -12.498 -5.144 -0 -1.2 0
26.169 -15.337 -4.829 -0 -1.2 0
25.407 -16.699 -4.653 -0 -1.2 0
23.044 -20.113 -4.131 -0 -1.2 0
29.412 -0.266 -6.862 -0 -1.2 0
29.425 -0.789 -6.85 -0 -1.2 0
29.388 -2.881 -6.785 -0 -1.2 0
29.357 -3.403 -6.762 -0 -1.2 0
29.316 -3.924 -6.739 -0 -1.2 0
29.267 -4.446 -6.714 -0 -1.2 0
29.209 -4.965 -6.687 -0 -1.2 0
29.141 -5.484 -6.658 -0 -1.2 0
29.066 -6.001 -6.626 -0 -1.2 0
28.981 -6.517 -6.594 -0 -1.2 0
28.887 -7.031 -6.56 -0 -1.2 0
28.785 -7.543 -6.523 -0 -1.2 0
28.554 -8.561 -6.444 -0 -1.2 0
28.426 -9.067 -6.402 -0 -1.2 0
28.289 -9.571 -6.359 -0 -1.2 0
28.143 -10.071 -6.313 -0 -1.2 0
27.989 -10.57 -6.266 -0 -1.2 0
27.655 -11.557 -6.166 -0 -1.2 0
27.475 -12.046 -6.113 -0 -1.2 0
27.288 -12.531 -6.059 -0 -1.2 0
23.515 -19.319 -5.052 -0 -1.2 0
22.225 -20.937 -4.728 -0 -1.2 0
21.54 -21.711 -4.557 -0 -1.2 0
29.16 0.22 -7.849 -0 -1.2 0
29.179 -2.395 -7.779 -0 -1.2 0
29.157 -2.917 -7.76 -0 -1.2 0
29.126 -3.439 -7.737 -0 -1.2 0
29.086 -3.96 -7.712 -0 -1.2 0
29.036 -4.481 -7.685 -0 -1.2 0
28.979 -5.001 -7.656 -0 -1.2 0
28.912 -5.519 -7.624 -0 -1.2 0
28.837 -6.036 -7.591 -0 -1.2 0
28.752 -6.552 -7.554 -0 -1.2 0
28.66 -7.066 -7.516 -0 -1.2 0
28.558 -7.577 -7.476 -0 -1.2 0
28.065 -9.605 -7.294 -0 -1.2 0
27.606 -11.098 -7.137 -0 -1.2 0
27.436 -11.591 -7.08 -0 -1.2 0
26.016 -14.937 -6.627 -0 -1.2 0
25.782 -15.399 -6.555 -0 -1.2 0
22.701 -20.168 -5.643 -0 -1.2 0
22.378 -20.569 -5.55 -0 -1.2 0
21.71 -21.354 -5.361 -0 -1.2 0
28.878 0.182 -8.874 -0 -1.2 0
28.897 -2.432 -8.804 -0 -1.2 0
28.875 -2.954 -8.783 -0 -1.2 0
28.843 -3.476 -8.758 -0 -1.2 0
28.803 -3.998 -8.733 -0 -1.2 0
28.755 -4.519 -8.704 -0 -1.2 0
28.697 -5.038 -8.672 -0 -1.2 0
28.631 -5.557 -8.638 -0 -1.2 0
28.557 -6.073 -8.601 -0 -1.2 0
28.473 -6.589 -8.562 -0 -1.2 0
28.381 -7.103 -8.521 -0 -1.2 0
28.28 -7.614 -8.477 -0 -1.2 0
27.497 -10.639 -8.163 -0 -1.2 0
26.614 -13.081 -7.837 -0 -1.2 0
26.413 -13.559 -7.765 -0 -1.2 0
25.987 -14.504 -7.614 -0 -1.2 0
25.762 -14.971 -7.536 -0 -1.2 0
25.53 -15.432 -7.455 -0 -1.2 0
25.29 -15.89 -7.372 -0 -1.2 0
28.602 -2.463 -9.747 -0 -1.2 0
28.58 -2.985 -9.725 -0 -1.2 0
28.55 -3.507 -9.699 -0 -1.2 0
28.51 -4.028 -9.671 -0 -1.2 0
28.461 -4.55 -9.641 -0 -1.2 0
28.404 -5.069 -9.607 -0 -1.2 0
28.339 -5.587 -9.571 -0 -1.2 0
28.265 -6.104 -9.531 -0 -1.2 0
28.183 -6.619 -9.49 -0 -1.2 0
28.091 -7.133 -9.445 -0 -1.2 0
27.991 -7.645 -9.397 -0 -1.2 0
27.883 -8.154 -9.347 -0 -1.2 0
27.766 -8.662 -9.295 -0 -1.2 0
27.642 -9.168 -9.239 -0 -1.2 0
27.508 -9.671 -9.181 -0 -1.2 0
27.366 -10.171 -9.12 -0 -1.2 0
27.216 -10.669 -9.057 -0 -1.2 0
27.058 -11.163 -8.991 -0 -1.2 0
26.891 -11.655 -8.922 -0 -1.2 0
25.499 -14.998 -8.37 -0 -1.2 0
25.269 -15.46 -8.281 -0 -1.2 0
24.785 -16.37 -8.097 -0 -1.2 0
23.728 -18.134 -7.701 -0 -1.2 0
28.29 -1.419 -10.728 -0 -1.2 0
28.274 -2.465 -10.69 -0 -1.2 0
28.253 -2.987 -10.666 -0 -1.2 0
28.223 -3.509 -10.639 -0 -1.2 0
28.184 -4.031 -10.609 -0 -1.2 0
28.137 -4.552 -10.576 -0 -1.2 0
28.082 -5.071 -10.54 -0 -1.2 0
28.018 -5.589 -10.501 -0 -1.2 0
27.945 -6.106 -10.459 -0 -1.2 0
27.865 -6.621 -10.413 -0 -1.2 0
27.774 -7.135 -10.365 -0 -1.2 0
27.677 -7.646 -10.314 -0 -1.2 0
27.571 -8.156 -10.259 -0 -1.2 0
27.456 -8.664 -10.201 -0 -1.2 0
27.334 -9.17 -10.141 -0 -1.2 0
27.202 -9.672 -10.078 -0 -1.2 0
27.062 -10.172 -10.012 -0 -1.2 0
26.758 -11.164 -9.871 -0 -1.2 0
26.422 -12.145 -9.718 -0 -1.2 0
23.75 -17.701 -8.572 -0 -1.2 0
27.899 -1.946 -11.706 -0 -1.2 0
27.887 -2.47 -11.684 -0 -1.2 0
27.867 -2.992 -11.658 -0 -1.2 0
27.838 -3.514 -11.63 -0 -1.2 0
27.802 -4.035 -11.597 -0 -1.2 0
27.757 -4.557 -11.562 -0 -1.2 0
27.702 -5.076 -11.523 -0 -1.2 0
27.64 -5.594 -11.481 -0 -1.2 0
27.569 -6.11 -11.435 -0 -1.2 0
27.49 -6.626 -11.386 -0 -1.2 0
27.403 -7.139 -11.334 -0 -1.2 0
27.306 -7.651 -11.279 -0 -1.2 0
27.203 -8.161 -11.219 -0 -1.2 0
27.09 -8.668 -11.157 -0 -1.2 0
26.97 -9.174 -11.091 -0 -1.2 0
26.841 -9.677 -11.023 -0 -1.2 0
26.406 -11.169 -10.798 -0 -1.2 0
26.245 -11.661 -10.716 -0 -1.2 0
26.076 -12.149 -10.631 -0 -1.2 0
25.115 -14.537 -10.162 -0 -1.2 0
20.474 -21.79 -8.039 -0 -1.2 0
27.509 -1.953 -12.611 -0 -1.2 0
27.499 -2.477 -12.587 -0 -1.2 0
27.48 -2.999 -12.561 -0 -1.2 0
27.453 -3.521 -12.53 -0 -1.2 0
27.417 -4.042 -12.497 -0 -1.2 0
27.373 -4.563 -12.459 -0 -1.2 0
27.32 -5.083 -12.417 -0 -1.2 0
27.259 -5.601 -12.372 -0 -1.2 0
27.19 -6.117 -12.324 -0 -1.2 0
27.114 -6.633 -12.271 -0 -1.2 0
27.028 -7.146 -12.215 -0 -1.2 0
26.934 -7.658 -12.155 -0 -1.2 0
26.832 -8.167 -12.092 -0 -1.2 0
26.722 -8.675 -12.026 -0 -1.2 0
26.604 -9.181 -11.956 -0 -1.2 0
26.478 -9.683 -11.882 -0 -1.2 0
26.344 -10.183 -11.805 -0 -1.2 0
26.202 -10.681 -11.724 -0 -1.2 0
25.183 -13.599 -11.17 -0 -1.2 0
24.351 -15.47 -10.733 -0 -1.2 0
22.613 -18.571 -9.851 -0 -1.2 0
22.053 -19.411 -9.572 -0 -1.2 0
21.467 -20.229 -9.283 -0 -1.2 0
27.048 0.128 -13.559 -0 -1.2 0
27.071 -0.394 -13.551 -0 -1.2 0
26.429 -0.922 -13.22 -0 -1.2 0
27.081 -2.486 -13.478 -0 -1.2 0
27.064 -3.008 -13.45 -0 -1.2 0
27.038 -3.53 -13.419 -0 -1.2 0
27.002 -4.051 -13.383 -0 -1.2 0
26.96 -4.572 -13.342 -0 -1.2 0
26.909 -5.091 -13.299 -0 -1.2 0
26.851 -5.609 -13.251 -0 -1.2 0
26.783 -6.126 -13.199 -0 -1.2 0
26.708 -6.641 -13.143 -0 -1.2 0
26.624 -7.154 -13.084 -0 -1.2 0
26.533 -7.666 -13.021 -0 -1.2 0
26.433 -8.175 -12.953 -0 -1.2 0
26.326 -8.683 -12.883 -0 -1.2 0
26.211 -9.189 -12.808 -0 -1.2 0
26.087 -9.691 -12.73 -0 -1.2 0
25.956 -10.191 -12.647 -0 -1.2 0
25.816 -10.689 -12.56 -0 -1.2 0
22.295 -18.578 -10.559 -0 -1.2 0
21.461 -19.829 -10.107 -0 -1.2 0
21.17 -20.235 -9.95 -0 -1.2 0
26.56 0.114 -14.505 -0 -1.2 0
26.523 -4.064 -14.32 -0 -1.2 0
26.432 -5.104 -14.23 -0 -1.2 0
26.375 -5.623 -14.18 -0 -1.2 0
26.156 -7.167 -14.003 -0 -1.2 0
26.068 -7.679 -13.936 -0 -1.2 0
25.97 -8.188 -13.864 -0 -1.2 0
25.865 -8.696 -13.789 -0 -1.2 0
25.754 -9.201 -13.709 -0 -1.2 0
25.633 -9.704 -13.625 -0 -1.2 0
25.505 -10.204 -13.537 -0 -1.2 0
25.073 -11.687 -13.25 -0 -1.2 0
23.376 -15.946 -12.181 -0 -1.2 0
23.152 -16.398 -12.044 -0 -1.2 0
21.658 -19.01 -11.147 -0 -1.2 0
21.385 -19.427 -10.986 -0 -1.2 0
21.107 -19.839 -10.823 -0 -1.2 0
20.821 -20.245 -10.655 -0 -1.2 0
19.928 -21.426 -10.134 -0 -1.2 0
19.618 -21.808 -9.954 -0 -1.2 0
25.505 -8.203 -14.703 -0 -1.2 0
25.403 -8.711 -14.623 -0 -1.2 0
25.293 -9.216 -14.539 -0 -1.2 0
25.176 -9.719 -14.451 -0 -1.2 0
25.051 -10.218 -14.359 -0 -1.2 0
24.919 -10.716 -14.261 -0 -1.2 0
24.778 -11.21 -14.16 -0 -1.2 0
24.631 -11.701 -14.054 -0 -1.2 0
24.313 -12.673 -13.831 -0 -1.2 0
23.185 -15.502 -13.064 -0 -1.2 0
22.971 -15.959 -12.922 -0 -1.2 0
22.291 -17.302 -12.475 -0 -1.2 0
21.549 -18.6 -11.995 -0 -1.2 0
21.29 -19.022 -11.827 -0 -1.2 0
25.185 -7.201 -15.683 -0 -1.2 0
25.101 -7.712 -15.609 -0 -1.2 0
25.009 -8.221 -15.53 -0 -1.2 0
24.911 -8.729 -15.445 -0 -1.2 0
24.803 -9.234 -15.357 -0 -1.2 0
24.69 -9.736 -15.264 -0 -1.2 0
24.568 -10.236 -15.165 -0 -1.2 0
24.439 -10.733 -15.063 -0 -1.2 0
24.302 -11.227 -14.957 -0 -1.2 0
24.158 -11.718 -14.846 -0 -1.2 0
24.007 -12.206 -14.73 -0 -1.2 0
22.748 -15.517 -13.802 -0 -1.2 0
22.539 -15.974 -13.652 -0 -1.2 0
22.325 -16.426 -13.498 -0 -1.2 0
20.635 -19.453 -12.315 -0 -1.2 0
20.368 -19.864 -12.131 -0 -1.2 0
18.942 -21.831 -11.158 -0 -1.2 0
18.64 -22.207 -10.954 -0 -1.2 0
24.815 -5.692 -16.761 -0 -1.2 0
24.756 -6.208 -16.698 -0 -1.2 0
24.69 -6.723 -16.629 -0 -1.2 0
24.615 -7.236 -16.556 -0 -1.2 0
24.533 -7.747 -16.478 -0 -1.2 0
24.445 -8.256 -16.395 -0 -1.2 0
24.348 -8.763 -16.307 -0 -1.2 0
24.244 -9.268 -16.214 -0 -1.2 0
24.133 -9.77 -16.117 -0 -1.2 0
24.015 -10.27 -16.014 -0 -1.2 0
23.888 -10.767 -15.907 -0 -1.2 0
23.755 -11.26 -15.795 -0 -1.2 0
23.615 -11.752 -15.678 -0 -1.2 0
23.468 -12.239 -15.557 -0 -1.2 0
23.313 -12.722 -15.431 -0 -1.2 0
23.151 -13.204 -15.3 -0 -1.2 0
22.983 -13.68 -15.165 -0 -1.2 0
22.625 -14.622 -14.882 -0 -1.2 0
22.239 -15.549 -14.58 -0 -1.2 0
22.036 -16.005 -14.423 -0 -1.2 0
21.158 -17.783 -13.752 -0 -1.2 0
19.378 -20.696 -12.423 -0 -1.2 0
24.441 -2.605 -17.843 -0 -1.2 0
24.428 -3.127 -17.808 -0 -1.2 0
24.408 -3.649 -17.769 -0 -1.2 0
24.38 -4.169 -17.725 -0 -1.2 0
24.344 -4.69 -17.675 -0 -1.2 0
24.301 -5.209 -17.62 -0 -1.2 0
24.251 -5.727 -17.559 -0 -1.2 0
24.194 -6.243 -17.493 -0 -1.2 0
24.128 -6.758 -17.423 -0 -1.2 0
24.057 -7.27 -17.346 -0 -1.2 0
23.978 -7.781 -17.265 -0 -1.2 0
23.89 -8.29 -17.179 -0 -1.2 0
23.797 -8.797 -17.087 -0 -1.2 0
23.696 -9.302 -16.991 -0 -1.2 0
23.587 -9.804 -16.889 -0 -1.2 0
23.471 -10.303 -16.782 -0 -1.2 0
23.349 -10.8 -16.67 -0 -1.2 0
23.219 -11.294 -16.554 -0 -1.2 0
23.082 -11.785 -16.432 -0 -1.2 0
22.939 -12.272 -16.305 -0 -1.2 0
22.631 -13.236 -16.037 -0 -1.2 0
22.466 -13.712 -15.897 -0 -1.2 0
22.295 -14.186 -15.75 -0 -1.2 0
22.116 -14.654 -15.6 -0 -1.2 0
21.932 -15.119 -15.445 -0 -1.2 0
21.741 -15.58 -15.286 -0 -1.2 0
20.909 -17.376 -14.602 -0 -1.2 0
20.686 -17.813 -14.421 -0 -1.2 0
20.456 -18.245 -14.234 -0 -1.2 0
20.219 -18.672 -14.044 -0 -1.2 0
19.729 -19.509 -13.651 -0 -1.2 0
19.475 -19.919 -13.449 -0 -1.2 0
19.215 -20.324 -13.241 -0 -1.2 0
18.949 -20.722 -13.031 -0 -1.2 0
18.399 -21.502 -12.598 -0 -1.2 0
18.116 -21.882 -12.376 -0 -1.2 0
17.827 -22.257 -12.151 -0 -1.2 0
23.74 0.494 -18.756 -0 -1.2 0
23.812 -1.073 -18.735 -0 -1.2 0
23.82 -1.596 -18.717 -0 -1.2 0
23.823 -2.119 -18.694 -0 -1.2 0
23.817 -2.642 -18.664 -0 -1.2 0
23.805 -3.164 -18.629 -0 -1.2 0
23.786 -3.686 -18.589 -0 -1.2 0
23.759 -4.206 -18.542 -0 -1.2 0
23.724 -4.727 -18.491 -0 -1.2 0
23.683 -5.246 -18.434 -0 -1.2 0
23.579 -6.279 -18.303 -0 -1.2 0
23.516 -6.794 -18.23 -0 -1.2 0
23.446 -7.307 -18.151 -0 -1.2 0
23.369 -7.818 -18.066 -0 -1.2 0
23.285 -8.326 -17.976 -0 -1.2 0
23.194 -8.833 -17.881 -0 -1.2 0
23.096 -9.338 -17.781 -0 -1.2 0
22.99 -9.84 -17.675 -0 -1.2 0
22.301 -10.105 -17.128 -0 -1.2 0
22.759 -10.836 -17.448 -0 -1.2 0
22.633 -11.328 -17.326 -0 -1.2 0
22.5 -11.819 -17.199 -0 -1.2 0
22.36 -12.306 -17.068 -0 -1.2 0
22.214 -12.789 -16.93 -0 -1.2 0
22.061 -13.27 -16.789 -0 -1.2 0
21.9 -13.746 -16.642 -0 -1.2 0
21.734 -14.219 -16.489 -0 -1.2 0
21.561 -14.687 -16.332 -0 -1.2 0
21.382 -15.152 -16.171 -0 -1.2 0
21.195 -15.612 -16.004 -0 -1.2 0
21.003 -16.068 -15.833 -0 -1.2 0
20.804 -16.519 -15.657 -0 -1.2 0
20.387 -17.407 -15.291 -0 -1.2 0
20.17 -17.843 -15.101 -0 -1.2 0
19.945 -18.276 -14.907 -0 -1.2 0
19.715 -18.702 -14.708 -0 -1.2 0
19.238 -19.538 -14.298 -0 -1.2 0
18.991 -19.948 -14.086 -0 -1.2 0
18.737 -20.352 -13.87 -0 -1.2 0
18.478 -20.75 -13.65 -0 -1.2 0
18.213 -21.143 -13.426 -0 -1.2 0
17.943 -21.529 -13.198 -0 -1.2 0
17.668 -21.909 -12.966 -0 -1.2 0
17.388 -22.283 -12.729 -0 -1.2 0
23.068 -0.067 -19.616 -0 -1.2 0
23.108 -1.113 -19.597 -0 -1.2 0
23.117 -1.635 -19.579 -0 -1.2 0
23.119 -2.158 -19.555 -0 -1.2 0
23.115 -2.681 -19.524 -0 -1.2 0
23.103 -3.203 -19.489 -0 -1.2 0
23.085 -3.725 -19.448 -0 -1.2 0
23.059 -4.245 -19.4 -0 -1.2 0
23.027 -4.766 -19.346 -0 -1.2 0
22.986 -5.285 -19.288 -0 -1.2 0
22.94 -5.802 -19.223 -0 -1.2 0
22.886 -6.318 -19.153 -0 -1.2 0
22.826 -6.832 -19.075 -0 -1.2 0
22.758 -7.345 -18.994 -0 -1.2 0
22.684 -7.856 -18.906 -0 -1.2 0
22.603 -8.364 -18.813 -0 -1.2 0
22.515 -8.871 -18.714 -0 -1.2 0
22.42 -9.376 -18.609 -0 -1.2 0
22.318 -9.877 -18.5 -0 -1.2 0
22.21 -10.376 -18.384 -0 -1.2 0
22.095 -10.873 -18.262 -0 -1.2 0
21.973 -11.365 -18.136 -0 -1.2 0
21.844 -11.856 -18.004 -0 -1.2 0
21.71 -12.343 -17.867 -0 -1.2 0
21.568 -12.825 -17.723 -0 -1.2 0
21.419 -13.306 -17.575 -0 -1.2 0
21.264 -13.782 -17.422 -0 -1.2 0
21.103 -14.254 -17.264 -0 -1.2 0
20.935 -14.722 -17.1 -0 -1.2 0
20.761 -15.187 -16.931 -0 -1.2 0
20.581 -15.646 -16.757 -0 -1.2 0
20.394 -16.102 -16.579 -0 -1.2 0
20.202 -16.553 -16.394 -0 -1.2 0
20.003 -16.998 -16.206 -0 -1.2 0
19.798 -17.44 -16.013 -0 -1.2 0
19.587 -17.876 -15.814 -0 -1.2 0
19.371 -18.307 -15.611 -0 -1.2 0
19.147 -18.733 -15.403 -0 -1.2 0
18.919 -19.154 -15.192 -0 -1.2 0
18.446 -19.978 -14.754 -0 -1.2 0
18.2 -20.382 -14.528 -0 -1.2 0
17.949 -20.78 -14.298 -0 -1.2 0
17.693 -21.171 -14.064 -0 -1.2 0
17.43 -21.557 -13.826 -0 -1.2 0
17.163 -21.937 -13.583 -0 -1.2 0
16.891 -22.311 -13.337 -0 -1.2 0
22.425 -1.15 -20.373 -0 -1.2 0
22.434 -1.673 -20.354 -0 -1.2 0
22.437 -2.195 -20.329 -0 -1.2 0
22.433 -2.719 -20.299 -0 -1.2 0
22.422 -3.24 -20.263 -0 -1.2 0
22.404 -3.762 -20.219 -0 -1.2 0
22.379 -4.283 -20.171 -0 -1.2 0
22.348 -4.803 -20.116 -0 -1.2 0
22.31 -5.322 -20.056 -0 -1.2 0
22.266 -5.839 -19.989 -0 -1.2 0
22.215 -6.355 -19.915 -0 -1.2 0
22.156 -6.869 -19.836 -0 -1.2 0
22.04 -7.367 -19.707 -0 -1.2 0
21.96 -7.874 -19.61 -0 -1.2 0
21.919 -8.394 -19.546 -0 -1.2 0
21.827 -8.897 -19.437 -0 -1.2 0
21.677 -9.378 -19.279 -0 -1.2 0
21.561 -10.411 -19.12 -0 -1.2 0
21.065 -10.731 -18.659 -0 -1.2 0
21.332 -11.4 -18.863 -0 -1.2 0
21.208 -11.891 -18.727 -0 -1.2 0
21.077 -12.377 -18.585 -0 -1.2 0
20.94 -12.86 -18.436 -0 -1.2 0
20.796 -13.34 -18.283 -0 -1.2 0
20.645 -13.815 -18.124 -0 -1.2 0
20.49 -14.288 -17.96 -0 -1.2 0
20.328 -14.755 -17.79 -0 -1.2 0
20.159 -15.22 -17.615 -0 -1.2 0
19.985 -15.679 -17.435 -0 -1.2 0
19.804 -16.134 -17.249 -0 -1.2 0
19.617 -16.585 -17.058 -0 -1.2 0
19.424 -17.03 -16.863 -0 -1.2 0
19.226 -17.471 -16.662 -0 -1.2 0
19.022 -17.907 -16.456 -0 -1.2 0
18.812 -18.338 -16.245 -0 -1.2 0
18.596 -18.763 -16.03 -0 -1.2 0
18.375 -19.184 -15.809 -0 -1.2 0
18.148 -19.598 -15.584 -0 -1.2 0
17.915 -20.007 -15.354 -0 -1.2 0
17.677 -20.411 -15.12 -0 -1.2 0
17.434 -20.808 -14.882 -0 -1.2 0
17.186 -21.199 -14.638 -0 -1.2 0
16.932 -21.585 -14.391 -0 -1.2 0
16.673 -21.964 -14.138 -0 -1.2 0
16.409 -22.337 -13.882 -0 -1.2 0
21.733 -2.232 -21.074 -0 -1.2 0
21.73 -2.756 -21.042 -0 -1.2 0
21.72 -3.277 -21.005 -0 -1.2 0
21.703 -3.799 -20.961 -0 -1.2 0
21.68 -4.319 -20.912 -0 -1.2 0
21.65 -4.84 -20.855 -0 -1.2 0
21.614 -5.358 -20.792 -0 -1.2 0
21.521 -6.391 -20.648 -0 -1.2 0
21.465 -6.906 -20.567 -0 -1.2 0
21.403 -7.418 -20.48 -0 -1.2 0
21.259 -8.437 -20.288 -0 -1.2 0
21.176 -8.943 -20.182 -0 -1.2 0
21.088 -9.447 -20.07 -0 -1.2 0
20.631 -9.795 -19.612 -0 -1.2 0
20.892 -10.447 -19.828 -0 -1.2 0
20.785 -10.943 -19.698 -0 -1.2 0
20.287 -11.243 -19.204 -0 -1.2 0
20.551 -11.925 -19.422 -0 -1.2 0
20.425 -12.412 -19.275 -0 -1.2 0
20.292 -12.894 -19.122 -0 -1.2 0
20.154 -13.374 -18.963 -0 -1.2 0
20.008 -13.849 -18.798 -0 -1.2 0
19.858 -14.321 -18.628 -0 -1.2 0
19.702 -14.788 -18.452 -0 -1.2 0
19.539 -15.252 -18.271 -0 -1.2 0
19.369 -15.711 -18.085 -0 -1.2 0
19.196 -16.166 -17.892 -0 -1.2 0
19.015 -16.616 -17.695 -0 -1.2 0
18.829 -17.061 -17.492 -0 -1.2 0
18.636 -17.502 -17.285 -0 -1.2 0
18.439 -17.937 -17.072 -0 -1.2 0
18.237 -18.368 -16.853 -0 -1.2 0
18.027 -18.793 -16.63 -0 -1.2 0
17.814 -19.213 -16.402 -0 -1.2 0
17.594 -19.627 -16.169 -0 -1.2 0
17.37 -20.036 -15.931 -0 -1.2 0
17.14 -20.439 -15.688 -0 -1.2 0
16.904 -20.836 -15.442 -0 -1.2 0
16.664 -21.227 -15.189 -0 -1.2 0
16.419 -21.612 -14.933 -0 -1.2 0
16.168 -21.991 -14.672 -0 -1.2 0
15.913 -22.363 -14.406 -0 -1.2 0
20.971 -2.271 -21.824 -0 -1.2 0
20.968 -2.794 -21.793 -0 -1.2 0
20.959 -3.316 -21.755 -0 -1.2 0
20.944 -3.837 -21.71 -0 -1.2 0
20.658 -4.317 -21.388 -0 -1.2 0
20.894 -4.878 -21.601 -0 -1.2 0
20.859 -5.397 -21.536 -0 -1.2 0
20.817 -5.914 -21.466 -0 -1.2 0
20.77 -6.429 -21.389 -0 -1.2 0
20.658 -7.456 -21.215 -0 -1.2 0
20.591 -7.966 -21.118 -0 -1.2 0
20.191 -8.356 -20.684 -0 -1.2 0
20.44 -8.98 -20.907 -0 -1.2 0
20.356 -9.484 -20.791 -0 -1.2 0
20.167 -10.483 -20.542 -0 -1.2 0
20.064 -10.979 -20.409 -0 -1.2 0
19.955 -11.471 -20.269 -0 -1.2 0
19.84 -11.961 -20.123 -0 -1.2 0
19.719 -12.447 -19.971 -0 -1.2 0
19.59 -12.929 -19.813 -0 -1.2 0
19.457 -13.409 -19.648 -0 -1.2 0
19.319 -13.884 -19.478 -0 -1.2 0
19.173 -14.356 -19.303 -0 -1.2 0
19.023 -14.823 -19.121 -0 -1.2 0
18.866 -15.286 -18.934 -0 -1.2 0
18.703 -15.745 -18.741 -0 -1.2 0
18.535 -16.2 -18.542 -0 -1.2 0
18.362 -16.65 -18.339 -0 -1.2 0
18.183 -17.094 -18.129 -0 -1.2 0
17.998 -17.535 -17.913 -0 -1.2 0
17.808 -17.969 -17.694 -0 -1.2 0
17.613 -18.4 -17.467 -0 -1.2 0
17.411 -18.825 -17.236 -0 -1.2 0
17.205 -19.244 -17 -0 -1.2 0
16.994 -19.658 -16.759 -0 -1.2 0
16.777 -20.066 -16.514 -0 -1.2 0
16.556 -20.469 -16.262 -0 -1.2 0
16.33 -20.865 -16.006 -0 -1.2 0
16.098 -21.256 -15.746 -0 -1.2 0
15.861 -21.64 -15.48 -0 -1.2 0
15.621 -22.018 -15.21 -0 -1.2 0
15.374 -22.391 -14.935 -0 -1.2 0
20.213 -0.748 -22.551 -0 -1.2 0
20.229 -1.271 -22.539 -0 -1.2 0
20.239 -1.794 -22.52 -0 -1.2 0
20.242 -2.316 -22.495 -0 -1.2 0
20.24 -2.84 -22.463 -0 -1.2 0
20.231 -3.361 -22.424 -0 -1.2 0
20.216 -3.883 -22.378 -0 -1.2 0
20.196 -4.403 -22.325 -0 -1.2 0
20.168 -4.923 -22.266 -0 -1.2 0
20.135 -5.442 -22.201 -0 -1.2 0
20.096 -5.959 -22.128 -0 -1.2 0
20.051 -6.474 -22.049 -0 -1.2 0
20 -6.988 -21.963 -0 -1.2 0
19.942 -7.5 -21.87 -0 -1.2 0
19.878 -8.01 -21.771 -0 -1.2 0
19.809 -8.518 -21.667 -0 -1.2 0
19.733 -9.024 -21.554 -0 -1.2 0
19.652 -9.528 -21.436 -0 -1.2 0
19.564 -10.029 -21.311 -0 -1.2 0
19.47 -10.527 -21.18 -0 -1.2 0
19.371 -11.022 -21.041 -0 -1.2 0
19.266 -11.514 -20.898 -0 -1.2 0
19.154 -12.004 -20.748 -0 -1.2 0
19.038 -12.49 -20.591 -0 -1.2 0
18.916 -12.971 -20.428 -0 -1.2 0
18.787 -13.451 -20.26 -0 -1.2 0
18.653 -13.925 -20.085 -0 -1.2 0
18.514 -14.397 -19.904 -0 -1.2 0
18.368 -14.863 -19.717 -0 -1.2 0
18.217 -15.327 -19.524 -0 -1.2 0
18.06 -15.785 -19.326 -0 -1.2 0
17.898 -16.239 -19.121 -0 -1.2 0
17.731 -16.688 -18.911 -0 -1.2 0
17.558 -17.133 -18.696 -0 -1.2 0
17.381 -17.573 -18.474 -0 -1.2 0
17.197 -18.007 -18.247 -0 -1.2 0
17.009 -18.437 -18.014 -0 -1.2 0
16.815 -18.861 -17.776 -0 -1.2 0
16.617 -19.28 -17.534 -0 -1.2 0
16.413 -19.693 -17.285 -0 -1.2 0
16.204 -20.101 -17.031 -0 -1.2 0
15.99 -20.503 -16.773 -0 -1.2 0
15.772 -20.899 -16.509 -0 -1.2 0
15.549 -21.289 -16.24 -0 -1.2 0
15.321 -21.673 -15.967 -0 -1.2 0
15.088 -22.051 -15.689 -0 -1.2 0
14.851 -22.423 -15.405 -0 -1.2 0
19.461 -0.797 -23.195 -0 -1.2 0
19.477 -1.32 -23.183 -0 -1.2 0
19.487 -1.843 -23.165 -0 -1.2 0
19.49 -2.365 -23.139 -0 -1.2 0
19.489 -2.889 -23.106 -0 -1.2 0
19.324 -4.43 -22.823 -0 -1.2 0
19.42 -4.972 -22.905 -0 -1.2 0
19.388 -5.49 -22.838 -0 -1.2 0
19.351 -6.007 -22.764 -0 -1.2 0
19.308 -6.522 -22.683 -0 -1.2 0
19.258 -7.036 -22.595 -0 -1.2 0
19.142 -8.058 -22.399 -0 -1.2 0
19.075 -8.566 -22.291 -0 -1.2 0
19.003 -9.071 -22.176 -0 -1.2 0
18.925 -9.575 -22.054 -0 -1.2 0
18.84 -10.076 -21.926 -0 -1.2 0
18.751 -10.573 -21.791 -0 -1.2 0
18.656 -11.069 -21.65 -0 -1.2 0
18.554 -11.56 -21.502 -0 -1.2 0
18.447 -12.05 -21.348 -0 -1.2 0
18.335 -12.535 -21.187 -0 -1.2 0
18.217 -13.016 -21.02 -0 -1.2 0
18.094 -13.496 -20.847 -0 -1.2 0
17.965 -13.97 -20.667 -0 -1.2 0
17.831 -14.441 -20.481 -0 -1.2 0
17.691 -14.907 -20.29 -0 -1.2 0
17.546 -15.37 -20.091 -0 -1.2 0
17.395 -15.828 -19.887 -0 -1.2 0
17.24 -16.282 -19.677 -0 -1.2 0
17.079 -16.731 -19.461 -0 -1.2 0
16.913 -17.174 -19.239 -0 -1.2 0
16.742 -17.614 -19.011 -0 -1.2 0
16.565 -18.048 -18.778 -0 -1.2 0
16.384 -18.478 -18.539 -0 -1.2 0
16.198 -18.901 -18.295 -0 -1.2 0
16.006 -19.32 -18.044 -0 -1.2 0
15.81 -19.732 -17.79 -0 -1.2 0
15.61 -20.14 -17.528 -0 -1.2 0
15.404 -20.541 -17.262 -0 -1.2 0
15.194 -20.936 -16.991 -0 -1.2 0
14.979 -21.326 -16.715 -0 -1.2 0
14.759 -21.709 -16.434 -0 -1.2 0
14.536 -22.086 -16.147 -0 -1.2 0
14.308 -22.458 -15.857 -0 -1.2 0
18.605 -5.023 -23.555 -0 -1.2 0
18.539 -6.058 -23.411 -0 -1.2 0
18.497 -6.573 -23.328 -0 -1.2 0
18.398 -7.598 -23.14 -0 -1.2 0
18.339 -8.108 -23.037 -0 -1.2 0
18.275 -8.615 -22.926 -0 -1.2 0
18.207 -9.121 -22.807 -0 -1.2 0
18.132 -9.624 -22.683 -0 -1.2 0
18.051 -10.125 -22.552 -0 -1.2 0
17.965 -10.622 -22.413 -0 -1.2 0
17.875 -11.117 -22.268 -0 -1.2 0
17.778 -11.608 -22.116 -0 -1.2 0
17.676 -12.097 -21.958 -0 -1.2 0
17.568 -12.583 -21.793 -0 -1.2 0
17.456 -13.063 -21.622 -0 -1.2 0
17.338 -13.542 -21.443 -0 -1.2 0
17.214 -14.016 -21.259 -0 -1.2 0
17.086 -14.487 -21.068 -0 -1.2 0
16.953 -14.953 -20.871 -0 -1.2 0
16.814 -15.415 -20.667 -0 -1.2 0
16.67 -15.873 -20.457 -0 -1.2 0
16.521 -16.326 -20.241 -0 -1.2 0
16.367 -16.775 -20.02 -0 -1.2 0
16.208 -17.218 -19.791 -0 -1.2 0
16.045 -17.657 -19.557 -0 -1.2 0
15.876 -18.09 -19.318 -0 -1.2 0
15.702 -18.52 -19.072 -0 -1.2 0
15.524 -18.943 -18.821 -0 -1.2 0
15.341 -19.361 -18.564 -0 -1.2 0
15.154 -19.773 -18.301 -0 -1.2 0
14.961 -20.18 -18.033 -0 -1.2 0
14.765 -20.58 -17.76 -0 -1.2 0
14.563 -20.975 -17.481 -0 -1.2 0
14.358 -21.364 -17.198 -0 -1.2 0
14.148 -21.747 -16.908 -0 -1.2 0
13.934 -22.123 -16.614 -0 -1.2 0
13.716 -22.494 -16.315 -0 -1.2 0
17.892 -1.416 -24.409 -0 -1.2 0
17.843 -5.067 -24.121 -0 -1.2 0
17.781 -6.102 -23.973 -0 -1.2 0
17.697 -7.13 -23.797 -0 -1.2 0
17.647 -7.642 -23.698 -0 -1.2 0
17.591 -8.151 -23.592 -0 -1.2 0
17.531 -8.659 -23.478 -0 -1.2 0
17.465 -9.164 -23.358 -0 -1.2 0
17.393 -9.667 -23.23 -0 -1.2 0
17.316 -10.167 -23.096 -0 -1.2 0
17.233 -10.665 -22.955 -0 -1.2 0
17.147 -11.16 -22.807 -0 -1.2 0
17.054 -11.65 -22.652 -0 -1.2 0
16.956 -12.139 -22.489 -0 -1.2 0
16.854 -12.624 -22.32 -0 -1.2 0
16.746 -13.105 -22.145 -0 -1.2 0
16.633 -13.583 -21.963 -0 -1.2 0
16.515 -14.057 -21.774 -0 -1.2 0
16.392 -14.527 -21.579 -0 -1.2 0
16.264 -14.992 -21.377 -0 -1.2 0
16.132 -15.455 -21.169 -0 -1.2 0
15.994 -15.912 -20.954 -0 -1.2 0
15.851 -16.365 -20.734 -0 -1.2 0
15.704 -16.813 -20.506 -0 -1.2 0
15.551 -17.256 -20.273 -0 -1.2 0
15.396 -17.695 -20.034 -0 -1.2 0
15.233 -18.127 -19.788 -0 -1.2 0
15.067 -18.556 -19.537 -0 -1.2 0
14.897 -18.979 -19.279 -0 -1.2 0
14.721 -19.396 -19.017 -0 -1.2 0
14.541 -19.808 -18.747 -0 -1.2 0
14.358 -20.214 -18.473 -0 -1.2 0
14.17 -20.615 -18.193 -0 -1.2 0
13.976 -21.009 -17.908 -0 -1.2 0
13.78 -21.397 -17.617 -0 -1.2 0
13.578 -21.779 -17.321 -0 -1.2 0
13.374 -22.155 -17.02 -0 -1.2 0
13.164 -22.526 -16.714 -0 -1.2 0
17.109 -1.46 -24.954 -0 -1.2 0
17.064 -5.111 -24.662 -0 -1.2 0
17.037 -5.629 -24.59 -0 -1.2 0
17.005 -6.146 -24.511 -0 -1.2 0
16.968 -6.661 -24.425 -0 -1.2 0
16.925 -7.174 -24.331 -0 -1.2 0
16.877 -7.686 -24.23 -0 -1.2 0
16.824 -8.195 -24.122 -0 -1.2 0
16.767 -8.702 -24.006 -0 -1.2 0
16.704 -9.207 -23.884 -0 -1.2 0
16.635 -9.71 -23.753 -0 -1.2 0
16.562 -10.21 -23.616 -0 -1.2 0
16.484 -10.707 -23.472 -0 -1.2 0
16.401 -11.202 -23.32 -0 -1.2 0
16.313 -11.692 -23.162 -0 -1.2 0
16.22 -12.181 -22.997 -0 -1.2 0
16.122 -12.665 -22.824 -0 -1.2 0
16.019 -13.146 -22.644 -0 -1.2 0
15.911 -13.624 -22.459 -0 -1.2 0
15.798 -14.097 -22.266 -0 -1.2 0
15.681 -14.567 -22.066 -0 -1.2 0
15.559 -15.032 -21.86 -0 -1.2 0
15.433 -15.494 -21.647 -0 -1.2 0
15.301 -15.951 -21.428 -0 -1.2 0
15.165 -16.404 -21.202 -0 -1.2 0
15.025 -16.851 -20.971 -0 -1.2 0
14.879 -17.294 -20.732 -0 -1.2 0
14.729 -17.732 -20.487 -0 -1.2 0
14.575 -18.165 -20.236 -0 -1.2 0
14.417 -18.593 -19.98 -0 -1.2 0
14.254 -19.015 -19.717 -0 -1.2 0
14.086 -19.432 -19.448 -0 -1.2 0
13.915 -19.843 -19.174 -0 -1.2 0
13.739 -20.249 -18.893 -0 -1.2 0
13.559 -20.649 -18.607 -0 -1.2 0
13.375 -21.043 -18.315 -0 -1.2 0
13.187 -21.431 -18.018 -0 -1.2 0
12.994 -21.812 -17.716 -0 -1.2 0
12.799 -22.188 -17.408 -0 -1.2 0
12.599 -22.557 -17.094 -0 -1.2 0
16.245 -1.507 -25.512 -0 -1.2 0
16.205 -5.158 -25.216 -0 -1.2 0
16.18 -5.676 -25.143 -0 -1.2 0
16.149 -6.192 -25.063 -0 -1.2 0
16.114 -6.707 -24.975 -0 -1.2 0
16.074 -7.22 -24.879 -0 -1.2 0
16.03 -7.731 -24.776 -0 -1.2 0
15.979 -8.241 -24.665 -0 -1.2 0
15.925 -8.748 -24.547 -0 -1.2 0
15.865 -9.253 -24.422 -0 -1.2 0
15.801 -9.755 -24.289 -0 -1.2 0
15.731 -10.255 -24.148 -0 -1.2 0
15.657 -10.752 -24.001 -0 -1.2 0
15.579 -11.246 -23.847 -0 -1.2 0
15.496 -11.737 -23.685 -0 -1.2 0
15.408 -12.225 -23.516 -0 -1.2 0
15.316 -12.709 -23.34 -0 -1.2 0
15.218 -13.189 -23.157 -0 -1.2 0
15.115 -13.667 -22.967 -0 -1.2 0
15.01 -14.14 -22.769 -0 -1.2 0
14.898 -14.61 -22.566 -0 -1.2 0
14.783 -15.074 -22.355 -0 -1.2 0
14.662 -15.536 -22.138 -0 -1.2 0
14.538 -15.992 -21.914 -0 -1.2 0
14.409 -16.444 -21.683 -0 -1.2 0
14.276 -16.892 -21.446 -0 -1.2 0
14.138 -17.334 -21.203 -0 -1.2 0
13.996 -17.772 -20.953 -0 -1.2 0
13.85 -18.204 -20.696 -0 -1.2 0
13.7 -18.631 -20.433 -0 -1.2 0
13.545 -19.053 -20.165 -0 -1.2 0
13.386 -19.47 -19.89 -0 -1.2 0
13.223 -19.88 -19.609 -0 -1.2 0
13.057 -20.286 -19.322 -0 -1.2 0
12.886 -20.685 -19.031 -0 -1.2 0
12.712 -21.078 -18.732 -0 -1.2 0
12.534 -21.466 -18.428 -0 -1.2 0
12.351 -21.847 -18.119 -0 -1.2 0
12.165 -22.222 -17.804 -0 -1.2 0
11.976 -22.591 -17.484 -0 -1.2 0
15.449 -1.549 -25.99 -0 -1.2 0
15.413 -5.199 -25.691 -0 -1.2 0
15.389 -5.717 -25.616 -0 -1.2 0
15.361 -6.233 -25.534 -0 -1.2 0
15.327 -6.748 -25.444 -0 -1.2 0
15.29 -7.261 -25.348 -0 -1.2 0
15.247 -7.772 -25.243 -0 -1.2 0
15.2 -8.281 -25.13 -0 -1.2 0
15.148 -8.788 -25.01 -0 -1.2 0
15.092 -9.293 -24.883 -0 -1.2 0
15.031 -9.795 -24.748 -0 -1.2 0
14.966 -10.295 -24.605 -0 -1.2 0
14.896 -10.791 -24.455 -0 -1.2 0
14.821 -11.285 -24.298 -0 -1.2 0
14.743 -11.776 -24.133 -0 -1.2 0
14.659 -12.264 -23.961 -0 -1.2 0
14.571 -12.748 -23.782 -0 -1.2 0
14.479 -13.227 -23.595 -0 -1.2 0
14.382 -13.705 -23.402 -0 -1.2 0
14.281 -14.177 -23.201 -0 -1.2 0
14.176 -14.647 -22.993 -0 -1.2 0
14.066 -15.111 -22.779 -0 -1.2 0
13.952 -15.572 -22.558 -0 -1.2 0
13.834 -16.028 -22.33 -0 -1.2 0
13.712 -16.48 -22.094 -0 -1.2 0
13.585 -16.927 -21.853 -0 -1.2 0
13.454 -17.369 -21.605 -0 -1.2 0
13.32 -17.807 -21.35 -0 -1.2 0
13.18 -18.238 -21.089 -0 -1.2 0
13.038 -18.666 -20.822 -0 -1.2 0
12.892 -19.087 -20.548 -0 -1.2 0
12.741 -19.503 -20.268 -0 -1.2 0
12.587 -19.913 -19.982 -0 -1.2 0
12.428 -20.318 -19.69 -0 -1.2 0
12.267 -20.717 -19.392 -0 -1.2 0
12.101 -21.11 -19.089 -0 -1.2 0
11.931 -21.497 -18.779 -0 -1.2 0
11.758 -21.877 -18.464 -0 -1.2 0
11.582 -22.252 -18.143 -0 -1.2 0
11.401 -22.62 -17.817 -0 -1.2 0
14.646 -1.595 -26.44 -0 -1.2 0
14.325 -2.095 -25.826 -0 -1.2 0
14.329 -2.606 -25.8 -0 -1.2 0
14.349 -3.119 -25.799 -0 -1.2 0
14.359 -3.633 -25.783 -0 -1.2 0
14.346 -4.141 -25.723 -0 -1.2 0
14.634 -4.725 -26.202 -0 -1.2 0
14.616 -5.245 -26.134 -0 -1.2 0
14.595 -5.762 -26.059 -0 -1.2 0
14.568 -6.279 -25.975 -0 -1.2 0
14.536 -6.793 -25.884 -0 -1.2 0
14.502 -7.306 -25.785 -0 -1.2 0
14.462 -7.817 -25.679 -0 -1.2 0
14.417 -8.326 -25.564 -0 -1.2 0
14.259 -9.84 -25.175 -0 -1.2 0
14.197 -10.339 -25.029 -0 -1.2 0
14.132 -10.835 -24.877 -0 -1.2 0
14.061 -11.329 -24.716 -0 -1.2 0
13.987 -11.819 -24.549 -0 -1.2 0
13.909 -12.307 -24.374 -0 -1.2 0
13.826 -12.79 -24.191 -0 -1.2 0
13.738 -13.27 -24.001 -0 -1.2 0
13.648 -13.747 -23.805 -0 -1.2 0
13.553 -14.219 -23.6 -0 -1.2 0
13.453 -14.688 -23.389 -0 -1.2 0
13.349 -15.152 -23.171 -0 -1.2 0
13.243 -15.613 -22.946 -0 -1.2 0
13.131 -16.069 -22.713 -0 -1.2 0
13.015 -16.52 -22.474 -0 -1.2 0
12.896 -16.967 -22.228 -0 -1.2 0
12.773 -17.408 -21.975 -0 -1.2 0
12.645 -17.845 -21.716 -0 -1.2 0
12.514 -18.276 -21.45 -0 -1.2 0
12.379 -18.703 -21.178 -0 -1.2 0
12.241 -19.124 -20.9 -0 -1.2 0
12.099 -19.54 -20.614 -0 -1.2 0
11.952 -19.949 -20.323 -0 -1.2 0
11.803 -20.354 -20.026 -0 -1.2 0
11.65 -20.752 -19.723 -0 -1.2 0
11.493 -21.144 -19.414 -0 -1.2 0
11.333 -21.531 -19.098 -0 -1.2 0
11.169 -21.911 -18.778 -0 -1.2 0
11.003 -22.285 -18.451 -0 -1.2 0
10.832 -22.652 -18.119 -0 -1.2 0
13.746 -1.646 -26.906 -0 -1.2 0
13.755 -2.169 -26.886 -0 -1.2 0
13.761 -2.691 -26.857 -0 -1.2 0
13.762 -3.214 -26.821 -0 -1.2 0
13.758 -3.735 -26.776 -0 -1.2 0
13.751 -4.256 -26.724 -0 -1.2 0
13.739 -4.776 -26.663 -0 -1.2 0
13.723 -5.295 -26.594 -0 -1.2 0
13.703 -5.813 -26.517 -0 -1.2 0
13.679 -6.329 -26.432 -0 -1.2 0
13.651 -6.843 -26.339 -0 -1.2 0
13.619 -7.356 -26.238 -0 -1.2 0
13.395 -9.888 -25.616 -0 -1.2 0
13.338 -10.388 -25.468 -0 -1.2 0
13.277 -10.883 -25.312 -0 -1.2 0
13.212 -11.377 -25.149 -0 -1.2 0
13.143 -11.867 -24.978 -0 -1.2 0
13.07 -12.354 -24.8 -0 -1.2 0
12.993 -12.837 -24.614 -0 -1.2 0
12.912 -13.316 -24.421 -0 -1.2 0
12.828 -13.793 -24.22 -0 -1.2 0
12.738 -14.265 -24.012 -0 -1.2 0
12.646 -14.734 -23.797 -0 -1.2 0
12.549 -15.197 -23.575 -0 -1.2 0
12.449 -15.658 -23.345 -0 -1.2 0
12.345 -16.113 -23.108 -0 -1.2 0
12.238 -16.564 -22.865 -0 -1.2 0
12.126 -17.01 -22.614 -0 -1.2 0
12.012 -17.451 -22.357 -0 -1.2 0
11.893 -17.887 -22.093 -0 -1.2 0
11.77 -18.318 -21.822 -0 -1.2 0
11.644 -18.745 -21.545 -0 -1.2 0
11.515 -19.165 -21.261 -0 -1.2 0
11.382 -19.58 -20.971 -0 -1.2 0
11.246 -19.989 -20.675 -0 -1.2 0
11.107 -20.393 -20.372 -0 -1.2 0
10.963 -20.791 -20.063 -0 -1.2 0
10.817 -21.182 -19.748 -0 -1.2 0
10.667 -21.568 -19.427 -0 -1.2 0
10.514 -21.947 -19.1 -0 -1.2 0
10.358 -22.321 -18.768 -0 -1.2 0
10.199 -22.688 -18.43 -0 -1.2 0
12.862 -1.162 -27.332 -0 -1.2 0
12.89 -2.729 -27.272 -0 -1.2 0
12.891 -3.253 -27.234 -0 -1.2 0
12.889 -3.774 -27.189 -0 -1.2 0
12.883 -4.295 -27.136 -0 -1.2 0
12.872 -4.814 -27.074 -0 -1.2 0
12.859 -5.334 -27.004 -0 -1.2 0
12.84 -5.851 -26.926 -0 -1.2 0
12.818 -6.367 -26.84 -0 -1.2 0
12.763 -7.394 -26.643 -0 -1.2 0
12.558 -9.926 -26.012 -0 -1.2 0
12.504 -10.424 -25.862 -0 -1.2 0
12.448 -10.92 -25.704 -0 -1.2 0
12.387 -11.413 -25.538 -0 -1.2 0
12.324 -11.903 -25.364 -0 -1.2 0
12.256 -12.39 -25.184 -0 -1.2 0
12.185 -12.873 -24.995 -0 -1.2 0
11.863 -14.768 -24.165 -0 -1.2 0
11.773 -15.232 -23.94 -0 -1.2 0
11.68 -15.692 -23.706 -0 -1.2 0
11.583 -16.147 -23.465 -0 -1.2 0
11.482 -16.597 -23.218 -0 -1.2 0
11.379 -17.043 -22.964 -0 -1.2 0
11.272 -17.483 -22.703 -0 -1.2 0
11.162 -17.92 -22.434 -0 -1.2 0
11.048 -18.35 -22.16 -0 -1.2 0
10.93 -18.776 -21.878 -0 -1.2 0
10.81 -19.196 -21.59 -0 -1.2 0
10.686 -19.611 -21.295 -0 -1.2 0
10.559 -20.019 -20.994 -0 -1.2 0
10.428 -20.423 -20.686 -0 -1.2 0
10.295 -20.82 -20.373 -0 -1.2 0
10.159 -21.211 -20.053 -0 -1.2 0
10.019 -21.597 -19.727 -0 -1.2 0
9.876 -21.976 -19.395 -0 -1.2 0
9.73 -22.348 -19.057 -0 -1.2 0
9.582 -22.715 -18.714 -0 -1.2 0
11.994 -2.768 -27.662 -0 -1.2 0
11.996 -3.291 -27.625 -0 -1.2 0
11.995 -3.812 -27.578 -0 -1.2 0
11.99 -4.333 -27.524 -0 -1.2 0
11.969 -5.372 -27.392 -0 -1.2 0
11.91 -6.919 -27.13 -0 -1.2 0
11.884 -7.432 -27.026 -0 -1.2 0
11.596 -10.957 -26.073 -0 -1.2 0
11.541 -11.45 -25.905 -0 -1.2 0
10.974 -15.266 -24.283 -0 -1.2 0
10.889 -15.726 -24.047 -0 -1.2 0
10.799 -16.18 -23.803 -0 -1.2 0
10.707 -16.631 -23.551 -0 -1.2 0
10.611 -17.076 -23.294 -0 -1.2 0
10.512 -17.516 -23.029 -0 -1.2 0
10.41 -17.952 -22.757 -0 -1.2 0
10.305 -18.382 -22.478 -0 -1.2 0
