# .PCD v.7 - Point Cloud Data file format
FIELDS x y z vp_x vp_y vp_z
SIZE 4 4 4 4 4 4
TYPE F F F F F F
COUNT 1 1 1 1 1 1
WIDTH 1554
HEIGHT 1
VIEWPOINT 0 -1.20014 0 1 0 0 0
POINTS 1554
DATA ascii
-6.214 -20.239 22.231 -0 -1.2 0
-6.11 -20.639 21.91 -0 -1.2 0
-6.005 -21.033 21.582 -0 -1.2 0
-5.898 -21.421 21.247 -0 -1.2 0
-5.789 -21.803 20.906 -0 -1.2 0
-5.678 -22.179 20.558 -0 -1.2 0
-7.549 0.667 28.975 -0 -1.2 0
-7.546 0.144 29.003 -0 -1.2 0
-7.54 -0.378 29.022 -0 -1.2 0
-7.532 -0.901 29.032 -0 -1.2 0
-7.522 -1.424 29.034 -0 -1.2 0
-7.51 -1.947 29.027 -0 -1.2 0
-7.495 -2.471 29.011 -0 -1.2 0
-7.478 -2.993 28.986 -0 -1.2 0
-7.459 -3.515 28.952 -0 -1.2 0
-7.438 -4.036 28.909 -0 -1.2 0
-7.413 -4.558 28.858 -0 -1.2 0
-7.387 -5.077 28.798 -0 -1.2 0
-7.359 -5.595 28.729 -0 -1.2 0
-7.328 -6.112 28.651 -0 -1.2 0
-7.295 -6.627 28.564 -0 -1.2 0
-6.953 -10.677 27.562 -0 -1.2 0
-6.846 -11.663 27.227 -0 -1.2 0
-6.79 -12.151 27.046 -0 -1.2 0
-6.731 -12.636 26.858 -0 -1.2 0
-6.67 -13.118 26.662 -0 -1.2 0
-6.608 -13.595 26.457 -0 -1.2 0
-6.543 -14.07 26.244 -0 -1.2 0
-6.476 -14.539 26.023 -0 -1.2 0
-6.407 -15.006 25.795 -0 -1.2 0
-6.337 -15.467 25.558 -0 -1.2 0
-6.264 -15.925 25.314 -0 -1.2 0
-6.19 -16.378 25.062 -0 -1.2 0
-6.113 -16.825 24.802 -0 -1.2 0
-6.035 -17.269 24.534 -0 -1.2 0
-5.955 -17.707 24.26 -0 -1.2 0
-5.873 -18.141 23.978 -0 -1.2 0
-5.789 -18.569 23.688 -0 -1.2 0
-5.704 -18.992 23.392 -0 -1.2 0
-5.617 -19.409 23.088 -0 -1.2 0
-5.528 -19.821 22.777 -0 -1.2 0
-5.437 -20.227 22.46 -0 -1.2 0
-5.346 -20.627 22.135 -0 -1.2 0
-5.251 -21.022 21.803 -0 -1.2 0
-5.155 -21.41 21.466 -0 -1.2 0
-5.059 -21.792 21.121 -0 -1.2 0
-4.96 -22.169 20.77 -0 -1.2 0
-6.458 0.684 29.254 -0 -1.2 0
-6.453 0.16 29.283 -0 -1.2 0
-6.447 -0.361 29.302 -0 -1.2 0
-6.439 -0.884 29.313 -0 -1.2 0
-6.429 -1.407 29.314 -0 -1.2 0
-6.417 -1.93 29.306 -0 -1.2 0
-6.402 -2.454 29.289 -0 -1.2 0
-6.386 -2.976 29.264 -0 -1.2 0
-6.369 -3.499 29.23 -0 -1.2 0
-6.349 -4.02 29.187 -0 -1.2 0
-6.326 -4.541 29.135 -0 -1.2 0
-6.249 -6.096 28.926 -0 -1.2 0
-5.773 -12.136 27.306 -0 -1.2 0
-5.721 -12.62 27.116 -0 -1.2 0
-5.613 -13.58 26.711 -0 -1.2 0
-5.497 -14.524 26.273 -0 -1.2 0
-5.438 -14.991 26.042 -0 -1.2 0
-5.376 -15.453 25.803 -0 -1.2 0
-5.313 -15.91 25.557 -0 -1.2 0
-5.247 -16.363 25.302 -0 -1.2 0
-5.181 -16.811 25.04 -0 -1.2 0
-5.113 -17.255 24.77 -0 -1.2 0
-5.043 -17.693 24.493 -0 -1.2 0
-4.972 -18.127 24.208 -0 -1.2 0
-4.899 -18.555 23.916 -0 -1.2 0
-4.824 -18.978 23.616 -0 -1.2 0
-4.749 -19.396 23.31 -0 -1.2 0
-4.671 -19.808 22.997 -0 -1.2 0
-4.594 -20.214 22.676 -0 -1.2 0
-4.513 -20.615 22.348 -0 -1.2 0
-4.432 -21.009 22.014 -0 -1.2 0
-4.35 -21.398 21.672 -0 -1.2 0
-4.265 -21.78 21.325 -0 -1.2 0
-4.18 -22.157 20.97 -0 -1.2 0
-5.44 1.221 29.439 -0 -1.2 0
-5.435 0.7 29.476 -0 -1.2 0
-5.43 0.176 29.505 -0 -1.2 0
-5.424 -0.346 29.524 -0 -1.2 0
-5.415 -0.869 29.534 -0 -1.2 0
-5.405 -1.392 29.536 -0 -1.2 0
-5.393 -1.915 29.529 -0 -1.2 0
-5.379 -2.439 29.512 -0 -1.2 0
-5.365 -2.961 29.486 -0 -1.2 0
-5.348 -3.483 29.451 -0 -1.2 0
-5.329 -4.004 29.408 -0 -1.2 0
-5.31 -4.526 29.355 -0 -1.2 0
-5.287 -5.045 29.294 -0 -1.2 0
-5.185 -7.109 28.959 -0 -1.2 0
-5.124 -8.131 28.74 -0 -1.2 0
-4.775 -12.606 27.32 -0 -1.2 0
-4.729 -13.088 27.121 -0 -1.2 0
-4.681 -13.566 26.912 -0 -1.2 0
-4.476 -15.439 25.998 -0 -1.2 0
-4.422 -15.897 25.75 -0 -1.2 0
-4.365 -16.35 25.494 -0 -1.2 0
-4.308 -16.798 25.229 -0 -1.2 0
-4.249 -17.242 24.958 -0 -1.2 0
-4.189 -17.68 24.678 -0 -1.2 0
-4.128 -18.114 24.391 -0 -1.2 0
-4.065 -18.543 24.097 -0 -1.2 0
-4.001 -18.966 23.796 -0 -1.2 0
-3.936 -19.383 23.486 -0 -1.2 0
-3.87 -19.796 23.171 -0 -1.2 0
-3.804 -20.202 22.848 -0 -1.2 0
-3.735 -20.603 22.517 -0 -1.2 0
-3.665 -20.997 22.181 -0 -1.2 0
-3.594 -21.386 21.837 -0 -1.2 0
-3.522 -21.769 21.487 -0 -1.2 0
-3.449 -22.146 21.13 -0 -1.2 0
-4.405 1.233 29.627 -0 -1.2 0
-4.401 0.711 29.665 -0 -1.2 0
-4.394 0.188 29.693 -0 -1.2 0
-4.387 -0.334 29.712 -0 -1.2 0
-4.377 -0.857 29.723 -0 -1.2 0
-4.368 -1.38 29.724 -0 -1.2 0
-4.357 -1.903 29.716 -0 -1.2 0
-4.344 -2.427 29.699 -0 -1.2 0
-4.33 -2.949 29.673 -0 -1.2 0
-4.314 -3.471 29.639 -0 -1.2 0
-4.298 -3.993 29.594 -0 -1.2 0
-4.279 -4.514 29.541 -0 -1.2 0
-4.218 -6.069 29.329 -0 -1.2 0
-4.195 -6.584 29.24 -0 -1.2 0
-4.144 -7.61 29.036 -0 -1.2 0
-4.089 -8.628 28.796 -0 -1.2 0
-4.029 -9.637 28.522 -0 -1.2 0
-3.963 -10.635 28.212 -0 -1.2 0
-3.856 -12.11 27.684 -0 -1.2 0
-3.655 -14.5 26.636 -0 -1.2 0
-3.611 -14.967 26.403 -0 -1.2 0
-3.566 -15.429 26.161 -0 -1.2 0
-3.521 -15.887 25.911 -0 -1.2 0
-3.473 -16.34 25.653 -0 -1.2 0
-3.426 -16.788 25.387 -0 -1.2 0
-3.377 -17.232 25.114 -0 -1.2 0
-3.326 -17.67 24.832 -0 -1.2 0
-3.275 -18.105 24.543 -0 -1.2 0
-3.223 -18.533 24.247 -0 -1.2 0
-3.17 -18.956 23.944 -0 -1.2 0
-3.116 -19.374 23.633 -0 -1.2 0
-3.061 -19.786 23.315 -0 -1.2 0
-3.005 -20.193 22.99 -0 -1.2 0
-2.948 -20.594 22.658 -0 -1.2 0
-2.89 -20.988 22.319 -0 -1.2 0
-2.832 -21.377 21.973 -0 -1.2 0
-2.772 -21.76 21.62 -0 -1.2 0
-2.712 -22.137 21.262 -0 -1.2 0
-3.263 1.235 29.793 -0 -1.2 0
-3.258 0.714 29.83 -0 -1.2 0
-3.25 0.19 29.858 -0 -1.2 0
-3.243 -0.332 29.877 -0 -1.2 0
-3.234 -0.855 29.886 -0 -1.2 0
-3.224 -1.378 29.888 -0 -1.2 0
-3.213 -1.901 29.879 -0 -1.2 0
-3.201 -2.425 29.862 -0 -1.2 0
-3.188 -2.947 29.836 -0 -1.2 0
-3.175 -3.469 29.8 -0 -1.2 0
-3.159 -3.99 29.755 -0 -1.2 0
-3.11 -5.55 29.567 -0 -1.2 0
-2.702 -13.553 27.222 -0 -1.2 0
-2.67 -14.028 27.003 -0 -1.2 0
-2.636 -14.498 26.775 -0 -1.2 0
-2.601 -14.965 26.54 -0 -1.2 0
-2.566 -15.427 26.297 -0 -1.2 0
-2.53 -15.885 26.044 -0 -1.2 0
-2.493 -16.338 25.785 -0 -1.2 0
-2.456 -16.786 25.518 -0 -1.2 0
-2.417 -17.23 25.242 -0 -1.2 0
-2.378 -17.668 24.96 -0 -1.2 0
-2.338 -18.103 24.669 -0 -1.2 0
-2.298 -18.531 24.371 -0 -1.2 0
-2.256 -18.955 24.066 -0 -1.2 0
-2.215 -19.372 23.753 -0 -1.2 0
-2.172 -19.785 23.433 -0 -1.2 0
-2.128 -20.191 23.107 -0 -1.2 0
-2.085 -20.592 22.773 -0 -1.2 0
-2.04 -20.987 22.432 -0 -1.2 0
-1.995 -21.376 22.084 -0 -1.2 0
-1.949 -21.759 21.73 -0 -1.2 0
-1.903 -22.136 21.369 -0 -1.2 0
-2.199 1.237 29.906 -0 -1.2 0
-2.071 -5.03 29.748 -0 -1.2 0
-2.056 -5.548 29.676 -0 -1.2 0
-2.007 -7.094 29.405 -0 -1.2 0
-1.99 -7.606 29.297 -0 -1.2 0
-1.935 -9.13 28.919 -0 -1.2 0
-1.874 -10.632 28.462 -0 -1.2 0
-1.83 -11.619 28.115 -0 -1.2 0
-1.634 -15.425 26.387 -0 -1.2 0
-1.606 -15.883 26.135 -0 -1.2 0
-1.579 -16.337 25.874 -0 -1.2 0
-1.551 -16.785 25.605 -0 -1.2 0
-1.523 -17.229 25.329 -0 -1.2 0
-1.494 -17.667 25.045 -0 -1.2 0
-1.465 -18.102 24.753 -0 -1.2 0
-1.435 -18.53 24.454 -0 -1.2 0
-1.405 -18.954 24.147 -0 -1.2 0
-1.375 -19.371 23.833 -0 -1.2 0
-1.343 -19.784 23.512 -0 -1.2 0
-1.312 -20.19 23.184 -0 -1.2 0
-1.28 -20.591 22.849 -0 -1.2 0
-1.248 -20.986 22.507 -0 -1.2 0
-1.215 -21.375 22.158 -0 -1.2 0
-1.182 -21.758 21.801 -0 -1.2 0
-1.149 -22.135 21.439 -0 -1.2 0
-1.132 1.238 29.982 -0 -1.2 0
-1.115 0.192 30.047 -0 -1.2 0
-1.107 -0.329 30.065 -0 -1.2 0
-1.097 -0.852 30.074 -0 -1.2 0
-1.088 -1.375 30.075 -0 -1.2 0
-1.078 -1.898 30.065 -0 -1.2 0
-1.068 -2.422 30.047 -0 -1.2 0
-1.057 -2.944 30.02 -0 -1.2 0
-1.047 -3.467 29.983 -0 -1.2 0
-1.035 -3.988 29.938 -0 -1.2 0
-1.024 -4.509 29.884 -0 -1.2 0
-1.012 -5.029 29.819 -0 -1.2 0
-0.949 -7.605 29.366 -0 -1.2 0
-0.862 -10.631 28.529 -0 -1.2 0
-0.847 -11.125 28.358 -0 -1.2 0
-0.816 -12.106 27.992 -0 -1.2 0
-0.784 -13.073 27.591 -0 -1.2 0
-0.767 -13.551 27.379 -0 -1.2 0
-0.733 -14.496 26.929 -0 -1.2 0
-0.698 -15.425 26.446 -0 -1.2 0
-0.68 -15.883 26.193 -0 -1.2 0
-0.662 -16.336 25.931 -0 -1.2 0
-0.644 -16.784 25.662 -0 -1.2 0
-0.626 -17.228 25.385 -0 -1.2 0
-0.607 -17.666 25.1 -0 -1.2 0
-0.589 -18.101 24.807 -0 -1.2 0
-0.57 -18.529 24.507 -0 -1.2 0
-0.551 -18.953 24.199 -0 -1.2 0
-0.531 -19.37 23.885 -0 -1.2 0
-0.512 -19.783 23.563 -0 -1.2 0
-0.493 -20.19 23.233 -0 -1.2 0
-0.472 -20.59 22.897 -0 -1.2 0
-0.453 -20.985 22.554 -0 -1.2 0
-0.433 -21.374 22.204 -0 -1.2 0
-0.412 -21.757 21.847 -0 -1.2 0
-0.393 -22.134 21.484 -0 -1.2 0
-0.087 1.238 30.019 -0 -1.2 0
-0.059 -0.329 30.101 -0 -1.2 0
-0.05 -0.852 30.11 -0 -1.2 0
-0.041 -1.375 30.11 -0 -1.2 0
-0.031 -1.898 30.1 -0 -1.2 0
-0.022 -2.422 30.082 -0 -1.2 0
-0.013 -2.944 30.054 -0 -1.2 0
-0.003 -3.467 30.017 -0 -1.2 0
0.005 -3.988 29.972 -0 -1.2 0
0.014 -4.509 29.917 -0 -1.2 0
0.024 -5.029 29.852 -0 -1.2 0
0.034 -5.547 29.78 -0 -1.2 0
0.071 -7.605 29.398 -0 -1.2 0
0.099 -9.129 29.017 -0 -1.2 0
0.117 -10.133 28.719 -0 -1.2 0
0.163 -12.591 27.823 -0 -1.2 0
0.181 -13.551 27.405 -0 -1.2 0
0.19 -14.026 27.183 -0 -1.2 0
0.199 -14.496 26.954 -0 -1.2 0
0.208 -14.963 26.716 -0 -1.2 0
0.217 -15.425 26.47 -0 -1.2 0
0.225 -15.883 26.216 -0 -1.2 0
0.234 -16.336 25.954 -0 -1.2 0
0.243 -16.784 25.684 -0 -1.2 0
0.251 -17.228 25.407 -0 -1.2 0
0.26 -17.666 25.122 -0 -1.2 0
0.268 -18.101 24.828 -0 -1.2 0
0.276 -18.529 24.528 -0 -1.2 0
0.284 -18.953 24.219 -0 -1.2 0
0.293 -19.37 23.905 -0 -1.2 0
0.301 -19.783 23.582 -0 -1.2 0
0.308 -20.19 23.253 -0 -1.2 0
0.316 -20.59 22.916 -0 -1.2 0
0.324 -20.985 22.572 -0 -1.2 0
0.332 -21.374 22.222 -0 -1.2 0
0.34 -21.757 21.865 -0 -1.2 0
0.347 -22.134 21.501 -0 -1.2 0
1.004 1.237 30.02 -0 -1.2 0
1.034 -0.33 30.102 -0 -1.2 0
1.043 -0.853 30.11 -0 -1.2 0
1.052 -1.376 30.11 -0 -1.2 0
1.062 -1.899 30.1 -0 -1.2 0
1.07 -2.423 30.081 -0 -1.2 0
1.078 -2.945 30.053 -0 -1.2 0
1.086 -3.467 30.016 -0 -1.2 0
1.094 -3.989 29.97 -0 -1.2 0
1.101 -4.51 29.915 -0 -1.2 0
1.108 -5.03 29.851 -0 -1.2 0
1.12 -6.065 29.694 -0 -1.2 0
1.147 -8.624 29.148 -0 -1.2 0
1.15 -9.13 29.012 -0 -1.2 0
1.17 -12.592 27.816 -0 -1.2 0
1.172 -13.074 27.611 -0 -1.2 0
1.173 -13.552 27.398 -0 -1.2 0
1.173 -14.027 27.176 -0 -1.2 0
1.173 -14.497 26.946 -0 -1.2 0
1.174 -14.963 26.709 -0 -1.2 0
1.174 -15.425 26.462 -0 -1.2 0
1.173 -15.883 26.208 -0 -1.2 0
1.172 -16.337 25.946 -0 -1.2 0
1.17 -16.785 25.676 -0 -1.2 0
1.168 -17.229 25.398 -0 -1.2 0
1.167 -17.667 25.112 -0 -1.2 0
1.164 -18.102 24.82 -0 -1.2 0
1.161 -18.53 24.519 -0 -1.2 0
1.158 -18.954 24.211 -0 -1.2 0
1.154 -19.371 23.895 -0 -1.2 0
1.15 -19.784 23.573 -0 -1.2 0
1.147 -20.19 23.244 -0 -1.2 0
1.141 -20.591 22.907 -0 -1.2 0
1.137 -20.986 22.563 -0 -1.2 0
1.132 -21.375 22.213 -0 -1.2 0
1.127 -21.758 21.855 -0 -1.2 0
1.12 -22.135 21.491 -0 -1.2 0
2.017 1.236 29.987 -0 -1.2 0
2.059 -0.854 30.075 -0 -1.2 0
2.069 -1.377 30.073 -0 -1.2 0
2.077 -1.9 30.063 -0 -1.2 0
2.085 -2.424 30.045 -0 -1.2 0
2.091 -2.946 30.016 -0 -1.2 0
2.099 -3.469 29.979 -0 -1.2 0
2.104 -3.99 29.933 -0 -1.2 0
2.109 -4.511 29.877 -0 -1.2 0
2.114 -5.031 29.812 -0 -1.2 0
2.121 -6.066 29.656 -0 -1.2 0
2.125 -7.095 29.465 -0 -1.2 0
2.127 -7.607 29.354 -0 -1.2 0
2.128 -8.625 29.109 -0 -1.2 0
2.122 -10.633 28.513 -0 -1.2 0
2.119 -11.127 28.341 -0 -1.2 0
2.099 -13.075 27.573 -0 -1.2 0
2.094 -13.553 27.359 -0 -1.2 0
2.087 -14.028 27.137 -0 -1.2 0
2.079 -14.498 26.908 -0 -1.2 0
2.071 -14.964 26.67 -0 -1.2 0
2.062 -15.426 26.424 -0 -1.2 0
2.053 -15.885 26.17 -0 -1.2 0
2.043 -16.338 25.908 -0 -1.2 0
2.031 -16.786 25.638 -0 -1.2 0
2.02 -17.23 25.361 -0 -1.2 0
2.008 -17.668 25.075 -0 -1.2 0
1.996 -18.103 24.782 -0 -1.2 0
1.983 -18.531 24.482 -0 -1.2 0
1.969 -18.955 24.174 -0 -1.2 0
1.954 -19.372 23.859 -0 -1.2 0
1.94 -19.785 23.537 -0 -1.2 0
1.924 -20.191 23.208 -0 -1.2 0
1.908 -20.592 22.872 -0 -1.2 0
1.892 -20.987 22.528 -0 -1.2 0
1.874 -21.376 22.177 -0 -1.2 0
1.857 -21.759 21.821 -0 -1.2 0
1.839 -22.136 21.458 -0 -1.2 0
3.029 1.241 29.918 -0 -1.2 0
3.042 0.719 29.952 -0 -1.2 0
3.064 -0.326 29.996 -0 -1.2 0
3.073 -0.849 30.003 -0 -1.2 0
3.083 -1.372 30.003 -0 -1.2 0
3.09 -1.895 29.992 -0 -1.2 0
3.097 -2.419 29.973 -0 -1.2 0
3.103 -2.941 29.945 -0 -1.2 0
3.108 -3.463 29.908 -0 -1.2 0
3.112 -3.985 29.861 -0 -1.2 0
3.116 -4.506 29.806 -0 -1.2 0
3.118 -5.026 29.741 -0 -1.2 0
3.119 -5.544 29.668 -0 -1.2 0
3.11 -8.112 29.165 -0 -1.2 0
3.061 -11.615 28.093 -0 -1.2 0
3.05 -12.103 27.905 -0 -1.2 0
3.038 -12.588 27.708 -0 -1.2 0
3.025 -13.07 27.504 -0 -1.2 0
3.012 -13.548 27.292 -0 -1.2 0
2.997 -14.023 27.07 -0 -1.2 0
2.981 -14.493 26.841 -0 -1.2 0
2.965 -14.96 26.603 -0 -1.2 0
2.948 -15.422 26.358 -0 -1.2 0
2.93 -15.88 26.104 -0 -1.2 0
2.911 -16.333 25.843 -0 -1.2 0
2.891 -16.781 25.574 -0 -1.2 0
2.871 -17.225 25.297 -0 -1.2 0
2.849 -17.664 25.012 -0 -1.2 0
2.826 -18.098 24.72 -0 -1.2 0
2.802 -18.527 24.421 -0 -1.2 0
2.779 -18.95 24.113 -0 -1.2 0
2.754 -19.368 23.799 -0 -1.2 0
2.727 -19.78 23.477 -0 -1.2 0
2.701 -20.187 23.149 -0 -1.2 0
2.674 -20.588 22.813 -0 -1.2 0
2.645 -20.983 22.471 -0 -1.2 0
2.616 -21.372 22.122 -0 -1.2 0
2.586 -21.755 21.765 -0 -1.2 0
2.555 -22.132 21.403 -0 -1.2 0
4.155 0.234 29.863 -0 -1.2 0
4.166 -0.288 29.881 -0 -1.2 0
4.176 -0.811 29.889 -0 -1.2 0
4.184 -1.334 29.888 -0 -1.2 0
4.192 -1.857 29.878 -0 -1.2 0
4.198 -2.381 29.86 -0 -1.2 0
4.203 -2.903 29.832 -0 -1.2 0
4.206 -3.425 29.794 -0 -1.2 0
4.208 -3.947 29.749 -0 -1.2 0
4.21 -4.468 29.694 -0 -1.2 0
4.21 -4.988 29.63 -0 -1.2 0
4.205 -6.023 29.475 -0 -1.2 0
4.201 -6.539 29.385 -0 -1.2 0
4.196 -7.053 29.285 -0 -1.2 0
4.188 -7.565 29.177 -0 -1.2 0
4.161 -9.089 28.798 -0 -1.2 0
4.15 -9.593 28.654 -0 -1.2 0
4.123 -10.592 28.342 -0 -1.2 0
4.107 -11.086 28.171 -0 -1.2 0
4.091 -11.579 27.994 -0 -1.2 0
4.072 -12.068 27.807 -0 -1.2 0
4.053 -12.552 27.612 -0 -1.2 0
4.033 -13.035 27.409 -0 -1.2 0
4.011 -13.513 27.197 -0 -1.2 0
3.989 -13.988 26.978 -0 -1.2 0
3.965 -14.459 26.75 -0 -1.2 0
3.939 -14.926 26.513 -0 -1.2 0
3.913 -15.388 26.27 -0 -1.2 0
3.885 -15.847 26.017 -0 -1.2 0
3.856 -16.3 25.757 -0 -1.2 0
3.827 -16.749 25.49 -0 -1.2 0
3.795 -17.193 25.214 -0 -1.2 0
3.764 -17.632 24.931 -0 -1.2 0
3.73 -18.067 24.64 -0 -1.2 0
3.695 -18.496 24.343 -0 -1.2 0
3.66 -18.92 24.038 -0 -1.2 0
3.623 -19.338 23.725 -0 -1.2 0
3.585 -19.751 23.405 -0 -1.2 0
3.547 -20.158 23.078 -0 -1.2 0
3.506 -20.559 22.744 -0 -1.2 0
3.466 -20.954 22.404 -0 -1.2 0
3.423 -21.344 22.056 -0 -1.2 0
3.381 -21.727 21.701 -0 -1.2 0
3.336 -22.104 21.341 -0 -1.2 0
5.214 -0.789 29.742 -0 -1.2 0
5.222 -1.312 29.74 -0 -1.2 0
5.229 -1.835 29.731 -0 -1.2 0
5.234 -2.359 29.712 -0 -1.2 0
5.238 -2.881 29.685 -0 -1.2 0
5.24 -3.404 29.648 -0 -1.2 0
5.241 -3.925 29.603 -0 -1.2 0
5.24 -4.447 29.549 -0 -1.2 0
5.237 -4.966 29.485 -0 -1.2 0
5.233 -5.485 29.412 -0 -1.2 0
5.227 -6.002 29.331 -0 -1.2 0
5.22 -6.518 29.241 -0 -1.2 0
5.211 -7.032 29.142 -0 -1.2 0
5.2 -7.544 29.034 -0 -1.2 0
5.188 -8.054 28.918 -0 -1.2 0
5.174 -8.562 28.792 -0 -1.2 0
5.159 -9.069 28.658 -0 -1.2 0
5.143 -9.572 28.515 -0 -1.2 0
5.124 -10.073 28.364 -0 -1.2 0
5.104 -10.571 28.204 -0 -1.2 0
5.082 -11.066 28.035 -0 -1.2 0
5.06 -11.559 27.859 -0 -1.2 0
5.035 -12.048 27.674 -0 -1.2 0
5.009 -12.533 27.479 -0 -1.2 0
4.981 -13.016 27.278 -0 -1.2 0
4.952 -13.494 27.067 -0 -1.2 0
4.922 -13.969 26.849 -0 -1.2 0
4.889 -14.439 26.622 -0 -1.2 0
4.856 -14.907 26.387 -0 -1.2 0
4.821 -15.369 26.145 -0 -1.2 0
4.785 -15.828 25.894 -0 -1.2 0
4.746 -16.282 25.635 -0 -1.2 0
4.707 -16.73 25.37 -0 -1.2 0
4.666 -17.175 25.096 -0 -1.2 0
4.624 -17.614 24.815 -0 -1.2 0
4.581 -18.049 24.526 -0 -1.2 0
4.536 -18.478 24.229 -0 -1.2 0
4.489 -18.902 23.925 -0 -1.2 0
4.442 -19.321 23.614 -0 -1.2 0
4.392 -19.734 23.297 -0 -1.2 0
4.342 -20.141 22.972 -0 -1.2 0
4.291 -20.543 22.64 -0 -1.2 0
4.237 -20.938 22.301 -0 -1.2 0
4.183 -21.328 21.956 -0 -1.2 0
4.128 -21.711 21.604 -0 -1.2 0
4.071 -22.089 21.245 -0 -1.2 0
6.314 -0.243 29.535 -0 -1.2 0
6.325 -0.766 29.543 -0 -1.2 0
6.333 -1.289 29.543 -0 -1.2 0
6.339 -1.812 29.533 -0 -1.2 0
6.343 -2.336 29.515 -0 -1.2 0
6.345 -2.859 29.488 -0 -1.2 0
6.347 -3.381 29.452 -0 -1.2 0
6.345 -3.903 29.406 -0 -1.2 0
6.342 -4.424 29.353 -0 -1.2 0
6.337 -4.944 29.29 -0 -1.2 0
6.33 -5.463 29.218 -0 -1.2 0
6.321 -5.979 29.136 -0 -1.2 0
6.31 -6.495 29.047 -0 -1.2 0
6.297 -7.009 28.949 -0 -1.2 0
6.282 -7.522 28.842 -0 -1.2 0
6.265 -8.032 28.727 -0 -1.2 0
6.247 -8.54 28.602 -0 -1.2 0
6.227 -9.047 28.469 -0 -1.2 0
6.204 -9.55 28.328 -0 -1.2 0
6.18 -10.051 28.178 -0 -1.2 0
6.154 -10.55 28.02 -0 -1.2 0
6.126 -11.045 27.852 -0 -1.2 0
6.096 -11.537 27.676 -0 -1.2 0
6.064 -12.027 27.492 -0 -1.2 0
6.031 -12.512 27.3 -0 -1.2 0
5.995 -12.995 27.099 -0 -1.2 0
5.959 -13.473 26.891 -0 -1.2 0
5.919 -13.949 26.674 -0 -1.2 0
5.879 -14.419 26.449 -0 -1.2 0
5.837 -14.887 26.216 -0 -1.2 0
5.793 -15.349 25.976 -0 -1.2 0
5.746 -15.808 25.727 -0 -1.2 0
5.699 -16.262 25.471 -0 -1.2 0
5.649 -16.711 25.206 -0 -1.2 0
5.599 -17.156 24.935 -0 -1.2 0
5.545 -17.595 24.655 -0 -1.2 0
5.491 -18.03 24.369 -0 -1.2 0
5.435 -18.46 24.075 -0 -1.2 0
5.377 -18.884 23.773 -0 -1.2 0
5.318 -19.303 23.465 -0 -1.2 0
5.256 -19.716 23.15 -0 -1.2 0
5.194 -20.124 22.827 -0 -1.2 0
5.129 -20.525 22.497 -0 -1.2 0
5.064 -20.921 22.161 -0 -1.2 0
4.996 -21.311 21.818 -0 -1.2 0
4.927 -21.695 21.468 -0 -1.2 0
4.857 -22.073 21.112 -0 -1.2 0
7.31 0.823 29.269 -0 -1.2 0
7.324 0.299 29.295 -0 -1.2 0
7.336 -0.223 29.313 -0 -1.2 0
7.348 -0.746 29.321 -0 -1.2 0
7.355 -1.269 29.321 -0 -1.2 0
7.361 -1.792 29.311 -0 -1.2 0
7.365 -2.316 29.293 -0 -1.2 0
7.366 -2.838 29.266 -0 -1.2 0
7.366 -3.361 29.23 -0 -1.2 0
7.363 -3.882 29.186 -0 -1.2 0
7.358 -4.404 29.132 -0 -1.2 0
7.35 -4.923 29.07 -0 -1.2 0
7.34 -5.442 28.999 -0 -1.2 0
7.314 -6.475 28.83 -0 -1.2 0
7.297 -6.989 28.733 -0 -1.2 0
7.279 -7.502 28.627 -0 -1.2 0
7.21 -9.027 28.257 -0 -1.2 0
7.183 -9.531 28.117 -0 -1.2 0
7.153 -10.031 27.968 -0 -1.2 0
7.122 -10.53 27.811 -0 -1.2 0
7.087 -11.025 27.645 -0 -1.2 0
7.051 -11.518 27.472 -0 -1.2 0
7.014 -12.007 27.289 -0 -1.2 0
6.973 -12.493 27.099 -0 -1.2 0
6.931 -12.976 26.899 -0 -1.2 0
6.887 -13.455 26.693 -0 -1.2 0
6.84 -13.93 26.478 -0 -1.2 0
6.792 -14.401 26.255 -0 -1.2 0
6.74 -14.869 26.025 -0 -1.2 0
6.688 -15.331 25.785 -0 -1.2 0
6.633 -15.79 25.539 -0 -1.2 0
6.576 -16.244 25.285 -0 -1.2 0
6.517 -16.694 25.023 -0 -1.2 0
6.456 -17.139 24.754 -0 -1.2 0
6.394 -17.578 24.476 -0 -1.2 0
6.33 -18.014 24.192 -0 -1.2 0
6.262 -18.443 23.9 -0 -1.2 0
6.194 -18.868 23.602 -0 -1.2 0
6.124 -19.286 23.296 -0 -1.2 0
6.052 -19.7 22.983 -0 -1.2 0
5.978 -20.108 22.663 -0 -1.2 0
5.902 -20.51 22.336 -0 -1.2 0
5.825 -20.906 22.003 -0 -1.2 0
5.746 -21.296 21.662 -0 -1.2 0
5.664 -21.68 21.317 -0 -1.2 0
5.581 -22.058 20.964 -0 -1.2 0
8.324 0.843 29.011 -0 -1.2 0
8.362 -0.726 29.063 -0 -1.2 0
8.371 -1.249 29.063 -0 -1.2 0
8.376 -1.772 29.053 -0 -1.2 0
8.379 -2.296 29.035 -0 -1.2 0
8.379 -2.818 29.01 -0 -1.2 0
8.377 -3.341 28.974 -0 -1.2 0
8.372 -3.862 28.93 -0 -1.2 0
8.364 -4.384 28.877 -0 -1.2 0
8.356 -4.903 28.815 -0 -1.2 0
8.342 -5.422 28.745 -0 -1.2 0
8.268 -7.482 28.378 -0 -1.2 0
8.216 -8.501 28.142 -0 -1.2 0
8.153 -9.511 27.873 -0 -1.2 0
8.119 -10.012 27.725 -0 -1.2 0
8.081 -10.511 27.57 -0 -1.2 0
8.041 -11.006 27.406 -0 -1.2 0
8 -11.499 27.233 -0 -1.2 0
7.955 -11.989 27.053 -0 -1.2 0
7.908 -12.474 26.864 -0 -1.2 0
7.859 -12.958 26.667 -0 -1.2 0
7.807 -13.436 26.463 -0 -1.2 0
7.753 -13.912 26.25 -0 -1.2 0
7.696 -14.383 26.029 -0 -1.2 0
7.637 -14.851 25.801 -0 -1.2 0
7.576 -15.314 25.564 -0 -1.2 0
7.513 -15.773 25.32 -0 -1.2 0
7.447 -16.227 25.068 -0 -1.2 0
7.379 -16.676 24.809 -0 -1.2 0
7.309 -17.122 24.542 -0 -1.2 0
7.236 -17.561 24.268 -0 -1.2 0
7.162 -17.997 23.987 -0 -1.2 0
7.085 -18.427 23.697 -0 -1.2 0
7.006 -18.852 23.402 -0 -1.2 0
6.925 -19.27 23.099 -0 -1.2 0
6.842 -19.684 22.789 -0 -1.2 0
6.757 -20.092 22.472 -0 -1.2 0
6.669 -20.495 22.148 -0 -1.2 0
6.58 -20.891 21.818 -0 -1.2 0
6.488 -21.281 21.481 -0 -1.2 0
6.395 -21.666 21.138 -0 -1.2 0
6.3 -22.044 20.789 -0 -1.2 0
9.403 0.864 28.695 -0 -1.2 0
9.444 -0.705 28.746 -0 -1.2 0
9.451 -1.227 28.746 -0 -1.2 0
9.456 -1.751 28.738 -0 -1.2 0
9.458 -2.275 28.72 -0 -1.2 0
9.457 -2.797 28.694 -0 -1.2 0
9.453 -3.32 28.659 -0 -1.2 0
9.438 -4.363 28.564 -0 -1.2 0
9.392 -5.919 28.356 -0 -1.2 0
9.322 -7.461 28.071 -0 -1.2 0
9.292 -7.972 27.958 -0 -1.2 0
9.226 -8.987 27.71 -0 -1.2 0
9.187 -9.491 27.572 -0 -1.2 0
9.147 -9.992 27.427 -0 -1.2 0
9.104 -10.491 27.273 -0 -1.2 0
8.957 -11.969 26.763 -0 -1.2 0
8.903 -12.455 26.577 -0 -1.2 0
8.846 -12.938 26.382 -0 -1.2 0
8.786 -13.417 26.18 -0 -1.2 0
8.724 -13.893 25.969 -0 -1.2 0
8.66 -14.364 25.751 -0 -1.2 0
8.592 -14.832 25.526 -0 -1.2 0
8.522 -15.295 25.292 -0 -1.2 0
8.449 -15.755 25.051 -0 -1.2 0
8.373 -16.209 24.801 -0 -1.2 0
8.296 -16.659 24.545 -0 -1.2 0
8.216 -17.104 24.282 -0 -1.2 0
8.133 -17.544 24.011 -0 -1.2 0
8.048 -17.98 23.733 -0 -1.2 0
7.96 -18.41 23.447 -0 -1.2 0
7.87 -18.835 23.155 -0 -1.2 0
7.777 -19.254 22.856 -0 -1.2 0
7.683 -19.668 22.55 -0 -1.2 0
7.585 -20.076 22.237 -0 -1.2 0
7.485 -20.479 21.917 -0 -1.2 0
7.384 -20.875 21.591 -0 -1.2 0
7.28 -21.266 21.258 -0 -1.2 0
7.174 -21.65 20.919 -0 -1.2 0
7.066 -22.029 20.573 -0 -1.2 0
10.393 0.883 28.364 -0 -1.2 0
10.435 -0.686 28.416 -0 -1.2 0
10.442 -1.209 28.416 -0 -1.2 0
10.447 -1.732 28.408 -0 -1.2 0
10.448 -2.256 28.39 -0 -1.2 0
10.447 -2.778 28.365 -0 -1.2 0
10.442 -3.301 28.33 -0 -1.2 0
10.434 -3.822 28.287 -0 -1.2 0
10.39 -5.383 28.108 -0 -1.2 0
10.37 -5.9 28.031 -0 -1.2 0
10.318 -6.93 27.852 -0 -1.2 0
10.288 -7.443 27.75 -0 -1.2 0
10.218 -8.462 27.521 -0 -1.2 0
10.136 -9.473 27.259 -0 -1.2 0
9.935 -11.462 26.635 -0 -1.2 0
9.816 -12.437 26.275 -0 -1.2 0
9.752 -12.921 26.083 -0 -1.2 0
9.686 -13.4 25.883 -0 -1.2 0
9.616 -13.876 25.675 -0 -1.2 0
9.543 -14.347 25.461 -0 -1.2 0
9.468 -14.815 25.238 -0 -1.2 0
9.389 -15.279 25.007 -0 -1.2 0
9.308 -15.738 24.769 -0 -1.2 0
9.225 -16.193 24.523 -0 -1.2 0
9.138 -16.642 24.27 -0 -1.2 0
9.048 -17.088 24.01 -0 -1.2 0
8.956 -17.528 23.743 -0 -1.2 0
8.86 -17.964 23.467 -0 -1.2 0
8.763 -18.394 23.186 -0 -1.2 0
8.663 -18.819 22.897 -0 -1.2 0
8.559 -19.239 22.602 -0 -1.2 0
8.453 -19.653 22.3 -0 -1.2 0
8.346 -20.062 21.99 -0 -1.2 0
8.235 -20.464 21.674 -0 -1.2 0
8.122 -20.861 21.352 -0 -1.2 0
8.006 -21.252 21.023 -0 -1.2 0
7.888 -21.637 20.689 -0 -1.2 0
7.768 -22.016 20.347 -0 -1.2 0
11.401 -0.144 28.043 -0 -1.2 0
11.413 -0.667 28.052 -0 -1.2 0
11.42 -1.19 28.052 -0 -1.2 0
11.424 -1.713 28.044 -0 -1.2 0
11.425 -2.237 28.027 -0 -1.2 0
11.422 -2.76 28.002 -0 -1.2 0
11.416 -3.282 27.969 -0 -1.2 0
11.406 -3.804 27.926 -0 -1.2 0
11.377 -4.846 27.817 -0 -1.2 0
11.355 -5.365 27.749 -0 -1.2 0
11.332 -5.882 27.674 -0 -1.2 0
11.305 -6.398 27.59 -0 -1.2 0
11.241 -7.425 27.397 -0 -1.2 0
11.163 -8.444 27.171 -0 -1.2 0
10.909 -10.951 26.464 -0 -1.2 0
10.785 -11.935 26.124 -0 -1.2 0
10.716 -12.42 25.943 -0 -1.2 0
10.572 -13.383 25.557 -0 -1.2 0
10.496 -13.859 25.353 -0 -1.2 0
10.415 -14.331 25.14 -0 -1.2 0
10.332 -14.799 24.92 -0 -1.2 0
10.245 -15.263 24.693 -0 -1.2 0
10.155 -15.722 24.458 -0 -1.2 0
10.064 -16.177 24.215 -0 -1.2 0
9.968 -16.627 23.967 -0 -1.2 0
9.869 -17.073 23.71 -0 -1.2 0
9.766 -17.513 23.446 -0 -1.2 0
9.662 -17.949 23.175 -0 -1.2 0
9.555 -18.379 22.898 -0 -1.2 0
9.444 -18.805 22.613 -0 -1.2 0
9.331 -19.224 22.321 -0 -1.2 0
9.215 -19.639 22.022 -0 -1.2 0
9.096 -20.048 21.718 -0 -1.2 0
8.974 -20.45 21.407 -0 -1.2 0
8.849 -20.847 21.089 -0 -1.2 0
8.722 -21.238 20.764 -0 -1.2 0
8.592 -21.624 20.434 -0 -1.2 0
8.46 -22.003 20.098 -0 -1.2 0
12.396 0.925 27.575 -0 -1.2 0
12.414 0.402 27.601 -0 -1.2 0
12.429 -0.12 27.618 -0 -1.2 0
12.441 -0.643 27.626 -0 -1.2 0
12.448 -1.166 27.627 -0 -1.2 0
12.451 -1.689 27.619 -0 -1.2 0
12.451 -2.213 27.603 -0 -1.2 0
12.448 -2.736 27.578 -0 -1.2 0
12.44 -3.258 27.545 -0 -1.2 0
12.413 -4.302 27.454 -0 -1.2 0
12.371 -5.341 27.331 -0 -1.2 0
12.314 -6.374 27.175 -0 -1.2 0
12.28 -6.889 27.083 -0 -1.2 0
12.043 -7.824 26.532 -0 -1.2 0
12.156 -8.421 26.763 -0 -1.2 0
11.663 -12.398 25.556 -0 -1.2 0
11.586 -12.882 25.371 -0 -1.2 0
11.505 -13.361 25.176 -0 -1.2 0
11.42 -13.838 24.976 -0 -1.2 0
11.332 -14.309 24.767 -0 -1.2 0
11.24 -14.778 24.551 -0 -1.2 0
11.145 -15.241 24.327 -0 -1.2 0
11.047 -15.701 24.096 -0 -1.2 0
10.945 -16.156 23.859 -0 -1.2 0
10.84 -16.606 23.613 -0 -1.2 0
10.732 -17.052 23.361 -0 -1.2 0
10.62 -17.493 23.102 -0 -1.2 0
10.506 -17.929 22.835 -0 -1.2 0
10.387 -18.36 22.562 -0 -1.2 0
10.266 -18.785 22.282 -0 -1.2 0
10.142 -19.205 21.995 -0 -1.2 0
10.014 -19.62 21.702 -0 -1.2 0
9.885 -20.029 21.402 -0 -1.2 0
9.752 -20.432 21.096 -0 -1.2 0
9.614 -20.829 20.783 -0 -1.2 0
9.475 -21.221 20.465 -0 -1.2 0
9.334 -21.606 20.14 -0 -1.2 0
9.188 -21.986 19.809 -0 -1.2 0
13.366 -0.097 27.191 -0 -1.2 0
13.377 -0.62 27.199 -0 -1.2 0
13.384 -1.143 27.2 -0 -1.2 0
13.061 -8.399 26.354 -0 -1.2 0
12.671 -8.703 25.559 -0 -1.2 0
12.683 -11.401 25.512 -0 -1.2 0
12.526 -12.377 25.168 -0 -1.2 0
12.442 -12.861 24.986 -0 -1.2 0
12.167 -14.288 24.393 -0 -1.2 0
12.068 -14.757 24.18 -0 -1.2 0
11.965 -15.221 23.961 -0 -1.2 0
11.859 -15.681 23.734 -0 -1.2 0
11.749 -16.136 23.5 -0 -1.2 0
11.635 -16.587 23.259 -0 -1.2 0
11.518 -17.033 23.011 -0 -1.2 0
11.398 -17.474 22.757 -0 -1.2 0
11.274 -17.91 22.494 -0 -1.2 0
11.147 -18.341 22.225 -0 -1.2 0
11.015 -18.767 21.951 -0 -1.2 0
10.882 -19.187 21.669 -0 -1.2 0
10.744 -19.602 21.38 -0 -1.2 0
10.603 -20.011 21.085 -0 -1.2 0
10.459 -20.415 20.785 -0 -1.2 0
10.313 -20.812 20.478 -0 -1.2 0
10.163 -21.204 20.164 -0 -1.2 0
10.009 -21.589 19.845 -0 -1.2 0
9.853 -21.969 19.519 -0 -1.2 0
14.286 -0.075 26.732 -0 -1.2 0
14.297 -0.597 26.74 -0 -1.2 0
14.304 -1.12 26.741 -0 -1.2 0
14.307 -1.644 26.734 -0 -1.2 0
14.306 -2.168 26.718 -0 -1.2 0
14.3 -2.69 26.695 -0 -1.2 0
14.289 -3.213 26.664 -0 -1.2 0
14.276 -3.735 26.625 -0 -1.2 0
14.242 -4.253 26.551 -0 -1.2 0
14.233 -4.777 26.522 -0 -1.2 0
14.206 -5.296 26.459 -0 -1.2 0
14.004 -7.868 26.024 -0 -1.2 0
13.766 -9.89 25.535 -0 -1.2 0
13.695 -10.39 25.393 -0 -1.2 0
13.621 -10.886 25.244 -0 -1.2 0
13.284 -12.84 24.572 -0 -1.2 0
13.189 -13.32 24.386 -0 -1.2 0
13.091 -13.797 24.192 -0 -1.2 0
12.988 -14.268 23.99 -0 -1.2 0
12.881 -14.737 23.782 -0 -1.2 0
12.772 -15.201 23.567 -0 -1.2 0
12.657 -15.662 23.344 -0 -1.2 0
12.539 -16.117 23.115 -0 -1.2 0
12.417 -16.568 22.878 -0 -1.2 0
12.291 -17.014 22.634 -0 -1.2 0
12.162 -17.455 22.385 -0 -1.2 0
12.029 -17.892 22.127 -0 -1.2 0
11.893 -18.323 21.864 -0 -1.2 0
11.752 -18.749 21.593 -0 -1.2 0
11.609 -19.169 21.317 -0 -1.2 0
11.461 -19.585 21.034 -0 -1.2 0
11.31 -19.994 20.745 -0 -1.2 0
11.156 -20.398 20.449 -0 -1.2 0
10.998 -20.795 20.147 -0 -1.2 0
10.837 -21.187 19.839 -0 -1.2 0
10.673 -21.573 19.526 -0 -1.2 0
10.505 -21.953 19.207 -0 -1.2 0
15.268 -0.052 26.195 -0 -1.2 0
15.279 -0.574 26.204 -0 -1.2 0
15.286 -1.097 26.205 -0 -1.2 0
15.289 -1.62 26.199 -0 -1.2 0
15.286 -2.145 26.184 -0 -1.2 0
15.279 -2.667 26.162 -0 -1.2 0
15.267 -3.19 26.131 -0 -1.2 0
15.206 -4.754 25.994 -0 -1.2 0
15.176 -5.273 25.932 -0 -1.2 0
15.009 -7.334 25.608 -0 -1.2 0
14.9 -8.355 25.399 -0 -1.2 0
14.837 -8.862 25.284 -0 -1.2 0
14.7 -9.868 25.03 -0 -1.2 0
14.545 -10.864 24.745 -0 -1.2 0
14.372 -11.848 24.432 -0 -1.2 0
14.279 -12.335 24.264 -0 -1.2 0
14.182 -12.819 24.089 -0 -1.2 0
13.865 -14.248 23.52 -0 -1.2 0
13.75 -14.717 23.316 -0 -1.2 0
13.632 -15.181 23.105 -0 -1.2 0
13.509 -15.642 22.888 -0 -1.2 0
13.382 -16.097 22.663 -0 -1.2 0
13.251 -16.548 22.432 -0 -1.2 0
13.116 -16.995 22.194 -0 -1.2 0
12.977 -17.436 21.949 -0 -1.2 0
12.835 -17.873 21.697 -0 -1.2 0
12.689 -18.304 21.44 -0 -1.2 0
12.538 -18.73 21.176 -0 -1.2 0
12.384 -19.151 20.905 -0 -1.2 0
12.226 -19.566 20.628 -0 -1.2 0
12.064 -19.976 20.345 -0 -1.2 0
11.898 -20.38 20.057 -0 -1.2 0
11.729 -20.778 19.761 -0 -1.2 0
11.557 -21.17 19.46 -0 -1.2 0
11.381 -21.556 19.153 -0 -1.2 0
11.202 -21.937 18.84 -0 -1.2 0
16.134 1.014 25.615 -0 -1.2 0
16.185 -0.554 25.666 -0 -1.2 0
16.191 -1.077 25.668 -0 -1.2 0
16.193 -1.6 25.661 -0 -1.2 0
16.191 -2.124 25.647 -0 -1.2 0
16.183 -2.646 25.626 -0 -1.2 0
16.17 -3.169 25.596 -0 -1.2 0
16.152 -3.691 25.56 -0 -1.2 0
16.13 -4.213 25.515 -0 -1.2 0
16.103 -4.733 25.462 -0 -1.2 0
15.836 -7.825 24.989 -0 -1.2 0
15.307 -11.339 24.096 -0 -1.2 0
15.213 -11.829 23.938 -0 -1.2 0
15.114 -12.316 23.774 -0 -1.2 0
15.01 -12.8 23.603 -0 -1.2 0
14.902 -13.28 23.425 -0 -1.2 0
14.789 -13.757 23.239 -0 -1.2 0
14.672 -14.229 23.048 -0 -1.2 0
14.551 -14.699 22.848 -0 -1.2 0
14.424 -15.163 22.642 -0 -1.2 0
14.294 -15.624 22.429 -0 -1.2 0
14.159 -16.079 22.21 -0 -1.2 0
14.02 -16.53 21.983 -0 -1.2 0
13.877 -16.977 21.752 -0 -1.2 0
13.73 -17.418 21.512 -0 -1.2 0
13.578 -17.856 21.267 -0 -1.2 0
13.423 -18.287 21.015 -0 -1.2 0
13.262 -18.714 20.755 -0 -1.2 0
13.099 -19.134 20.491 -0 -1.2 0
12.931 -19.55 20.22 -0 -1.2 0
12.759 -19.96 19.944 -0 -1.2 0
12.584 -20.364 19.661 -0 -1.2 0
12.405 -20.763 19.372 -0 -1.2 0
12.221 -21.155 19.078 -0 -1.2 0
12.034 -21.541 18.778 -0 -1.2 0
11.844 -21.922 18.472 -0 -1.2 0
17.069 -0.534 25.095 -0 -1.2 0
17.077 -1.057 25.098 -0 -1.2 0
17.078 -1.58 25.091 -0 -1.2 0
17.074 -2.104 25.078 -0 -1.2 0
17.066 -2.627 25.058 -0 -1.2 0
17.052 -3.149 25.029 -0 -1.2 0
17.033 -3.671 24.994 -0 -1.2 0
17.008 -4.193 24.95 -0 -1.2 0
16.98 -4.713 24.899 -0 -1.2 0
16.861 -6.267 24.702 -0 -1.2 0
16.811 -6.782 24.621 -0 -1.2 0
16.695 -7.806 24.438 -0 -1.2 0
16.63 -8.315 24.335 -0 -1.2 0
16.56 -8.823 24.225 -0 -1.2 0
16.484 -9.328 24.109 -0 -1.2 0
16.319 -10.33 23.852 -0 -1.2 0
16.134 -11.32 23.568 -0 -1.2 0
16.034 -11.811 23.415 -0 -1.2 0
15.929 -12.297 23.255 -0 -1.2 0
15.819 -12.782 23.088 -0 -1.2 0
15.705 -13.262 22.914 -0 -1.2 0
15.586 -13.739 22.734 -0 -1.2 0
15.462 -14.212 22.546 -0 -1.2 0
15.333 -14.681 22.351 -0 -1.2 0
15.2 -15.146 22.151 -0 -1.2 0
15.062 -15.606 21.943 -0 -1.2 0
14.92 -16.062 21.729 -0 -1.2 0
14.773 -16.513 21.508 -0 -1.2 0
14.621 -16.961 21.281 -0 -1.2 0
14.465 -17.402 21.047 -0 -1.2 0
14.305 -17.839 20.808 -0 -1.2 0
14.14 -18.271 20.562 -0 -1.2 0
13.971 -18.698 20.31 -0 -1.2 0
13.798 -19.119 20.051 -0 -1.2 0
13.621 -19.535 19.787 -0 -1.2 0
13.439 -19.945 19.517 -0 -1.2 0
13.253 -20.349 19.241 -0 -1.2 0
13.064 -20.748 18.96 -0 -1.2 0
12.87 -21.14 18.673 -0 -1.2 0
12.673 -21.527 18.38 -0 -1.2 0
12.472 -21.908 18.081 -0 -1.2 0
18 -0.514 24.448 -0 -1.2 0
18.006 -1.037 24.45 -0 -1.2 0
18.007 -1.56 24.445 -0 -1.2 0
18.003 -2.084 24.431 -0 -1.2 0
17.993 -2.607 24.412 -0 -1.2 0
17.978 -3.129 24.385 -0 -1.2 0
17.958 -3.651 24.35 -0 -1.2 0
17.932 -4.173 24.308 -0 -1.2 0
17.9 -4.694 24.259 -0 -1.2 0
17.863 -5.213 24.203 -0 -1.2 0
17.821 -5.731 24.139 -0 -1.2 0
17.773 -6.247 24.068 -0 -1.2 0
17.72 -6.762 23.99 -0 -1.2 0
17.661 -7.275 23.905 -0 -1.2 0
17.598 -7.787 23.812 -0 -1.2 0
17.529 -8.296 23.713 -0 -1.2 0
17.454 -8.804 23.606 -0 -1.2 0
17.374 -9.308 23.493 -0 -1.2 0
17.29 -9.81 23.372 -0 -1.2 0
17.199 -10.311 23.244 -0 -1.2 0
17.103 -10.807 23.109 -0 -1.2 0
17.003 -11.301 22.968 -0 -1.2 0
16.897 -11.792 22.819 -0 -1.2 0
16.786 -12.279 22.664 -0 -1.2 0
16.669 -12.764 22.501 -0 -1.2 0
16.548 -13.244 22.333 -0 -1.2 0
16.422 -13.721 22.157 -0 -1.2 0
16.291 -14.194 21.976 -0 -1.2 0
16.155 -14.663 21.786 -0 -1.2 0
16.014 -15.128 21.591 -0 -1.2 0
15.869 -15.589 21.389 -0 -1.2 0
15.718 -16.045 21.181 -0 -1.2 0
15.562 -16.496 20.967 -0 -1.2 0
15.402 -16.944 20.746 -0 -1.2 0
15.237 -17.385 20.519 -0 -1.2 0
15.067 -17.823 20.287 -0 -1.2 0
14.894 -18.255 20.047 -0 -1.2 0
14.715 -18.682 19.803 -0 -1.2 0
14.532 -19.103 19.551 -0 -1.2 0
14.345 -19.519 19.294 -0 -1.2 0
14.153 -19.93 19.032 -0 -1.2 0
13.957 -20.334 18.764 -0 -1.2 0
13.756 -20.733 18.49 -0 -1.2 0
13.552 -21.126 18.211 -0 -1.2 0
13.344 -21.513 17.926 -0 -1.2 0
13.132 -21.894 17.636 -0 -1.2 0
18.826 -0.501 23.826 -0 -1.2 0
18.832 -1.024 23.829 -0 -1.2 0
18.833 -1.547 23.824 -0 -1.2 0
18.828 -2.072 23.812 -0 -1.2 0
18.817 -2.594 23.793 -0 -1.2 0
18.802 -3.117 23.766 -0 -1.2 0
18.78 -3.639 23.733 -0 -1.2 0
18.752 -4.161 23.692 -0 -1.2 0
18.718 -4.681 23.645 -0 -1.2 0
18.679 -5.201 23.59 -0 -1.2 0
18.634 -5.718 23.528 -0 -1.2 0
18.584 -6.235 23.46 -0 -1.2 0
18.528 -6.75 23.384 -0 -1.2 0
18.467 -7.263 23.301 -0 -1.2 0
18.399 -7.774 23.212 -0 -1.2 0
18.327 -8.284 23.115 -0 -1.2 0
18.249 -8.792 23.011 -0 -1.2 0
18.164 -9.296 22.9 -0 -1.2 0
18.075 -9.798 22.783 -0 -1.2 0
17.98 -10.299 22.659 -0 -1.2 0
17.88 -10.795 22.528 -0 -1.2 0
17.774 -11.29 22.39 -0 -1.2 0
17.663 -11.78 22.246 -0 -1.2 0
17.547 -12.267 22.095 -0 -1.2 0
17.425 -12.752 21.938 -0 -1.2 0
17.298 -13.232 21.773 -0 -1.2 0
17.165 -13.71 21.602 -0 -1.2 0
17.028 -14.182 21.425 -0 -1.2 0
16.885 -14.652 21.242 -0 -1.2 0
16.738 -15.117 21.052 -0 -1.2 0
16.584 -15.578 20.856 -0 -1.2 0
16.426 -16.034 20.654 -0 -1.2 0
16.264 -16.486 20.444 -0 -1.2 0
15.745 -17.812 19.783 -0 -1.2 0
15.563 -18.244 19.551 -0 -1.2 0
15.376 -18.672 19.312 -0 -1.2 0
15.184 -19.093 19.067 -0 -1.2 0
14.987 -19.509 18.818 -0 -1.2 0
14.787 -19.92 18.562 -0 -1.2 0
14.582 -20.324 18.301 -0 -1.2 0
14.372 -20.723 18.035 -0 -1.2 0
14.158 -21.116 17.764 -0 -1.2 0
13.939 -21.503 17.486 -0 -1.2 0
13.717 -21.885 17.204 -0 -1.2 0
19.62 -2.063 23.171 -0 -1.2 0
19.608 -2.585 23.153 -0 -1.2 0
19.591 -3.108 23.127 -0 -1.2 0
19.568 -3.63 23.095 -0 -1.2 0
19.539 -4.152 23.056 -0 -1.2 0
19.503 -4.672 23.01 -0 -1.2 0
19.462 -5.192 22.957 -0 -1.2 0
19.415 -5.709 22.897 -0 -1.2 0
19.362 -6.226 22.831 -0 -1.2 0
19.304 -6.741 22.757 -0 -1.2 0
19.239 -7.254 22.677 -0 -1.2 0
19.169 -7.766 22.59 -0 -1.2 0
19.093 -8.275 22.496 -0 -1.2 0
19.01 -8.783 22.396 -0 -1.2 0
18.923 -9.288 22.289 -0 -1.2 0
18.829 -9.79 22.175 -0 -1.2 0
18.73 -10.29 22.054 -0 -1.2 0
18.625 -10.787 21.927 -0 -1.2 0
18.398 -11.772 21.653 -0 -1.2 0
18.276 -12.259 21.506 -0 -1.2 0
18.148 -12.744 21.353 -0 -1.2 0
17.585 -14.644 20.678 -0 -1.2 0
17.43 -15.109 20.493 -0 -1.2 0
16.205 -18.237 19.035 -0 -1.2 0
16.009 -18.664 18.804 -0 -1.2 0
15.809 -19.086 18.567 -0 -1.2 0
15.604 -19.502 18.325 -0 -1.2 0
15.394 -19.913 18.076 -0 -1.2 0
15.18 -20.318 17.822 -0 -1.2 0
14.961 -20.717 17.564 -0 -1.2 0
14.737 -21.11 17.3 -0 -1.2 0
14.51 -21.497 17.031 -0 -1.2 0
14.278 -21.878 16.756 -0 -1.2 0
20.432 0.041 22.456 -0 -1.2 0
20.444 -0.481 22.466 -0 -1.2 0
20.451 -1.004 22.468 -0 -1.2 0
20.451 -1.527 22.464 -0 -1.2 0
20.444 -2.051 22.454 -0 -1.2 0
20.433 -2.574 22.436 -0 -1.2 0
20.414 -3.096 22.412 -0 -1.2 0
20.389 -3.618 22.381 -0 -1.2 0
20.358 -4.14 22.343 -0 -1.2 0
20.322 -4.661 22.3 -0 -1.2 0
20.278 -5.18 22.249 -0 -1.2 0
20.229 -5.698 22.191 -0 -1.2 0
20.173 -6.215 22.127 -0 -1.2 0
20.112 -6.73 22.056 -0 -1.2 0
20.044 -7.243 21.978 -0 -1.2 0
19.97 -7.754 21.894 -0 -1.2 0
19.89 -8.264 21.805 -0 -1.2 0
19.804 -8.772 21.708 -0 -1.2 0
19.713 -9.277 21.604 -0 -1.2 0
19.614 -9.779 21.494 -0 -1.2 0
19.511 -10.279 21.378 -0 -1.2 0
19.401 -10.776 21.255 -0 -1.2 0
19.285 -11.27 21.126 -0 -1.2 0
19.164 -11.761 20.991 -0 -1.2 0
17.986 -15.56 19.687 -0 -1.2 0
16.027 -19.904 17.534 -0 -1.2 0
15.803 -20.309 17.29 -0 -1.2 0
15.574 -20.708 17.039 -0 -1.2 0
15.341 -21.101 16.785 -0 -1.2 0
15.103 -21.488 16.524 -0 -1.2 0
14.861 -21.87 16.259 -0 -1.2 0
21.186 -0.471 21.771 -0 -1.2 0
21.193 -0.994 21.774 -0 -1.2 0
21.193 -1.517 21.77 -0 -1.2 0
21.186 -2.042 21.76 -0 -1.2 0
21.173 -2.564 21.744 -0 -1.2 0
21.153 -3.087 21.721 -0 -1.2 0
21.127 -3.609 21.691 -0 -1.2 0
21.095 -4.131 21.654 -0 -1.2 0
21.057 -4.651 21.613 -0 -1.2 0
21.012 -5.171 21.564 -0 -1.2 0
20.96 -5.688 21.508 -0 -1.2 0
20.902 -6.205 21.446 -0 -1.2 0
20.838 -6.72 21.378 -0 -1.2 0
20.767 -7.234 21.304 -0 -1.2 0
20.69 -7.745 21.222 -0 -1.2 0
20.607 -8.255 21.136 -0 -1.2 0
20.518 -8.762 21.042 -0 -1.2 0
20.422 -9.267 20.942 -0 -1.2 0
20.32 -9.77 20.836 -0 -1.2 0
20.213 -10.27 20.724 -0 -1.2 0
20.098 -10.767 20.606 -0 -1.2 0
19.978 -11.261 20.481 -0 -1.2 0
19.72 -12.239 20.214 -0 -1.2 0
16.126 -20.701 16.532 -0 -1.2 0
15.884 -21.094 16.285 -0 -1.2 0
15.637 -21.481 16.034 -0 -1.2 0
15.385 -21.863 15.777 -0 -1.2 0
21.9 0.059 21.034 -0 -1.2 0
21.913 -0.463 21.043 -0 -1.2 0
21.919 -0.986 21.046 -0 -1.2 0
21.918 -1.509 21.043 -0 -1.2 0
21.912 -2.033 21.034 -0 -1.2 0
21.897 -2.556 21.018 -0 -1.2 0
21.877 -3.078 20.996 -0 -1.2 0
21.849 -3.6 20.968 -0 -1.2 0
21.815 -4.122 20.934 -0 -1.2 0
21.776 -4.643 20.893 -0 -1.2 0
21.728 -5.162 20.846 -0 -1.2 0
21.675 -5.68 20.793 -0 -1.2 0
21.615 -6.197 20.734 -0 -1.2 0
21.548 -6.712 20.669 -0 -1.2 0
21.475 -7.225 20.597 -0 -1.2 0
21.394 -7.737 20.519 -0 -1.2 0
21.308 -8.246 20.435 -0 -1.2 0
21.215 -8.754 20.345 -0 -1.2 0
21.116 -9.259 20.25 -0 -1.2 0
21.01 -9.762 20.147 -0 -1.2 0
20.899 -10.262 20.039 -0 -1.2 0
20.655 -11.253 19.805 -0 -1.2 0
20.525 -11.744 19.68 -0 -1.2 0
17.15 -19.89 16.462 -0 -1.2 0
16.911 -20.295 16.233 -0 -1.2 0
16.159 -21.475 15.52 -0 -1.2 0
15.899 -21.857 15.272 -0 -1.2 0
22.67 -0.455 20.228 -0 -1.2 0
22.675 -0.978 20.231 -0 -1.2 0
22.674 -1.501 20.228 -0 -1.2 0
22.666 -2.025 20.22 -0 -1.2 0
22.652 -2.548 20.205 -0 -1.2 0
22.63 -3.071 20.185 -0 -1.2 0
22.601 -3.593 20.158 -0 -1.2 0
22.566 -4.115 20.125 -0 -1.2 0
22.524 -4.635 20.086 -0 -1.2 0
22.474 -5.155 20.042 -0 -1.2 0
22.419 -5.672 19.992 -0 -1.2 0
22.356 -6.189 19.935 -0 -1.2 0
22.287 -6.704 19.873 -0 -1.2 0
22.211 -7.218 19.804 -0 -1.2 0
22.128 -7.729 19.73 -0 -1.2 0
22.038 -8.239 19.65 -0 -1.2 0
21.941 -8.747 19.564 -0 -1.2 0
21.839 -9.252 19.473 -0 -1.2 0
21.73 -9.754 19.375 -0 -1.2 0
16.967 -21.082 15.175 -0 -1.2 0
16.703 -21.47 14.943 -0 -1.2 0
16.433 -21.852 14.706 -0 -1.2 0
23.342 -0.449 19.447 -0 -1.2 0
23.348 -0.972 19.451 -0 -1.2 0
23.346 -1.495 19.448 -0 -1.2 0
23.339 -2.019 19.441 -0 -1.2 0
23.323 -2.542 19.426 -0 -1.2 0
23.3 -3.065 19.407 -0 -1.2 0
23.27 -3.587 19.382 -0 -1.2 0
23.234 -4.109 19.351 -0 -1.2 0
23.19 -4.629 19.315 -0 -1.2 0
23.139 -5.149 19.272 -0 -1.2 0
23.081 -5.666 19.224 -0 -1.2 0
23.016 -6.183 19.17 -0 -1.2 0
22.945 -6.699 19.111 -0 -1.2 0
22.866 -7.212 19.046 -0 -1.2 0
22.588 -8.741 18.817 -0 -1.2 0
22.369 -9.748 18.635 -0 -1.2 0
21.702 -12.219 18.087 -0 -1.2 0
21.549 -12.704 17.962 -0 -1.2 0
18.244 -19.879 15.256 -0 -1.2 0
17.726 -20.684 14.832 -0 -1.2 0
17.458 -21.078 14.614 -0 -1.2 0
17.186 -21.465 14.391 -0 -1.2 0
16.908 -21.847 14.164 -0 -1.2 0
23.987 -0.444 18.643 -0 -1.2 0
23.992 -0.967 18.647 -0 -1.2 0
23.992 -1.49 18.645 -0 -1.2 0
23.982 -2.015 18.638 -0 -1.2 0
23.966 -2.537 18.626 -0 -1.2 0
23.942 -3.06 18.608 -0 -1.2 0
23.911 -3.582 18.583 -0 -1.2 0
23.874 -4.104 18.554 -0 -1.2 0
23.829 -4.625 18.52 -0 -1.2 0
23.777 -5.144 18.48 -0 -1.2 0
23.717 -5.662 18.435 -0 -1.2 0
23.65 -6.179 18.384 -0 -1.2 0
23.575 -6.694 18.326 -0 -1.2 0
23.494 -7.207 18.264 -0 -1.2 0
23.208 -8.737 18.047 -0 -1.2 0
19.97 -17.766 15.585 -0 -1.2 0
17.93 -21.074 14.035 -0 -1.2 0
17.65 -21.462 13.823 -0 -1.2 0
17.364 -21.844 13.606 -0 -1.2 0
24.638 0.082 17.741 -0 -1.2 0
24.657 -0.963 17.754 -0 -1.2 0
24.655 -1.486 17.753 -0 -1.2 0
24.646 -2.01 17.747 -0 -1.2 0
24.629 -2.533 17.736 -0 -1.2 0
24.604 -3.056 17.719 -0 -1.2 0
24.572 -3.578 17.697 -0 -1.2 0
24.533 -4.1 17.67 -0 -1.2 0
24.486 -4.62 17.637 -0 -1.2 0
24.432 -5.14 17.6 -0 -1.2 0
24.37 -5.657 17.557 -0 -1.2 0
24.301 -6.174 17.509 -0 -1.2 0
24.225 -6.69 17.456 -0 -1.2 0
24.141 -7.203 17.397 -0 -1.2 0
24.05 -7.715 17.334 -0 -1.2 0
23.733 -9.237 17.113 -0 -1.2 0
17.832 -21.84 12.986 -0 -1.2 0
25.227 0.083 16.885 -0 -1.2 0
25.24 -0.438 16.895 -0 -1.2 0
25.245 -0.961 16.899 -0 -1.2 0
25.234 -2.009 16.894 -0 -1.2 0
25.216 -2.531 16.884 -0 -1.2 0
25.19 -3.054 16.868 -0 -1.2 0
25.157 -3.576 16.848 -0 -1.2 0
25.117 -4.098 16.823 -0 -1.2 0
25.069 -4.619 16.793 -0 -1.2 0
25.012 -5.138 16.757 -0 -1.2 0
24.949 -5.656 16.717 -0 -1.2 0
24.878 -6.173 16.673 -0 -1.2 0
24.8 -6.688 16.622 -0 -1.2 0
24.519 -8.223 16.443 -0 -1.2 0
22.543 -14.596 15.172 -0 -1.2 0
18.244 -21.84 12.395 -0 -1.2 0
25.785 0.083 16.01 -0 -1.2 0
25.798 -0.439 16.019 -0 -1.2 0
25.803 -0.962 16.025 -0 -1.2 0
25.79 -2.009 16.02 -0 -1.2 0
25.772 -2.532 16.011 -0 -1.2 0
25.746 -3.055 15.997 -0 -1.2 0
25.712 -3.577 15.979 -0 -1.2 0
25.669 -4.099 15.955 -0 -1.2 0
25.62 -4.619 15.928 -0 -1.2 0
25.562 -5.139 15.895 -0 -1.2 0
25.497 -5.657 15.858 -0 -1.2 0
25.424 -6.174 15.816 -0 -1.2 0
25.344 -6.689 15.769 -0 -1.2 0
25.256 -7.202 15.719 -0 -1.2 0
25.159 -7.714 15.662 -0 -1.2 0
25.056 -8.224 15.602 -0 -1.2 0
24.826 -9.237 15.468 -0 -1.2 0
24.7 -9.739 15.393 -0 -1.2 0
18.943 -21.458 11.974 -0 -1.2 0
18.635 -21.84 11.79 -0 -1.2 0
26.347 0.08 15.051 -0 -1.2 0
26.36 -0.442 15.062 -0 -1.2 0
26.365 -0.965 15.066 -0 -1.2 0
26.351 -2.012 15.065 -0 -1.2 0
26.332 -2.535 15.056 -0 -1.2 0
26.305 -3.057 15.044 -0 -1.2 0
26.27 -3.579 15.028 -0 -1.2 0
26.227 -4.102 15.007 -0 -1.2 0
26.175 -4.622 14.98 -0 -1.2 0
26.117 -5.141 14.951 -0 -1.2 0
25.975 -6.176 14.878 -0 -1.2 0
25.085 -11.729 13.346 -0 -1.2 0
24.358 -13.66 12.989 -0 -1.2 0
24.158 -14.133 12.89 -0 -1.2 0
27.26 0.592 13.231 -0 -1.2 0
27.3 -0.975 13.261 -0 -1.2 0
27.284 -2.022 13.262 -0 -1.2 0
27.263 -2.545 13.257 -0 -1.2 0
27.234 -3.068 13.247 -0 -1.2 0
27.198 -3.59 13.234 -0 -1.2 0
27.152 -4.112 13.218 -0 -1.2 0
27.1 -4.632 13.197 -0 -1.2 0
27.038 -5.152 13.172 -0 -1.2 0
26.968 -5.669 13.144 -0 -1.2 0
26.89 -6.186 13.111 -0 -1.2 0
26.804 -6.701 13.075 -0 -1.2 0
25.825 -10.748 12.651 -0 -1.2 0
25.501 -11.734 12.508 -0 -1.2 0
25.146 -12.707 12.351 -0 -1.2 0
24.76 -13.665 12.178 -0 -1.2 0
24.556 -14.138 12.087 -0 -1.2 0
27.71 0.584 12.233 -0 -1.2 0
27.732 0.061 12.247 -0 -1.2 0
27.745 -0.461 12.257 -0 -1.2 0
27.749 -0.983 12.264 -0 -1.2 0
27.712 -2.554 12.262 -0 -1.2 0
27.682 -3.076 12.255 -0 -1.2 0
27.645 -3.598 12.243 -0 -1.2 0
27.598 -4.12 12.229 -0 -1.2 0
27.543 -4.641 12.21 -0 -1.2 0
27.481 -5.16 12.189 -0 -1.2 0
27.409 -5.678 12.163 -0 -1.2 0
27.33 -6.195 12.134 -0 -1.2 0
27.243 -6.71 12.102 -0 -1.2 0
27.146 -7.223 12.066 -0 -1.2 0
27.042 -7.735 12.027 -0 -1.2 0
26.398 -10.26 11.779 -0 -1.2 0
28.094 0.575 11.296 -0 -1.2 0
28.114 0.052 11.31 -0 -1.2 0
28.128 -0.469 11.32 -0 -1.2 0
28.131 -0.992 11.327 -0 -1.2 0
28.094 -2.562 11.328 -0 -1.2 0
28.063 -3.085 11.323 -0 -1.2 0
28.024 -3.607 11.312 -0 -1.2 0
27.978 -4.129 11.3 -0 -1.2 0
27.922 -4.649 11.284 -0 -1.2 0
27.858 -5.169 11.265 -0 -1.2 0
27.786 -5.687 11.243 -0 -1.2 0
27.706 -6.203 11.218 -0 -1.2 0
27.616 -6.718 11.189 -0 -1.2 0
27.519 -7.232 11.157 -0 -1.2 0
27.413 -7.743 11.121 -0 -1.2 0
27.176 -8.761 11.041 -0 -1.2 0
27.045 -9.265 10.997 -0 -1.2 0
26.44 -11.259 10.787 -0 -1.2 0
28.462 0.045 10.363 -0 -1.2 0
28.441 -2.57 10.384 -0 -1.2 0
28.41 -3.093 10.38 -0 -1.2 0
28.372 -3.615 10.372 -0 -1.2 0
28.324 -4.137 10.362 -0 -1.2 0
28.267 -4.657 10.347 -0 -1.2 0
28.203 -5.176 10.331 -0 -1.2 0
28.129 -5.694 10.311 -0 -1.2 0
28.047 -6.211 10.289 -0 -1.2 0
27.957 -6.726 10.264 -0 -1.2 0
27.858 -7.239 10.235 -0 -1.2 0
27.75 -7.75 10.204 -0 -1.2 0
27.634 -8.26 10.17 -0 -1.2 0
27.51 -8.768 10.133 -0 -1.2 0
27.378 -9.273 10.093 -0 -1.2 0
27.088 -10.275 10.005 -0 -1.2 0
26.411 -12.244 9.794 -0 -1.2 0
28.778 -2.579 9.357 -0 -1.2 0
28.747 -3.102 9.352 -0 -1.2 0
28.707 -3.624 9.347 -0 -1.2 0
28.659 -4.146 9.338 -0 -1.2 0
28.602 -4.666 9.327 -0 -1.2 0
28.537 -5.185 9.313 -0 -1.2 0
28.462 -5.703 9.297 -0 -1.2 0
28.38 -6.22 9.278 -0 -1.2 0
28.288 -6.735 9.257 -0 -1.2 0
28.188 -7.248 9.233 -0 -1.2 0
28.079 -7.759 9.206 -0 -1.2 0
27.702 -9.282 9.109 -0 -1.2 0
27.249 -10.78 8.989 -0 -1.2 0
27.082 -11.275 8.945 -0 -1.2 0
29.097 -1.019 8.381 -0 -1.2 0
29.056 -2.588 8.39 -0 -1.2 0
29.025 -3.111 8.389 -0 -1.2 0
28.985 -3.633 8.384 -0 -1.2 0
28.937 -4.155 8.378 -0 -1.2 0
28.879 -4.675 8.369 -0 -1.2 0
28.813 -5.195 8.358 -0 -1.2 0
28.738 -5.712 8.344 -0 -1.2 0
28.654 -6.229 8.328 -0 -1.2 0
28.561 -6.744 8.31 -0 -1.2 0
28.351 -7.769 8.267 -0 -1.2 0
28.232 -8.278 8.242 -0 -1.2 0
27.97 -9.291 8.184 -0 -1.2 0
27.826 -9.793 8.152 -0 -1.2 0
27.344 -11.284 8.043 -0 -1.2 0
20.949 -21.879 6.475 -0 -1.2 0
29.339 -0.505 7.401 -0 -1.2 0
29.338 -1.551 7.414 -0 -1.2 0
29.302 -2.598 7.419 -0 -1.2 0
29.271 -3.12 7.419 -0 -1.2 0
29.23 -3.642 7.417 -0 -1.2 0
29.181 -4.164 7.412 -0 -1.2 0
29.123 -4.684 7.405 -0 -1.2 0
29.055 -5.204 7.397 -0 -1.2 0
28.98 -5.721 7.387 -0 -1.2 0
28.895 -6.238 7.374 -0 -1.2 0
28.803 -6.753 7.359 -0 -1.2 0
28.7 -7.266 7.342 -0 -1.2 0
28.589 -7.777 7.324 -0 -1.2 0
28.47 -8.287 7.303 -0 -1.2 0
28.342 -8.795 7.28 -0 -1.2 0
28.06 -9.801 7.229 -0 -1.2 0
27.906 -10.301 7.199 -0 -1.2 0
27.744 -10.798 7.168 -0 -1.2 0
21.475 -21.504 5.869 -0 -1.2 0
21.124 -21.886 5.793 -0 -1.2 0
29.568 -1.04 6.353 -0 -1.2 0
29.527 -2.61 6.367 -0 -1.2 0
29.496 -3.132 6.368 -0 -1.2 0
29.454 -3.654 6.367 -0 -1.2 0
29.405 -4.176 6.365 -0 -1.2 0
29.346 -4.696 6.361 -0 -1.2 0
29.279 -5.216 6.355 -0 -1.2 0
29.203 -5.733 6.348 -0 -1.2 0
29.118 -6.25 6.338 -0 -1.2 0
29.024 -6.765 6.328 -0 -1.2 0
28.92 -7.278 6.315 -0 -1.2 0
28.56 -8.806 6.267 -0 -1.2 0
28.422 -9.311 6.248 -0 -1.2 0
28.275 -9.813 6.226 -0 -1.2 0
27.605 -11.794 6.125 -0 -1.2 0
27.013 -13.246 6.032 -0 -1.2 0
26.799 -13.723 5.997 -0 -1.2 0
26.111 -15.13 5.885 -0 -1.2 0
25.611 -16.047 5.801 -0 -1.2 0
25.081 -16.945 5.713 -0 -1.2 0
21.64 -21.513 5.116 -0 -1.2 0
21.286 -21.894 5.054 -0 -1.2 0
29.701 -2.622 5.382 -0 -1.2 0
29.67 -3.144 5.385 -0 -1.2 0
29.628 -3.666 5.386 -0 -1.2 0
29.579 -4.188 5.385 -0 -1.2 0
29.519 -4.708 5.384 -0 -1.2 0
29.452 -5.228 5.381 -0 -1.2 0
29.374 -5.745 5.376 -0 -1.2 0
29.289 -6.262 5.37 -0 -1.2 0
29.194 -6.777 5.363 -0 -1.2 0
29.091 -7.29 5.354 -0 -1.2 0
28.979 -7.801 5.344 -0 -1.2 0
28.588 -9.322 5.304 -0 -1.2 0
27.949 -11.315 5.233 -0 -1.2 0
27.767 -11.805 5.211 -0 -1.2 0
25.228 -16.955 4.888 -0 -1.2 0
24.664 -17.834 4.812 -0 -1.2 0
24.07 -18.692 4.731 -0 -1.2 0
23.125 -19.94 4.601 -0 -1.2 0
22.795 -20.344 4.555 -0 -1.2 0
22.459 -20.742 4.509 -0 -1.2 0
22.116 -21.135 4.461 -0 -1.2 0
21.766 -21.522 4.411 -0 -1.2 0
21.41 -21.903 4.361 -0 -1.2 0
28.254 -10.832 4.322 -0 -1.2 0
28.08 -11.327 4.309 -0 -1.2 0
27.898 -11.817 4.294 -0 -1.2 0
27.084 -13.745 4.224 -0 -1.2 0
26.387 -15.151 4.16 -0 -1.2 0
26.139 -15.612 4.137 -0 -1.2 0
25.619 -16.519 4.087 -0 -1.2 0
25.067 -17.407 4.032 -0 -1.2 0
24.78 -17.844 4.005 -0 -1.2 0
24.485 -18.276 3.975 -0 -1.2 0
24.184 -18.703 3.944 -0 -1.2 0
22.902 -20.354 3.812 -0 -1.2 0
22.564 -20.752 3.777 -0 -1.2 0
22.22 -21.144 3.741 -0 -1.2 0
21.868 -21.531 3.704 -0 -1.2 0
21.51 -21.912 3.666 -0 -1.2 0
29.999 -1.073 3.279 -0 -1.2 0
29.995 -1.596 3.288 -0 -1.2 0
29.981 -2.12 3.295 -0 -1.2 0
29.957 -2.643 3.301 -0 -1.2 0
29.925 -3.165 3.307 -0 -1.2 0
29.884 -3.687 3.312 -0 -1.2 0
29.834 -4.209 3.316 -0 -1.2 0
29.774 -4.729 3.319 -0 -1.2 0
29.706 -5.248 3.322 -0 -1.2 0
29.229 -7.821 3.322 -0 -1.2 0
28.688 -9.844 3.309 -0 -1.2 0
28.365 -10.84 3.298 -0 -1.2 0
27.191 -13.752 3.245 -0 -1.2 0
26.734 -14.694 3.222 -0 -1.2 0
25.986 -16.075 3.181 -0 -1.2 0
23.969 -19.129 3.059 -0 -1.2 0
23.326 -19.955 3.018 -0 -1.2 0
22.995 -20.359 2.996 -0 -1.2 0
22.655 -20.758 2.975 -0 -1.2 0
22.31 -21.15 2.951 -0 -1.2 0
30.069 -1.081 2.256 -0 -1.2 0
30.064 -1.604 2.265 -0 -1.2 0
30.051 -2.129 2.273 -0 -1.2 0
30.028 -2.651 2.281 -0 -1.2 0
29.996 -3.174 2.289 -0 -1.2 0
29.954 -3.695 2.295 -0 -1.2 0
29.903 -4.217 2.302 -0 -1.2 0
29.844 -4.737 2.308 -0 -1.2 0
29.776 -5.257 2.313 -0 -1.2 0
29.699 -5.774 2.318 -0 -1.2 0
29.612 -6.291 2.323 -0 -1.2 0
29.516 -6.805 2.326 -0 -1.2 0
29.299 -7.829 2.333 -0 -1.2 0
29.176 -8.338 2.336 -0 -1.2 0
28.905 -9.35 2.34 -0 -1.2 0
28.757 -9.852 2.341 -0 -1.2 0
26.307 -15.626 2.316 -0 -1.2 0
24.941 -17.858 2.287 -0 -1.2 0
24.341 -18.715 2.271 -0 -1.2 0
23.052 -20.366 2.235 -0 -1.2 0
22.713 -20.764 2.225 -0 -1.2 0
30.104 -1.091 1.231 -0 -1.2 0
30.099 -1.614 1.24 -0 -1.2 0
30.086 -2.139 1.249 -0 -1.2 0
30.063 -2.661 1.258 -0 -1.2 0
30.03 -3.184 1.267 -0 -1.2 0
29.989 -3.705 1.276 -0 -1.2 0
29.939 -4.227 1.285 -0 -1.2 0
29.88 -4.747 1.293 -0 -1.2 0
29.811 -5.266 1.302 -0 -1.2 0
29.734 -5.784 1.31 -0 -1.2 0
29.648 -6.3 1.317 -0 -1.2 0
29.552 -6.815 1.325 -0 -1.2 0
29.212 -8.348 1.348 -0 -1.2 0
29.023 -8.839 1.354 -0 -1.2 0
28.941 -9.36 1.362 -0 -1.2 0
28.294 -11.351 1.388 -0 -1.2 0
27.292 -13.769 1.417 -0 -1.2 0
26.833 -14.71 1.427 -0 -1.2 0
26.341 -15.635 1.436 -0 -1.2 0
23.417 -19.969 1.469 -0 -1.2 0
30.084 -1.384 -1.782 -0 -1.2 0
30.056 -2.431 -1.767 -0 -1.2 0
30.029 -2.954 -1.76 -0 -1.2 0
29.992 -3.476 -1.752 -0 -1.2 0
29.947 -3.997 -1.743 -0 -1.2 0
29.892 -4.519 -1.734 -0 -1.2 0
29.828 -5.038 -1.725 -0 -1.2 0
29.755 -5.557 -1.716 -0 -1.2 0
29.674 -6.073 -1.706 -0 -1.2 0
29.582 -6.589 -1.696 -0 -1.2 0
29.257 -8.125 -1.665 -0 -1.2 0
28.995 -9.139 -1.641 -0 -1.2 0
28.85 -9.642 -1.63 -0 -1.2 0
28.697 -10.142 -1.618 -0 -1.2 0
28.365 -11.135 -1.593 -0 -1.2 0
28.186 -11.627 -1.581 -0 -1.2 0
27.999 -12.116 -1.568 -0 -1.2 0
27.803 -12.601 -1.555 -0 -1.2 0
26.452 -15.435 -1.469 -0 -1.2 0
25.667 -16.794 -1.425 -0 -1.2 0
24.204 -18.963 -1.345 -0 -1.2 0
