# .PCD v.7 - Point Cloud Data file format
FIELDS x y z vp_x vp_y vp_z
SIZE 4 4 4 4 4 4
TYPE F F F F F F
COUNT 1 1 1 1 1 1
WIDTH 1614
HEIGHT 1
VIEWPOINT 0 -1.2001 0 1 0 0 0
POINTS 1614
DATA ascii
2.711 -1.717 0.79 -0 -1.2 0
2.71 -1.765 0.79 -0 -1.2 0
2.708 -1.813 0.79 -0 -1.2 0
2.695 -1.858 0.789 -0 -1.2 0
2.701 -1.91 0.788 -0 -1.2 0
2.705 -1.961 0.788 -0 -1.2 0
2.699 -2.01 0.788 -0 -1.2 0
2.702 -2.062 0.788 -0 -1.2 0
2.713 -2.119 0.788 -0 -1.2 0
2.694 -2.164 0.787 -0 -1.2 0
2.703 -2.221 0.787 -0 -1.2 0
2.71 -2.279 0.788 -0 -1.2 0
2.726 -2.341 0.787 -0 -1.2 0
2.721 -2.396 0.787 -0 -1.2 0
2.716 -2.451 0.787 -0 -1.2 0
2.736 -2.52 0.787 -0 -1.2 0
2.764 -2.595 0.787 -0 -1.2 0
2.754 -2.652 0.787 -0 -1.2 0
2.761 -2.718 0.786 -0 -1.2 0
2.758 -2.781 0.786 -0 -1.2 0
2.745 -2.838 0.786 -0 -1.2 0
2.738 -2.901 0.786 -0 -1.2 0
2.739 -2.97 0.786 -0 -1.2 0
2.739 -3.039 0.785 -0 -1.2 0
2.736 -3.11 0.785 -0 -1.2 0
2.732 -3.18 0.784 -0 -1.2 0
2.727 -3.251 0.784 -0 -1.2 0
2.727 -3.329 0.783 -0 -1.2 0
2.717 -3.401 0.783 -0 -1.2 0
2.699 -3.467 0.782 -0 -1.2 0
2.672 -3.526 0.782 -0 -1.2 0
2.58 -3.521 0.78 -0 -1.2 0
2.516 -3.543 0.779 -0 -1.2 0
1.209 0.004 0.748 -0 -1.2 0
1.257 0.012 0.746 -0 -1.2 0
1.298 0.012 0.746 -0 -1.2 0
1.34 0.01 0.745 -0 -1.2 0
1.389 0.014 0.745 -0 -1.2 0
1.439 0.017 0.744 -0 -1.2 0
1.49 0.019 0.743 -0 -1.2 0
1.525 0.007 0.742 -0 -1.2 0
1.584 0.011 0.742 -0 -1.2 0
1.652 0.02 0.741 -0 -1.2 0
1.696 0.01 0.74 -0 -1.2 0
1.765 0.015 0.739 -0 -1.2 0
1.818 0.008 0.738 -0 -1.2 0
1.905 0.019 0.737 -0 -1.2 0
1.959 0.008 0.736 -0 -1.2 0
2.047 0.015 0.734 -0 -1.2 0
2.128 0.014 0.733 -0 -1.2 0
2.2 0.007 0.733 -0 -1.2 0
2.29 0.006 0.73 -0 -1.2 0
2.408 0.015 0.729 -0 -1.2 0
2.509 0.013 0.727 -0 -1.2 0
2.62 0.01 0.726 -0 -1.2 0
2.74 0.009 0.723 -0 -1.2 0
2.758 -0.036 0.723 -0 -1.2 0
2.74 -0.097 0.723 -0 -1.2 0
2.682 -0.171 0.724 -0 -1.2 0
2.698 -0.216 0.724 -0 -1.2 0
2.693 -0.268 0.724 -0 -1.2 0
2.688 -0.319 0.724 -0 -1.2 0
2.692 -0.367 0.723 -0 -1.2 0
2.685 -0.418 0.723 -0 -1.2 0
2.687 -0.466 0.723 -0 -1.2 0
2.687 -0.513 0.723 -0 -1.2 0
2.688 -0.561 0.723 -0 -1.2 0
2.697 -0.606 0.722 -0 -1.2 0
2.695 -0.653 0.722 -0 -1.2 0
2.683 -0.702 0.722 -0 -1.2 0
2.69 -0.747 0.722 -0 -1.2 0
2.695 -0.792 0.722 -0 -1.2 0
2.68 -0.84 0.722 -0 -1.2 0
2.675 -0.886 0.721 -0 -1.2 0
2.678 -0.931 0.721 -0 -1.2 0
2.671 -0.976 0.721 -0 -1.2 0
2.682 -1.021 0.721 -0 -1.2 0
2.683 -1.066 0.721 -0 -1.2 0
2.683 -1.111 0.72 -0 -1.2 0
2.683 -1.156 0.72 -0 -1.2 0
2.692 -1.201 0.72 -0 -1.2 0
2.679 -1.246 0.72 -0 -1.2 0
2.676 -1.291 0.72 -0 -1.2 0
2.673 -1.336 0.72 -0 -1.2 0
2.678 -1.382 0.719 -0 -1.2 0
2.693 -1.43 0.719 -0 -1.2 0
2.687 -1.475 0.719 -0 -1.2 0
2.699 -1.523 0.717 -0 -1.2 0
2.701 -1.571 0.717 -0 -1.2 0
2.693 -1.616 0.718 -0 -1.2 0
2.693 -1.664 0.718 -0 -1.2 0
2.693 -1.711 0.718 -0 -1.2 0
2.701 -1.761 0.716 -0 -1.2 0
2.689 -1.807 0.717 -0 -1.2 0
2.695 -1.857 0.717 -0 -1.2 0
2.701 -1.909 0.716 -0 -1.2 0
2.696 -1.957 0.717 -0 -1.2 0
2.69 -2.006 0.717 -0 -1.2 0
2.702 -2.061 0.715 -0 -1.2 0
2.704 -2.114 0.715 -0 -1.2 0
2.695 -2.163 0.716 -0 -1.2 0
2.695 -2.216 0.716 -0 -1.2 0
2.701 -2.274 0.714 -0 -1.2 0
2.699 -2.328 0.714 -0 -1.2 0
2.704 -2.386 0.714 -0 -1.2 0
2.699 -2.441 0.714 -0 -1.2 0
2.719 -2.51 0.713 -0 -1.2 0
2.738 -2.579 0.713 -0 -1.2 0
2.746 -2.646 0.712 -0 -1.2 0
2.719 -2.692 0.712 -0 -1.2 0
2.715 -2.753 0.712 -0 -1.2 0
2.695 -2.804 0.712 -0 -1.2 0
2.681 -2.861 0.713 -0 -1.2 0
2.732 -2.963 0.711 -0 -1.2 0
2.723 -3.027 0.711 -0 -1.2 0
2.729 -3.103 0.711 -0 -1.2 0
2.717 -3.167 0.71 -0 -1.2 0
2.727 -3.25 0.71 -0 -1.2 0
2.72 -3.322 0.71 -0 -1.2 0
2.711 -3.394 0.71 -0 -1.2 0
2.685 -3.452 0.711 -0 -1.2 0
2.68 -3.532 0.71 -0 -1.2 0
2.608 -3.549 0.711 -0 -1.2 0
2.516 -3.542 0.712 -0 -1.2 0
1.178 -0.007 -0.775 -0 -1.2 0
1.218 -0.004 -0.776 -0 -1.2 0
1.252 -0.009 -0.777 -0 -1.2 0
1.3 -0.001 -0.778 -0 -1.2 0
1.334 -0.009 -0.778 -0 -1.2 0
1.383 -0.004 -0.78 -0 -1.2 0
1.424 -0.007 -0.781 -0 -1.2 0
1.474 -0.003 -0.782 -0 -1.2 0
1.517 -0.009 -0.783 -0 -1.2 0
1.567 -0.009 -0.784 -0 -1.2 0
1.62 -0.01 -0.785 -0 -1.2 0
1.671 -0.014 -0.786 -0 -1.2 0
1.731 -0.013 -0.788 -0 -1.2 0
1.783 -0.019 -0.789 -0 -1.2 0
1.852 -0.016 -0.791 -0 -1.2 0
1.922 -0.015 -0.793 -0 -1.2 0
1.984 -0.021 -0.794 -0 -1.2 0
2.064 -0.019 -0.796 -0 -1.2 0
2.144 -0.021 -0.798 -0 -1.2 0
2.234 -0.019 -0.8 -0 -1.2 0
2.333 -0.016 -0.802 -0 -1.2 0
2.442 -0.012 -0.805 -0 -1.2 0
2.525 -0.024 -0.807 -0 -1.2 0
2.571 -0.054 -0.807 -0 -1.2 0
2.579 -0.101 -0.807 -0 -1.2 0
2.579 -0.151 -0.806 -0 -1.2 0
2.567 -0.204 -0.805 -0 -1.2 0
2.563 -0.253 -0.804 -0 -1.2 0
2.578 -0.296 -0.804 -0 -1.2 0
2.582 -0.342 -0.803 -0 -1.2 0
2.575 -0.391 -0.802 -0 -1.2 0
2.578 -0.436 -0.802 -0 -1.2 0
2.579 -0.481 -0.801 -0 -1.2 0
2.639 -0.513 -0.801 -0 -1.2 0
2.678 -0.55 -0.802 -0 -1.2 0
2.678 -0.597 -0.801 -0 -1.2 0
2.686 -0.641 -0.8 -0 -1.2 0
2.684 -0.688 -0.8 -0 -1.2 0
2.691 -0.732 -0.799 -0 -1.2 0
2.687 -0.778 -0.798 -0 -1.2 0
2.682 -0.825 -0.798 -0 -1.2 0
2.687 -0.868 -0.797 -0 -1.2 0
2.691 -0.913 -0.796 -0 -1.2 0
2.684 -0.959 -0.796 -0 -1.2 0
2.676 -1.004 -0.794 -0 -1.2 0
2.677 -1.048 -0.793 -0 -1.2 0
2.658 -1.092 -0.793 -0 -1.2 0
2.688 -1.136 -0.793 -0 -1.2 0
2.687 -1.181 -0.792 -0 -1.2 0
2.685 -1.226 -0.792 -0 -1.2 0
2.682 -1.271 -0.79 -0 -1.2 0
2.689 -1.315 -0.79 -0 -1.2 0
2.685 -1.361 -0.789 -0 -1.2 0
2.68 -1.405 -0.788 -0 -1.2 0
2.684 -1.451 -0.787 -0 -1.2 0
2.688 -1.497 -0.786 -0 -1.2 0
2.69 -1.543 -0.787 -0 -1.2 0
2.692 -1.589 -0.786 -0 -1.2 0
2.693 -1.636 -0.785 -0 -1.2 0
2.693 -1.683 -0.785 -0 -1.2 0
2.693 -1.73 -0.783 -0 -1.2 0
2.692 -1.777 -0.782 -0 -1.2 0
2.689 -1.825 -0.781 -0 -1.2 0
2.686 -1.873 -0.781 -0 -1.2 0
2.691 -1.923 -0.78 -0 -1.2 0
2.685 -1.971 -0.779 -0 -1.2 0
2.698 -2.025 -0.778 -0 -1.2 0
2.709 -2.08 -0.778 -0 -1.2 0
2.702 -2.129 -0.777 -0 -1.2 0
2.702 -2.181 -0.776 -0 -1.2 0
2.701 -2.234 -0.775 -0 -1.2 0
2.699 -2.287 -0.774 -0 -1.2 0
2.687 -2.337 -0.774 -0 -1.2 0
2.656 -2.376 -0.772 -0 -1.2 0
2.66 -2.434 -0.771 -0 -1.2 0
2.706 -2.517 -0.771 -0 -1.2 0
2.699 -2.571 -0.77 -0 -1.2 0
2.707 -2.636 -0.769 -0 -1.2 0
2.706 -2.697 -0.768 -0 -1.2 0
2.703 -2.758 -0.767 -0 -1.2 0
2.707 -2.825 -0.766 -0 -1.2 0
2.701 -2.886 -0.765 -0 -1.2 0
2.702 -2.954 -0.764 -0 -1.2 0
2.694 -3.018 -0.762 -0 -1.2 0
2.691 -3.086 -0.761 -0 -1.2 0
2.695 -3.162 -0.76 -0 -1.2 0
2.69 -3.232 -0.759 -0 -1.2 0
2.698 -3.316 -0.758 -0 -1.2 0
2.689 -3.387 -0.757 -0 -1.2 0
2.671 -3.451 -0.755 -0 -1.2 0
2.658 -3.522 -0.753 -0 -1.2 0
1.177 -0.008 -0.802 -0 -1.2 0
1.217 -0.005 -0.804 -0 -1.2 0
1.257 -0.003 -0.806 -0 -1.2 0
1.298 -0.002 -0.809 -0 -1.2 0
1.324 -0.017 -0.811 -0 -1.2 0
1.38 -0.004 -0.814 -0 -1.2 0
1.422 -0.008 -0.816 -0 -1.2 0
1.464 -0.011 -0.819 -0 -1.2 0
1.515 -0.01 -0.823 -0 -1.2 0
1.558 -0.016 -0.825 -0 -1.2 0
1.609 -0.017 -0.828 -0 -1.2 0
1.66 -0.02 -0.831 -0 -1.2 0
1.72 -0.019 -0.835 -0 -1.2 0
1.789 -0.015 -0.84 -0 -1.2 0
1.841 -0.022 -0.843 -0 -1.2 0
1.911 -0.022 -0.846 -0 -1.2 0
1.982 -0.022 -0.851 -0 -1.2 0
2.044 -0.031 -0.855 -0 -1.2 0
2.132 -0.026 -0.86 -0 -1.2 0
2.222 -0.025 -0.866 -0 -1.2 0
2.321 -0.022 -0.872 -0 -1.2 0
2.42 -0.022 -0.878 -0 -1.2 0
2.503 -0.034 -0.883 -0 -1.2 0
2.558 -0.06 -0.885 -0 -1.2 0
2.575 -0.102 -0.886 -0 -1.2 0
2.574 -0.152 -0.885 -0 -1.2 0
2.563 -0.206 -0.884 -0 -1.2 0
2.569 -0.252 -0.883 -0 -1.2 0
2.564 -0.301 -0.881 -0 -1.2 0
2.568 -0.347 -0.882 -0 -1.2 0
2.572 -0.393 -0.881 -0 -1.2 0
2.574 -0.438 -0.88 -0 -1.2 0
2.576 -0.482 -0.879 -0 -1.2 0
2.625 -0.516 -0.882 -0 -1.2 0
2.674 -0.551 -0.885 -0 -1.2 0
2.674 -0.598 -0.884 -0 -1.2 0
2.672 -0.644 -0.882 -0 -1.2 0
2.68 -0.689 -0.882 -0 -1.2 0
2.667 -0.737 -0.881 -0 -1.2 0
2.673 -0.781 -0.88 -0 -1.2 0
2.678 -0.826 -0.88 -0 -1.2 0
2.683 -0.87 -0.88 -0 -1.2 0
2.677 -0.916 -0.878 -0 -1.2 0
2.67 -0.961 -0.877 -0 -1.2 0
2.662 -1.006 -0.876 -0 -1.2 0
2.673 -1.049 -0.876 -0 -1.2 0
2.694 -1.093 -0.876 -0 -1.2 0
2.694 -1.138 -0.875 -0 -1.2 0
2.623 -1.181 -0.871 -0 -1.2 0
2.601 -1.223 -0.869 -0 -1.2 0
2.569 -1.265 -0.866 -0 -1.2 0
2.606 -1.311 -0.867 -0 -1.2 0
2.681 -1.362 -0.871 -0 -1.2 0
2.686 -1.408 -0.87 -0 -1.2 0
2.68 -1.452 -0.87 -0 -1.2 0
2.684 -1.498 -0.869 -0 -1.2 0
2.686 -1.545 -0.868 -0 -1.2 0
2.688 -1.591 -0.867 -0 -1.2 0
2.689 -1.638 -0.867 -0 -1.2 0
2.689 -1.685 -0.866 -0 -1.2 0
2.688 -1.732 -0.865 -0 -1.2 0
2.687 -1.779 -0.865 -0 -1.2 0
2.685 -1.826 -0.863 -0 -1.2 0
2.682 -1.874 -0.862 -0 -1.2 0
2.687 -1.924 -0.861 -0 -1.2 0
2.681 -1.972 -0.861 -0 -1.2 0
2.685 -2.023 -0.86 -0 -1.2 0
2.687 -2.075 -0.859 -0 -1.2 0
2.688 -2.127 -0.858 -0 -1.2 0
2.689 -2.179 -0.857 -0 -1.2 0
2.688 -2.232 -0.857 -0 -1.2 0
2.677 -2.28 -0.855 -0 -1.2 0
2.665 -2.33 -0.853 -0 -1.2 0
2.652 -2.378 -0.852 -0 -1.2 0
2.656 -2.436 -0.851 -0 -1.2 0
2.694 -2.514 -0.852 -0 -1.2 0
2.694 -2.573 -0.851 -0 -1.2 0
2.695 -2.633 -0.85 -0 -1.2 0
2.693 -2.693 -0.848 -0 -1.2 0
2.699 -2.76 -0.848 -0 -1.2 0
2.694 -2.821 -0.846 -0 -1.2 0
2.697 -2.888 -0.845 -0 -1.2 0
2.69 -2.95 -0.845 -0 -1.2 0
2.69 -3.019 -0.843 -0 -1.2 0
2.695 -3.094 -0.842 -0 -1.2 0
2.684 -3.157 -0.84 -0 -1.2 0
2.678 -3.228 -0.839 -0 -1.2 0
2.686 -3.31 -0.838 -0 -1.2 0
2.678 -3.382 -0.836 -0 -1.2 0
2.666 -3.453 -0.834 -0 -1.2 0
2.647 -3.517 -0.832 -0 -1.2 0
1.18 -0.001 -0.827 -0 -1.2 0
1.213 -0.006 -0.83 -0 -1.2 0
1.238 -0.018 -0.832 -0 -1.2 0
1.279 -0.017 -0.836 -0 -1.2 0
1.327 -0.01 -0.841 -0 -1.2 0
1.368 -0.012 -0.845 -0 -1.2 0
1.41 -0.015 -0.848 -0 -1.2 0
1.459 -0.012 -0.854 -0 -1.2 0
1.509 -0.011 -0.859 -0 -1.2 0
1.561 -0.011 -0.863 -0 -1.2 0
1.612 -0.012 -0.868 -0 -1.2 0
1.663 -0.016 -0.873 -0 -1.2 0
1.714 -0.02 -0.878 -0 -1.2 0
1.774 -0.021 -0.884 -0 -1.2 0
1.835 -0.024 -0.89 -0 -1.2 0
1.897 -0.028 -0.896 -0 -1.2 0
1.975 -0.024 -0.903 -0 -1.2 0
2.046 -0.027 -0.91 -0 -1.2 0
2.125 -0.027 -0.918 -0 -1.2 0
2.214 -0.027 -0.926 -0 -1.2 0
2.304 -0.028 -0.935 -0 -1.2 0
2.413 -0.023 -0.946 -0 -1.2 0
2.486 -0.04 -0.952 -0 -1.2 0
2.559 -0.057 -0.959 -0 -1.2 0
2.568 -0.104 -0.959 -0 -1.2 0
2.566 -0.154 -0.958 -0 -1.2 0
2.564 -0.204 -0.957 -0 -1.2 0
2.56 -0.253 -0.956 -0 -1.2 0
2.556 -0.302 -0.954 -0 -1.2 0
2.56 -0.348 -0.954 -0 -1.2 0
2.563 -0.394 -0.953 -0 -1.2 0
2.556 -0.441 -0.952 -0 -1.2 0
2.567 -0.484 -0.952 -0 -1.2 0
2.616 -0.518 -0.956 -0 -1.2 0
2.656 -0.555 -0.959 -0 -1.2 0
2.665 -0.6 -0.959 -0 -1.2 0
2.663 -0.646 -0.959 -0 -1.2 0
2.671 -0.691 -0.959 -0 -1.2 0
2.658 -0.738 -0.956 -0 -1.2 0
2.664 -0.783 -0.957 -0 -1.2 0
2.67 -0.828 -0.956 -0 -1.2 0
2.674 -0.872 -0.955 -0 -1.2 0
2.678 -0.917 -0.955 -0 -1.2 0
2.651 -0.963 -0.952 -0 -1.2 0
2.643 -1.008 -0.95 -0 -1.2 0
2.654 -1.051 -0.951 -0 -1.2 0
2.655 -1.095 -0.95 -0 -1.2 0
2.655 -1.139 -0.949 -0 -1.2 0
2.594 -1.182 -0.943 -0 -1.2 0
2.563 -1.223 -0.938 -0 -1.2 0
2.571 -1.267 -0.939 -0 -1.2 0
2.587 -1.312 -0.939 -0 -1.2 0
2.662 -1.362 -0.946 -0 -1.2 0
2.668 -1.408 -0.945 -0 -1.2 0
2.673 -1.454 -0.945 -0 -1.2 0
2.686 -1.502 -0.945 -0 -1.2 0
2.679 -1.547 -0.943 -0 -1.2 0
2.69 -1.595 -0.944 -0 -1.2 0
2.691 -1.642 -0.943 -0 -1.2 0
2.681 -1.687 -0.941 -0 -1.2 0
2.68 -1.734 -0.941 -0 -1.2 0
2.679 -1.781 -0.94 -0 -1.2 0
2.676 -1.828 -0.938 -0 -1.2 0
2.682 -1.879 -0.938 -0 -1.2 0
2.678 -1.926 -0.937 -0 -1.2 0
2.673 -1.974 -0.935 -0 -1.2 0
2.667 -2.022 -0.934 -0 -1.2 0
2.679 -2.077 -0.934 -0 -1.2 0
2.68 -2.129 -0.933 -0 -1.2 0
2.671 -2.177 -0.932 -0 -1.2 0
2.679 -2.234 -0.931 -0 -1.2 0
2.668 -2.282 -0.929 -0 -1.2 0
2.656 -2.331 -0.928 -0 -1.2 0
2.635 -2.375 -0.924 -0 -1.2 0
2.648 -2.438 -0.924 -0 -1.2 0
2.86 -2.612 -0.942 -0 -1.2 0
2.911 -2.704 -0.945 -0 -1.2 0
2.918 -2.773 -0.944 -0 -1.2 0
2.897 -2.826 -0.942 -0 -1.2 0
2.908 -2.902 -0.941 -0 -1.2 0
2.91 -2.973 -0.94 -0 -1.2 0
2.91 -3.044 -0.939 -0 -1.2 0
2.908 -3.116 -0.937 -0 -1.2 0
2.856 -3.152 -0.931 -0 -1.2 0
2.758 -3.15 -0.922 -0 -1.2 0
2.691 -3.172 -0.915 -0 -1.2 0
2.67 -3.229 -0.913 -0 -1.2 0
2.678 -3.312 -0.912 -0 -1.2 0
2.669 -3.383 -0.909 -0 -1.2 0
2.659 -3.454 -0.907 -0 -1.2 0
2.639 -3.519 -0.905 -0 -1.2 0
1.168 -0.009 -0.849 -0 -1.2 0
1.201 -0.014 -0.853 -0 -1.2 0
1.241 -0.012 -0.859 -0 -1.2 0
1.281 -0.011 -0.864 -0 -1.2 0
1.322 -0.011 -0.869 -0 -1.2 0
1.363 -0.012 -0.875 -0 -1.2 0
1.404 -0.016 -0.88 -0 -1.2 0
1.447 -0.02 -0.885 -0 -1.2 0
1.497 -0.018 -0.892 -0 -1.2 0
1.547 -0.018 -0.898 -0 -1.2 0
1.597 -0.02 -0.905 -0 -1.2 0
1.656 -0.017 -0.913 -0 -1.2 0
1.707 -0.021 -0.92 -0 -1.2 0
1.767 -0.022 -0.927 -0 -1.2 0
1.828 -0.025 -0.936 -0 -1.2 0
1.889 -0.03 -0.944 -0 -1.2 0
1.967 -0.025 -0.954 -0 -1.2 0
2.037 -0.029 -0.964 -0 -1.2 0
2.117 -0.029 -0.974 -0 -1.2 0
2.206 -0.028 -0.986 -0 -1.2 0
2.286 -0.034 -0.996 -0 -1.2 0
2.403 -0.025 -1.012 -0 -1.2 0
2.494 -0.033 -1.024 -0 -1.2 0
2.558 -0.055 -1.032 -0 -1.2 0
2.557 -0.106 -1.031 -0 -1.2 0
2.566 -0.153 -1.031 -0 -1.2 0
2.554 -0.206 -1.029 -0 -1.2 0
2.55 -0.255 -1.027 -0 -1.2 0
2.555 -0.301 -1.026 -0 -1.2 0
2.56 -0.347 -1.027 -0 -1.2 0
2.553 -0.396 -1.025 -0 -1.2 0
2.556 -0.441 -1.024 -0 -1.2 0
2.567 -0.484 -1.025 -0 -1.2 0
2.606 -0.52 -1.029 -0 -1.2 0
2.655 -0.555 -1.036 -0 -1.2 0
2.655 -0.602 -1.034 -0 -1.2 0
2.653 -0.648 -1.033 -0 -1.2 0
2.651 -0.694 -1.032 -0 -1.2 0
2.658 -0.739 -1.032 -0 -1.2 0
2.664 -0.784 -1.032 -0 -1.2 0
2.659 -0.83 -1.03 -0 -1.2 0
2.644 -0.876 -1.028 -0 -1.2 0
2.668 -0.919 -1.03 -0 -1.2 0
2.651 -0.965 -1.027 -0 -1.2 0
2.653 -1.009 -1.027 -0 -1.2 0
2.644 -1.053 -1.024 -0 -1.2 0
2.635 -1.097 -1.023 -0 -1.2 0
2.645 -1.141 -1.023 -0 -1.2 0
2.565 -1.183 -1.012 -0 -1.2 0
2.563 -1.226 -1.01 -0 -1.2 0
2.561 -1.269 -1.009 -0 -1.2 0
2.578 -1.314 -1.01 -0 -1.2 0
2.869 -1.387 -1.048 -0 -1.2 0
2.884 -1.437 -1.049 -0 -1.2 0
2.888 -1.487 -1.048 -0 -1.2 0
2.881 -1.535 -1.047 -0 -1.2 0
2.873 -1.584 -1.045 -0 -1.2 0
2.894 -1.638 -1.047 -0 -1.2 0
2.894 -1.689 -1.045 -0 -1.2 0
2.902 -1.742 -1.046 -0 -1.2 0
2.921 -1.798 -1.047 -0 -1.2 0
2.918 -1.85 -1.045 -0 -1.2 0
2.933 -1.906 -1.047 -0 -1.2 0
2.919 -1.956 -1.043 -0 -1.2 0
2.951 -2.02 -1.047 -0 -1.2 0
2.888 -2.053 -1.037 -0 -1.2 0
2.778 -2.067 -1.023 -0 -1.2 0
2.678 -2.083 -1.01 -0 -1.2 0
2.67 -2.131 -1.007 -0 -1.2 0
2.67 -2.183 -1.006 -0 -1.2 0
2.669 -2.236 -1.005 -0 -1.2 0
2.658 -2.284 -1.003 -0 -1.2 0
2.655 -2.337 -1.002 -0 -1.2 0
2.634 -2.381 -0.998 -0 -1.2 0
2.647 -2.444 -0.998 -0 -1.2 0
2.866 -2.624 -1.024 -0 -1.2 0
2.908 -2.711 -1.028 -0 -1.2 0
2.906 -2.775 -1.027 -0 -1.2 0
2.902 -2.839 -1.025 -0 -1.2 0
2.906 -2.91 -1.024 -0 -1.2 0
2.898 -2.975 -1.022 -0 -1.2 0
2.997 -3.115 -1.032 -0 -1.2 0
2.913 -3.13 -1.02 -0 -1.2 0
2.838 -3.148 -1.01 -0 -1.2 0
2.747 -3.152 -0.999 -0 -1.2 0
2.68 -3.174 -0.988 -0 -1.2 0
2.66 -3.231 -0.985 -0 -1.2 0
2.667 -3.314 -0.984 -0 -1.2 0
2.659 -3.385 -0.981 -0 -1.2 0
2.649 -3.456 -0.98 -0 -1.2 0
2.629 -3.521 -0.976 -0 -1.2 0
1.153 -0.018 -0.876 -0 -1.2 0
1.199 -0.008 -0.884 -0 -1.2 0
1.233 -0.013 -0.89 -0 -1.2 0
1.273 -0.012 -0.896 -0 -1.2 0
1.306 -0.02 -0.902 -0 -1.2 0
1.354 -0.014 -0.911 -0 -1.2 0
1.403 -0.011 -0.919 -0 -1.2 0
1.437 -0.021 -0.924 -0 -1.2 0
1.494 -0.013 -0.934 -0 -1.2 0
1.537 -0.019 -0.942 -0 -1.2 0
1.587 -0.021 -0.95 -0 -1.2 0
1.637 -0.024 -0.959 -0 -1.2 0
1.696 -0.023 -0.969 -0 -1.2 0
1.757 -0.024 -0.979 -0 -1.2 0
1.808 -0.032 -0.988 -0 -1.2 0
1.877 -0.031 -1 -0 -1.2 0
1.954 -0.027 -1.013 -0 -1.2 0
2.025 -0.03 -1.025 -0 -1.2 0
2.104 -0.031 -1.039 -0 -1.2 0
2.201 -0.026 -1.055 -0 -1.2 0
2.281 -0.031 -1.07 -0 -1.2 0
2.389 -0.027 -1.088 -0 -1.2 0
2.478 -0.035 -1.103 -0 -1.2 0
2.551 -0.054 -1.115 -0 -1.2 0
2.551 -0.104 -1.114 -0 -1.2 0
2.559 -0.151 -1.114 -0 -1.2 0
2.556 -0.201 -1.113 -0 -1.2 0
2.543 -0.254 -1.11 -0 -1.2 0
2.539 -0.303 -1.108 -0 -1.2 0
2.553 -0.346 -1.11 -0 -1.2 0
2.547 -0.395 -1.108 -0 -1.2 0
2.55 -0.441 -1.107 -0 -1.2 0
2.552 -0.486 -1.107 -0 -1.2 0
2.6 -0.52 -1.115 -0 -1.2 0
2.629 -0.559 -1.119 -0 -1.2 0
2.639 -0.604 -1.12 -0 -1.2 0
2.647 -0.649 -1.12 -0 -1.2 0
2.645 -0.695 -1.118 -0 -1.2 0
2.632 -0.742 -1.116 -0 -1.2 0
2.648 -0.786 -1.118 -0 -1.2 0
2.653 -0.831 -1.117 -0 -1.2 0
2.648 -0.876 -1.115 -0 -1.2 0
2.651 -0.921 -1.115 -0 -1.2 0
2.635 -0.967 -1.111 -0 -1.2 0
2.647 -1.011 -1.112 -0 -1.2 0
2.628 -1.055 -1.109 -0 -1.2 0
2.639 -1.099 -1.109 -0 -1.2 0
2.639 -1.143 -1.108 -0 -1.2 0
2.549 -1.185 -1.092 -0 -1.2 0
2.547 -1.228 -1.091 -0 -1.2 0
2.564 -1.272 -1.093 -0 -1.2 0
2.571 -1.316 -1.094 -0 -1.2 0
2.862 -1.391 -1.141 -0 -1.2 0
2.876 -1.441 -1.143 -0 -1.2 0
2.87 -1.489 -1.142 -0 -1.2 0
2.863 -1.538 -1.139 -0 -1.2 0
2.866 -1.588 -1.138 -0 -1.2 0
2.876 -1.64 -1.139 -0 -1.2 0
2.886 -1.693 -1.14 -0 -1.2 0
2.885 -1.744 -1.138 -0 -1.2 0
2.932 -1.807 -1.146 -0 -1.2 0
2.929 -1.859 -1.144 -0 -1.2 0
2.934 -1.914 -1.144 -0 -1.2 0
2.92 -1.963 -1.14 -0 -1.2 0
2.943 -2.025 -1.143 -0 -1.2 0
2.87 -2.055 -1.13 -0 -1.2 0
2.77 -2.073 -1.112 -0 -1.2 0
2.661 -2.085 -1.094 -0 -1.2 0
2.662 -2.137 -1.093 -0 -1.2 0
2.653 -2.185 -1.09 -0 -1.2 0
2.662 -2.242 -1.09 -0 -1.2 0
2.651 -2.291 -1.088 -0 -1.2 0
2.639 -2.339 -1.084 -0 -1.2 0
2.627 -2.388 -1.082 -0 -1.2 0
2.622 -2.441 -1.08 -0 -1.2 0
2.875 -2.64 -1.119 -0 -1.2 0
2.9 -2.718 -1.122 -0 -1.2 0
2.898 -2.782 -1.12 -0 -1.2 0
2.885 -2.841 -1.117 -0 -1.2 0
2.905 -2.923 -1.119 -0 -1.2 0
2.889 -2.982 -1.115 -0 -1.2 0
2.897 -3.06 -1.114 -0 -1.2 0
2.888 -3.126 -1.112 -0 -1.2 0
2.829 -3.156 -1.101 -0 -1.2 0
2.731 -3.154 -1.084 -0 -1.2 0
2.672 -3.181 -1.073 -0 -1.2 0
2.651 -3.239 -1.069 -0 -1.2 0
2.659 -3.323 -1.068 -0 -1.2 0
2.651 -3.394 -1.065 -0 -1.2 0
2.639 -3.465 -1.062 -0 -1.2 0
2.614 -3.523 -1.056 -0 -1.2 0
1.152 -0.011 -0.901 -0 -1.2 0
1.192 -0.009 -0.909 -0 -1.2 0
1.217 -0.021 -0.914 -0 -1.2 0
1.264 -0.013 -0.925 -0 -1.2 0
1.305 -0.013 -0.933 -0 -1.2 0
1.338 -0.022 -0.939 -0 -1.2 0
1.386 -0.018 -0.949 -0 -1.2 0
1.427 -0.022 -0.959 -0 -1.2 0
1.476 -0.02 -0.969 -0 -1.2 0
1.526 -0.02 -0.979 -0 -1.2 0
1.576 -0.022 -0.989 -0 -1.2 0
1.634 -0.02 -1.001 -0 -1.2 0
1.685 -0.024 -1.012 -0 -1.2 0
1.745 -0.025 -1.024 -0 -1.2 0
1.804 -0.028 -1.037 -0 -1.2 0
1.864 -0.033 -1.049 -0 -1.2 0
1.941 -0.028 -1.066 -0 -1.2 0
2.011 -0.032 -1.08 -0 -1.2 0
2.089 -0.032 -1.096 -0 -1.2 0
2.177 -0.032 -1.115 -0 -1.2 0
2.266 -0.033 -1.134 -0 -1.2 0
2.372 -0.029 -1.156 -0 -1.2 0
2.471 -0.033 -1.176 -0 -1.2 0
2.525 -0.059 -1.187 -0 -1.2 0
2.551 -0.098 -1.192 -0 -1.2 0
2.55 -0.149 -1.19 -0 -1.2 0
2.549 -0.199 -1.189 -0 -1.2 0
2.545 -0.249 -1.187 -0 -1.2 0
2.541 -0.299 -1.186 -0 -1.2 0
2.545 -0.345 -1.185 -0 -1.2 0
2.539 -0.394 -1.183 -0 -1.2 0
2.551 -0.437 -1.184 -0 -1.2 0
2.543 -0.486 -1.182 -0 -1.2 0
2.582 -0.522 -1.189 -0 -1.2 0
2.64 -0.556 -1.201 -0 -1.2 0
2.64 -0.603 -1.199 -0 -1.2 0
2.619 -0.652 -1.194 -0 -1.2 0
2.627 -0.697 -1.195 -0 -1.2 0
2.643 -0.741 -1.197 -0 -1.2 0
2.649 -0.785 -1.198 -0 -1.2 0
2.645 -0.832 -1.195 -0 -1.2 0
2.649 -0.876 -1.196 -0 -1.2 0
2.643 -0.922 -1.193 -0 -1.2 0
2.636 -0.968 -1.191 -0 -1.2 0
2.638 -1.013 -1.191 -0 -1.2 0
2.64 -1.057 -1.19 -0 -1.2 0
2.631 -1.101 -1.187 -0 -1.2 0
2.63 -1.146 -1.186 -0 -1.2 0
2.561 -1.188 -1.171 -0 -1.2 0
2.56 -1.231 -1.169 -0 -1.2 0
2.557 -1.275 -1.168 -0 -1.2 0
2.564 -1.319 -1.169 -0 -1.2 0
2.853 -1.394 -1.227 -0 -1.2 0
2.876 -1.445 -1.231 -0 -1.2 0
2.88 -1.496 -1.231 -0 -1.2 0
2.863 -1.543 -1.226 -0 -1.2 0
2.865 -1.593 -1.226 -0 -1.2 0
2.877 -1.646 -1.227 -0 -1.2 0
2.876 -1.697 -1.226 -0 -1.2 0
2.894 -1.753 -1.229 -0 -1.2 0
2.931 -1.814 -1.235 -0 -1.2 0
2.938 -1.869 -1.235 -0 -1.2 0
2.943 -1.925 -1.235 -0 -1.2 0
2.91 -1.968 -1.227 -0 -1.2 0
2.933 -2.03 -1.231 -0 -1.2 0
2.861 -2.06 -1.215 -0 -1.2 0
2.743 -2.072 -1.19 -0 -1.2 0
2.653 -2.089 -1.171 -0 -1.2 0
2.645 -2.139 -1.169 -0 -1.2 0
2.645 -2.191 -1.167 -0 -1.2 0
2.644 -2.244 -1.166 -0 -1.2 0
2.642 -2.297 -1.164 -0 -1.2 0
2.64 -2.35 -1.162 -0 -1.2 0
2.618 -2.394 -1.157 -0 -1.2 0
2.622 -2.453 -1.157 -0 -1.2 0
2.891 -2.662 -1.208 -0 -1.2 0
2.881 -2.72 -1.205 -0 -1.2 0
2.887 -2.79 -1.205 -0 -1.2 0
2.883 -2.854 -1.203 -0 -1.2 0
2.886 -2.925 -1.202 -0 -1.2 0
2.894 -3.002 -1.203 -0 -1.2 0
2.894 -3.073 -1.201 -0 -1.2 0
2.876 -3.134 -1.196 -0 -1.2 0
2.811 -3.158 -1.182 -0 -1.2 0
2.72 -3.163 -1.162 -0 -1.2 0
2.655 -3.183 -1.148 -0 -1.2 0
2.649 -3.254 -1.146 -0 -1.2 0
2.642 -3.325 -1.143 -0 -1.2 0
2.641 -3.403 -1.14 -0 -1.2 0
2.623 -3.467 -1.136 -0 -1.2 0
2.603 -3.531 -1.13 -0 -1.2 0
1.143 -0.011 -0.924 -0 -1.2 0
1.174 -0.016 -0.931 -0 -1.2 0
1.206 -0.021 -0.939 -0 -1.2 0
1.253 -0.013 -0.951 -0 -1.2 0
1.294 -0.013 -0.961 -0 -1.2 0
1.334 -0.015 -0.97 -0 -1.2 0
1.374 -0.018 -0.981 -0 -1.2 0
1.415 -0.022 -0.991 -0 -1.2 0
1.463 -0.02 -1.002 -0 -1.2 0
1.513 -0.02 -1.014 -0 -1.2 0
1.563 -0.022 -1.027 -0 -1.2 0
1.612 -0.026 -1.04 -0 -1.2 0
1.67 -0.024 -1.054 -0 -1.2 0
1.722 -0.031 -1.066 -0 -1.2 0
1.789 -0.028 -1.083 -0 -1.2 0
1.848 -0.033 -1.098 -0 -1.2 0
1.917 -0.034 -1.115 -0 -1.2 0
2.002 -0.027 -1.135 -0 -1.2 0
2.08 -0.029 -1.155 -0 -1.2 0
2.168 -0.028 -1.177 -0 -1.2 0
2.246 -0.034 -1.195 -0 -1.2 0
2.353 -0.03 -1.222 -0 -1.2 0
2.45 -0.034 -1.246 -0 -1.2 0
2.531 -0.048 -1.265 -0 -1.2 0
2.548 -0.092 -1.268 -0 -1.2 0
2.547 -0.143 -1.268 -0 -1.2 0
2.536 -0.197 -1.264 -0 -1.2 0
2.542 -0.244 -1.264 -0 -1.2 0
2.538 -0.293 -1.262 -0 -1.2 0
2.533 -0.343 -1.26 -0 -1.2 0
2.537 -0.389 -1.26 -0 -1.2 0
2.53 -0.438 -1.257 -0 -1.2 0
2.541 -0.481 -1.258 -0 -1.2 0
2.561 -0.523 -1.262 -0 -1.2 0
2.628 -0.555 -1.279 -0 -1.2 0
2.637 -0.599 -1.28 -0 -1.2 0
2.636 -0.646 -1.278 -0 -1.2 0
2.634 -0.693 -1.276 -0 -1.2 0
2.631 -0.739 -1.275 -0 -1.2 0
2.637 -0.785 -1.276 -0 -1.2 0
2.642 -0.83 -1.276 -0 -1.2 0
2.637 -0.876 -1.273 -0 -1.2 0
2.641 -0.921 -1.274 -0 -1.2 0
2.624 -0.968 -1.268 -0 -1.2 0
2.626 -1.013 -1.267 -0 -1.2 0
2.618 -1.058 -1.265 -0 -1.2 0
2.619 -1.102 -1.264 -0 -1.2 0
2.628 -1.148 -1.265 -0 -1.2 0
2.55 -1.189 -1.245 -0 -1.2 0
2.549 -1.233 -1.244 -0 -1.2 0
2.556 -1.277 -1.244 -0 -1.2 0
2.553 -1.321 -1.243 -0 -1.2 0
2.839 -1.396 -1.312 -0 -1.2 0
2.862 -1.448 -1.316 -0 -1.2 0
2.847 -1.495 -1.312 -0 -1.2 0
2.868 -1.549 -1.316 -0 -1.2 0
2.861 -1.598 -1.313 -0 -1.2 0
2.861 -1.649 -1.312 -0 -1.2 0
2.881 -1.705 -1.315 -0 -1.2 0
2.871 -1.754 -1.311 -0 -1.2 0
2.878 -1.808 -1.312 -0 -1.2 0
2.895 -1.866 -1.315 -0 -1.2 0
2.882 -1.915 -1.311 -0 -1.2 0
2.932 -1.985 -1.322 -0 -1.2 0
2.936 -2.041 -1.322 -0 -1.2 0
2.837 -2.062 -1.297 -0 -1.2 0
2.72 -2.073 -1.268 -0 -1.2 0
2.64 -2.094 -1.248 -0 -1.2 0
2.641 -2.147 -1.247 -0 -1.2 0
2.641 -2.199 -1.245 -0 -1.2 0
2.64 -2.253 -1.244 -0 -1.2 0
2.638 -2.306 -1.242 -0 -1.2 0
2.626 -2.356 -1.238 -0 -1.2 0
2.623 -2.41 -1.236 -0 -1.2 0
2.618 -2.463 -1.233 -0 -1.2 0
2.876 -2.668 -1.293 -0 -1.2 0
2.874 -2.732 -1.291 -0 -1.2 0
2.88 -2.801 -1.29 -0 -1.2 0
2.875 -2.866 -1.288 -0 -1.2 0
2.887 -2.943 -1.289 -0 -1.2 0
2.879 -3.008 -1.286 -0 -1.2 0
2.975 -3.149 -1.306 -0 -1.2 0
2.853 -3.135 -1.277 -0 -1.2 0
2.787 -3.16 -1.26 -0 -1.2 0
2.691 -3.157 -1.237 -0 -1.2 0
2.64 -3.191 -1.223 -0 -1.2 0
2.642 -3.267 -1.222 -0 -1.2 0
2.643 -3.345 -1.221 -0 -1.2 0
2.626 -3.41 -1.215 -0 -1.2 0
2.609 -3.475 -1.209 -0 -1.2 0
2.603 -3.554 -1.206 -0 -1.2 0
1.131 -0.012 -0.95 -0 -1.2 0
1.163 -0.016 -0.96 -0 -1.2 0
1.195 -0.021 -0.968 -0 -1.2 0
1.241 -0.014 -0.981 -0 -1.2 0
1.273 -0.021 -0.991 -0 -1.2 0
1.32 -0.015 -1.004 -0 -1.2 0
1.361 -0.018 -1.016 -0 -1.2 0
1.401 -0.023 -1.028 -0 -1.2 0
1.449 -0.021 -1.041 -0 -1.2 0
1.497 -0.021 -1.055 -0 -1.2 0
1.539 -0.029 -1.067 -0 -1.2 0
1.596 -0.026 -1.083 -0 -1.2 0
1.654 -0.025 -1.101 -0 -1.2 0
1.713 -0.026 -1.117 -0 -1.2 0
1.779 -0.024 -1.136 -0 -1.2 0
1.838 -0.029 -1.153 -0 -1.2 0
1.906 -0.029 -1.172 -0 -1.2 0
1.974 -0.033 -1.191 -0 -1.2 0
2.059 -0.03 -1.216 -0 -1.2 0
2.137 -0.033 -1.239 -0 -1.2 0
2.232 -0.031 -1.266 -0 -1.2 0
2.329 -0.031 -1.294 -0 -1.2 0
2.443 -0.027 -1.327 -0 -1.2 0
2.514 -0.045 -1.346 -0 -1.2 0
2.532 -0.089 -1.351 -0 -1.2 0
2.539 -0.137 -1.352 -0 -1.2 0
2.528 -0.191 -1.348 -0 -1.2 0
2.525 -0.242 -1.345 -0 -1.2 0
2.531 -0.289 -1.347 -0 -1.2 0
2.527 -0.338 -1.344 -0 -1.2 0
2.521 -0.388 -1.341 -0 -1.2 0
2.533 -0.432 -1.343 -0 -1.2 0
2.525 -0.48 -1.341 -0 -1.2 0
2.554 -0.52 -1.348 -0 -1.2 0
2.611 -0.554 -1.363 -0 -1.2 0
2.629 -0.597 -1.367 -0 -1.2 0
2.619 -0.646 -1.364 -0 -1.2 0
2.626 -0.691 -1.365 -0 -1.2 0
2.633 -0.737 -1.366 -0 -1.2 0
2.629 -0.784 -1.363 -0 -1.2 0
2.635 -0.829 -1.364 -0 -1.2 0
2.63 -0.876 -1.362 -0 -1.2 0
2.633 -0.921 -1.361 -0 -1.2 0
2.627 -0.967 -1.359 -0 -1.2 0
2.61 -1.014 -1.353 -0 -1.2 0
2.601 -1.059 -1.35 -0 -1.2 0
2.612 -1.104 -1.352 -0 -1.2 0
2.621 -1.148 -1.353 -0 -1.2 0
2.563 -1.191 -1.335 -0 -1.2 0
2.523 -1.234 -1.323 -0 -1.2 0
2.53 -1.278 -1.325 -0 -1.2 0
2.546 -1.324 -1.328 -0 -1.2 0
2.695 -1.384 -1.369 -0 -1.2 0
2.719 -1.435 -1.375 -0 -1.2 0
2.713 -1.482 -1.373 -0 -1.2 0
2.727 -1.531 -1.375 -0 -1.2 0
2.729 -1.58 -1.375 -0 -1.2 0
2.73 -1.629 -1.374 -0 -1.2 0
2.74 -1.681 -1.375 -0 -1.2 0
2.748 -1.733 -1.377 -0 -1.2 0
2.747 -1.783 -1.375 -0 -1.2 0
2.745 -1.833 -1.374 -0 -1.2 0
2.761 -1.889 -1.377 -0 -1.2 0
2.756 -1.939 -1.375 -0 -1.2 0
2.76 -1.993 -1.375 -0 -1.2 0
2.754 -2.044 -1.371 -0 -1.2 0
2.685 -2.071 -1.351 -0 -1.2 0
2.632 -2.103 -1.335 -0 -1.2 0
2.633 -2.155 -1.335 -0 -1.2 0
2.633 -2.209 -1.333 -0 -1.2 0
2.632 -2.262 -1.332 -0 -1.2 0
2.63 -2.316 -1.33 -0 -1.2 0
2.61 -2.361 -1.323 -0 -1.2 0
2.614 -2.42 -1.323 -0 -1.2 0
2.626 -2.483 -1.325 -0 -1.2 0
2.881 -2.689 -1.394 -0 -1.2 0
2.871 -2.748 -1.39 -0 -1.2 0
2.885 -2.823 -1.391 -0 -1.2 0
2.872 -2.883 -1.387 -0 -1.2 0
2.875 -2.955 -1.386 -0 -1.2 0
2.875 -3.027 -1.384 -0 -1.2 0
2.882 -3.105 -1.385 -0 -1.2 0
2.833 -3.143 -1.37 -0 -1.2 0
2.753 -3.155 -1.347 -0 -1.2 0
2.664 -3.159 -1.321 -0 -1.2 0
2.63 -3.204 -1.311 -0 -1.2 0
2.632 -3.282 -1.31 -0 -1.2 0
2.632 -3.359 -1.307 -0 -1.2 0
2.615 -3.425 -1.301 -0 -1.2 0
2.597 -3.49 -1.295 -0 -1.2 0
2.585 -3.562 -1.289 -0 -1.2 0
1.113 -0.019 -0.97 -0 -1.2 0
1.15 -0.016 -0.982 -0 -1.2 0
1.183 -0.022 -0.993 -0 -1.2 0
1.228 -0.014 -1.007 -0 -1.2 0
1.267 -0.014 -1.02 -0 -1.2 0
1.306 -0.016 -1.033 -0 -1.2 0
1.346 -0.019 -1.046 -0 -1.2 0
1.379 -0.029 -1.056 -0 -1.2 0
1.434 -0.021 -1.074 -0 -1.2 0
1.482 -0.021 -1.09 -0 -1.2 0
1.524 -0.03 -1.103 -0 -1.2 0
1.58 -0.027 -1.121 -0 -1.2 0
1.637 -0.026 -1.14 -0 -1.2 0
1.686 -0.033 -1.155 -0 -1.2 0
1.752 -0.03 -1.177 -0 -1.2 0
1.819 -0.029 -1.199 -0 -1.2 0
1.885 -0.03 -1.22 -0 -1.2 0
1.953 -0.034 -1.242 -0 -1.2 0
2.029 -0.035 -1.267 -0 -1.2 0
2.124 -0.03 -1.298 -0 -1.2 0
2.209 -0.031 -1.326 -0 -1.2 0
2.304 -0.032 -1.357 -0 -1.2 0
2.408 -0.032 -1.391 -0 -1.2 0
2.496 -0.043 -1.419 -0 -1.2 0
2.522 -0.083 -1.427 -0 -1.2 0
2.521 -0.135 -1.425 -0 -1.2 0
2.528 -0.182 -1.426 -0 -1.2 0
2.518 -0.236 -1.422 -0 -1.2 0
2.523 -0.284 -1.423 -0 -1.2 0
2.527 -0.331 -1.423 -0 -1.2 0
2.531 -0.377 -1.423 -0 -1.2 0
2.524 -0.428 -1.42 -0 -1.2 0
2.526 -0.474 -1.419 -0 -1.2 0
2.536 -0.518 -1.422 -0 -1.2 0
2.602 -0.55 -1.443 -0 -1.2 0
2.602 -0.598 -1.441 -0 -1.2 0
2.61 -0.643 -1.443 -0 -1.2 0
2.617 -0.689 -1.445 -0 -1.2 0
2.615 -0.737 -1.443 -0 -1.2 0
2.622 -0.782 -1.443 -0 -1.2 0
2.627 -0.829 -1.444 -0 -1.2 0
2.631 -0.875 -1.445 -0 -1.2 0
2.625 -0.921 -1.442 -0 -1.2 0
2.628 -0.967 -1.441 -0 -1.2 0
2.612 -1.014 -1.435 -0 -1.2 0
2.613 -1.059 -1.434 -0 -1.2 0
2.614 -1.104 -1.434 -0 -1.2 0
2.613 -1.15 -1.433 -0 -1.2 0
2.565 -1.194 -1.416 -0 -1.2 0
2.564 -1.239 -1.414 -0 -1.2 0
2.532 -1.281 -1.403 -0 -1.2 0
2.548 -1.327 -1.407 -0 -1.2 0
2.62 -1.38 -1.43 -0 -1.2 0
2.625 -1.427 -1.431 -0 -1.2 0
2.619 -1.473 -1.427 -0 -1.2 0
2.613 -1.519 -1.425 -0 -1.2 0
2.616 -1.566 -1.424 -0 -1.2 0
2.617 -1.614 -1.424 -0 -1.2 0
2.628 -1.664 -1.426 -0 -1.2 0
2.628 -1.712 -1.425 -0 -1.2 0
2.618 -1.757 -1.42 -0 -1.2 0
2.625 -1.808 -1.422 -0 -1.2 0
2.631 -1.86 -1.423 -0 -1.2 0
2.628 -1.908 -1.421 -0 -1.2 0
2.632 -1.96 -1.421 -0 -1.2 0
2.636 -2.013 -1.421 -0 -1.2 0
2.63 -2.062 -1.418 -0 -1.2 0
2.623 -2.111 -1.415 -0 -1.2 0
2.624 -2.164 -1.413 -0 -1.2 0
2.632 -2.222 -1.415 -0 -1.2 0
2.622 -2.271 -1.411 -0 -1.2 0
2.62 -2.325 -1.409 -0 -1.2 0
2.609 -2.375 -1.405 -0 -1.2 0
2.587 -2.421 -1.396 -0 -1.2 0
2.615 -2.494 -1.404 -0 -1.2 0
2.643 -2.569 -1.411 -0 -1.2 0
2.652 -2.634 -1.412 -0 -1.2 0
2.65 -2.695 -1.41 -0 -1.2 0
2.648 -2.757 -1.408 -0 -1.2 0
2.637 -2.814 -1.404 -0 -1.2 0
2.647 -2.887 -1.406 -0 -1.2 0
2.657 -2.962 -1.407 -0 -1.2 0
2.65 -3.025 -1.404 -0 -1.2 0
2.648 -3.095 -1.401 -0 -1.2 0
2.645 -3.167 -1.399 -0 -1.2 0
2.633 -3.231 -1.393 -0 -1.2 0
2.627 -3.302 -1.39 -0 -1.2 0
2.626 -3.38 -1.388 -0 -1.2 0
2.61 -3.445 -1.381 -0 -1.2 0
2.592 -3.512 -1.374 -0 -1.2 0
2.565 -3.57 -1.364 -0 -1.2 0
1.099 -0.019 -0.99 -0 -1.2 0
1.136 -0.017 -1.005 -0 -1.2 0
1.174 -0.015 -1.018 -0 -1.2 0
1.212 -0.014 -1.032 -0 -1.2 0
1.245 -0.022 -1.044 -0 -1.2 0
1.29 -0.016 -1.06 -0 -1.2 0
1.322 -0.025 -1.072 -0 -1.2 0
1.369 -0.023 -1.089 -0 -1.2 0
1.417 -0.022 -1.106 -0 -1.2 0
1.456 -0.028 -1.12 -0 -1.2 0
1.512 -0.024 -1.141 -0 -1.2 0
1.559 -0.027 -1.159 -0 -1.2 0
1.617 -0.026 -1.179 -0 -1.2 0
1.665 -0.033 -1.196 -0 -1.2 0
1.731 -0.03 -1.22 -0 -1.2 0
1.788 -0.035 -1.241 -0 -1.2 0
1.862 -0.031 -1.268 -0 -1.2 0
1.938 -0.029 -1.296 -0 -1.2 0
2.004 -0.035 -1.32 -0 -1.2 0
2.097 -0.03 -1.354 -0 -1.2 0
2.182 -0.032 -1.385 -0 -1.2 0
2.285 -0.028 -1.422 -0 -1.2 0
2.379 -0.032 -1.456 -0 -1.2 0
2.474 -0.04 -1.491 -0 -1.2 0
2.518 -0.072 -1.507 -0 -1.2 0
2.517 -0.124 -1.505 -0 -1.2 0
2.515 -0.176 -1.503 -0 -1.2 0
2.513 -0.227 -1.501 -0 -1.2 0
2.519 -0.275 -1.502 -0 -1.2 0
2.514 -0.326 -1.499 -0 -1.2 0
2.518 -0.373 -1.5 -0 -1.2 0
2.521 -0.42 -1.5 -0 -1.2 0
2.523 -0.468 -1.499 -0 -1.2 0
2.533 -0.513 -1.503 -0 -1.2 0
2.588 -0.547 -1.521 -0 -1.2 0
2.607 -0.591 -1.527 -0 -1.2 0
2.615 -0.637 -1.53 -0 -1.2 0
2.614 -0.685 -1.528 -0 -1.2 0
2.621 -0.732 -1.529 -0 -1.2 0
2.627 -0.778 -1.531 -0 -1.2 0
2.623 -0.826 -1.528 -0 -1.2 0
2.608 -0.874 -1.522 -0 -1.2 0
2.612 -0.92 -1.522 -0 -1.2 0
2.615 -0.967 -1.522 -0 -1.2 0
2.608 -1.013 -1.519 -0 -1.2 0
2.609 -1.059 -1.518 -0 -1.2 0
2.61 -1.105 -1.517 -0 -1.2 0
2.61 -1.151 -1.516 -0 -1.2 0
2.599 -1.198 -1.511 -0 -1.2 0
2.598 -1.244 -1.51 -0 -1.2 0
2.595 -1.29 -1.508 -0 -1.2 0
2.602 -1.336 -1.51 -0 -1.2 0
2.598 -1.382 -1.507 -0 -1.2 0
2.593 -1.428 -1.504 -0 -1.2 0
2.597 -1.476 -1.505 -0 -1.2 0
2.61 -1.524 -1.508 -0 -1.2 0
2.612 -1.572 -1.507 -0 -1.2 0
2.614 -1.62 -1.508 -0 -1.2 0
2.614 -1.668 -1.506 -0 -1.2 0
2.614 -1.717 -1.505 -0 -1.2 0
2.622 -1.768 -1.507 -0 -1.2 0
2.62 -1.817 -1.505 -0 -1.2 0
2.617 -1.865 -1.503 -0 -1.2 0
2.623 -1.918 -1.504 -0 -1.2 0
2.628 -1.97 -1.505 -0 -1.2 0
2.622 -2.02 -1.501 -0 -1.2 0
2.625 -2.073 -1.501 -0 -1.2 0
2.617 -2.122 -1.498 -0 -1.2 0
2.618 -2.176 -1.497 -0 -1.2 0
2.618 -2.23 -1.495 -0 -1.2 0
2.617 -2.284 -1.494 -0 -1.2 0
2.614 -2.339 -1.492 -0 -1.2 0
2.594 -2.385 -1.484 -0 -1.2 0
2.598 -2.444 -1.484 -0 -1.2 0
2.618 -2.513 -1.489 -0 -1.2 0
2.619 -2.574 -1.488 -0 -1.2 0
2.628 -2.64 -1.49 -0 -1.2 0
2.635 -2.707 -1.491 -0 -1.2 0
2.633 -2.769 -1.489 -0 -1.2 0
2.621 -2.826 -1.483 -0 -1.2 0
2.624 -2.894 -1.482 -0 -1.2 0
2.625 -2.963 -1.481 -0 -1.2 0
2.626 -3.032 -1.481 -0 -1.2 0
2.616 -3.096 -1.476 -0 -1.2 0
2.621 -3.173 -1.476 -0 -1.2 0
2.617 -3.244 -1.473 -0 -1.2 0
2.617 -3.322 -1.471 -0 -1.2 0
2.616 -3.4 -1.469 -0 -1.2 0
2.6 -3.467 -1.461 -0 -1.2 0
2.582 -3.532 -1.454 -0 -1.2 0
2.536 -3.571 -1.436 -0 -1.2 0
1.089 -0.012 -1.017 -0 -1.2 0
1.12 -0.017 -1.029 -0 -1.2 0
1.158 -0.015 -1.045 -0 -1.2 0
1.189 -0.022 -1.057 -0 -1.2 0
1.226 -0.022 -1.072 -0 -1.2 0
1.271 -0.016 -1.091 -0 -1.2 0
1.311 -0.019 -1.106 -0 -1.2 0
1.35 -0.024 -1.123 -0 -1.2 0
1.396 -0.022 -1.141 -0 -1.2 0
1.436 -0.028 -1.157 -0 -1.2 0
1.49 -0.024 -1.179 -0 -1.2 0
1.538 -0.027 -1.199 -0 -1.2 0
1.586 -0.033 -1.218 -0 -1.2 0
1.65 -0.027 -1.244 -0 -1.2 0
1.706 -0.03 -1.267 -0 -1.2 0
1.763 -0.035 -1.29 -0 -1.2 0
1.836 -0.031 -1.32 -0 -1.2 0
1.902 -0.035 -1.347 -0 -1.2 0
1.976 -0.036 -1.377 -0 -1.2 0
2.068 -0.031 -1.415 -0 -1.2 0
2.151 -0.033 -1.448 -0 -1.2 0
2.252 -0.029 -1.49 -0 -1.2 0
2.345 -0.033 -1.528 -0 -1.2 0
2.447 -0.036 -1.569 -0 -1.2 0
2.507 -0.062 -1.593 -0 -1.2 0
2.507 -0.114 -1.592 -0 -1.2 0
2.514 -0.163 -1.593 -0 -1.2 0
2.513 -0.215 -1.592 -0 -1.2 0
2.509 -0.266 -1.589 -0 -1.2 0
2.505 -0.317 -1.587 -0 -1.2 0
2.509 -0.365 -1.587 -0 -1.2 0
2.511 -0.413 -1.587 -0 -1.2 0
2.505 -0.463 -1.583 -0 -1.2 0
2.506 -0.511 -1.582 -0 -1.2 0
2.579 -0.541 -1.612 -0 -1.2 0
2.598 -0.586 -1.618 -0 -1.2 0
2.597 -0.635 -1.616 -0 -1.2 0
2.604 -0.682 -1.619 -0 -1.2 0
2.602 -0.73 -1.617 -0 -1.2 0
2.608 -0.777 -1.618 -0 -1.2 0
2.604 -0.825 -1.616 -0 -1.2 0
2.608 -0.872 -1.616 -0 -1.2 0
2.603 -0.92 -1.613 -0 -1.2 0
2.605 -0.967 -1.613 -0 -1.2 0
2.589 -1.014 -1.606 -0 -1.2 0
2.591 -1.06 -1.605 -0 -1.2 0
2.591 -1.106 -1.605 -0 -1.2 0
2.582 -1.152 -1.599 -0 -1.2 0
2.581 -1.199 -1.598 -0 -1.2 0
2.579 -1.245 -1.596 -0 -1.2 0
2.596 -1.293 -1.602 -0 -1.2 0
2.593 -1.34 -1.6 -0 -1.2 0
2.599 -1.387 -1.601 -0 -1.2 0
2.594 -1.434 -1.597 -0 -1.2 0
2.598 -1.482 -1.599 -0 -1.2 0
2.591 -1.528 -1.595 -0 -1.2 0
2.594 -1.577 -1.595 -0 -1.2 0
2.604 -1.627 -1.598 -0 -1.2 0
2.604 -1.676 -1.597 -0 -1.2 0
2.614 -1.727 -1.6 -0 -1.2 0
2.613 -1.776 -1.598 -0 -1.2 0
2.611 -1.826 -1.596 -0 -1.2 0
2.608 -1.875 -1.594 -0 -1.2 0
2.613 -1.928 -1.595 -0 -1.2 0
2.617 -1.981 -1.595 -0 -1.2 0
2.611 -2.031 -1.592 -0 -1.2 0
2.615 -2.084 -1.592 -0 -1.2 0
2.616 -2.138 -1.591 -0 -1.2 0
2.616 -2.193 -1.591 -0 -1.2 0
2.615 -2.247 -1.589 -0 -1.2 0
2.623 -2.305 -1.59 -0 -1.2 0
2.603 -2.353 -1.582 -0 -1.2 0
2.592 -2.403 -1.575 -0 -1.2 0
2.595 -2.463 -1.576 -0 -1.2 0
2.614 -2.533 -1.581 -0 -1.2 0
2.615 -2.595 -1.581 -0 -1.2 0
2.616 -2.656 -1.58 -0 -1.2 0
2.622 -2.722 -1.581 -0 -1.2 0
2.62 -2.786 -1.578 -0 -1.2 0
2.616 -2.849 -1.576 -0 -1.2 0
2.619 -2.918 -1.576 -0 -1.2 0
2.612 -2.982 -1.571 -0 -1.2 0
2.612 -3.052 -1.569 -0 -1.2 0
2.61 -3.122 -1.567 -0 -1.2 0
2.607 -3.193 -1.564 -0 -1.2 0
2.617 -3.277 -1.566 -0 -1.2 0
2.609 -3.349 -1.562 -0 -1.2 0
2.595 -3.415 -1.555 -0 -1.2 0
2.578 -3.481 -1.546 -0 -1.2 0
2.567 -3.553 -1.54 -0 -1.2 0
2.494 -3.565 -1.51 -0 -1.2 0
1.073 -0.012 -1.038 -0 -1.2 0
1.104 -0.017 -1.052 -0 -1.2 0
1.134 -0.022 -1.065 -0 -1.2 0
1.171 -0.022 -1.082 -0 -1.2 0
1.209 -0.022 -1.099 -0 -1.2 0
1.239 -0.03 -1.112 -0 -1.2 0
1.284 -0.026 -1.133 -0 -1.2 0
1.329 -0.024 -1.153 -0 -1.2 0
1.368 -0.028 -1.171 -0 -1.2 0
1.407 -0.035 -1.188 -0 -1.2 0
1.46 -0.031 -1.212 -0 -1.2 0
1.515 -0.028 -1.236 -0 -1.2 0
1.562 -0.033 -1.258 -0 -1.2 0
1.618 -0.034 -1.282 -0 -1.2 0
1.673 -0.036 -1.307 -0 -1.2 0
1.736 -0.036 -1.336 -0 -1.2 0
1.809 -0.032 -1.368 -0 -1.2 0
1.873 -0.035 -1.397 -0 -1.2 0
1.939 -0.041 -1.426 -0 -1.2 0
2.028 -0.036 -1.467 -0 -1.2 0
2.111 -0.037 -1.504 -0 -1.2 0
2.211 -0.034 -1.548 -0 -1.2 0
2.302 -0.038 -1.59 -0 -1.2 0
2.403 -0.041 -1.634 -0 -1.2 0
2.487 -0.055 -1.672 -0 -1.2 0
2.504 -0.1 -1.678 -0 -1.2 0
2.502 -0.153 -1.677 -0 -1.2 0
2.509 -0.202 -1.679 -0 -1.2 0
2.507 -0.255 -1.676 -0 -1.2 0
2.503 -0.306 -1.674 -0 -1.2 0
2.506 -0.355 -1.674 -0 -1.2 0
2.501 -0.406 -1.671 -0 -1.2 0
2.503 -0.454 -1.67 -0 -1.2 0
2.504 -0.502 -1.67 -0 -1.2 0
2.558 -0.538 -1.693 -0 -1.2 0
2.586 -0.581 -1.705 -0 -1.2 0
2.594 -0.629 -1.708 -0 -1.2 0
2.602 -0.676 -1.71 -0 -1.2 0
2.608 -0.724 -1.712 -0 -1.2 0
2.605 -0.773 -1.709 -0 -1.2 0
2.601 -0.822 -1.707 -0 -1.2 0
2.606 -0.869 -1.708 -0 -1.2 0
2.609 -0.917 -1.708 -0 -1.2 0
2.603 -0.965 -1.705 -0 -1.2 0
2.596 -1.013 -1.7 -0 -1.2 0
2.599 -1.06 -1.7 -0 -1.2 0
2.58 -1.107 -1.691 -0 -1.2 0
2.581 -1.154 -1.69 -0 -1.2 0
2.58 -1.201 -1.688 -0 -1.2 0
2.579 -1.248 -1.687 -0 -1.2 0
2.585 -1.296 -1.688 -0 -1.2 0
2.582 -1.343 -1.687 -0 -1.2 0
2.578 -1.39 -1.683 -0 -1.2 0
2.592 -1.439 -1.688 -0 -1.2 0
2.595 -1.488 -1.689 -0 -1.2 0
2.598 -1.537 -1.689 -0 -1.2 0
2.6 -1.586 -1.689 -0 -1.2 0
2.592 -1.633 -1.684 -0 -1.2 0
2.602 -1.685 -1.688 -0 -1.2 0
2.593 -1.732 -1.682 -0 -1.2 0
2.609 -1.787 -1.689 -0 -1.2 0
2.599 -1.834 -1.683 -0 -1.2 0
2.604 -1.887 -1.684 -0 -1.2 0
2.61 -1.94 -1.685 -0 -1.2 0
2.605 -1.991 -1.682 -0 -1.2 0
2.608 -2.045 -1.682 -0 -1.2 0
2.61 -2.099 -1.683 -0 -1.2 0
2.603 -2.15 -1.678 -0 -1.2 0
2.603 -2.204 -1.676 -0 -1.2 0
2.603 -2.259 -1.675 -0 -1.2 0
2.609 -2.319 -1.677 -0 -1.2 0
2.582 -2.361 -1.664 -0 -1.2 0
2.578 -2.417 -1.66 -0 -1.2 0
2.582 -2.477 -1.661 -0 -1.2 0
2.608 -2.553 -1.671 -0 -1.2 0
2.609 -2.615 -1.671 -0 -1.2 0
2.601 -2.672 -1.665 -0 -1.2 0
2.608 -2.739 -1.667 -0 -1.2 0
2.605 -2.802 -1.665 -0 -1.2 0
2.609 -2.871 -1.665 -0 -1.2 0
2.611 -2.941 -1.664 -0 -1.2 0
2.604 -3.005 -1.659 -0 -1.2 0
2.603 -3.076 -1.657 -0 -1.2 0
2.602 -3.147 -1.655 -0 -1.2 0
2.597 -3.218 -1.652 -0 -1.2 0
2.593 -3.29 -1.648 -0 -1.2 0
2.6 -3.375 -1.649 -0 -1.2 0
2.584 -3.442 -1.641 -0 -1.2 0
2.568 -3.509 -1.632 -0 -1.2 0
2.543 -3.568 -1.62 -0 -1.2 0
2.451 -3.559 -1.578 -0 -1.2 0
1.049 -0.02 -1.055 -0 -1.2 0
1.078 -0.024 -1.069 -0 -1.2 0
1.12 -0.015 -1.09 -0 -1.2 0
1.151 -0.022 -1.105 -0 -1.2 0
1.181 -0.028 -1.12 -0 -1.2 0
1.224 -0.024 -1.141 -0 -1.2 0
1.269 -0.02 -1.162 -0 -1.2 0
1.307 -0.024 -1.181 -0 -1.2 0
1.344 -0.028 -1.2 -0 -1.2 0
1.39 -0.029 -1.223 -0 -1.2 0
1.443 -0.025 -1.248 -0 -1.2 0
1.489 -0.028 -1.271 -0 -1.2 0
1.543 -0.027 -1.297 -0 -1.2 0
1.59 -0.034 -1.321 -0 -1.2 0
1.653 -0.031 -1.351 -0 -1.2 0
1.715 -0.031 -1.382 -0 -1.2 0
1.779 -0.032 -1.413 -0 -1.2 0
1.842 -0.036 -1.444 -0 -1.2 0
1.914 -0.036 -1.48 -0 -1.2 0
2.002 -0.032 -1.523 -0 -1.2 0
2.075 -0.038 -1.559 -0 -1.2 0
2.165 -0.038 -1.604 -0 -1.2 0
2.263 -0.038 -1.651 -0 -1.2 0
2.371 -0.037 -1.705 -0 -1.2 0
2.462 -0.048 -1.749 -0 -1.2 0
2.495 -0.087 -1.764 -0 -1.2 0
2.486 -0.143 -1.759 -0 -1.2 0
2.492 -0.193 -1.761 -0 -1.2 0
2.49 -0.246 -1.759 -0 -1.2 0
2.495 -0.295 -1.76 -0 -1.2 0
2.49 -0.347 -1.757 -0 -1.2 0
2.493 -0.396 -1.757 -0 -1.2 0
2.496 -0.445 -1.758 -0 -1.2 0
2.489 -0.496 -1.752 -0 -1.2 0
2.533 -0.535 -1.773 -0 -1.2 0
2.604 -0.568 -1.808 -0 -1.2 0
2.604 -0.618 -1.806 -0 -1.2 0
2.602 -0.668 -1.805 -0 -1.2 0
2.609 -0.717 -1.807 -0 -1.2 0
2.615 -0.766 -1.808 -0 -1.2 0
2.62 -0.815 -1.81 -0 -1.2 0
2.617 -0.864 -1.807 -0 -1.2 0
2.62 -0.913 -1.808 -0 -1.2 0
2.614 -0.962 -1.803 -0 -1.2 0
2.608 -1.011 -1.799 -0 -1.2 0
2.618 -1.059 -1.803 -0 -1.2 0
2.627 -1.107 -1.807 -0 -1.2 0
2.618 -1.156 -1.801 -0 -1.2 0
2.609 -1.204 -1.796 -0 -1.2 0
2.607 -1.252 -1.794 -0 -1.2 0
2.613 -1.302 -1.796 -0 -1.2 0
2.62 -1.351 -1.798 -0 -1.2 0
2.607 -1.399 -1.791 -0 -1.2 0
2.612 -1.448 -1.791 -0 -1.2 0
2.615 -1.498 -1.793 -0 -1.2 0
2.609 -1.546 -1.788 -0 -1.2 0
2.602 -1.596 -1.784 -0 -1.2 0
2.603 -1.646 -1.783 -0 -1.2 0
2.612 -1.697 -1.787 -0 -1.2 0
2.612 -1.748 -1.785 -0 -1.2 0
2.602 -1.797 -1.779 -0 -1.2 0
2.6 -1.848 -1.777 -0 -1.2 0
2.605 -1.902 -1.779 -0 -1.2 0
2.609 -1.955 -1.78 -0 -1.2 0
2.605 -2.007 -1.776 -0 -1.2 0
2.6 -2.058 -1.772 -0 -1.2 0
2.602 -2.113 -1.772 -0 -1.2 0
2.611 -2.171 -1.776 -0 -1.2 0
2.619 -2.231 -1.778 -0 -1.2 0
2.602 -2.28 -1.769 -0 -1.2 0
2.592 -2.332 -1.762 -0 -1.2 0
2.563 -2.375 -1.748 -0 -1.2 0
2.568 -2.435 -1.748 -0 -1.2 0
2.596 -2.51 -1.76 -0 -1.2 0
2.821 -2.704 -1.867 -0 -1.2 0
2.811 -2.766 -1.86 -0 -1.2 0
2.824 -2.843 -1.865 -0 -1.2 0
2.828 -2.916 -1.866 -0 -1.2 0
2.822 -2.984 -1.861 -0 -1.2 0
2.823 -3.057 -1.86 -0 -1.2 0
2.86 -3.16 -1.876 -0 -1.2 0
2.769 -3.167 -1.831 -0 -1.2 0
2.671 -3.164 -1.783 -0 -1.2 0
2.602 -3.184 -1.749 -0 -1.2 0
2.584 -3.243 -1.739 -0 -1.2 0
2.586 -3.322 -1.738 -0 -1.2 0
2.586 -3.402 -1.736 -0 -1.2 0
2.563 -3.462 -1.724 -0 -1.2 0
2.56 -3.542 -1.72 -0 -1.2 0
2.502 -3.568 -1.69 -0 -1.2 0
2.425 -3.573 -1.652 -0 -1.2 0
1.028 -0.02 -1.077 -0 -1.2 0
1.058 -0.024 -1.093 -0 -1.2 0
1.093 -0.023 -1.112 -0 -1.2 0
1.135 -0.015 -1.135 -0 -1.2 0
1.164 -0.022 -1.151 -0 -1.2 0
1.208 -0.017 -1.175 -0 -1.2 0
1.238 -0.026 -1.19 -0 -1.2 0
1.281 -0.024 -1.215 -0 -1.2 0
1.319 -0.029 -1.234 -0 -1.2 0
1.363 -0.029 -1.258 -0 -1.2 0
1.415 -0.025 -1.287 -0 -1.2 0
1.461 -0.028 -1.311 -0 -1.2 0
1.513 -0.027 -1.339 -0 -1.2 0
1.559 -0.034 -1.364 -0 -1.2 0
1.62 -0.031 -1.397 -0 -1.2 0
1.682 -0.031 -1.43 -0 -1.2 0
1.744 -0.032 -1.463 -0 -1.2 0
1.799 -0.041 -1.493 -0 -1.2 0
1.884 -0.033 -1.539 -0 -1.2 0
1.964 -0.032 -1.582 -0 -1.2 0
2.028 -0.043 -1.616 -0 -1.2 0
2.139 -0.03 -1.677 -0 -1.2 0
2.228 -0.035 -1.724 -0 -1.2 0
2.325 -0.038 -1.777 -0 -1.2 0
2.439 -0.038 -1.838 -0 -1.2 0
2.48 -0.073 -1.861 -0 -1.2 0
2.479 -0.127 -1.859 -0 -1.2 0
2.519 -0.165 -1.879 -0 -1.2 0
2.617 -0.182 -1.932 -0 -1.2 0
2.632 -0.233 -1.939 -0 -1.2 0
2.628 -0.288 -1.935 -0 -1.2 0
2.632 -0.341 -1.937 -0 -1.2 0
2.626 -0.396 -1.932 -0 -1.2 0
2.629 -0.448 -1.933 -0 -1.2 0
2.605 -0.506 -1.918 -0 -1.2 0
2.606 -0.558 -1.917 -0 -1.2 0
2.614 -0.607 -1.92 -0 -1.2 0
2.622 -0.657 -1.924 -0 -1.2 0
2.602 -0.711 -1.913 -0 -1.2 0
2.617 -0.76 -1.919 -0 -1.2 0
2.623 -0.809 -1.921 -0 -1.2 0
2.628 -0.859 -1.922 -0 -1.2 0
2.631 -0.909 -1.923 -0 -1.2 0
2.625 -0.96 -1.919 -0 -1.2 0
2.628 -1.01 -1.919 -0 -1.2 0
2.629 -1.059 -1.919 -0 -1.2 0
2.63 -1.108 -1.918 -0 -1.2 0
2.621 -1.158 -1.912 -0 -1.2 0
2.629 -1.208 -1.915 -0 -1.2 0
2.628 -1.258 -1.914 -0 -1.2 0
2.625 -1.308 -1.912 -0 -1.2 0
2.622 -1.357 -1.908 -0 -1.2 0
2.627 -1.408 -1.91 -0 -1.2 0
2.622 -1.458 -1.906 -0 -1.2 0
2.625 -1.509 -1.907 -0 -1.2 0
2.629 -1.56 -1.907 -0 -1.2 0
2.63 -1.612 -1.907 -0 -1.2 0
2.631 -1.664 -1.906 -0 -1.2 0
2.648 -1.72 -1.914 -0 -1.2 0
2.648 -1.772 -1.913 -0 -1.2 0
2.655 -1.826 -1.915 -0 -1.2 0
2.652 -1.88 -1.913 -0 -1.2 0
2.648 -1.933 -1.91 -0 -1.2 0
2.644 -1.986 -1.907 -0 -1.2 0
2.673 -2.05 -1.921 -0 -1.2 0
2.65 -2.098 -1.907 -0 -1.2 0
2.668 -2.161 -1.915 -0 -1.2 0
2.644 -2.209 -1.901 -0 -1.2 0
2.626 -2.258 -1.89 -0 -1.2 0
2.585 -2.296 -1.867 -0 -1.2 0
2.566 -2.344 -1.856 -0 -1.2 0
2.547 -2.392 -1.845 -0 -1.2 0
2.551 -2.453 -1.845 -0 -1.2 0
2.799 -2.656 -1.974 -0 -1.2 0
2.806 -2.728 -1.977 -0 -1.2 0
2.804 -2.796 -1.975 -0 -1.2 0
2.793 -2.858 -1.967 -0 -1.2 0
2.812 -2.942 -1.975 -0 -1.2 0
2.799 -3.005 -1.967 -0 -1.2 0
2.903 -3.156 -2.02 -0 -1.2 0
2.769 -3.133 -1.948 -0 -1.2 0
2.71 -3.162 -1.915 -0 -1.2 0
2.62 -3.165 -1.867 -0 -1.2 0
2.575 -3.202 -1.842 -0 -1.2 0
2.57 -3.275 -1.837 -0 -1.2 0
2.578 -3.361 -1.84 -0 -1.2 0
2.557 -3.421 -1.827 -0 -1.2 0
2.549 -3.495 -1.82 -0 -1.2 0
2.531 -3.563 -1.81 -0 -1.2 0
2.443 -3.555 -1.762 -0 -1.2 0
2.379 -3.573 -1.727 -0 -1.2 0
1.009 -0.019 -1.096 -0 -1.2 0
1.037 -0.024 -1.113 -0 -1.2 0
1.071 -0.022 -1.133 -0 -1.2 0
1.107 -0.022 -1.154 -0 -1.2 0
1.136 -0.028 -1.171 -0 -1.2 0
1.178 -0.023 -1.196 -0 -1.2 0
1.214 -0.026 -1.216 -0 -1.2 0
1.257 -0.024 -1.242 -0 -1.2 0
1.286 -0.035 -1.259 -0 -1.2 0
1.337 -0.029 -1.289 -0 -1.2 0
1.388 -0.025 -1.319 -0 -1.2 0
1.433 -0.028 -1.344 -0 -1.2 0
1.484 -0.027 -1.375 -0 -1.2 0
1.529 -0.034 -1.401 -0 -1.2 0
1.589 -0.031 -1.436 -0 -1.2 0
1.641 -0.037 -1.467 -0 -1.2 0
1.71 -0.032 -1.508 -0 -1.2 0
1.772 -0.036 -1.544 -0 -1.2 0
1.84 -0.037 -1.584 -0 -1.2 0
1.918 -0.037 -1.63 -0 -1.2 0
1.995 -0.038 -1.675 -0 -1.2 0
2.089 -0.035 -1.73 -0 -1.2 0
2.176 -0.039 -1.781 -0 -1.2 0
2.28 -0.039 -1.842 -0 -1.2 0
2.384 -0.042 -1.902 -0 -1.2 0
2.456 -0.064 -1.944 -0 -1.2 0
2.471 -0.111 -1.952 -0 -1.2 0
2.478 -0.162 -1.955 -0 -1.2 0
2.566 -0.183 -2.006 -0 -1.2 0
2.597 -0.227 -2.023 -0 -1.2 0
2.593 -0.283 -2.02 -0 -1.2 0
2.622 -0.329 -2.035 -0 -1.2 0
2.6 -0.389 -2.022 -0 -1.2 0
2.595 -0.444 -2.017 -0 -1.2 0
2.597 -0.497 -2.017 -0 -1.2 0
2.606 -0.547 -2.02 -0 -1.2 0
2.597 -0.601 -2.015 -0 -1.2 0
2.605 -0.652 -2.017 -0 -1.2 0
2.612 -0.702 -2.021 -0 -1.2 0
2.61 -0.754 -2.018 -0 -1.2 0
2.606 -0.806 -2.015 -0 -1.2 0
2.611 -0.857 -2.016 -0 -1.2 0
2.614 -0.907 -2.018 -0 -1.2 0
2.617 -0.958 -2.018 -0 -1.2 0
2.621 -1.009 -2.019 -0 -1.2 0
2.613 -1.059 -2.013 -0 -1.2 0
2.614 -1.109 -2.012 -0 -1.2 0
2.622 -1.16 -2.016 -0 -1.2 0
2.621 -1.211 -2.015 -0 -1.2 0
2.62 -1.261 -2.012 -0 -1.2 0
2.618 -1.312 -2.01 -0 -1.2 0
2.624 -1.364 -2.012 -0 -1.2 0
2.62 -1.414 -2.009 -0 -1.2 0
2.624 -1.466 -2.009 -0 -1.2 0
2.618 -1.517 -2.006 -0 -1.2 0
2.629 -1.571 -2.01 -0 -1.2 0
2.631 -1.623 -2.011 -0 -1.2 0
2.623 -1.674 -2.004 -0 -1.2 0
2.623 -1.727 -2.004 -0 -1.2 0
2.63 -1.782 -2.006 -0 -1.2 0
2.628 -1.835 -2.005 -0 -1.2 0
2.618 -1.885 -1.996 -0 -1.2 0
2.631 -1.944 -2.003 -0 -1.2 0
2.635 -2.001 -2.004 -0 -1.2 0
2.647 -2.06 -2.009 -0 -1.2 0
2.649 -2.118 -2.009 -0 -1.2 0
2.649 -2.176 -2.008 -0 -1.2 0
2.642 -2.231 -2.003 -0 -1.2 0
2.608 -2.274 -1.982 -0 -1.2 0
2.575 -2.316 -1.962 -0 -1.2 0
2.549 -2.361 -1.946 -0 -1.2 0
2.538 -2.414 -1.937 -0 -1.2 0
2.549 -2.48 -1.943 -0 -1.2 0
2.769 -2.67 -2.067 -0 -1.2 0
2.775 -2.743 -2.069 -0 -1.2 0
2.774 -2.811 -2.066 -0 -1.2 0
2.779 -2.884 -2.068 -0 -1.2 0
2.781 -2.958 -2.068 -0 -1.2 0
2.79 -3.038 -2.071 -0 -1.2 0
2.798 -3.119 -2.073 -0 -1.2 0
2.745 -3.156 -2.042 -0 -1.2 0
2.658 -3.162 -1.991 -0 -1.2 0
2.585 -3.178 -1.948 -0 -1.2 0
2.568 -3.239 -1.936 -0 -1.2 0
2.563 -3.312 -1.932 -0 -1.2 0
2.563 -3.393 -1.93 -0 -1.2 0
2.543 -3.454 -1.916 -0 -1.2 0
2.54 -3.535 -1.913 -0 -1.2 0
2.497 -3.577 -1.887 -0 -1.2 0
2.403 -3.563 -1.831 -0 -1.2 0
2.334 -3.574 -1.791 -0 -1.2 0
0.987 -0.02 -1.112 -0 -1.2 0
1.015 -0.025 -1.13 -0 -1.2 0
1.049 -0.023 -1.151 -0 -1.2 0
1.089 -0.015 -1.178 -0 -1.2 0
1.112 -0.029 -1.192 -0 -1.2 0
1.146 -0.03 -1.213 -0 -1.2 0
1.188 -0.027 -1.24 -0 -1.2 0
1.23 -0.025 -1.267 -0 -1.2 0
1.265 -0.029 -1.289 -0 -1.2 0
1.315 -0.024 -1.321 -0 -1.2 0
1.351 -0.032 -1.343 -0 -1.2 0
1.402 -0.029 -1.376 -0 -1.2 0
1.452 -0.028 -1.408 -0 -1.2 0
1.503 -0.029 -1.44 -0 -1.2 0
1.548 -0.038 -1.468 -0 -1.2 0
1.607 -0.038 -1.506 -0 -1.2 0
1.666 -0.039 -1.543 -0 -1.2 0
1.727 -0.043 -1.581 -0 -1.2 0
1.809 -0.034 -1.633 -0 -1.2 0
1.877 -0.038 -1.676 -0 -1.2 0
1.961 -0.036 -1.73 -0 -1.2 0
2.045 -0.036 -1.783 -0 -1.2 0
2.13 -0.041 -1.837 -0 -1.2 0
2.239 -0.036 -1.906 -0 -1.2 0
2.341 -0.041 -1.971 -0 -1.2 0
2.435 -0.051 -2.03 -0 -1.2 0
2.466 -0.092 -2.048 -0 -1.2 0
2.466 -0.148 -2.047 -0 -1.2 0
2.52 -0.182 -2.081 -0 -1.2 0
2.582 -0.215 -2.119 -0 -1.2 0
2.596 -0.266 -2.126 -0 -1.2 0
2.6 -0.32 -2.127 -0 -1.2 0
2.611 -0.372 -2.134 -0 -1.2 0
2.598 -0.431 -2.123 -0 -1.2 0
2.592 -0.486 -2.118 -0 -1.2 0
2.593 -0.54 -2.117 -0 -1.2 0
2.609 -0.59 -2.127 -0 -1.2 0
2.608 -0.643 -2.125 -0 -1.2 0
2.607 -0.696 -2.123 -0 -1.2 0
2.597 -0.75 -2.115 -0 -1.2 0
2.611 -0.801 -2.123 -0 -1.2 0
2.615 -0.853 -2.124 -0 -1.2 0
2.602 -0.906 -2.115 -0 -1.2 0
2.605 -0.957 -2.115 -0 -1.2 0
2.608 -1.009 -2.116 -0 -1.2 0
2.609 -1.06 -2.115 -0 -1.2 0
2.61 -1.111 -2.115 -0 -1.2 0
2.643 -1.164 -2.135 -0 -1.2 0
2.609 -1.214 -2.112 -0 -1.2 0
2.616 -1.267 -2.115 -0 -1.2 0
2.614 -1.318 -2.113 -0 -1.2 0
2.62 -1.371 -2.114 -0 -1.2 0
2.616 -1.423 -2.111 -0 -1.2 0
2.619 -1.476 -2.112 -0 -1.2 0
2.622 -1.529 -2.113 -0 -1.2 0
2.625 -1.582 -2.113 -0 -1.2 0
2.618 -1.634 -2.107 -0 -1.2 0
2.618 -1.687 -2.106 -0 -1.2 0
2.618 -1.741 -2.105 -0 -1.2 0
2.626 -1.797 -2.108 -0 -1.2 0
2.632 -1.854 -2.11 -0 -1.2 0
2.629 -1.908 -2.108 -0 -1.2 0
2.625 -1.963 -2.104 -0 -1.2 0
2.645 -2.027 -2.115 -0 -1.2 0
2.624 -2.075 -2.101 -0 -1.2 0
2.633 -2.137 -2.105 -0 -1.2 0
2.635 -2.196 -2.104 -0 -1.2 0
2.627 -2.251 -2.098 -0 -1.2 0
2.578 -2.287 -2.066 -0 -1.2 0
2.561 -2.338 -2.054 -0 -1.2 0
2.535 -2.383 -2.037 -0 -1.2 0
2.548 -2.45 -2.043 -0 -1.2 0
2.574 -2.527 -2.057 -0 -1.2 0
2.794 -2.723 -2.193 -0 -1.2 0
2.808 -2.802 -2.199 -0 -1.2 0
2.776 -2.852 -2.178 -0 -1.2 0
2.795 -2.936 -2.187 -0 -1.2 0
2.804 -3.017 -2.191 -0 -1.2 0
2.819 -3.104 -2.199 -0 -1.2 0
2.776 -3.149 -2.17 -0 -1.2 0
2.696 -3.164 -2.12 -0 -1.2 0
2.603 -3.164 -2.06 -0 -1.2 0
2.553 -3.197 -2.028 -0 -1.2 0
2.549 -3.271 -2.024 -0 -1.2 0
2.557 -3.358 -2.027 -0 -1.2 0
2.544 -3.426 -2.017 -0 -1.2 0
2.529 -3.495 -2.006 -0 -1.2 0
2.52 -3.571 -1.999 -0 -1.2 0
2.433 -3.565 -1.943 -0 -1.2 0
2.359 -3.571 -1.897 -0 -1.2 0
2.281 -3.569 -1.846 -0 -1.2 0
0.963 -0.021 -1.133 -0 -1.2 0
1.001 -0.011 -1.159 -0 -1.2 0
1.024 -0.024 -1.174 -0 -1.2 0
1.063 -0.016 -1.201 -0 -1.2 0
1.09 -0.024 -1.221 -0 -1.2 0
1.125 -0.025 -1.243 -0 -1.2 0
1.159 -0.028 -1.268 -0 -1.2 0
1.201 -0.026 -1.295 -0 -1.2 0
1.242 -0.024 -1.324 -0 -1.2 0
1.276 -0.031 -1.348 -0 -1.2 0
1.326 -0.027 -1.382 -0 -1.2 0
1.368 -0.03 -1.411 -0 -1.2 0
1.418 -0.03 -1.444 -0 -1.2 0
1.467 -0.031 -1.479 -0 -1.2 0
1.525 -0.029 -1.518 -0 -1.2 0
1.568 -0.039 -1.548 -0 -1.2 0
1.64 -0.03 -1.598 -0 -1.2 0
1.692 -0.039 -1.634 -0 -1.2 0
1.758 -0.04 -1.679 -0 -1.2 0
1.832 -0.04 -1.73 -0 -1.2 0
1.914 -0.038 -1.785 -0 -1.2 0
2.003 -0.034 -1.847 -0 -1.2 0
2.086 -0.039 -1.904 -0 -1.2 0
2.185 -0.038 -1.972 -0 -1.2 0
2.291 -0.038 -2.045 -0 -1.2 0
2.391 -0.046 -2.114 -0 -1.2 0
2.461 -0.072 -2.161 -0 -1.2 0
2.453 -0.131 -2.154 -0 -1.2 0
2.482 -0.175 -2.173 -0 -1.2 0
2.575 -0.197 -2.236 -0 -1.2 0
2.58 -0.252 -2.238 -0 -1.2 0
2.576 -0.31 -2.235 -0 -1.2 0
2.597 -0.361 -2.247 -0 -1.2 0
2.575 -0.422 -2.231 -0 -1.2 0
