# .PCD v.7 - Point Cloud Data file format
FIELDS x y z vp_x vp_y vp_z
SIZE 4 4 4 4 4 4
TYPE F F F F F F
COUNT 1 1 1 1 1 1
WIDTH 1550
HEIGHT 1
VIEWPOINT 0 -1.20013 0 1 0 0 0
POINTS 1550
DATA ascii
-0.366 -1.216 -4.554 -0 -1.2 0
-0.365 -1.296 -4.571 -0 -1.2 0
-0.371 -1.38 -4.657 -0 -1.2 0
-0.374 -1.466 -4.721 -0 -1.2 0
-0.372 -1.547 -4.714 -0 -1.2 0
-0.368 -1.628 -4.696 -0 -1.2 0
-0.367 -1.713 -4.716 -0 -1.2 0
-0.142 -0.009 -1.157 -0 -1.2 0
-0.149 -0.002 -1.205 -0 -1.2 0
-0.152 -0.009 -1.238 -0 -1.2 0
-0.159 -0.004 -1.287 -0 -1.2 0
-0.164 -0.006 -1.329 -0 -1.2 0
-0.167 -0.015 -1.362 -0 -1.2 0
-0.172 -0.02 -1.404 -0 -1.2 0
-0.179 -0.02 -1.454 -0 -1.2 0
-0.185 -0.021 -1.505 -0 -1.2 0
-0.19 -0.029 -1.547 -0 -1.2 0
-0.198 -0.022 -1.615 -0 -1.2 0
-0.205 -0.027 -1.667 -0 -1.2 0
-0.212 -0.029 -1.727 -0 -1.2 0
-0.219 -0.032 -1.788 -0 -1.2 0
-0.228 -0.033 -1.857 -0 -1.2 0
-0.236 -0.036 -1.927 -0 -1.2 0
-0.245 -0.039 -1.998 -0 -1.2 0
-0.256 -0.037 -2.086 -0 -1.2 0
-0.268 -0.033 -2.184 -0 -1.2 0
-0.279 -0.036 -2.274 -0 -1.2 0
-0.29 -0.043 -2.365 -0 -1.2 0
-0.302 -0.048 -2.465 -0 -1.2 0
-0.314 -0.052 -2.575 -0 -1.2 0
-0.327 -0.064 -2.676 -0 -1.2 0
-0.342 -0.068 -2.805 -0 -1.2 0
-0.358 -0.076 -2.935 -0 -1.2 0
-0.376 -0.082 -3.084 -0 -1.2 0
-0.397 -0.088 -3.253 -0 -1.2 0
-0.418 -0.097 -3.432 -0 -1.2 0
-0.444 -0.1 -3.65 -0 -1.2 0
-0.475 -0.103 -3.897 -0 -1.2 0
-0.505 -0.115 -4.146 -0 -1.2 0
-0.539 -0.129 -4.424 -0 -1.2 0
-0.551 -0.186 -4.538 -0 -1.2 0
-0.557 -0.255 -4.602 -0 -1.2 0
-0.556 -0.336 -4.616 -0 -1.2 0
-0.551 -0.422 -4.589 -0 -1.2 0
-0.547 -0.506 -4.572 -0 -1.2 0
-0.541 -0.59 -4.542 -0 -1.2 0
-0.536 -0.672 -4.521 -0 -1.2 0
-0.533 -0.751 -4.508 -0 -1.2 0
-0.531 -0.83 -4.514 -0 -1.2 0
-0.523 -0.911 -4.458 -0 -1.2 0
-0.522 -0.988 -4.471 -0 -1.2 0
-0.521 -1.066 -4.472 -0 -1.2 0
-0.516 -1.143 -4.453 -0 -1.2 0
-0.513 -1.22 -4.442 -0 -1.2 0
-0.512 -1.297 -4.45 -0 -1.2 0
-0.509 -1.374 -4.445 -0 -1.2 0
-0.509 -1.453 -4.46 -0 -1.2 0
-0.507 -1.53 -4.453 -0 -1.2 0
-0.508 -1.612 -4.485 -0 -1.2 0
-0.508 -1.693 -4.505 -0 -1.2 0
-0.508 -1.776 -4.524 -0 -1.2 0
-0.499 -1.846 -4.463 -0 -1.2 0
-0.495 -1.921 -4.44 -0 -1.2 0
-0.492 -2 -4.435 -0 -1.2 0
-0.497 -2.095 -4.497 -0 -1.2 0
-0.189 -0.004 -1.151 -0 -1.2 0
-0.194 -0.01 -1.185 -0 -1.2 0
-0.2 -0.011 -1.225 -0 -1.2 0
-0.206 -0.011 -1.266 -0 -1.2 0
-0.213 -0.014 -1.307 -0 -1.2 0
-0.221 -0.011 -1.356 -0 -1.2 0
-0.226 -0.022 -1.391 -0 -1.2 0
-0.233 -0.028 -1.433 -0 -1.2 0
-0.242 -0.023 -1.491 -0 -1.2 0
-0.252 -0.019 -1.549 -0 -1.2 0
-0.259 -0.03 -1.592 -0 -1.2 0
-0.268 -0.029 -1.652 -0 -1.2 0
-0.278 -0.031 -1.712 -0 -1.2 0
-0.289 -0.03 -1.78 -0 -1.2 0
-0.3 -0.03 -1.85 -0 -1.2 0
-0.31 -0.038 -1.911 -0 -1.2 0
-0.321 -0.042 -1.981 -0 -1.2 0
-0.335 -0.04 -2.069 -0 -1.2 0
-0.351 -0.036 -2.167 -0 -1.2 0
-0.367 -0.035 -2.265 -0 -1.2 0
-0.379 -0.046 -2.346 -0 -1.2 0
-0.394 -0.051 -2.446 -0 -1.2 0
-0.412 -0.055 -2.555 -0 -1.2 0
-0.43 -0.063 -2.664 -0 -1.2 0
-0.449 -0.071 -2.784 -0 -1.2 0
-0.471 -0.077 -2.922 -0 -1.2 0
-0.495 -0.08 -3.08 -0 -1.2 0
-0.522 -0.086 -3.248 -0 -1.2 0
-0.552 -0.092 -3.436 -0 -1.2 0
-0.59 -0.091 -3.672 -0 -1.2 0
-0.626 -0.1 -3.899 -0 -1.2 0
-0.667 -0.111 -4.156 -0 -1.2 0
-0.713 -0.124 -4.442 -0 -1.2 0
-0.765 -0.138 -4.768 -0 -1.2 0
-0.826 -0.153 -5.154 -0 -1.2 0
-0.903 -0.165 -5.637 -0 -1.2 0
-0.992 -0.182 -6.199 -0 -1.2 0
-1.106 -0.2 -6.91 -0 -1.2 0
-1.257 -0.215 -7.856 -0 -1.2 0
-1.44 -0.245 -9.001 -0 -1.2 0
-1.696 -0.279 -10.61 -0 -1.2 0
-2.06 -0.33 -12.889 -0 -1.2 0
-0.698 -0.915 -4.478 -0 -1.2 0
-0.676 -0.996 -4.352 -0 -1.2 0
-0.668 -1.072 -4.314 -0 -1.2 0
-0.679 -1.148 -4.393 -0 -1.2 0
-0.689 -1.227 -4.471 -0 -1.2 0
-0.685 -1.305 -4.458 -0 -1.2 0
-0.684 -1.383 -4.465 -0 -1.2 0
-0.68 -1.459 -4.449 -0 -1.2 0
-0.674 -1.535 -4.423 -0 -1.2 0
-0.669 -1.612 -4.405 -0 -1.2 0
-0.675 -1.696 -4.455 -0 -1.2 0
-0.681 -1.783 -4.503 -0 -1.2 0
-0.228 -0.012 -1.132 -0 -1.2 0
-0.238 -0.005 -1.179 -0 -1.2 0
-0.247 0.001 -1.227 -0 -1.2 0
-0.254 -0.007 -1.26 -0 -1.2 0
-0.262 -0.009 -1.301 -0 -1.2 0
-0.269 -0.013 -1.343 -0 -1.2 0
-0.277 -0.017 -1.384 -0 -1.2 0
-0.285 -0.024 -1.426 -0 -1.2 0
-0.297 -0.018 -1.484 -0 -1.2 0
-0.305 -0.027 -1.525 -0 -1.2 0
-0.316 -0.026 -1.585 -0 -1.2 0
-0.328 -0.025 -1.644 -0 -1.2 0
-0.34 -0.028 -1.704 -0 -1.2 0
-0.35 -0.037 -1.755 -0 -1.2 0
-0.364 -0.037 -1.823 -0 -1.2 0
-0.379 -0.035 -1.901 -0 -1.2 0
-0.393 -0.04 -1.971 -0 -1.2 0
-0.41 -0.037 -2.06 -0 -1.2 0
-0.429 -0.033 -2.157 -0 -1.2 0
-0.446 -0.037 -2.246 -0 -1.2 0
-0.465 -0.04 -2.344 -0 -1.2 0
-0.482 -0.05 -2.433 -0 -1.2 0
-0.504 -0.054 -2.542 -0 -1.2 0
-0.529 -0.055 -2.669 -0 -1.2 0
-0.552 -0.064 -2.788 -0 -1.2 0
-0.578 -0.069 -2.925 -0 -1.2 0
-0.609 -0.074 -3.082 -0 -1.2 0
-0.644 -0.077 -3.259 -0 -1.2 0
-0.681 -0.085 -3.445 -0 -1.2 0
-0.725 -0.087 -3.671 -0 -1.2 0
-0.767 -0.1 -3.887 -0 -1.2 0
-0.819 -0.109 -4.152 -0 -1.2 0
-0.877 -0.12 -4.447 -0 -1.2 0
-0.941 -0.133 -4.78 -0 -1.2 0
-1.02 -0.146 -5.182 -0 -1.2 0
-1.118 -0.157 -5.682 -0 -1.2 0
-1.233 -0.172 -6.27 -0 -1.2 0
-1.371 -0.192 -6.977 -0 -1.2 0
-1.554 -0.212 -7.908 -0 -1.2 0
-1.792 -0.237 -9.124 -0 -1.2 0
-2.118 -0.272 -10.791 -0 -1.2 0
-2.59 -0.32 -13.204 -0 -1.2 0
-3.984 -0.619 -20.336 -0 -1.2 0
-4.336 -0.969 -22.178 -0 -1.2 0
-0.833 -1.307 -4.375 -0 -1.2 0
-0.832 -1.384 -4.381 -0 -1.2 0
-0.835 -1.464 -4.405 -0 -1.2 0
-0.842 -1.547 -4.448 -0 -1.2 0
-0.271 -0.007 -1.124 -0 -1.2 0
-0.282 0 -1.171 -0 -1.2 0
-0.29 -0.007 -1.204 -0 -1.2 0
-0.301 -0.001 -1.252 -0 -1.2 0
-0.306 -0.017 -1.278 -0 -1.2 0
-0.32 -0.007 -1.334 -0 -1.2 0
-0.327 -0.019 -1.367 -0 -1.2 0
-0.339 -0.019 -1.417 -0 -1.2 0
-0.35 -0.02 -1.466 -0 -1.2 0
-0.362 -0.023 -1.516 -0 -1.2 0
-0.375 -0.022 -1.575 -0 -1.2 0
-0.387 -0.027 -1.625 -0 -1.2 0
-0.401 -0.03 -1.685 -0 -1.2 0
-0.415 -0.034 -1.744 -0 -1.2 0
-0.433 -0.029 -1.821 -0 -1.2 0
-0.449 -0.033 -1.89 -0 -1.2 0
-0.465 -0.038 -1.959 -0 -1.2 0
-0.486 -0.036 -2.046 -0 -1.2 0
-0.508 -0.032 -2.143 -0 -1.2 0
-0.528 -0.036 -2.231 -0 -1.2 0
-0.549 -0.042 -2.32 -0 -1.2 0
-0.574 -0.044 -2.427 -0 -1.2 0
-0.599 -0.049 -2.535 -0 -1.2 0
-0.624 -0.058 -2.643 -0 -1.2 0
-0.655 -0.06 -2.779 -0 -1.2 0
-0.687 -0.067 -2.916 -0 -1.2 0
-0.723 -0.071 -3.072 -0 -1.2 0
-0.764 -0.075 -3.247 -0 -1.2 0
-0.804 -0.085 -3.423 -0 -1.2 0
-0.859 -0.087 -3.656 -0 -1.2 0
-0.913 -0.095 -3.89 -0 -1.2 0
-0.975 -0.104 -4.153 -0 -1.2 0
-1.047 -0.112 -4.465 -0 -1.2 0
-1.126 -0.125 -4.806 -0 -1.2 0
-1.216 -0.141 -5.195 -0 -1.2 0
-1.331 -0.154 -5.691 -0 -1.2 0
-1.474 -0.166 -6.304 -0 -1.2 0
-1.635 -0.19 -6.996 -0 -1.2 0
-1.859 -0.207 -7.959 -0 -1.2 0
-2.146 -0.234 -9.195 -0 -1.2 0
-2.565 -0.261 -10.995 -0 -1.2 0
-3.165 -0.307 -13.575 -0 -1.2 0
-3.933 -0.414 -16.886 -0 -1.2 0
-3.94 -0.715 -16.945 -0 -1.2 0
-4.363 -1.009 -18.791 -0 -1.2 0
-0.317 -0.001 -1.113 -0 -1.2 0
-0.326 -0.008 -1.145 -0 -1.2 0
-0.335 -0.015 -1.178 -0 -1.2 0
-0.348 -0.01 -1.225 -0 -1.2 0
-0.359 -0.012 -1.265 -0 -1.2 0
-0.369 -0.016 -1.306 -0 -1.2 0
-0.383 -0.015 -1.354 -0 -1.2 0
-0.392 -0.027 -1.388 -0 -1.2 0
-0.407 -0.022 -1.445 -0 -1.2 0
-0.421 -0.025 -1.494 -0 -1.2 0
-0.435 -0.029 -1.544 -0 -1.2 0
-0.455 -0.018 -1.618 -0 -1.2 0
-0.469 -0.026 -1.669 -0 -1.2 0
-0.485 -0.031 -1.728 -0 -1.2 0
-0.504 -0.031 -1.796 -0 -1.2 0
-0.521 -0.035 -1.864 -0 -1.2 0
-0.542 -0.035 -1.942 -0 -1.2 0
-0.564 -0.038 -2.019 -0 -1.2 0
-0.59 -0.035 -2.115 -0 -1.2 0
-0.614 -0.039 -2.202 -0 -1.2 0
-0.64 -0.041 -2.299 -0 -1.2 0
-0.665 -0.051 -2.388 -0 -1.2 0
-0.696 -0.052 -2.503 -0 -1.2 0
-0.727 -0.058 -2.619 -0 -1.2 0
-0.764 -0.06 -2.754 -0 -1.2 0
-0.801 -0.067 -2.89 -0 -1.2 0
-0.844 -0.072 -3.044 -0 -1.2 0
-0.89 -0.076 -3.218 -0 -1.2 0
-0.943 -0.081 -3.411 -0 -1.2 0
-1.004 -0.085 -3.632 -0 -1.2 0
-1.061 -0.099 -3.845 -0 -1.2 0
-1.138 -0.104 -4.125 -0 -1.2 0
-1.224 -0.111 -4.443 -0 -1.2 0
-1.316 -0.125 -4.78 -0 -1.2 0
-1.429 -0.137 -5.195 -0 -1.2 0
-1.56 -0.152 -5.677 -0 -1.2 0
-1.719 -0.17 -6.255 -0 -1.2 0
-1.917 -0.189 -6.988 -0 -1.2 0
-2.178 -0.209 -7.942 -0 -1.2 0
-2.528 -0.232 -9.225 -0 -1.2 0
-3.024 -0.261 -11.047 -0 -1.2 0
-3.74 -0.309 -13.669 -0 -1.2 0
-5.505 -0.297 -20.13 -0 -1.2 0
-4.656 -0.729 -17.057 -0 -1.2 0
-5.511 -1.024 -20.216 -0 -1.2 0
-5.476 -1.388 -20.121 -0 -1.2 0
-6.927 -1.924 -25.477 -0 -1.2 0
-7.169 -2.432 -26.406 -0 -1.2 0
-7.151 -2.909 -26.383 -0 -1.2 0
-7.139 -3.387 -26.38 -0 -1.2 0
-7.13 -3.868 -26.388 -0 -1.2 0
-7.116 -4.349 -26.379 -0 -1.2 0
-7.074 -4.816 -26.266 -0 -1.2 0
-7.074 -5.307 -26.306 -0 -1.2 0
-7.084 -5.809 -26.387 -0 -1.2 0
-7.043 -6.278 -26.278 -0 -1.2 0
-7.091 -6.819 -26.502 -0 -1.2 0
-7.091 -7.33 -26.546 -0 -1.2 0
-7.096 -7.85 -26.609 -0 -1.2 0
-7.096 -8.373 -26.652 -0 -1.2 0
-6.988 -9.313 -26.342 -0 -1.2 0
-6.617 -9.384 -24.988 -0 -1.2 0
-0.355 -0.009 -1.089 -0 -1.2 0
-0.367 -0.009 -1.128 -0 -1.2 0
-0.377 -0.017 -1.16 -0 -1.2 0
-0.394 -0.004 -1.214 -0 -1.2 0
-0.404 -0.014 -1.247 -0 -1.2 0
-0.417 -0.018 -1.287 -0 -1.2 0
-0.428 -0.022 -1.327 -0 -1.2 0
-0.444 -0.022 -1.376 -0 -1.2 0
-0.456 -0.03 -1.417 -0 -1.2 0
-0.474 -0.026 -1.473 -0 -1.2 0
-0.492 -0.025 -1.531 -0 -1.2 0
-0.512 -0.02 -1.596 -0 -1.2 0
-0.531 -0.023 -1.654 -0 -1.2 0
-0.546 -0.033 -1.705 -0 -1.2 0
-0.567 -0.033 -1.772 -0 -1.2 0
-0.587 -0.037 -1.84 -0 -1.2 0
-0.615 -0.032 -1.924 -0 -1.2 0
-0.638 -0.036 -2.002 -0 -1.2 0
-0.665 -0.037 -2.088 -0 -1.2 0
-0.694 -0.036 -2.183 -0 -1.2 0
-0.722 -0.044 -2.27 -0 -1.2 0
-0.752 -0.049 -2.366 -0 -1.2 0
-0.784 -0.055 -2.472 -0 -1.2 0
-0.822 -0.057 -2.596 -0 -1.2 0
-0.861 -0.063 -2.721 -0 -1.2 0
-0.903 -0.07 -2.855 -0 -1.2 0
-0.956 -0.069 -3.026 -0 -1.2 0
-1.004 -0.08 -3.18 -0 -1.2 0
-1.066 -0.082 -3.379 -0 -1.2 0
-1.133 -0.086 -3.599 -0 -1.2 0
-1.211 -0.091 -3.847 -0 -1.2 0
-1.289 -0.104 -4.095 -0 -1.2 0
-1.389 -0.11 -4.419 -0 -1.2 0
-1.492 -0.124 -4.755 -0 -1.2 0
-1.614 -0.141 -5.146 -0 -1.2 0
-1.762 -0.156 -5.624 -0 -1.2 0
-1.946 -0.172 -6.215 -0 -1.2 0
-2.176 -0.19 -6.959 -0 -1.2 0
-2.47 -0.212 -7.904 -0 -1.2 0
-2.87 -0.236 -9.192 -0 -1.2 0
-3.46 -0.26 -11.091 -0 -1.2 0
-4.282 -0.311 -13.735 -0 -1.2 0
-6.243 -0.313 -20.044 -0 -1.2 0
-6.602 -0.654 -21.221 -0 -1.2 0
-6.6 -1.042 -21.247 -0 -1.2 0
-6.221 -1.411 -20.053 -0 -1.2 0
-6.605 -1.819 -21.317 -0 -1.2 0
-6.604 -2.211 -21.343 -0 -1.2 0
-6.698 -2.625 -21.676 -0 -1.2 0
-6.704 -3.026 -21.726 -0 -1.2 0
-6.705 -3.43 -21.76 -0 -1.2 0
-6.69 -3.828 -21.74 -0 -1.2 0
-6.626 -4.206 -21.561 -0 -1.2 0
-6.714 -4.658 -21.877 -0 -1.2 0
-6.72 -5.077 -21.93 -0 -1.2 0
-6.727 -5.501 -21.985 -0 -1.2 0
-6.723 -5.922 -22.005 -0 -1.2 0
-6.726 -6.35 -22.044 -0 -1.2 0
-6.732 -6.788 -22.096 -0 -1.2 0
-6.735 -7.228 -22.139 -0 -1.2 0
-6.736 -7.671 -22.175 -0 -1.2 0
-6.743 -8.127 -22.229 -0 -1.2 0
-6.752 -8.592 -22.294 -0 -1.2 0
-6.715 -9.009 -22.205 -0 -1.2 0
-6.547 -9.267 -21.684 -0 -1.2 0
-6.268 -9.362 -20.796 -0 -1.2 0
-0.4 0.002 -1.083 -0 -1.2 0
-0.406 -0.017 -1.101 -0 -1.2 0
-0.422 -0.011 -1.147 -0 -1.2 0
-0.436 -0.013 -1.186 -0 -1.2 0
-0.45 -0.015 -1.226 -0 -1.2 0
-0.464 -0.019 -1.265 -0 -1.2 0
-0.48 -0.018 -1.313 -0 -1.2 0
-0.494 -0.024 -1.353 -0 -1.2 0
-0.508 -0.031 -1.394 -0 -1.2 0
-0.527 -0.028 -1.45 -0 -1.2 0
-0.547 -0.027 -1.506 -0 -1.2 0
-0.567 -0.028 -1.563 -0 -1.2 0
-0.59 -0.025 -1.629 -0 -1.2 0
-0.613 -0.024 -1.695 -0 -1.2 0
-0.637 -0.025 -1.761 -0 -1.2 0
-0.656 -0.034 -1.82 -0 -1.2 0
-0.686 -0.03 -1.904 -0 -1.2 0
-0.71 -0.038 -1.972 -0 -1.2 0
-0.74 -0.039 -2.057 -0 -1.2 0
-0.776 -0.035 -2.159 -0 -1.2 0
-0.806 -0.042 -2.246 -0 -1.2 0
-0.838 -0.048 -2.341 -0 -1.2 0
-0.875 -0.054 -2.445 -0 -1.2 0
-0.921 -0.053 -2.577 -0 -1.2 0
-0.961 -0.063 -2.691 -0 -1.2 0
-1.007 -0.07 -2.824 -0 -1.2 0
-1.063 -0.073 -2.984 -0 -1.2 0
-1.12 -0.08 -3.145 -0 -1.2 0
-1.185 -0.086 -3.335 -0 -1.2 0
-1.267 -0.086 -3.57 -0 -1.2 0
-1.35 -0.092 -3.806 -0 -1.2 0
-1.439 -0.105 -4.061 -0 -1.2 0
-1.54 -0.117 -4.353 -0 -1.2 0
-1.673 -0.122 -4.73 -0 -1.2 0
-1.804 -0.141 -5.108 -0 -1.2 0
-1.969 -0.158 -5.58 -0 -1.2 0
-2.177 -0.174 -6.174 -0 -1.2 0
-2.43 -0.194 -6.901 -0 -1.2 0
-2.772 -0.212 -7.882 -0 -1.2 0
-3.227 -0.236 -9.184 -0 -1.2 0
-3.882 -0.264 -11.061 -0 -1.2 0
-4.835 -0.314 -13.788 -0 -1.2 0
-6.417 -0.393 -18.318 -0 -1.2 0
-6.406 -0.732 -18.31 -0 -1.2 0
-5.15 -1.077 -14.738 -0 -1.2 0
-5.144 -1.349 -14.739 -0 -1.2 0
-5.139 -1.621 -14.744 -0 -1.2 0
-5.193 -1.902 -14.914 -0 -1.2 0
-6.608 -2.473 -19 -0 -1.2 0
-6.601 -2.826 -19.005 -0 -1.2 0
-6.591 -3.179 -18.994 -0 -1.2 0
-6.581 -3.533 -18.989 -0 -1.2 0
-6.572 -3.889 -18.985 -0 -1.2 0
-6.557 -4.243 -18.967 -0 -1.2 0
-6.473 -4.562 -18.747 -0 -1.2 0
-6.474 -4.924 -18.774 -0 -1.2 0
-6.475 -5.29 -18.803 -0 -1.2 0
-6.482 -5.663 -18.844 -0 -1.2 0
-6.447 -6.01 -18.768 -0 -1.2 0
-6.508 -6.435 -18.97 -0 -1.2 0
-6.498 -6.809 -18.964 -0 -1.2 0
-6.5 -7.198 -18.996 -0 -1.2 0
-6.5 -7.59 -19.021 -0 -1.2 0
-6.498 -7.985 -19.039 -0 -1.2 0
-6.493 -8.382 -19.05 -0 -1.2 0
-6.487 -8.786 -19.063 -0 -1.2 0
-6.444 -9.146 -18.962 -0 -1.2 0
-6.177 -9.214 -18.201 -0 -1.2 0
-6.005 -9.386 -17.72 -0 -1.2 0
-0.442 0 -1.06 -0 -1.2 0
-0.452 -0.013 -1.085 -0 -1.2 0
-0.467 -0.013 -1.123 -0 -1.2 0
-0.478 -0.021 -1.155 -0 -1.2 0
-0.496 -0.018 -1.201 -0 -1.2 0
-0.512 -0.022 -1.24 -0 -1.2 0
-0.524 -0.032 -1.272 -0 -1.2 0
-0.543 -0.033 -1.319 -0 -1.2 0
-0.567 -0.022 -1.381 -0 -1.2 0
-0.586 -0.025 -1.429 -0 -1.2 0
-0.605 -0.03 -1.477 -0 -1.2 0
-0.627 -0.031 -1.534 -0 -1.2 0
-0.653 -0.028 -1.598 -0 -1.2 0
-0.677 -0.028 -1.663 -0 -1.2 0
-0.703 -0.029 -1.73 -0 -1.2 0
-0.729 -0.033 -1.796 -0 -1.2 0
-0.755 -0.038 -1.862 -0 -1.2 0
-0.785 -0.042 -1.937 -0 -1.2 0
-0.814 -0.047 -2.013 -0 -1.2 0
-0.854 -0.043 -2.114 -0 -1.2 0
-0.89 -0.047 -2.207 -0 -1.2 0
-0.927 -0.052 -2.301 -0 -1.2 0
-0.975 -0.052 -2.422 -0 -1.2 0
-1.015 -0.061 -2.525 -0 -1.2 0
-1.066 -0.064 -2.656 -0 -1.2 0
-1.118 -0.071 -2.786 -0 -1.2 0
-1.182 -0.072 -2.953 -0 -1.2 0
-1.245 -0.081 -3.112 -0 -1.2 0
-1.314 -0.09 -3.289 -0 -1.2 0
-1.409 -0.086 -3.53 -0 -1.2 0
-1.492 -0.099 -3.746 -0 -1.2 0
-1.602 -0.105 -4.024 -0 -1.2 0
-1.718 -0.116 -4.322 -0 -1.2 0
-1.86 -0.125 -4.685 -0 -1.2 0
-2.006 -0.145 -5.057 -0 -1.2 0
-2.185 -0.165 -5.513 -0 -1.2 0
-2.41 -0.183 -6.091 -0 -1.2 0
-2.698 -0.203 -6.826 -0 -1.2 0
-3.081 -0.222 -7.803 -0 -1.2 0
-3.595 -0.246 -9.115 -0 -1.2 0
-4.272 -0.289 -10.846 -0 -1.2 0
-5.385 -0.333 -13.683 -0 -1.2 0
-4.309 -0.692 -10.961 -0 -1.2 0
-4.314 -0.897 -10.986 -0 -1.2 0
-6.137 -1.102 -15.644 -0 -1.2 0
-6.111 -1.394 -15.598 -0 -1.2 0
-6.212 -1.696 -15.872 -0 -1.2 0
-6.173 -1.99 -15.788 -0 -1.2 0
-6.56 -2.361 -16.795 -0 -1.2 0
-6.555 -2.678 -16.803 -0 -1.2 0
-6.545 -2.995 -16.795 -0 -1.2 0
-6.537 -3.313 -16.792 -0 -1.2 0
-6.53 -3.632 -16.793 -0 -1.2 0
-6.525 -3.954 -16.798 -0 -1.2 0
-6.5 -4.268 -16.751 -0 -1.2 0
-6.306 -4.491 -16.27 -0 -1.2 0
-6.312 -4.816 -16.305 -0 -1.2 0
-6.321 -5.145 -16.345 -0 -1.2 0
-6.317 -5.469 -16.351 -0 -1.2 0
-6.32 -5.803 -16.379 -0 -1.2 0
-6.262 -6.092 -16.249 -0 -1.2 0
-6.45 -6.588 -16.757 -0 -1.2 0
-6.44 -6.929 -16.747 -0 -1.2 0
-6.429 -7.272 -16.741 -0 -1.2 0
-6.42 -7.622 -16.737 -0 -1.2 0
-6.411 -7.977 -16.735 -0 -1.2 0
-6.343 -8.27 -16.58 -0 -1.2 0
-6.33 -8.625 -16.566 -0 -1.2 0
-6.276 -8.933 -16.445 -0 -1.2 0
-6.193 -9.206 -16.249 -0 -1.2 0
-5.907 -9.196 -15.521 -0 -1.2 0
-5.758 -9.353 -15.147 -0 -1.2 0
-0.476 -0.015 -1.025 -0 -1.2 0
-0.495 -0.008 -1.069 -0 -1.2 0
-0.508 -0.016 -1.1 -0 -1.2 0
-0.521 -0.023 -1.131 -0 -1.2 0
-0.54 -0.02 -1.176 -0 -1.2 0
-0.554 -0.03 -1.208 -0 -1.2 0
-0.577 -0.023 -1.261 -0 -1.2 0
-0.597 -0.023 -1.307 -0 -1.2 0
-0.615 -0.031 -1.347 -0 -1.2 0
-0.635 -0.034 -1.394 -0 -1.2 0
-0.658 -0.033 -1.45 -0 -1.2 0
-0.682 -0.034 -1.505 -0 -1.2 0
-0.706 -0.036 -1.561 -0 -1.2 0
-0.734 -0.035 -1.625 -0 -1.2 0
-0.762 -0.037 -1.69 -0 -1.2 0
-0.794 -0.036 -1.763 -0 -1.2 0
-0.822 -0.042 -1.828 -0 -1.2 0
-0.861 -0.036 -1.919 -0 -1.2 0
-0.89 -0.047 -1.985 -0 -1.2 0
-0.933 -0.043 -2.085 -0 -1.2 0
-0.97 -0.051 -2.169 -0 -1.2 0
-1.009 -0.056 -2.261 -0 -1.2 0
-1.057 -0.059 -2.371 -0 -1.2 0
-1.112 -0.058 -2.499 -0 -1.2 0
-1.16 -0.069 -2.61 -0 -1.2 0
-1.22 -0.073 -2.749 -0 -1.2 0
-1.287 -0.077 -2.905 -0 -1.2 0
-1.355 -0.086 -3.061 -0 -1.2 0
-1.43 -0.095 -3.236 -0 -1.2 0
-1.533 -0.092 -3.473 -0 -1.2 0
-1.628 -0.104 -3.693 -0 -1.2 0
-1.735 -0.116 -3.941 -0 -1.2 0
-1.866 -0.125 -4.245 -0 -1.2 0
-2.017 -0.136 -4.593 -0 -1.2 0
-2.179 -0.155 -4.969 -0 -1.2 0
-2.377 -0.174 -5.428 -0 -1.2 0
-2.623 -0.193 -5.997 -0 -1.2 0
-2.944 -0.211 -6.739 -0 -1.2 0
-3.356 -0.234 -7.693 -0 -1.2 0
-3.923 -0.259 -9.005 -0 -1.2 0
-4.681 -0.301 -10.757 -0 -1.2 0
-4.725 -0.499 -10.871 -0 -1.2 0
-4.729 -0.707 -10.889 -0 -1.2 0
-4.739 -0.913 -10.923 -0 -1.2 0
-6.193 -1.126 -14.295 -0 -1.2 0
-6.183 -1.397 -14.285 -0 -1.2 0
-6.182 -1.669 -14.299 -0 -1.2 0
-6.166 -1.94 -14.271 -0 -1.2 0
-6.173 -2.214 -14.304 -0 -1.2 0
-6.183 -2.491 -14.341 -0 -1.2 0
-6.175 -2.766 -14.336 -0 -1.2 0
-6.166 -3.041 -14.329 -0 -1.2 0
-6.158 -3.317 -14.324 -0 -1.2 0
-6.149 -3.593 -14.317 -0 -1.2 0
-6.028 -3.821 -14.05 -0 -1.2 0
-6.139 -4.154 -14.322 -0 -1.2 0
-6.131 -4.436 -14.319 -0 -1.2 0
-6.129 -4.723 -14.328 -0 -1.2 0
-6.121 -5.009 -14.323 -0 -1.2 0
-6.118 -5.301 -14.332 -0 -1.2 0
-6.113 -5.595 -14.335 -0 -1.2 0
-6.117 -5.899 -14.36 -0 -1.2 0
-6.108 -6.195 -14.353 -0 -1.2 0
-6.114 -6.509 -14.384 -0 -1.2 0
-6.115 -6.822 -14.402 -0 -1.2 0
-6.117 -7.141 -14.422 -0 -1.2 0
-6.112 -7.459 -14.428 -0 -1.2 0
-6.116 -7.789 -14.453 -0 -1.2 0
-6.117 -8.124 -14.472 -0 -1.2 0
-6.118 -8.465 -14.492 -0 -1.2 0
-6.02 -8.686 -14.275 -0 -1.2 0
-5.882 -8.85 -13.965 -0 -1.2 0
-5.693 -8.934 -13.532 -0 -1.2 0
-5.808 -9.442 -13.826 -0 -1.2 0
-0.513 -0.017 -1.001 -0 -1.2 0
-0.53 -0.017 -1.038 -0 -1.2 0
-0.548 -0.018 -1.075 -0 -1.2 0
-0.566 -0.02 -1.112 -0 -1.2 0
-0.584 -0.022 -1.15 -0 -1.2 0
-0.602 -0.026 -1.188 -0 -1.2 0
-0.62 -0.031 -1.226 -0 -1.2 0
-0.642 -0.031 -1.272 -0 -1.2 0
-0.663 -0.033 -1.318 -0 -1.2 0
-0.688 -0.03 -1.372 -0 -1.2 0
-0.707 -0.041 -1.411 -0 -1.2 0
-0.737 -0.037 -1.473 -0 -1.2 0
-0.763 -0.039 -1.528 -0 -1.2 0
-0.793 -0.038 -1.591 -0 -1.2 0
-0.827 -0.035 -1.662 -0 -1.2 0
-0.853 -0.044 -1.718 -0 -1.2 0
-0.888 -0.045 -1.791 -0 -1.2 0
-0.926 -0.044 -1.872 -0 -1.2 0
-0.961 -0.05 -1.945 -0 -1.2 0
-1.003 -0.05 -2.036 -0 -1.2 0
-1.047 -0.054 -2.126 -0 -1.2 0
-1.094 -0.057 -2.226 -0 -1.2 0
-1.141 -0.063 -2.326 -0 -1.2 0
-1.193 -0.069 -2.435 -0 -1.2 0
-1.257 -0.069 -2.569 -0 -1.2 0
-1.321 -0.074 -2.705 -0 -1.2 0
-1.386 -0.084 -2.841 -0 -1.2 0
-1.467 -0.088 -3.012 -0 -1.2 0
-1.544 -0.101 -3.177 -0 -1.2 0
-1.656 -0.098 -3.41 -0 -1.2 0
-1.762 -0.107 -3.636 -0 -1.2 0
-1.882 -0.118 -3.888 -0 -1.2 0
-2.015 -0.132 -4.169 -0 -1.2 0
-2.174 -0.146 -4.503 -0 -1.2 0
-2.354 -0.163 -4.882 -0 -1.2 0
-2.559 -0.186 -5.317 -0 -1.2 0
-2.838 -0.202 -5.903 -0 -1.2 0
-3.177 -0.224 -6.616 -0 -1.2 0
-3.617 -0.248 -7.546 -0 -1.2 0
-4.225 -0.276 -8.827 -0 -1.2 0
-5.026 -0.323 -10.516 -0 -1.2 0
-5.196 -0.507 -10.88 -0 -1.2 0
-5.161 -0.72 -10.817 -0 -1.2 0
-6.542 -0.882 -13.731 -0 -1.2 0
-5.174 -1.139 -10.862 -0 -1.2 0
-5.187 -1.349 -10.898 -0 -1.2 0
-6.55 -1.68 -13.784 -0 -1.2 0
-6.544 -1.947 -13.783 -0 -1.2 0
-6.536 -2.214 -13.779 -0 -1.2 0
-6.527 -2.481 -13.771 -0 -1.2 0
-6.528 -2.751 -13.785 -0 -1.2 0
-6.514 -3.019 -13.768 -0 -1.2 0
-6.275 -3.211 -13.273 -0 -1.2 0
-6.127 -3.419 -12.971 -0 -1.2 0
-6.092 -3.663 -12.909 -0 -1.2 0
-5.918 -3.843 -12.548 -0 -1.2 0
-6.154 -4.218 -13.063 -0 -1.2 0
-6.116 -4.464 -12.997 -0 -1.2 0
-6.35 -4.871 -13.505 -0 -1.2 0
-6.344 -5.149 -13.507 -0 -1.2 0
-6.333 -5.426 -13.496 -0 -1.2 0
-6.324 -5.706 -13.488 -0 -1.2 0
-6.311 -5.988 -13.476 -0 -1.2 0
-6.306 -6.277 -13.476 -0 -1.2 0
-6.293 -6.563 -13.462 -0 -1.2 0
-6.172 -6.753 -13.216 -0 -1.2 0
-6.167 -7.048 -13.219 -0 -1.2 0
-6.172 -7.357 -13.243 -0 -1.2 0
-6.258 -7.759 -13.442 -0 -1.2 0
-6.244 -8.063 -13.427 -0 -1.2 0
-6.145 -8.272 -13.228 -0 -1.2 0
-6.124 -8.571 -13.195 -0 -1.2 0
-5.937 -8.663 -12.806 -0 -1.2 0
-5.765 -8.763 -12.45 -0 -1.2 0
-5.612 -8.876 -12.132 -0 -1.2 0
-0.558 -0.012 -0.981 -0 -1.2 0
-0.573 -0.019 -1.01 -0 -1.2 0
-0.588 -0.027 -1.04 -0 -1.2 0
-0.611 -0.022 -1.084 -0 -1.2 0
-0.63 -0.025 -1.121 -0 -1.2 0
-0.65 -0.029 -1.158 -0 -1.2 0
-0.673 -0.028 -1.202 -0 -1.2 0
-0.692 -0.034 -1.24 -0 -1.2 0
-0.716 -0.036 -1.285 -0 -1.2 0
-0.74 -0.039 -1.331 -0 -1.2 0
-0.764 -0.044 -1.377 -0 -1.2 0
-0.796 -0.04 -1.437 -0 -1.2 0
-0.824 -0.042 -1.491 -0 -1.2 0
-0.856 -0.041 -1.553 -0 -1.2 0
-0.889 -0.043 -1.616 -0 -1.2 0
-0.926 -0.043 -1.687 -0 -1.2 0
-0.959 -0.048 -1.75 -0 -1.2 0
-0.995 -0.052 -1.821 -0 -1.2 0
-1.037 -0.054 -1.901 -0 -1.2 0
-1.084 -0.054 -1.99 -0 -1.2 0
-1.131 -0.058 -2.078 -0 -1.2 0
-1.181 -0.061 -2.176 -0 -1.2 0
-1.232 -0.067 -2.274 -0 -1.2 0
-1.288 -0.074 -2.382 -0 -1.2 0
-1.348 -0.082 -2.497 -0 -1.2 0
-1.422 -0.083 -2.639 -0 -1.2 0
-1.501 -0.087 -2.789 -0 -1.2 0
-1.584 -0.094 -2.948 -0 -1.2 0
-1.668 -0.107 -3.109 -0 -1.2 0
-1.787 -0.104 -3.338 -0 -1.2 0
-1.903 -0.114 -3.56 -0 -1.2 0
-2.018 -0.132 -3.782 -0 -1.2 0
-2.171 -0.142 -4.075 -0 -1.2 0
-2.347 -0.154 -4.411 -0 -1.2 0
-2.527 -0.177 -4.757 -0 -1.2 0
-2.768 -0.194 -5.218 -0 -1.2 0
-3.059 -0.214 -5.776 -0 -1.2 0
-3.432 -0.234 -6.493 -0 -1.2 0
-3.918 -0.259 -7.423 -0 -1.2 0
-4.542 -0.295 -8.618 -0 -1.2 0
-5.393 -0.346 -10.249 -0 -1.2 0
-5.126 -0.575 -9.747 -0 -1.2 0
-5.131 -0.768 -9.764 -0 -1.2 0
-5.996 -0.937 -11.427 -0 -1.2 0
-6.007 -1.162 -11.457 -0 -1.2 0
-6.001 -1.387 -11.455 -0 -1.2 0
-5.999 -1.614 -11.461 -0 -1.2 0
-6.004 -1.841 -11.479 -0 -1.2 0
-5.92 -2.055 -11.327 -0 -1.2 0
-6.092 -2.315 -11.666 -0 -1.2 0
-6.091 -2.548 -11.673 -0 -1.2 0
-6.093 -2.783 -11.687 -0 -1.2 0
-6.08 -3.015 -11.669 -0 -1.2 0
-6.041 -3.237 -11.604 -0 -1.2 0
-6.029 -3.47 -11.59 -0 -1.2 0
-6.072 -3.726 -11.683 -0 -1.2 0
-6.082 -3.972 -11.713 -0 -1.2 0
-6.086 -4.219 -11.729 -0 -1.2 0
-6.087 -4.466 -11.741 -0 -1.2 0
-6.086 -4.715 -11.75 -0 -1.2 0
-6.088 -4.969 -11.762 -0 -1.2 0
-6.087 -5.223 -11.77 -0 -1.2 0
-6.088 -5.482 -11.782 -0 -1.2 0
-6.091 -5.745 -11.8 -0 -1.2 0
-6.096 -6.015 -11.82 -0 -1.2 0
-6.085 -6.276 -11.81 -0 -1.2 0
-6.094 -6.556 -11.837 -0 -1.2 0
-6.091 -6.831 -11.843 -0 -1.2 0
-6.09 -7.112 -11.852 -0 -1.2 0
-6.094 -7.404 -11.872 -0 -1.2 0
-6.091 -7.694 -11.878 -0 -1.2 0
-6.094 -7.994 -11.895 -0 -1.2 0
-6.066 -8.264 -11.851 -0 -1.2 0
-6.051 -8.555 -11.834 -0 -1.2 0
-5.884 -8.655 -11.519 -0 -1.2 0
-5.702 -8.725 -11.174 -0 -1.2 0
-5.575 -8.857 -10.935 -0 -1.2 0
-5.447 -8.982 -10.697 -0 -1.2 0
-0.587 -0.028 -0.941 -0 -1.2 0
-0.61 -0.021 -0.982 -0 -1.2 0
-0.627 -0.029 -1.012 -0 -1.2 0
-0.651 -0.024 -1.054 -0 -1.2 0
-0.672 -0.027 -1.09 -0 -1.2 0
-0.688 -0.037 -1.12 -0 -1.2 0
-0.713 -0.036 -1.164 -0 -1.2 0
-0.738 -0.036 -1.208 -0 -1.2 0
-0.76 -0.044 -1.245 -0 -1.2 0
-0.789 -0.041 -1.297 -0 -1.2 0
-0.819 -0.041 -1.349 -0 -1.2 0
-0.844 -0.047 -1.395 -0 -1.2 0
-0.878 -0.045 -1.455 -0 -1.2 0
-0.913 -0.044 -1.515 -0 -1.2 0
-0.943 -0.051 -1.569 -0 -1.2 0
-0.983 -0.051 -1.638 -0 -1.2 0
-1.017 -0.056 -1.7 -0 -1.2 0
-1.066 -0.05 -1.785 -0 -1.2 0
-1.102 -0.061 -1.848 -0 -1.2 0
-1.155 -0.058 -1.943 -0 -1.2 0
-1.205 -0.062 -2.03 -0 -1.2 0
-1.26 -0.065 -2.126 -0 -1.2 0
-1.314 -0.071 -2.222 -0 -1.2 0
-1.378 -0.075 -2.335 -0 -1.2 0
-1.442 -0.082 -2.449 -0 -1.2 0
-1.517 -0.088 -2.58 -0 -1.2 0
-1.595 -0.094 -2.719 -0 -1.2 0
-1.68 -0.104 -2.867 -0 -1.2 0
-1.783 -0.109 -3.049 -0 -1.2 0
-1.906 -0.11 -3.266 -0 -1.2 0
-2.029 -0.12 -3.483 -0 -1.2 0
-2.158 -0.136 -3.71 -0 -1.2 0
-2.32 -0.147 -3.997 -0 -1.2 0
-2.503 -0.161 -4.318 -0 -1.2 0
-2.705 -0.182 -4.675 -0 -1.2 0
-2.971 -0.196 -5.144 -0 -1.2 0
-3.277 -0.22 -5.682 -0 -1.2 0
-3.662 -0.245 -6.36 -0 -1.2 0
-4.11 -0.285 -7.152 -0 -1.2 0
-4.109 -0.43 -7.156 -0 -1.2 0
-4.122 -0.573 -7.183 -0 -1.2 0
-4.095 -0.721 -7.139 -0 -1.2 0
-5.908 -0.758 -10.334 -0 -1.2 0
-5.913 -0.966 -10.348 -0 -1.2 0
-5.91 -1.175 -10.351 -0 -1.2 0
-5.911 -1.383 -10.358 -0 -1.2 0
-5.909 -1.591 -10.363 -0 -1.2 0
-5.91 -1.801 -10.373 -0 -1.2 0
-5.846 -2.001 -10.268 -0 -1.2 0
-6.266 -2.289 -11.017 -0 -1.2 0
-6.466 -2.559 -11.38 -0 -1.2 0
-6.381 -2.77 -11.237 -0 -1.2 0
-6.455 -3.023 -11.375 -0 -1.2 0
-6.444 -3.254 -11.364 -0 -1.2 0
-6.377 -3.466 -11.254 -0 -1.2 0
-6.329 -3.682 -11.176 -0 -1.2 0
-6.427 -3.962 -11.358 -0 -1.2 0
-6.417 -4.199 -11.35 -0 -1.2 0
-6.091 -4.273 -10.779 -0 -1.2 0
-5.993 -4.451 -10.613 -0 -1.2 0
-5.994 -4.683 -10.622 -0 -1.2 0
-5.991 -4.917 -10.626 -0 -1.2 0
-5.991 -5.155 -10.634 -0 -1.2 0
-5.994 -5.397 -10.647 -0 -1.2 0
-5.993 -5.641 -10.655 -0 -1.2 0
-6 -5.895 -10.677 -0 -1.2 0
-5.914 -6.074 -10.531 -0 -1.2 0
-6.301 -6.669 -11.234 -0 -1.2 0
-6.28 -6.922 -11.206 -0 -1.2 0
-6.288 -7.205 -11.228 -0 -1.2 0
-6.274 -7.473 -11.213 -0 -1.2 0
-6.292 -7.779 -11.257 -0 -1.2 0
-6.286 -8.066 -11.256 -0 -1.2 0
-6.171 -8.231 -11.059 -0 -1.2 0
-5.963 -8.28 -10.694 -0 -1.2 0
-5.955 -8.566 -10.691 -0 -1.2 0
-5.788 -8.65 -10.4 -0 -1.2 0
-5.606 -8.702 -10.081 -0 -1.2 0
-5.532 -8.897 -9.958 -0 -1.2 0
-5.351 -8.934 -9.64 -0 -1.2 0
-0.627 -0.023 -0.919 -0 -1.2 0
-0.648 -0.023 -0.954 -0 -1.2 0
-0.666 -0.031 -0.982 -0 -1.2 0
-0.688 -0.032 -1.017 -0 -1.2 0
-0.714 -0.029 -1.06 -0 -1.2 0
-0.731 -0.039 -1.09 -0 -1.2 0
-0.758 -0.038 -1.132 -0 -1.2 0
-0.788 -0.032 -1.182 -0 -1.2 0
-0.815 -0.035 -1.225 -0 -1.2 0
-0.838 -0.044 -1.262 -0 -1.2 0
-0.864 -0.049 -1.306 -0 -1.2 0
-0.901 -0.045 -1.364 -0 -1.2 0
-0.937 -0.042 -1.423 -0 -1.2 0
-0.969 -0.047 -1.475 -0 -1.2 0
-1.007 -0.049 -1.536 -0 -1.2 0
-1.043 -0.053 -1.597 -0 -1.2 0
-1.09 -0.05 -1.672 -0 -1.2 0
-1.137 -0.05 -1.748 -0 -1.2 0
-1.17 -0.064 -1.802 -0 -1.2 0
-1.222 -0.066 -1.887 -0 -1.2 0
-1.28 -0.066 -1.98 -0 -1.2 0
-1.337 -0.068 -2.074 -0 -1.2 0
-1.4 -0.072 -2.176 -0 -1.2 0
-1.453 -0.086 -2.263 -0 -1.2 0
-1.532 -0.086 -2.39 -0 -1.2 0
-1.605 -0.095 -2.51 -0 -1.2 0
-1.699 -0.096 -2.663 -0 -1.2 0
-1.798 -0.101 -2.824 -0 -1.2 0
-1.898 -0.112 -2.986 -0 -1.2 0
-2.023 -0.116 -3.191 -0 -1.2 0
-2.149 -0.128 -3.395 -0 -1.2 0
-2.296 -0.14 -3.633 -0 -1.2 0
-2.463 -0.153 -3.906 -0 -1.2 0
-2.663 -0.167 -4.23 -0 -1.2 0
-2.887 -0.184 -4.595 -0 -1.2 0
-3.17 -0.2 -5.055 -0 -1.2 0
-3.474 -0.23 -5.549 -0 -1.2 0
-3.897 -0.253 -6.238 -0 -1.2 0
-4.441 -0.281 -7.123 -0 -1.2 0
-4.797 -0.375 -7.703 -0 -1.2 0
-4.649 -0.552 -7.469 -0 -1.2 0
-4.772 -0.696 -7.672 -0 -1.2 0
-4.715 -0.858 -7.585 -0 -1.2 0
-4.72 -1.013 -7.597 -0 -1.2 0
-5.835 -1.185 -9.413 -0 -1.2 0
-5.829 -1.378 -9.412 -0 -1.2 0
-5.839 -1.573 -9.434 -0 -1.2 0
-5.832 -1.767 -9.426 -0 -1.2 0
-5.796 -1.956 -9.375 -0 -1.2 0
-5.836 -2.158 -9.447 -0 -1.2 0
-6.01 -2.393 -9.736 -0 -1.2 0
-6.01 -2.597 -9.743 -0 -1.2 0
-5.998 -2.798 -9.729 -0 -1.2 0
-5.995 -3.002 -9.73 -0 -1.2 0
-5.983 -3.206 -9.718 -0 -1.2 0
-5.981 -3.413 -9.721 -0 -1.2 0
-5.971 -3.619 -9.712 -0 -1.2 0
-5.97 -3.829 -9.717 -0 -1.2 0
-5.957 -4.036 -9.701 -0 -1.2 0
-5.946 -4.245 -9.69 -0 -1.2 0
-5.924 -4.449 -9.661 -0 -1.2 0
-5.924 -4.667 -9.668 -0 -1.2 0
-5.927 -4.891 -9.68 -0 -1.2 0
-5.923 -5.112 -9.681 -0 -1.2 0
-5.922 -5.338 -9.685 -0 -1.2 0
-5.923 -5.568 -9.694 -0 -1.2 0
-5.921 -5.801 -9.699 -0 -1.2 0
-5.856 -5.983 -9.599 -0 -1.2 0
-5.907 -6.266 -9.69 -0 -1.2 0
-5.912 -6.514 -9.706 -0 -1.2 0
-5.919 -6.771 -9.725 -0 -1.2 0
-5.91 -7.015 -9.717 -0 -1.2 0
-5.91 -7.275 -9.727 -0 -1.2 0
-5.913 -7.541 -9.741 -0 -1.2 0
-5.913 -7.811 -9.749 -0 -1.2 0
-5.914 -8.088 -9.759 -0 -1.2 0
-5.872 -8.318 -9.698 -0 -1.2 0
-5.858 -8.587 -9.685 -0 -1.2 0
-5.676 -8.637 -9.39 -0 -1.2 0
-5.528 -8.723 -9.152 -0 -1.2 0
-5.422 -8.861 -8.984 -0 -1.2 0
-5.27 -8.928 -8.739 -0 -1.2 0
-0.661 -0.032 -0.882 -0 -1.2 0
-0.688 -0.025 -0.922 -0 -1.2 0
-0.707 -0.033 -0.95 -0 -1.2 0
-0.734 -0.028 -0.99 -0 -1.2 0
-0.758 -0.031 -1.025 -0 -1.2 0
-0.78 -0.035 -1.06 -0 -1.2 0
-0.808 -0.035 -1.102 -0 -1.2 0
-0.836 -0.035 -1.144 -0 -1.2 0
-0.87 -0.031 -1.193 -0 -1.2 0
-0.894 -0.041 -1.229 -0 -1.2 0
-0.922 -0.046 -1.273 -0 -1.2 0
-0.956 -0.047 -1.323 -0 -1.2 0
-0.994 -0.045 -1.38 -0 -1.2 0
-1.033 -0.045 -1.438 -0 -1.2 0
-1.078 -0.042 -1.504 -0 -1.2 0
-1.112 -0.052 -1.555 -0 -1.2 0
-1.156 -0.053 -1.622 -0 -1.2 0
-1.196 -0.062 -1.682 -0 -1.2 0
-1.251 -0.059 -1.765 -0 -1.2 0
-1.297 -0.069 -1.833 -0 -1.2 0
-1.357 -0.069 -1.923 -0 -1.2 0
-1.418 -0.072 -2.015 -0 -1.2 0
-1.479 -0.079 -2.107 -0 -1.2 0
-1.547 -0.086 -2.208 -0 -1.2 0
-1.619 -0.095 -2.316 -0 -1.2 0
-1.713 -0.093 -2.456 -0 -1.2 0
-1.807 -0.098 -2.598 -0 -1.2 0
-1.907 -0.106 -2.747 -0 -1.2 0
-2.019 -0.114 -2.913 -0 -1.2 0
-2.152 -0.119 -3.113 -0 -1.2 0
-2.291 -0.13 -3.32 -0 -1.2 0
-2.44 -0.144 -3.546 -0 -1.2 0
-2.618 -0.158 -3.811 -0 -1.2 0
-2.829 -0.172 -4.127 -0 -1.2 0
-3.079 -0.188 -4.501 -0 -1.2 0
-3.368 -0.208 -4.933 -0 -1.2 0
-3.689 -0.239 -5.415 -0 -1.2 0
-4.139 -0.263 -6.088 -0 -1.2 0
-4.727 -0.291 -6.968 -0 -1.2 0
-5.521 -0.327 -8.156 -0 -1.2 0
-4.959 -0.562 -7.321 -0 -1.2 0
-4.961 -0.717 -7.33 -0 -1.2 0
-5.802 -0.832 -8.59 -0 -1.2 0
-5.796 -1.014 -8.586 -0 -1.2 0
-4.921 -1.182 -7.282 -0 -1.2 0
-5.8 -1.376 -8.603 -0 -1.2 0
-5.806 -1.559 -8.616 -0 -1.2 0
-5.804 -1.741 -8.617 -0 -1.2 0
-5.794 -1.923 -8.609 -0 -1.2 0
-5.75 -2.099 -8.548 -0 -1.2 0
-6.139 -2.361 -9.137 -0 -1.2 0
-6.135 -2.556 -9.135 -0 -1.2 0
-6.129 -2.751 -9.131 -0 -1.2 0
-6.131 -2.95 -9.14 -0 -1.2 0
-6.121 -3.146 -9.131 -0 -1.2 0
-6.124 -3.348 -9.142 -0 -1.2 0
-6.115 -3.547 -9.133 -0 -1.2 0
-6.137 -3.76 -9.172 -0 -1.2 0
-6.139 -3.967 -9.182 -0 -1.2 0
-6.151 -4.181 -9.204 -0 -1.2 0
-5.911 -4.264 -8.848 -0 -1.2 0
-5.867 -4.444 -8.787 -0 -1.2 0
-5.873 -4.653 -8.802 -0 -1.2 0
-5.877 -4.865 -8.813 -0 -1.2 0
-5.878 -5.078 -8.821 -0 -1.2 0
-5.877 -5.292 -8.826 -0 -1.2 0
-5.875 -5.507 -8.828 -0 -1.2 0
-5.879 -5.733 -8.841 -0 -1.2 0
-5.861 -5.942 -8.819 -0 -1.2 0
-5.826 -6.139 -8.772 -0 -1.2 0
-6.345 -6.84 -9.566 -0 -1.2 0
-6.173 -6.934 -9.313 -0 -1.2 0
-6.33 -7.344 -9.559 -0 -1.2 0
-6.223 -7.499 -9.403 -0 -1.2 0
-6.134 -7.67 -9.275 -0 -1.2 0
-6.286 -8.11 -9.515 -0 -1.2 0
-6.113 -8.19 -9.259 -0 -1.2 0
-5.891 -8.2 -8.926 -0 -1.2 0
-5.832 -8.404 -8.844 -0 -1.2 0
-5.78 -8.616 -8.772 -0 -1.2 0
-5.572 -8.622 -8.461 -0 -1.2 0
-5.475 -8.767 -8.319 -0 -1.2 0
-5.328 -8.84 -8.103 -0 -1.2 0
-5.222 -8.965 -7.946 -0 -1.2 0
-0.699 -0.026 -0.858 -0 -1.2 0
-0.723 -0.026 -0.891 -0 -1.2 0
-0.743 -0.034 -0.918 -0 -1.2 0
-0.776 -0.023 -0.964 -0 -1.2 0
-0.796 -0.033 -0.991 -0 -1.2 0
-0.825 -0.03 -1.033 -0 -1.2 0
-0.849 -0.036 -1.067 -0 -1.2 0
-0.879 -0.036 -1.108 -0 -1.2 0
-0.909 -0.039 -1.149 -0 -1.2 0
-0.944 -0.037 -1.198 -0 -1.2 0
-0.969 -0.048 -1.233 -0 -1.2 0
-1.009 -0.043 -1.289 -0 -1.2 0
-1.045 -0.047 -1.338 -0 -1.2 0
-1.081 -0.052 -1.388 -0 -1.2 0
-1.132 -0.044 -1.459 -0 -1.2 0
-1.168 -0.054 -1.51 -0 -1.2 0
-1.216 -0.055 -1.575 -0 -1.2 0
-1.267 -0.055 -1.647 -0 -1.2 0
-1.31 -0.066 -1.706 -0 -1.2 0
-1.374 -0.063 -1.795 -0 -1.2 0
-1.427 -0.072 -1.869 -0 -1.2 0
-1.491 -0.075 -1.958 -0 -1.2 0
-1.556 -0.082 -2.048 -0 -1.2 0
-1.627 -0.089 -2.145 -0 -1.2 0
-1.713 -0.09 -2.267 -0 -1.2 0
-1.802 -0.096 -2.388 -0 -1.2 0
-1.901 -0.101 -2.527 -0 -1.2 0
-2.011 -0.107 -2.68 -0 -1.2 0
-2.133 -0.112 -2.851 -0 -1.2 0
-2.268 -0.12 -3.037 -0 -1.2 0
-2.408 -0.134 -3.232 -0 -1.2 0
-2.578 -0.145 -3.467 -0 -1.2 0
-2.748 -0.165 -3.704 -0 -1.2 0
-2.98 -0.175 -4.028 -0 -1.2 0
-3.243 -0.191 -4.392 -0 -1.2 0
-3.558 -0.209 -4.83 -0 -1.2 0
-3.902 -0.24 -5.309 -0 -1.2 0
-4.364 -0.267 -5.949 -0 -1.2 0
-5.006 -0.294 -6.84 -0 -1.2 0
-5.035 -0.439 -6.884 -0 -1.2 0
-5.121 -0.58 -7.008 -0 -1.2 0
-5.129 -0.732 -7.023 -0 -1.2 0
-5.757 -0.857 -7.896 -0 -1.2 0
-5.751 -1.028 -7.892 -0 -1.2 0
-5.748 -1.199 -7.893 -0 -1.2 0
-5.751 -1.37 -7.9 -0 -1.2 0
-5.763 -1.542 -7.921 -0 -1.2 0
-5.755 -1.713 -7.914 -0 -1.2 0
-5.758 -1.887 -7.922 -0 -1.2 0
-5.678 -2.046 -7.815 -0 -1.2 0
-5.828 -2.247 -8.028 -0 -1.2 0
-5.831 -2.424 -8.036 -0 -1.2 0
-5.832 -2.603 -8.042 -0 -1.2 0
-5.831 -2.782 -8.044 -0 -1.2 0
-5.828 -2.961 -8.045 -0 -1.2 0
-5.829 -3.142 -8.05 -0 -1.2 0
-5.828 -3.325 -8.054 -0 -1.2 0
-5.819 -3.506 -8.046 -0 -1.2 0
-5.82 -3.691 -8.052 -0 -1.2 0
-5.813 -3.876 -8.046 -0 -1.2 0
-5.81 -4.064 -8.047 -0 -1.2 0
-5.805 -4.252 -8.043 -0 -1.2 0
-5.803 -4.444 -8.046 -0 -1.2 0
-5.805 -4.641 -8.052 -0 -1.2 0
-5.809 -4.842 -8.063 -0 -1.2 0
-5.811 -5.044 -8.071 -0 -1.2 0
-5.816 -5.253 -8.084 -0 -1.2 0
-5.813 -5.459 -8.085 -0 -1.2 0
-5.809 -5.666 -8.082 -0 -1.2 0
-5.806 -5.878 -8.084 -0 -1.2 0
-5.812 -6.1 -8.097 -0 -1.2 0
-5.809 -6.32 -8.099 -0 -1.2 0
-5.799 -6.537 -8.089 -0 -1.2 0
-5.806 -6.775 -8.105 -0 -1.2 0
-5.81 -7.015 -8.117 -0 -1.2 0
-5.811 -7.257 -8.123 -0 -1.2 0
-5.808 -7.5 -8.126 -0 -1.2 0
-5.812 -7.758 -8.137 -0 -1.2 0
-5.808 -8.011 -8.138 -0 -1.2 0
-5.763 -8.22 -8.08 -0 -1.2 0
-5.766 -8.494 -8.091 -0 -1.2 0
-5.656 -8.624 -7.941 -0 -1.2 0
-5.442 -8.606 -7.643 -0 -1.2 0
-5.402 -8.827 -7.594 -0 -1.2 0
-5.225 -8.846 -7.348 -0 -1.2 0
-0.733 -0.027 -0.826 -0 -1.2 0
-0.758 -0.027 -0.858 -0 -1.2 0
-0.779 -0.035 -0.885 -0 -1.2 0
-0.813 -0.024 -0.93 -0 -1.2 0
-0.839 -0.027 -0.963 -0 -1.2 0
-0.865 -0.031 -0.997 -0 -1.2 0
-0.895 -0.032 -1.036 -0 -1.2 0
-0.931 -0.026 -1.082 -0 -1.2 0
-0.958 -0.034 -1.117 -0 -1.2 0
-0.99 -0.039 -1.157 -0 -1.2 0
-1.016 -0.049 -1.192 -0 -1.2 0
-1.053 -0.051 -1.24 -0 -1.2 0
-1.101 -0.043 -1.301 -0 -1.2 0
-1.139 -0.049 -1.35 -0 -1.2 0
-1.181 -0.051 -1.405 -0 -1.2 0
-1.225 -0.056 -1.461 -0 -1.2 0
-1.274 -0.057 -1.525 -0 -1.2 0
-1.329 -0.057 -1.596 -0 -1.2 0
-1.379 -0.064 -1.66 -0 -1.2 0
-1.44 -0.065 -1.739 -0 -1.2 0
-1.501 -0.069 -1.819 -0 -1.2 0
-1.569 -0.073 -1.906 -0 -1.2 0
-1.636 -0.081 -1.993 -0 -1.2 0
-1.711 -0.089 -2.088 -0 -1.2 0
-1.796 -0.092 -2.2 -0 -1.2 0
-1.893 -0.096 -2.325 -0 -1.2 0
-1.998 -0.102 -2.46 -0 -1.2 0
-2.108 -0.11 -2.602 -0 -1.2 0
-2.236 -0.115 -2.768 -0 -1.2 0
-2.383 -0.121 -2.957 -0 -1.2 0
-2.53 -0.135 -3.148 -0 -1.2 0
-2.702 -0.149 -3.368 -0 -1.2 0
-2.903 -0.161 -3.629 -0 -1.2 0
-3.142 -0.174 -3.937 -0 -1.2 0
-3.418 -0.191 -4.293 -0 -1.2 0
-3.747 -0.21 -4.72 -0 -1.2 0
-4.127 -0.237 -5.209 -0 -1.2 0
-4.604 -0.268 -5.826 -0 -1.2 0
-5.301 -0.292 -6.725 -0 -1.2 0
-5.161 -0.46 -6.548 -0 -1.2 0
-5.104 -0.613 -6.479 -0 -1.2 0
-5.181 -0.752 -6.58 -0 -1.2 0
-5.709 -0.878 -7.264 -0 -1.2 0
-5.704 -1.04 -7.26 -0 -1.2 0
-5.707 -1.202 -7.268 -0 -1.2 0
-5.704 -1.363 -7.267 -0 -1.2 0
-5.717 -1.526 -7.288 -0 -1.2 0
-5.71 -1.688 -7.281 -0 -1.2 0
-5.714 -1.852 -7.29 -0 -1.2 0
-5.63 -2.003 -7.185 -0 -1.2 0
-5.776 -2.192 -7.378 -0 -1.2 0
-5.781 -2.361 -7.386 -0 -1.2 0
-5.776 -2.528 -7.384 -0 -1.2 0
-5.782 -2.698 -7.396 -0 -1.2 0
-5.775 -2.866 -7.39 -0 -1.2 0
-5.772 -3.036 -7.389 -0 -1.2 0
-5.779 -3.211 -7.401 -0 -1.2 0
-5.771 -3.382 -7.395 -0 -1.2 0
-5.774 -3.559 -7.402 -0 -1.2 0
-5.769 -3.733 -7.399 -0 -1.2 0
-5.768 -3.912 -7.401 -0 -1.2 0
-5.764 -4.091 -7.4 -0 -1.2 0
-5.77 -4.278 -7.412 -0 -1.2 0
-5.762 -4.458 -7.405 -0 -1.2 0
-5.764 -4.647 -7.411 -0 -1.2 0
-5.763 -4.837 -7.414 -0 -1.2 0
-5.76 -5.027 -7.414 -0 -1.2 0
-5.76 -5.223 -7.419 -0 -1.2 0
-5.758 -5.42 -7.42 -0 -1.2 0
-5.759 -5.623 -7.424 -0 -1.2 0
-5.751 -5.823 -7.419 -0 -1.2 0
-5.753 -6.033 -7.424 -0 -1.2 0
-5.756 -6.249 -7.433 -0 -1.2 0
-5.756 -6.468 -7.439 -0 -1.2 0
-5.754 -6.688 -7.44 -0 -1.2 0
-5.759 -6.92 -7.45 -0 -1.2 0
-5.755 -7.148 -7.451 -0 -1.2 0
-5.754 -7.384 -7.454 -0 -1.2 0
-5.75 -7.622 -7.452 -0 -1.2 0
-5.751 -7.873 -7.46 -0 -1.2 0
-5.749 -8.127 -7.462 -0 -1.2 0
-5.709 -8.34 -7.416 -0 -1.2 0
-5.682 -8.571 -7.386 -0 -1.2 0
-5.502 -8.6 -7.153 -0 -1.2 0
-5.369 -8.685 -6.983 -0 -1.2 0
-5.267 -8.811 -6.855 -0 -1.2 0
-5.139 -8.895 -6.69 -0 -1.2 0
-0.768 -0.028 -0.793 -0 -1.2 0
-0.789 -0.035 -0.818 -0 -1.2 0
-0.815 -0.037 -0.85 -0 -1.2 0
-0.856 -0.018 -0.898 -0 -1.2 0
-0.874 -0.035 -0.919 -0 -1.2 0
-0.906 -0.033 -0.957 -0 -1.2 0
-0.938 -0.033 -0.996 -0 -1.2 0
-0.97 -0.033 -1.035 -0 -1.2 0
-1.003 -0.036 -1.074 -0 -1.2 0
-1.042 -0.035 -1.12 -0 -1.2 0
-1.075 -0.04 -1.159 -0 -1.2 0
-1.108 -0.047 -1.199 -0 -1.2 0
-1.153 -0.045 -1.253 -0 -1.2 0
-1.192 -0.05 -1.3 -0 -1.2 0
-1.237 -0.052 -1.354 -0 -1.2 0
-1.288 -0.053 -1.415 -0 -1.2 0
-1.34 -0.054 -1.476 -0 -1.2 0
-1.397 -0.054 -1.546 -0 -1.2 0
-1.444 -0.066 -1.601 -0 -1.2 0
-1.514 -0.063 -1.685 -0 -1.2 0
-1.572 -0.071 -1.754 -0 -1.2 0
-1.643 -0.075 -1.84 -0 -1.2 0
-1.72 -0.08 -1.931 -0 -1.2 0
-1.804 -0.084 -2.031 -0 -1.2 0
-1.887 -0.092 -2.132 -0 -1.2 0
-1.989 -0.096 -2.254 -0 -1.2 0
-2.092 -0.104 -2.377 -0 -1.2 0
-2.214 -0.11 -2.522 -0 -1.2 0
-2.373 -0.105 -2.713 -0 -1.2 0
-2.509 -0.119 -2.875 -0 -1.2 0
-2.663 -0.134 -3.059 -0 -1.2 0
-2.842 -0.148 -3.274 -0 -1.2 0
-3.054 -0.161 -3.527 -0 -1.2 0
-3.316 -0.171 -3.841 -0 -1.2 0
-3.604 -0.189 -4.186 -0 -1.2 0
-3.945 -0.211 -4.593 -0 -1.2 0
-4.355 -0.236 -5.083 -0 -1.2 0
-4.873 -0.265 -5.704 -0 -1.2 0
-5.694 -0.279 -6.684 -0 -1.2 0
-4.029 -0.631 -4.701 -0 -1.2 0
-4.046 -0.739 -4.723 -0 -1.2 0
-4.074 -0.846 -4.758 -0 -1.2 0
-4.094 -0.956 -4.785 -0 -1.2 0
-5.667 -1.051 -6.665 -0 -1.2 0
-4.312 -1.181 -5.047 -0 -1.2 0
-4.31 -1.297 -5.047 -0 -1.2 0
-5.683 -1.512 -6.693 -0 -1.2 0
-5.677 -1.666 -6.686 -0 -1.2 0
-5.68 -1.821 -6.695 -0 -1.2 0
-5.613 -1.967 -6.617 -0 -1.2 0
-5.735 -2.142 -6.765 -0 -1.2 0
-6.006 -2.357 -7.094 -0 -1.2 0
-6.003 -2.523 -7.092 -0 -1.2 0
-6.004 -2.69 -7.096 -0 -1.2 0
-5.997 -2.857 -7.091 -0 -1.2 0
-5.993 -3.026 -7.089 -0 -1.2 0
-5.982 -3.193 -7.078 -0 -1.2 0
-5.981 -3.364 -7.081 -0 -1.2 0
-5.979 -3.537 -7.08 -0 -1.2 0
-5.973 -3.709 -7.077 -0 -1.2 0
-5.967 -3.883 -7.072 -0 -1.2 0
-5.964 -4.06 -7.072 -0 -1.2 0
-5.935 -4.224 -7.039 -0 -1.2 0
-5.735 -4.295 -6.802 -0 -1.2 0
-5.733 -4.472 -6.802 -0 -1.2 0
-5.734 -4.653 -6.808 -0 -1.2 0
-5.728 -4.832 -6.803 -0 -1.2 0
-5.731 -5.019 -6.809 -0 -1.2 0
-5.731 -5.207 -6.813 -0 -1.2 0
-5.729 -5.397 -6.814 -0 -1.2 0
-5.724 -5.589 -6.812 -0 -1.2 0
-5.729 -5.79 -6.82 -0 -1.2 0
-5.674 -5.946 -6.757 -0 -1.2 0
-5.778 -6.243 -6.886 -0 -1.2 0
-5.878 -6.548 -7.01 -0 -1.2 0
-5.868 -6.76 -7.003 -0 -1.2 0
-5.862 -6.978 -6.999 -0 -1.2 0
-5.857 -7.204 -6.997 -0 -1.2 0
-5.844 -7.426 -6.985 -0 -1.2 0
-5.839 -7.66 -6.983 -0 -1.2 0
-5.824 -7.89 -6.969 -0 -1.2 0
-5.816 -8.134 -6.965 -0 -1.2 0
-5.662 -8.198 -6.78 -0 -1.2 0
-5.672 -8.473 -6.798 -0 -1.2 0
-5.563 -8.595 -6.669 -0 -1.2 0
-5.349 -8.567 -6.414 -0 -1.2 0
-5.316 -8.786 -6.376 -0 -1.2 0
-5.15 -8.814 -6.178 -0 -1.2 0
-0.799 -0.029 -0.759 -0 -1.2 0
-0.827 -0.03 -0.79 -0 -1.2 0
-0.859 -0.024 -0.825 -0 -1.2 0
-0.886 -0.026 -0.857 -0 -1.2 0
-0.914 -0.029 -0.888 -0 -1.2 0
-0.948 -0.028 -0.925 -0 -1.2 0
-0.981 -0.027 -0.963 -0 -1.2 0
-1.009 -0.035 -0.995 -0 -1.2 0
-1.044 -0.037 -1.033 -0 -1.2 0
-1.084 -0.036 -1.078 -0 -1.2 0
-1.107 -0.052 -1.103 -0 -1.2 0
-1.153 -0.048 -1.155 -0 -1.2 0
-1.199 -0.046 -1.207 -0 -1.2 0
-1.252 -0.041 -1.265 -0 -1.2 0
-1.287 -0.054 -1.304 -0 -1.2 0
-1.34 -0.054 -1.364 -0 -1.2 0
-1.394 -0.056 -1.424 -0 -1.2 0
-1.461 -0.051 -1.497 -0 -1.2 0
-1.508 -0.064 -1.552 -0 -1.2 0
-1.575 -0.064 -1.626 -0 -1.2 0
-1.636 -0.073 -1.694 -0 -1.2 0
-1.716 -0.074 -1.783 -0 -1.2 0
-1.796 -0.078 -1.872 -0 -1.2 0
-1.883 -0.082 -1.969 -0 -1.2 0
-1.97 -0.091 -2.067 -0 -1.2 0
-2.076 -0.094 -2.185 -0 -1.2 0
-2.183 -0.103 -2.305 -0 -1.2 0
-2.304 -0.112 -2.439 -0 -1.2 0
-2.45 -0.116 -2.603 -0 -1.2 0
-2.61 -0.122 -2.781 -0 -1.2 0
-2.77 -0.137 -2.96 -0 -1.2 0
-2.95 -0.153 -3.161 -0 -1.2 0
-3.184 -0.162 -3.421 -0 -1.2 0
-3.444 -0.176 -3.712 -0 -1.2 0
-3.75 -0.193 -4.054 -0 -1.2 0
-4.11 -0.214 -4.456 -0 -1.2 0
-4.43 -0.261 -4.815 -0 -1.2 0
-4.572 -0.354 -4.973 -0 -1.2 0
-4.592 -0.47 -4.998 -0 -1.2 0
-4.538 -0.597 -4.939 -0 -1.2 0
-4.749 -0.696 -5.176 -0 -1.2 0
-5.087 -0.8 -5.553 -0 -1.2 0
-5.155 -0.93 -5.632 -0 -1.2 0
-5.049 -1.064 -5.515 -0 -1.2 0
-5.614 -1.205 -6.149 -0 -1.2 0
-5.191 -1.333 -5.679 -0 -1.2 0
-5.606 -1.497 -6.144 -0 -1.2 0
-5.627 -1.645 -6.168 -0 -1.2 0
-5.632 -1.793 -6.176 -0 -1.2 0
-5.569 -1.932 -6.109 -0 -1.2 0
-5.591 -2.083 -6.134 -0 -1.2 0
-5.961 -2.305 -6.55 -0 -1.2 0
-5.952 -2.462 -6.542 -0 -1.2 0
-5.954 -2.622 -6.546 -0 -1.2 0
-5.94 -2.779 -6.534 -0 -1.2 0
-5.945 -2.941 -6.541 -0 -1.2 0
-5.948 -3.105 -6.547 -0 -1.2 0
-5.941 -3.267 -6.542 -0 -1.2 0
-5.94 -3.432 -6.543 -0 -1.2 0
-5.937 -3.597 -6.542 -0 -1.2 0
-5.931 -3.763 -6.537 -0 -1.2 0
-5.93 -3.933 -6.539 -0 -1.2 0
-5.926 -4.103 -6.537 -0 -1.2 0
-5.827 -4.224 -6.428 -0 -1.2 0
-5.683 -4.315 -6.269 -0 -1.2 0
-5.687 -4.489 -6.276 -0 -1.2 0
-5.688 -4.664 -6.28 -0 -1.2 0
-5.688 -4.84 -6.282 -0 -1.2 0
-5.678 -5.014 -6.274 -0 -1.2 0
-5.679 -5.196 -6.277 -0 -1.2 0
-5.683 -5.384 -6.283 -0 -1.2 0
-5.673 -5.565 -6.274 -0 -1.2 0
-5.67 -5.756 -6.275 -0 -1.2 0
-5.632 -5.918 -6.235 -0 -1.2 0
-5.625 -6.11 -6.23 -0 -1.2 0
-5.899 -6.567 -6.54 -0 -1.2 0
-5.916 -6.801 -6.564 -0 -1.2 0
-5.898 -7.006 -6.546 -0 -1.2 0
-6.072 -7.416 -6.746 -0 -1.2 0
-5.9 -7.468 -6.555 -0 -1.2 0
-5.935 -7.748 -6.598 -0 -1.2 0
-6.07 -8.153 -6.756 -0 -1.2 0
-5.862 -8.161 -6.523 -0 -1.2 0
-5.646 -8.147 -6.281 -0 -1.2 0
-5.612 -8.36 -6.247 -0 -1.2 0
-5.576 -8.573 -6.209 -0 -1.2 0
-5.375 -8.562 -5.985 -0 -1.2 0
-5.286 -8.702 -5.888 -0 -1.2 0
-5.154 -8.776 -5.741 -0 -1.2 0
-5.04 -8.874 -5.615 -0 -1.2 0
-0.828 -0.03 -0.726 -0 -1.2 0
-0.857 -0.031 -0.755 -0 -1.2 0
-0.885 -0.032 -0.785 -0 -1.2 0
-0.918 -0.027 -0.82 -0 -1.2 0
-0.942 -0.037 -0.845 -0 -1.2 0
-0.982 -0.029 -0.886 -0 -1.2 0
-1.018 -0.029 -0.923 -0 -1.2 0
-1.047 -0.036 -0.954 -0 -1.2 0
-1.082 -0.038 -0.991 -0 -1.2 0
-1.112 -0.048 -1.022 -0 -1.2 0
-1.154 -0.047 -1.065 -0 -1.2 0
-1.202 -0.044 -1.114 -0 -1.2 0
-1.244 -0.047 -1.159 -0 -1.2 0
-1.292 -0.048 -1.209 -0 -1.2 0
-1.348 -0.046 -1.266 -0 -1.2 0
-1.39 -0.056 -1.311 -0 -1.2 0
-1.452 -0.052 -1.376 -0 -1.2 0
-1.508 -0.058 -1.434 -0 -1.2 0
-1.57 -0.06 -1.499 -0 -1.2 0
-1.627 -0.071 -1.559 -0 -1.2 0
-1.696 -0.075 -1.631 -0 -1.2 0
-1.78 -0.075 -1.717 -0 -1.2 0
-1.862 -0.08 -1.804 -0 -1.2 0
-1.953 -0.084 -1.897 -0 -1.2 0
-2.05 -0.09 -1.999 -0 -1.2 0
-2.153 -0.096 -2.107 -0 -1.2 0
-2.271 -0.103 -2.23 -0 -1.2 0
-2.39 -0.115 -2.353 -0 -1.2 0
-2.528 -0.124 -2.497 -0 -1.2 0
-2.707 -0.124 -2.684 -0 -1.2 0
-2.873 -0.14 -2.858 -0 -1.2 0
-3.067 -0.154 -3.06 -0 -1.2 0
-3.302 -0.165 -3.305 -0 -1.2 0
-3.586 -0.176 -3.6 -0 -1.2 0
-3.897 -0.195 -3.925 -0 -1.2 0
-4.257 -0.219 -4.3 -0 -1.2 0
-4.713 -0.243 -4.776 -0 -1.2 0
-5.252 -0.277 -5.338 -0 -1.2 0
-5.372 -0.393 -5.464 -0 -1.2 0
-5.033 -0.566 -5.113 -0 -1.2 0
-5.253 -0.673 -5.342 -0 -1.2 0
-5.568 -0.787 -5.672 -0 -1.2 0
-5.583 -0.927 -5.69 -0 -1.2 0
-5.592 -1.066 -5.7 -0 -1.2 0
-5.583 -1.207 -5.693 -0 -1.2 0
-5.587 -1.346 -5.699 -0 -1.2 0
-5.604 -1.487 -5.717 -0 -1.2 0
-5.591 -1.627 -5.705 -0 -1.2 0
-5.596 -1.769 -5.713 -0 -1.2 0
-5.546 -1.903 -5.662 -0 -1.2 0
-5.527 -2.041 -5.644 -0 -1.2 0
-5.651 -2.207 -5.775 -0 -1.2 0
-5.65 -2.351 -5.776 -0 -1.2 0
-5.641 -2.494 -5.767 -0 -1.2 0
-5.649 -2.643 -5.778 -0 -1.2 0
-5.642 -2.789 -5.773 -0 -1.2 0
-5.641 -2.937 -5.773 -0 -1.2 0
-5.644 -3.088 -5.777 -0 -1.2 0
-5.645 -3.239 -5.78 -0 -1.2 0
-5.644 -3.391 -5.781 -0 -1.2 0
-5.634 -3.542 -5.773 -0 -1.2 0
-5.636 -3.698 -5.776 -0 -1.2 0
-5.642 -3.858 -5.785 -0 -1.2 0
-5.64 -4.016 -5.784 -0 -1.2 0
-5.635 -4.175 -5.781 -0 -1.2 0
-5.629 -4.335 -5.776 -0 -1.2 0
-5.632 -4.503 -5.782 -0 -1.2 0
-5.628 -4.669 -5.779 -0 -1.2 0
-5.621 -4.835 -5.773 -0 -1.2 0
-5.63 -5.015 -5.785 -0 -1.2 0
-5.63 -5.192 -5.788 -0 -1.2 0
-5.629 -5.37 -5.787 -0 -1.2 0
-5.63 -5.554 -5.791 -0 -1.2 0
-5.634 -5.745 -5.798 -0 -1.2 0
-5.63 -5.932 -5.795 -0 -1.2 0
-5.622 -6.121 -5.79 -0 -1.2 0
-5.623 -6.321 -5.794 -0 -1.2 0
-5.622 -6.523 -5.794 -0 -1.2 0
-5.622 -6.732 -5.797 -0 -1.2 0
-5.62 -6.942 -5.797 -0 -1.2 0
-5.614 -7.155 -5.793 -0 -1.2 0
-5.61 -7.375 -5.792 -0 -1.2 0
-5.608 -7.603 -5.792 -0 -1.2 0
-5.607 -7.84 -5.793 -0 -1.2 0
-5.597 -8.072 -5.786 -0 -1.2 0
-5.563 -8.279 -5.752 -0 -1.2 0
-5.545 -8.513 -5.736 -0 -1.2 0
-5.394 -8.569 -5.579 -0 -1.2 0
-5.229 -8.599 -5.408 -0 -1.2 0
-5.204 -8.83 -5.385 -0 -1.2 0
-5.025 -8.829 -5.198 -0 -1.2 0
-0.865 -0.024 -0.692 -0 -1.2 0
-0.894 -0.025 -0.721 -0 -1.2 0
-0.919 -0.033 -0.744 -0 -1.2 0
-0.954 -0.028 -0.779 -0 -1.2 0
-0.984 -0.031 -0.808 -0 -1.2 0
-1.02 -0.03 -0.842 -0 -1.2 0
-1.056 -0.03 -0.877 -0 -1.2 0
-1.087 -0.037 -0.907 -0 -1.2 0
-1.123 -0.039 -0.942 -0 -1.2 0
-1.16 -0.044 -0.979 -0 -1.2 0
-1.204 -0.044 -1.021 -0 -1.2 0
-1.248 -0.046 -1.062 -0 -1.2 0
-1.291 -0.048 -1.105 -0 -1.2 0
-1.341 -0.05 -1.154 -0 -1.2 0
-1.386 -0.056 -1.197 -0 -1.2 0
-1.449 -0.052 -1.258 -0 -1.2 0
-1.501 -0.058 -1.308 -0 -1.2 0
-1.559 -0.064 -1.365 -0 -1.2 0
-1.617 -0.07 -1.421 -0 -1.2 0
-1.696 -0.068 -1.497 -0 -1.2 0
-1.761 -0.076 -1.56 -0 -1.2 0
-1.847 -0.077 -1.643 -0 -1.2 0
-1.939 -0.078 -1.733 -0 -1.2 0
-2.033 -0.083 -1.823 -0 -1.2 0
-2.127 -0.092 -1.915 -0 -1.2 0
-2.248 -0.092 -2.033 -0 -1.2 0
-2.357 -0.105 -2.137 -0 -1.2 0
-2.479 -0.117 -2.257 -0 -1.2 0
-2.631 -0.123 -2.402 -0 -1.2 0
-2.817 -0.125 -2.583 -0 -1.2 0
-2.989 -0.139 -2.749 -0 -1.2 0
-3.204 -0.15 -2.958 -0 -1.2 0
-3.441 -0.165 -3.188 -0 -1.2 0
-3.735 -0.176 -3.472 -0 -1.2 0
-4.051 -0.197 -3.778 -0 -1.2 0
-4.425 -0.221 -4.14 -0 -1.2 0
-4.905 -0.245 -4.606 -0 -1.2 0
-5.515 -0.271 -5.196 -0 -1.2 0
-5.567 -0.399 -5.248 -0 -1.2 0
-5.116 -0.581 -4.812 -0 -1.2 0
-5.566 -0.67 -5.249 -0 -1.2 0
-5.57 -0.804 -5.254 -0 -1.2 0
-5.558 -0.939 -5.243 -0 -1.2 0
-5.559 -1.073 -5.245 -0 -1.2 0
-4.868 -1.195 -4.578 -0 -1.2 0
-5.562 -1.341 -5.252 -0 -1.2 0
-5.58 -1.476 -5.269 -0 -1.2 0
-5.566 -1.61 -5.257 -0 -1.2 0
-5.573 -1.747 -5.265 -0 -1.2 0
-5.556 -1.88 -5.25 -0 -1.2 0
-5.495 -2.006 -5.192 -0 -1.2 0
-5.624 -2.165 -5.318 -0 -1.2 0
-5.624 -2.304 -5.319 -0 -1.2 0
-5.629 -2.445 -5.326 -0 -1.2 0
-5.618 -2.582 -5.315 -0 -1.2 0
-5.626 -2.727 -5.325 -0 -1.2 0
-5.618 -2.866 -5.319 -0 -1.2 0
-5.622 -3.012 -5.324 -0 -1.2 0
-5.611 -3.152 -5.314 -0 -1.2 0
-5.612 -3.298 -5.315 -0 -1.2 0
-5.603 -3.443 -5.309 -0 -1.2 0
-5.607 -3.593 -5.314 -0 -1.2 0
-5.601 -3.741 -5.31 -0 -1.2 0
-5.6 -3.893 -5.311 -0 -1.2 0
-5.597 -4.046 -5.309 -0 -1.2 0
-5.592 -4.199 -5.305 -0 -1.2 0
-5.592 -4.357 -5.306 -0 -1.2 0
-5.589 -4.516 -5.305 -0 -1.2 0
-5.59 -4.68 -5.307 -0 -1.2 0
-5.589 -4.846 -5.308 -0 -1.2 0
-5.593 -5.017 -5.312 -0 -1.2 0
-5.586 -5.185 -5.308 -0 -1.2 0
-5.591 -5.362 -5.313 -0 -1.2 0
-5.592 -5.542 -5.315 -0 -1.2 0
-5.59 -5.722 -5.315 -0 -1.2 0
-5.597 -5.915 -5.325 -0 -1.2 0
-5.596 -6.104 -5.325 -0 -1.2 0
-5.591 -6.294 -5.322 -0 -1.2 0
-5.59 -6.492 -5.321 -0 -1.2 0
-5.59 -6.697 -5.324 -0 -1.2 0
-5.587 -6.903 -5.324 -0 -1.2 0
-5.582 -7.112 -5.319 -0 -1.2 0
-5.583 -7.334 -5.322 -0 -1.2 0
-5.58 -7.558 -5.322 -0 -1.2 0
-5.568 -7.776 -5.312 -0 -1.2 0
-5.563 -8.01 -5.309 -0 -1.2 0
-5.528 -8.212 -5.277 -0 -1.2 0
-5.519 -8.456 -5.272 -0 -1.2 0
-5.411 -8.568 -5.167 -0 -1.2 0
-5.211 -8.548 -4.973 -0 -1.2 0
-5.17 -8.753 -4.935 -0 -1.2 0
-0.887 -0.032 -0.651 -0 -1.2 0
-0.923 -0.025 -0.684 -0 -1.2 0
-0.948 -0.033 -0.706 -0 -1.2 0
-0.979 -0.036 -0.734 -0 -1.2 0
-1.016 -0.032 -0.767 -0 -1.2 0
-1.047 -0.037 -0.795 -0 -1.2 0
-1.09 -0.03 -0.835 -0 -1.2 0
-1.128 -0.032 -0.869 -0 -1.2 0
-1.166 -0.035 -0.903 -0 -1.2 0
-1.211 -0.033 -0.942 -0 -1.2 0
-1.242 -0.045 -0.972 -0 -1.2 0
-1.288 -0.047 -1.013 -0 -1.2 0
-1.346 -0.04 -1.065 -0 -1.2 0
-1.384 -0.051 -1.1 -0 -1.2 0
-1.437 -0.053 -1.148 -0 -1.2 0
-1.49 -0.058 -1.196 -0 -1.2 0
-1.549 -0.06 -1.249 -0 -1.2 0
-1.616 -0.06 -1.31 -0 -1.2 0
-1.669 -0.072 -1.358 -0 -1.2 0
-1.757 -0.065 -1.437 -0 -1.2 0
-1.824 -0.074 -1.499 -0 -1.2 0
-1.907 -0.078 -1.572 -0 -1.2 0
-2.002 -0.079 -1.659 -0 -1.2 0
-2.092 -0.087 -1.74 -0 -1.2 0
-2.196 -0.093 -1.834 -0 -1.2 0
-2.314 -0.097 -1.942 -0 -1.2 0
-2.434 -0.106 -2.049 -0 -1.2 0
-2.575 -0.112 -2.176 -0 -1.2 0
-2.716 -0.125 -2.304 -0 -1.2 0
-2.901 -0.129 -2.471 -0 -1.2 0
-3.093 -0.14 -2.645 -0 -1.2 0
-3.323 -0.148 -2.853 -0 -1.2 0
-3.56 -0.165 -3.068 -0 -1.2 0
-3.849 -0.18 -3.329 -0 -1.2 0
-4.168 -0.203 -3.617 -0 -1.2 0
-4.561 -0.226 -3.972 -0 -1.2 0
-4.181 -0.399 -3.631 -0 -1.2 0
-4.027 -0.521 -3.492 -0 -1.2 0
-4.019 -0.617 -3.485 -0 -1.2 0
-4.025 -0.71 -3.49 -0 -1.2 0
-4.066 -0.801 -3.528 -0 -1.2 0
-4.106 -0.894 -3.566 -0 -1.2 0
-4.16 -0.989 -3.614 -0 -1.2 0
-4.502 -1.083 -3.924 -0 -1.2 0
-4.397 -1.187 -3.831 -0 -1.2 0
-5.53 -1.336 -4.854 -0 -1.2 0
-5.532 -1.465 -4.858 -0 -1.2 0
-5.527 -1.594 -4.854 -0 -1.2 0
-5.527 -1.724 -4.855 -0 -1.2 0
-5.525 -1.854 -4.854 -0 -1.2 0
-5.448 -1.973 -4.785 -0 -1.2 0
-5.693 -2.147 -5.007 -0 -1.2 0
-5.744 -2.294 -5.054 -0 -1.2 0
-5.749 -2.434 -5.06 -0 -1.2 0
-5.744 -2.572 -5.057 -0 -1.2 0
-5.739 -2.709 -5.052 -0 -1.2 0
-5.731 -2.848 -5.047 -0 -1.2 0
-5.722 -2.987 -5.039 -0 -1.2 0
-5.718 -3.128 -5.036 -0 -1.2 0
-5.719 -3.273 -5.038 -0 -1.2 0
-5.711 -3.415 -5.032 -0 -1.2 0
-5.708 -3.561 -5.03 -0 -1.2 0
-5.703 -3.707 -5.026 -0 -1.2 0
-5.696 -3.853 -5.02 -0 -1.2 0
