# .PCD v.7 - Point Cloud Data file format
FIELDS x y z vp_x vp_y vp_z
SIZE 4 4 4 4 4 4
TYPE F F F F F F
COUNT 1 1 1 1 1 1
WIDTH 1600
HEIGHT 1
VIEWPOINT 0 -1.20012 0 1 0 0 0
POINTS 1600
DATA ascii
19.228 -1.43 -8.916 -0 -1.2 0
19.31 -1.798 -8.953 -0 -1.2 0
19.268 -2.161 -8.937 -0 -1.2 0
11.776 -1.968 -5.671 -0 -1.2 0
11.103 -2.128 -5.378 -0 -1.2 0
14.696 -3.31 -6.948 -0 -1.2 0
13.01 -3.304 -6.213 -0 -1.2 0
13.252 -3.603 -6.32 -0 -1.2 0
14.479 -4.12 -6.856 -0 -1.2 0
15.71 -4.688 -7.395 -0 -1.2 0
12.533 -4.204 -6.008 -0 -1.2 0
13.415 -4.693 -6.395 -0 -1.2 0
18.145 -6.338 -8.462 -0 -1.2 0
13.644 -5.587 -6.497 -0 -1.2 0
13.761 -5.912 -6.55 -0 -1.2 0
12.573 -5.756 -6.031 -0 -1.2 0
14.882 -6.936 -7.042 -0 -1.2 0
14.409 -7.059 -6.837 -0 -1.2 0
12.475 -6.524 -5.992 -0 -1.2 0
12.64 -6.876 -6.065 -0 -1.2 0
14.32 -7.973 -6.801 -0 -1.2 0
12.587 -7.421 -6.044 -0 -1.2 0
12.452 -7.64 -5.985 -0 -1.2 0
16.894 -10.395 -7.932 -0 -1.2 0
16.273 -10.442 -7.661 -0 -1.2 0
17.395 -11.517 -8.154 -0 -1.2 0
15.432 -10.718 -7.296 -0 -1.2 0
14.732 -10.654 -6.99 -0 -1.2 0
15.914 -11.84 -7.51 -0 -1.2 0
15.593 -12.036 -7.37 -0 -1.2 0
17.954 -14.193 -8.408 -0 -1.2 0
1.108 0.005 -1.045 -0 -1.2 0
1.133 -0.007 -1.057 -0 -1.2 0
1.163 -0.013 -1.071 -0 -1.2 0
1.179 -0.034 -1.079 -0 -1.2 0
1.148 -0.1 -1.064 -0 -1.2 0
1.15 -0.133 -1.065 -0 -1.2 0
1.151 -0.166 -1.066 -0 -1.2 0
1.151 -0.199 -1.066 -0 -1.2 0
1.151 -0.231 -1.067 -0 -1.2 0
1.15 -0.263 -1.066 -0 -1.2 0
1.148 -0.294 -1.065 -0 -1.2 0
1.153 -0.32 -1.068 -0 -1.2 0
1.157 -0.346 -1.07 -0 -1.2 0
1.146 -0.382 -1.065 -0 -1.2 0
1.149 -0.407 -1.066 -0 -1.2 0
1.152 -0.433 -1.068 -0 -1.2 0
1.155 -0.458 -1.069 -0 -1.2 0
1.156 -0.482 -1.07 -0 -1.2 0
1.158 -0.507 -1.071 -0 -1.2 0
1.159 -0.532 -1.071 -0 -1.2 0
1.167 -0.552 -1.076 -0 -1.2 0
1.185 -0.569 -1.084 -0 -1.2 0
1.467 -0.46 -1.218 -0 -1.2 0
1.56 -0.448 -1.263 -0 -1.2 0
1.604 -0.462 -1.284 -0 -1.2 0
1.716 -0.45 -1.337 -0 -1.2 0
1.794 -0.455 -1.375 -0 -1.2 0
1.855 -0.469 -1.404 -0 -1.2 0
1.916 -0.485 -1.433 -0 -1.2 0
1.917 -0.523 -1.434 -0 -1.2 0
1.952 -0.55 -1.45 -0 -1.2 0
1.986 -0.579 -1.468 -0 -1.2 0
3.999 -0.099 -2.427 -0 -1.2 0
4.279 -0.112 -2.561 -0 -1.2 0
4.577 -0.132 -2.704 -0 -1.2 0
4.965 -0.144 -2.889 -0 -1.2 0
5.469 -0.151 -3.13 -0 -1.2 0
6.082 -0.162 -3.423 -0 -1.2 0
6.731 -0.19 -3.733 -0 -1.2 0
7.497 -0.229 -4.101 -0 -1.2 0
8.553 -0.27 -4.606 -0 -1.2 0
9.95 -0.324 -5.274 -0 -1.2 0
11.222 -0.439 -5.882 -0 -1.2 0
11.068 -0.661 -5.809 -0 -1.2 0
11.226 -0.869 -5.886 -0 -1.2 0
11.832 -1.084 -6.176 -0 -1.2 0
19.605 -1.451 -9.894 -0 -1.2 0
19.362 -1.819 -9.78 -0 -1.2 0
25.483 -2.54 -12.709 -0 -1.2 0
25.473 -3.032 -12.707 -0 -1.2 0
25.456 -3.524 -12.701 -0 -1.2 0
11.552 -2.416 -6.049 -0 -1.2 0
11.592 -2.646 -6.069 -0 -1.2 0
11.868 -2.915 -6.203 -0 -1.2 0
11.258 -3.04 -5.912 -0 -1.2 0
10.257 -3.069 -5.433 -0 -1.2 0
15.91 -4.483 -8.141 -0 -1.2 0
12.35 -3.966 -6.438 -0 -1.2 0
14.404 -4.737 -7.423 -0 -1.2 0
12.558 -4.523 -6.539 -0 -1.2 0
12.458 -4.75 -6.493 -0 -1.2 0
12.39 -4.986 -6.461 -0 -1.2 0
12.326 -5.222 -6.432 -0 -1.2 0
12.319 -5.48 -6.43 -0 -1.2 0
14.627 -6.621 -7.538 -0 -1.2 0
11.283 -5.591 -5.935 -0 -1.2 0
11.749 -6.036 -6.16 -0 -1.2 0
17.238 -8.748 -8.797 -0 -1.2 0
11.544 -6.464 -6.064 -0 -1.2 0
11.375 -6.644 -5.984 -0 -1.2 0
13.705 -8.109 -7.105 -0 -1.2 0
14.152 -8.673 -7.321 -0 -1.2 0
16.335 -10.244 -8.371 -0 -1.2 0
14.66 -9.657 -7.568 -0 -1.2 0
16.281 -11.016 -8.35 -0 -1.2 0
19.55 -13.519 -9.924 -0 -1.2 0
15.95 -11.631 -8.194 -0 -1.2 0
14.91 -11.333 -7.695 -0 -1.2 0
14.571 -11.493 -7.535 -0 -1.2 0
1.088 0.005 -1.065 -0 -1.2 0
1.112 -0.007 -1.078 -0 -1.2 0
1.148 -0.006 -1.097 -0 -1.2 0
1.172 -0.02 -1.109 -0 -1.2 0
1.141 -0.087 -1.093 -0 -1.2 0
1.137 -0.127 -1.091 -0 -1.2 0
1.144 -0.154 -1.095 -0 -1.2 0
1.138 -0.192 -1.092 -0 -1.2 0
1.145 -0.219 -1.095 -0 -1.2 0
1.144 -0.251 -1.095 -0 -1.2 0
1.141 -0.283 -1.094 -0 -1.2 0
1.147 -0.309 -1.097 -0 -1.2 0
1.152 -0.335 -1.1 -0 -1.2 0
1.148 -0.366 -1.099 -0 -1.2 0
1.143 -0.397 -1.096 -0 -1.2 0
1.146 -0.423 -1.098 -0 -1.2 0
1.149 -0.448 -1.099 -0 -1.2 0
1.151 -0.473 -1.101 -0 -1.2 0
1.145 -0.503 -1.097 -0 -1.2 0
1.153 -0.523 -1.102 -0 -1.2 0
1.154 -0.548 -1.103 -0 -1.2 0
1.163 -0.569 -1.107 -0 -1.2 0
1.392 -0.484 -1.226 -0 -1.2 0
1.54 -0.446 -1.303 -0 -1.2 0
1.575 -0.463 -1.321 -0 -1.2 0
1.693 -0.448 -1.383 -0 -1.2 0
1.762 -0.456 -1.419 -0 -1.2 0
1.831 -0.466 -1.455 -0 -1.2 0
1.874 -0.488 -1.477 -0 -1.2 0
1.874 -0.526 -1.478 -0 -1.2 0
1.917 -0.55 -1.5 -0 -1.2 0
1.951 -0.579 -1.519 -0 -1.2 0
3.92 -0.103 -2.544 -0 -1.2 0
4.195 -0.115 -2.687 -0 -1.2 0
4.531 -0.125 -2.862 -0 -1.2 0
4.912 -0.139 -3.061 -0 -1.2 0
5.408 -0.147 -3.32 -0 -1.2 0
5.967 -0.165 -3.611 -0 -1.2 0
6.631 -0.189 -3.959 -0 -1.2 0
7.393 -0.229 -4.356 -0 -1.2 0
8.386 -0.275 -4.875 -0 -1.2 0
9.75 -0.33 -5.587 -0 -1.2 0
10.991 -0.446 -6.235 -0 -1.2 0
10.928 -0.663 -6.203 -0 -1.2 0
11.083 -0.872 -6.286 -0 -1.2 0
12.343 -1.087 -6.945 -0 -1.2 0
5.746 -1.203 -3.503 -0 -1.2 0
5.265 -1.296 -3.252 -0 -1.2 0
4.977 -1.381 -3.103 -0 -1.2 0
4.91 -1.472 -3.069 -0 -1.2 0
19.218 -2.967 -10.543 -0 -1.2 0
19.441 -3.373 -10.662 -0 -1.2 0
19.437 -3.758 -10.662 -0 -1.2 0
11.107 -2.831 -6.309 -0 -1.2 0
12.337 -3.272 -6.955 -0 -1.2 0
13.785 -3.807 -7.713 -0 -1.2 0
12.471 -3.798 -7.027 -0 -1.2 0
11.551 -3.832 -6.547 -0 -1.2 0
11.403 -4.03 -6.471 -0 -1.2 0
12.382 -4.798 -6.987 -0 -1.2 0
12.868 -5.216 -7.243 -0 -1.2 0
16.318 -6.677 -9.051 -0 -1.2 0
12.108 -5.487 -6.848 -0 -1.2 0
11.418 -5.483 -6.487 -0 -1.2 0
13.854 -6.732 -7.766 -0 -1.2 0
11.068 -5.836 -6.307 -0 -1.2 0
14.014 -7.428 -7.853 -0 -1.2 0
12.079 -6.822 -6.839 -0 -1.2 0
11.811 -6.969 -6.7 -0 -1.2 0
11.782 -7.232 -6.687 -0 -1.2 0
15.418 -9.514 -8.598 -0 -1.2 0
17.289 -10.966 -9.582 -0 -1.2 0
14.122 -9.498 -7.921 -0 -1.2 0
16.268 -11.619 -9.053 -0 -1.2 0
15.913 -11.807 -8.869 -0 -1.2 0
17.629 -13.446 -9.774 -0 -1.2 0
14.806 -11.863 -8.291 -0 -1.2 0
17.829 -14.58 -9.884 -0 -1.2 0
1.059 -0.001 -1.087 -0 -1.2 0
1.082 -0.014 -1.1 -0 -1.2 0
1.123 -0.006 -1.124 -0 -1.2 0
1.152 -0.014 -1.14 -0 -1.2 0
1.155 -0.048 -1.142 -0 -1.2 0
1.131 -0.108 -1.129 -0 -1.2 0
1.132 -0.141 -1.13 -0 -1.2 0
1.133 -0.174 -1.13 -0 -1.2 0
1.14 -0.201 -1.134 -0 -1.2 0
1.132 -0.239 -1.13 -0 -1.2 0
1.131 -0.272 -1.129 -0 -1.2 0
1.143 -0.292 -1.136 -0 -1.2 0
1.14 -0.324 -1.135 -0 -1.2 0
1.137 -0.356 -1.133 -0 -1.2 0
1.141 -0.382 -1.135 -0 -1.2 0
1.144 -0.408 -1.137 -0 -1.2 0
1.147 -0.433 -1.139 -0 -1.2 0
1.141 -0.464 -1.136 -0 -1.2 0
1.143 -0.489 -1.138 -0 -1.2 0
1.144 -0.514 -1.138 -0 -1.2 0
1.153 -0.535 -1.143 -0 -1.2 0
1.145 -0.565 -1.139 -0 -1.2 0
1.217 -0.554 -1.18 -0 -1.2 0
1.483 -0.457 -1.331 -0 -1.2 0
1.549 -0.46 -1.37 -0 -1.2 0
1.649 -0.45 -1.426 -0 -1.2 0
1.708 -0.462 -1.46 -0 -1.2 0
1.808 -0.46 -1.517 -0 -1.2 0
1.809 -0.497 -1.518 -0 -1.2 0
1.817 -0.531 -1.523 -0 -1.2 0
1.867 -0.553 -1.552 -0 -1.2 0
1.884 -0.586 -1.561 -0 -1.2 0
3.846 -0.1 -2.681 -0 -1.2 0
4.115 -0.113 -2.835 -0 -1.2 0
4.444 -0.123 -3.023 -0 -1.2 0
4.8 -0.14 -3.227 -0 -1.2 0
5.277 -0.15 -3.499 -0 -1.2 0
5.858 -0.161 -3.832 -0 -1.2 0
6.492 -0.189 -4.193 -0 -1.2 0
7.221 -0.23 -4.611 -0 -1.2 0
8.228 -0.272 -5.187 -0 -1.2 0
9.468 -0.335 -5.897 -0 -1.2 0
10.865 -0.438 -6.695 -0 -1.2 0
5.632 -0.87 -3.706 -0 -1.2 0
5.279 -0.989 -3.505 -0 -1.2 0
4.967 -1.093 -3.327 -0 -1.2 0
4.714 -1.185 -3.183 -0 -1.2 0
4.461 -1.269 -3.038 -0 -1.2 0
4.206 -1.341 -2.893 -0 -1.2 0
4.218 -1.425 -2.9 -0 -1.2 0
16.042 -2.688 -9.667 -0 -1.2 0
16.515 -3.068 -9.941 -0 -1.2 0
16.481 -3.398 -9.923 -0 -1.2 0
15.731 -3.612 -9.494 -0 -1.2 0
10.006 -2.894 -6.218 -0 -1.2 0
15.626 -4.235 -9.439 -0 -1.2 0
12.943 -3.96 -7.903 -0 -1.2 0
18.414 -5.564 -11.041 -0 -1.2 0
12.044 -4.262 -7.391 -0 -1.2 0
10.689 -4.127 -6.615 -0 -1.2 0
16.591 -6.171 -10.001 -0 -1.2 0
10.714 -4.593 -6.633 -0 -1.2 0
10.552 -4.767 -6.54 -0 -1.2 0
12.87 -5.865 -7.872 -0 -1.2 0
13.796 -6.517 -8.405 -0 -1.2 0
17.454 -8.358 -10.506 -0 -1.2 0
12.262 -6.465 -7.528 -0 -1.2 0
13.722 -7.426 -8.367 -0 -1.2 0
12.258 -7.032 -7.529 -0 -1.2 0
11.342 -6.854 -7.004 -0 -1.2 0
16.653 -9.977 -10.058 -0 -1.2 0
16.928 -10.541 -10.218 -0 -1.2 0
14.726 -9.672 -8.954 -0 -1.2 0
16.913 -11.385 -10.214 -0 -1.2 0
14.555 -10.318 -8.86 -0 -1.2 0
14.142 -10.429 -8.624 -0 -1.2 0
15.105 -11.476 -9.181 -0 -1.2 0
14.364 -11.359 -8.756 -0 -1.2 0
1.034 -0.001 -1.107 -0 -1.2 0
1.069 0 -1.129 -0 -1.2 0
1.104 0 -1.15 -0 -1.2 0
1.132 -0.007 -1.169 -0 -1.2 0
1.155 -0.022 -1.182 -0 -1.2 0
1.139 -0.075 -1.172 -0 -1.2 0
1.127 -0.122 -1.165 -0 -1.2 0
1.127 -0.156 -1.165 -0 -1.2 0
1.128 -0.189 -1.166 -0 -1.2 0
1.134 -0.216 -1.17 -0 -1.2 0
1.141 -0.243 -1.174 -0 -1.2 0
1.138 -0.275 -1.173 -0 -1.2 0
1.136 -0.308 -1.171 -0 -1.2 0
1.133 -0.34 -1.171 -0 -1.2 0
1.145 -0.361 -1.177 -0 -1.2 0
1.133 -0.398 -1.17 -0 -1.2 0
1.136 -0.424 -1.172 -0 -1.2 0
1.138 -0.45 -1.174 -0 -1.2 0
1.148 -0.471 -1.179 -0 -1.2 0
1.15 -0.497 -1.18 -0 -1.2 0
1.142 -0.527 -1.177 -0 -1.2 0
1.135 -0.557 -1.172 -0 -1.2 0
1.143 -0.578 -1.177 -0 -1.2 0
1.426 -0.467 -1.353 -0 -1.2 0
1.499 -0.466 -1.397 -0 -1.2 0
1.588 -0.46 -1.453 -0 -1.2 0
1.645 -0.471 -1.488 -0 -1.2 0
1.751 -0.466 -1.554 -0 -1.2 0
1.752 -0.503 -1.555 -0 -1.2 0
1.761 -0.537 -1.561 -0 -1.2 0
1.801 -0.561 -1.586 -0 -1.2 0
1.834 -0.588 -1.606 -0 -1.2 0
3.769 -0.097 -2.808 -0 -1.2 0
4.025 -0.112 -2.966 -0 -1.2 0
4.364 -0.117 -3.177 -0 -1.2 0
4.712 -0.136 -3.393 -0 -1.2 0
5.179 -0.145 -3.684 -0 -1.2 0
5.731 -0.159 -4.026 -0 -1.2 0
6.367 -0.184 -4.422 -0 -1.2 0
7.097 -0.223 -4.876 -0 -1.2 0
5.586 -0.527 -3.938 -0 -1.2 0
5.212 -0.671 -3.706 -0 -1.2 0
4.896 -0.797 -3.51 -0 -1.2 0
4.635 -0.906 -3.349 -0 -1.2 0
4.375 -1.005 -3.187 -0 -1.2 0
4.23 -1.092 -3.098 -0 -1.2 0
4.204 -1.177 -3.081 -0 -1.2 0
4.202 -1.261 -3.081 -0 -1.2 0
4.157 -1.343 -3.053 -0 -1.2 0
4.195 -1.429 -3.077 -0 -1.2 0
12.988 -2.407 -8.545 -0 -1.2 0
12.983 -2.674 -8.543 -0 -1.2 0
12.991 -2.943 -8.549 -0 -1.2 0
12.987 -3.212 -8.547 -0 -1.2 0
12.986 -3.482 -8.548 -0 -1.2 0
12.982 -3.754 -8.547 -0 -1.2 0
12.974 -4.026 -8.543 -0 -1.2 0
11.848 -4.021 -7.843 -0 -1.2 0
11.795 -4.514 -7.812 -0 -1.2 0
11.012 -4.525 -7.326 -0 -1.2 0
14.526 -5.948 -9.515 -0 -1.2 0
11.65 -5.5 -7.726 -0 -1.2 0
11.511 -5.708 -7.64 -0 -1.2 0
11.481 -5.959 -7.623 -0 -1.2 0
15.64 -8.1 -10.215 -0 -1.2 0
15.077 -8.563 -9.868 -0 -1.2 0
15.553 -9.178 -10.166 -0 -1.2 0
15.545 -9.557 -10.163 -0 -1.2 0
16.188 -10.316 -10.565 -0 -1.2 0
17.697 -11.632 -11.509 -0 -1.2 0
15.402 -10.658 -10.078 -0 -1.2 0
14.715 -10.619 -9.651 -0 -1.2 0
15.336 -11.437 -10.04 -0 -1.2 0
14.262 -11.1 -9.372 -0 -1.2 0
14.515 -11.686 -9.531 -0 -1.2 0
1.015 0.005 -1.131 -0 -1.2 0
1.043 0 -1.149 -0 -1.2 0
1.077 0 -1.172 -0 -1.2 0
1.111 0 -1.195 -0 -1.2 0
1.133 -0.015 -1.21 -0 -1.2 0
1.161 -0.024 -1.229 -0 -1.2 0
1.125 -0.097 -1.205 -0 -1.2 0
1.126 -0.131 -1.206 -0 -1.2 0
1.127 -0.165 -1.207 -0 -1.2 0
1.134 -0.192 -1.211 -0 -1.2 0
1.126 -0.231 -1.206 -0 -1.2 0
1.131 -0.259 -1.21 -0 -1.2 0
1.137 -0.286 -1.214 -0 -1.2 0
1.135 -0.319 -1.212 -0 -1.2 0
1.132 -0.351 -1.21 -0 -1.2 0
1.127 -0.383 -1.207 -0 -1.2 0
1.138 -0.404 -1.214 -0 -1.2 0
1.14 -0.431 -1.216 -0 -1.2 0
1.142 -0.457 -1.218 -0 -1.2 0
1.144 -0.484 -1.219 -0 -1.2 0
1.138 -0.514 -1.214 -0 -1.2 0
1.146 -0.536 -1.22 -0 -1.2 0
1.139 -0.566 -1.215 -0 -1.2 0
1.192 -0.566 -1.251 -0 -1.2 0
1.455 -0.469 -1.429 -0 -1.2 0
1.557 -0.457 -1.497 -0 -1.2 0
1.551 -0.494 -1.493 -0 -1.2 0
1.638 -0.494 -1.551 -0 -1.2 0
1.678 -0.515 -1.578 -0 -1.2 0
1.686 -0.548 -1.584 -0 -1.2 0
1.727 -0.571 -1.611 -0 -1.2 0
3.496 -0.073 -2.802 -0 -1.2 0
3.705 -0.089 -2.943 -0 -1.2 0
3.962 -0.103 -3.116 -0 -1.2 0
4.293 -0.109 -3.339 -0 -1.2 0
4.649 -0.124 -3.58 -0 -1.2 0
5.097 -0.136 -3.881 -0 -1.2 0
5.578 -0.161 -4.205 -0 -1.2 0
5.196 -0.336 -3.948 -0 -1.2 0
4.859 -0.487 -3.722 -0 -1.2 0
4.578 -0.619 -3.532 -0 -1.2 0
4.32 -0.736 -3.358 -0 -1.2 0
4.183 -0.834 -3.267 -0 -1.2 0
4.137 -0.923 -3.236 -0 -1.2 0
4.147 -1.007 -3.243 -0 -1.2 0
4.147 -1.092 -3.243 -0 -1.2 0
4.147 -1.177 -3.243 -0 -1.2 0
4.145 -1.262 -3.243 -0 -1.2 0
4.117 -1.345 -3.224 -0 -1.2 0
4.113 -1.43 -3.221 -0 -1.2 0
11.056 -2.235 -7.9 -0 -1.2 0
11.062 -2.469 -7.906 -0 -1.2 0
11.049 -2.7 -7.897 -0 -1.2 0
11.049 -2.935 -7.897 -0 -1.2 0
11.036 -3.168 -7.889 -0 -1.2 0
11.037 -3.405 -7.89 -0 -1.2 0
11.018 -3.638 -7.878 -0 -1.2 0
11.02 -3.878 -7.88 -0 -1.2 0
11.01 -4.116 -7.874 -0 -1.2 0
10.972 -4.348 -7.849 -0 -1.2 0
19.292 -8.583 -13.463 -0 -1.2 0
15.894 -7.627 -11.172 -0 -1.2 0
11.222 -5.959 -8.021 -0 -1.2 0
14.789 -7.871 -10.428 -0 -1.2 0
13.688 -7.694 -9.687 -0 -1.2 0
16.709 -9.985 -11.727 -0 -1.2 0
14.909 -9.398 -10.513 -0 -1.2 0
16.828 -10.907 -11.809 -0 -1.2 0
14.999 -10.225 -10.575 -0 -1.2 0
14.783 -10.885 -10.431 -0 -1.2 0
15.436 -11.747 -10.873 -0 -1.2 0
0.987 0.005 -1.153 -0 -1.2 0
1.019 0.006 -1.176 -0 -1.2 0
1.052 0.006 -1.201 -0 -1.2 0
1.08 0 -1.221 -0 -1.2 0
1.107 -0.008 -1.241 -0 -1.2 0
1.135 -0.018 -1.262 -0 -1.2 0
1.144 -0.047 -1.268 -0 -1.2 0
1.126 -0.1 -1.255 -0 -1.2 0
1.121 -0.141 -1.251 -0 -1.2 0
1.121 -0.175 -1.251 -0 -1.2 0
1.127 -0.203 -1.256 -0 -1.2 0
1.126 -0.236 -1.255 -0 -1.2 0
1.139 -0.259 -1.265 -0 -1.2 0
1.137 -0.292 -1.263 -0 -1.2 0
1.134 -0.325 -1.261 -0 -1.2 0
1.145 -0.348 -1.269 -0 -1.2 0
1.141 -0.38 -1.266 -0 -1.2 0
1.13 -0.417 -1.258 -0 -1.2 0
1.139 -0.439 -1.265 -0 -1.2 0
1.134 -0.471 -1.261 -0 -1.2 0
1.142 -0.493 -1.267 -0 -1.2 0
1.143 -0.52 -1.268 -0 -1.2 0
1.144 -0.547 -1.269 -0 -1.2 0
1.137 -0.577 -1.263 -0 -1.2 0
1.264 -0.542 -1.357 -0 -1.2 0
1.507 -0.46 -1.534 -0 -1.2 0
1.546 -0.478 -1.562 -0 -1.2 0
1.578 -0.5 -1.586 -0 -1.2 0
1.579 -0.535 -1.586 -0 -1.2 0
1.632 -0.551 -1.626 -0 -1.2 0
1.663 -0.576 -1.649 -0 -1.2 0
3.4 -0.072 -2.92 -0 -1.2 0
3.603 -0.089 -3.068 -0 -1.2 0
3.876 -0.097 -3.27 -0 -1.2 0
4.214 -0.099 -3.517 -0 -1.2 0
4.57 -0.113 -3.777 -0 -1.2 0
4.726 -0.182 -3.891 -0 -1.2 0
4.587 -0.308 -3.789 -0 -1.2 0
4.309 -0.45 -3.587 -0 -1.2 0
4.125 -0.567 -3.452 -0 -1.2 0
4.107 -0.657 -3.439 -0 -1.2 0
4.105 -0.744 -3.437 -0 -1.2 0
4.101 -0.831 -3.434 -0 -1.2 0
4.08 -0.919 -3.419 -0 -1.2 0
4.074 -1.005 -3.414 -0 -1.2 0
4.074 -1.091 -3.416 -0 -1.2 0
4.083 -1.177 -3.42 -0 -1.2 0
4.089 -1.263 -3.425 -0 -1.2 0
4.069 -1.349 -3.411 -0 -1.2 0
4.042 -1.432 -3.391 -0 -1.2 0
4.069 -1.521 -3.41 -0 -1.2 0
9.808 -2.344 -7.614 -0 -1.2 0
9.804 -2.557 -7.612 -0 -1.2 0
9.806 -2.77 -7.613 -0 -1.2 0
9.789 -2.982 -7.602 -0 -1.2 0
9.793 -3.198 -7.604 -0 -1.2 0
9.778 -3.411 -7.593 -0 -1.2 0
9.759 -3.624 -7.58 -0 -1.2 0
9.761 -3.844 -7.582 -0 -1.2 0
9.752 -4.062 -7.576 -0 -1.2 0
9.748 -4.284 -7.572 -0 -1.2 0
14.642 -7.275 -11.159 -0 -1.2 0
14.256 -7.804 -10.876 -0 -1.2 0
13.629 -7.844 -10.416 -0 -1.2 0
14.898 -8.853 -11.347 -0 -1.2 0
14.005 -8.743 -10.692 -0 -1.2 0
16.588 -10.592 -12.585 -0 -1.2 0
15.907 -10.62 -12.087 -0 -1.2 0
15.109 -10.543 -11.502 -0 -1.2 0
14.132 -10.314 -10.787 -0 -1.2 0
15.101 -11.371 -11.498 -0 -1.2 0
0.958 0.005 -1.171 -0 -1.2 0
0.99 0.006 -1.196 -0 -1.2 0
1.022 0.006 -1.221 -0 -1.2 0
1.054 0.006 -1.247 -0 -1.2 0
1.081 -0.002 -1.268 -0 -1.2 0
1.114 -0.005 -1.295 -0 -1.2 0
1.141 -0.015 -1.316 -0 -1.2 0
1.15 -0.045 -1.322 -0 -1.2 0
1.127 -0.105 -1.304 -0 -1.2 0
1.133 -0.134 -1.31 -0 -1.2 0
1.134 -0.168 -1.31 -0 -1.2 0
1.133 -0.203 -1.31 -0 -1.2 0
1.132 -0.237 -1.309 -0 -1.2 0
1.138 -0.266 -1.313 -0 -1.2 0
1.142 -0.294 -1.316 -0 -1.2 0
1.14 -0.328 -1.314 -0 -1.2 0
1.15 -0.351 -1.322 -0 -1.2 0
1.146 -0.384 -1.32 -0 -1.2 0
1.142 -0.417 -1.316 -0 -1.2 0
1.144 -0.444 -1.318 -0 -1.2 0
1.152 -0.468 -1.324 -0 -1.2 0
1.155 -0.496 -1.325 -0 -1.2 0
1.155 -0.523 -1.326 -0 -1.2 0
1.156 -0.551 -1.326 -0 -1.2 0
1.163 -0.574 -1.332 -0 -1.2 0
1.295 -0.54 -1.437 -0 -1.2 0
1.443 -0.504 -1.555 -0 -1.2 0
1.451 -0.534 -1.56 -0 -1.2 0
1.504 -0.547 -1.602 -0 -1.2 0
1.549 -0.565 -1.637 -0 -1.2 0
1.579 -0.589 -1.661 -0 -1.2 0
3.305 -0.073 -3.025 -0 -1.2 0
3.502 -0.089 -3.181 -0 -1.2 0
3.769 -0.097 -3.392 -0 -1.2 0
4.082 -0.103 -3.64 -0 -1.2 0
4.312 -0.142 -3.821 -0 -1.2 0
4.099 -0.283 -3.653 -0 -1.2 0
4.071 -0.379 -3.631 -0 -1.2 0
4.065 -0.47 -3.626 -0 -1.2 0
4.065 -0.559 -3.626 -0 -1.2 0
4.065 -0.649 -3.625 -0 -1.2 0
4.046 -0.739 -3.611 -0 -1.2 0
4.035 -0.828 -3.601 -0 -1.2 0
4.023 -0.917 -3.592 -0 -1.2 0
4.025 -1.004 -3.593 -0 -1.2 0
4.018 -1.091 -3.587 -0 -1.2 0
4.032 -1.178 -3.599 -0 -1.2 0
4.023 -1.265 -3.592 -0 -1.2 0
4.012 -1.352 -3.583 -0 -1.2 0
3.977 -1.436 -3.555 -0 -1.2 0
4.011 -1.527 -3.581 -0 -1.2 0
9.655 -2.359 -8.041 -0 -1.2 0
9.66 -2.575 -8.045 -0 -1.2 0
9.654 -2.79 -8.04 -0 -1.2 0
9.645 -3.006 -8.033 -0 -1.2 0
9.633 -3.221 -8.022 -0 -1.2 0
9.625 -3.439 -8.017 -0 -1.2 0
9.615 -3.657 -8.008 -0 -1.2 0
9.625 -3.881 -8.016 -0 -1.2 0
9.608 -4.1 -8.003 -0 -1.2 0
9.596 -4.323 -7.992 -0 -1.2 0
13.532 -7.639 -11.1 -0 -1.2 0
14.104 -8.277 -11.55 -0 -1.2 0
13.635 -8.389 -11.179 -0 -1.2 0
13.527 -9.045 -11.094 -0 -1.2 0
13.324 -9.287 -10.933 -0 -1.2 0
0.933 0.011 -1.194 -0 -1.2 0
0.958 0.005 -1.216 -0 -1.2 0
0.995 0.012 -1.247 -0 -1.2 0
1.016 -0.001 -1.265 -0 -1.2 0
1.047 -0.003 -1.292 -0 -1.2 0
1.079 -0.005 -1.318 -0 -1.2 0
1.105 -0.015 -1.341 -0 -1.2 0
1.138 -0.02 -1.368 -0 -1.2 0
1.17 -0.026 -1.396 -0 -1.2 0
1.141 -0.092 -1.371 -0 -1.2 0
1.142 -0.128 -1.372 -0 -1.2 0
1.149 -0.158 -1.378 -0 -1.2 0
1.148 -0.193 -1.377 -0 -1.2 0
1.153 -0.223 -1.381 -0 -1.2 0
1.165 -0.248 -1.391 -0 -1.2 0
1.157 -0.288 -1.384 -0 -1.2 0
1.161 -0.317 -1.387 -0 -1.2 0
1.164 -0.346 -1.39 -0 -1.2 0
1.161 -0.38 -1.387 -0 -1.2 0
1.163 -0.409 -1.389 -0 -1.2 0
1.165 -0.438 -1.391 -0 -1.2 0
1.174 -0.463 -1.398 -0 -1.2 0
1.176 -0.492 -1.399 -0 -1.2 0
1.176 -0.521 -1.4 -0 -1.2 0
1.177 -0.549 -1.4 -0 -1.2 0
1.191 -0.571 -1.413 -0 -1.2 0
1.263 -0.567 -1.473 -0 -1.2 0
1.37 -0.551 -1.566 -0 -1.2 0
1.414 -0.565 -1.602 -0 -1.2 0
1.466 -0.579 -1.645 -0 -1.2 0
2.992 -0.072 -2.949 -0 -1.2 0
3.205 -0.073 -3.13 -0 -1.2 0
3.411 -0.086 -3.305 -0 -1.2 0
3.669 -0.092 -3.526 -0 -1.2 0
3.981 -0.097 -3.791 -0 -1.2 0
4.008 -0.183 -3.815 -0 -1.2 0
4.006 -0.276 -3.812 -0 -1.2 0
4.001 -0.369 -3.807 -0 -1.2 0
3.995 -0.461 -3.802 -0 -1.2 0
3.996 -0.552 -3.802 -0 -1.2 0
3.995 -0.643 -3.801 -0 -1.2 0
3.992 -0.733 -3.799 -0 -1.2 0
3.989 -0.823 -3.796 -0 -1.2 0
3.977 -0.913 -3.786 -0 -1.2 0
3.972 -1.002 -3.781 -0 -1.2 0
4.004 -1.091 -3.807 -0 -1.2 0
3.987 -1.18 -3.794 -0 -1.2 0
3.978 -1.269 -3.785 -0 -1.2 0
3.968 -1.357 -3.777 -0 -1.2 0
3.919 -1.443 -3.734 -0 -1.2 0
3.952 -1.535 -3.762 -0 -1.2 0
9.496 -2.378 -8.484 -0 -1.2 0
9.501 -2.597 -8.487 -0 -1.2 0
9.503 -2.816 -8.488 -0 -1.2 0
9.478 -3.032 -8.467 -0 -1.2 0
9.466 -3.25 -8.456 -0 -1.2 0
9.474 -3.474 -8.462 -0 -1.2 0
9.471 -3.697 -8.459 -0 -1.2 0
9.465 -3.921 -8.453 -0 -1.2 0
9.456 -4.145 -8.445 -0 -1.2 0
9.429 -4.364 -8.421 -0 -1.2 0
13.598 -8.593 -11.961 -0 -1.2 0
0.9 0.011 -1.212 -0 -1.2 0
0.93 0.012 -1.24 -0 -1.2 0
0.96 0.012 -1.268 -0 -1.2 0
0.979 -0.001 -1.286 -0 -1.2 0
1.016 0.003 -1.32 -0 -1.2 0
1.047 0 -1.348 -0 -1.2 0
1.071 -0.01 -1.371 -0 -1.2 0
1.103 -0.015 -1.4 -0 -1.2 0
1.135 -0.021 -1.429 -0 -1.2 0
1.178 -0.017 -1.469 -0 -1.2 0
1.204 -0.032 -1.493 -0 -1.2 0
1.199 -0.075 -1.489 -0 -1.2 0
1.188 -0.124 -1.478 -0 -1.2 0
1.2 -0.15 -1.489 -0 -1.2 0
1.199 -0.187 -1.488 -0 -1.2 0
1.205 -0.219 -1.493 -0 -1.2 0
1.216 -0.245 -1.504 -0 -1.2 0
1.226 -0.272 -1.513 -0 -1.2 0
1.237 -0.299 -1.523 -0 -1.2 0
1.241 -0.331 -1.526 -0 -1.2 0
1.251 -0.359 -1.535 -0 -1.2 0
1.266 -0.383 -1.55 -0 -1.2 0
1.276 -0.411 -1.557 -0 -1.2 0
1.285 -0.439 -1.566 -0 -1.2 0
1.224 -0.504 -1.51 -0 -1.2 0
1.225 -0.534 -1.51 -0 -1.2 0
1.225 -0.565 -1.511 -0 -1.2 0
1.246 -0.586 -1.529 -0 -1.2 0
2.557 -0.066 -2.743 -0 -1.2 0
2.704 -0.073 -2.879 -0 -1.2 0
2.887 -0.072 -3.048 -0 -1.2 0
3.093 -0.074 -3.238 -0 -1.2 0
3.292 -0.087 -3.421 -0 -1.2 0
3.548 -0.091 -3.658 -0 -1.2 0
3.842 -0.099 -3.928 -0 -1.2 0
3.942 -0.167 -4.02 -0 -1.2 0
3.931 -0.263 -4.01 -0 -1.2 0
3.927 -0.358 -4.006 -0 -1.2 0
3.921 -0.451 -4 -0 -1.2 0
3.915 -0.545 -3.994 -0 -1.2 0
3.914 -0.637 -3.993 -0 -1.2 0
3.92 -0.728 -3.998 -0 -1.2 0
3.917 -0.819 -3.995 -0 -1.2 0
3.898 -0.911 -3.976 -0 -1.2 0
3.907 -1.002 -3.985 -0 -1.2 0
3.901 -1.092 -3.979 -0 -1.2 0
3.901 -1.182 -3.978 -0 -1.2 0
3.899 -1.273 -3.976 -0 -1.2 0
3.897 -1.363 -3.974 -0 -1.2 0
3.893 -1.454 -3.97 -0 -1.2 0
3.866 -1.542 -3.944 -0 -1.2 0
3.97 -1.647 -4.04 -0 -1.2 0
9.311 -2.622 -8.966 -0 -1.2 0
9.304 -2.843 -8.96 -0 -1.2 0
9.31 -3.068 -8.963 -0 -1.2 0
9.292 -3.289 -8.946 -0 -1.2 0
9.285 -3.512 -8.937 -0 -1.2 0
9.282 -3.739 -8.933 -0 -1.2 0
9.29 -3.97 -8.939 -0 -1.2 0
9.274 -4.195 -8.924 -0 -1.2 0
9.254 -4.42 -8.905 -0 -1.2 0
0.867 0.01 -1.228 -0 -1.2 0
0.896 0.011 -1.257 -0 -1.2 0
0.921 0.004 -1.281 -0 -1.2 0
0.95 0.004 -1.31 -0 -1.2 0
0.98 0.002 -1.339 -0 -1.2 0
1.009 0 -1.369 -0 -1.2 0
1.034 -0.011 -1.393 -0 -1.2 0
1.07 -0.009 -1.428 -0 -1.2 0
1.1 -0.015 -1.459 -0 -1.2 0
1.136 -0.017 -1.495 -0 -1.2 0
1.172 -0.02 -1.531 -0 -1.2 0
1.209 -0.025 -1.568 -0 -1.2 0
1.252 -0.026 -1.61 -0 -1.2 0
1.295 -0.028 -1.653 -0 -1.2 0
1.345 -0.027 -1.702 -0 -1.2 0
1.388 -0.034 -1.746 -0 -1.2 0
1.439 -0.037 -1.795 -0 -1.2 0
1.476 -0.052 -1.833 -0 -1.2 0
1.553 -0.041 -1.908 -0 -1.2 0
1.61 -0.046 -1.965 -0 -1.2 0
1.687 -0.041 -2.042 -0 -1.2 0
1.771 -0.036 -2.126 -0 -1.2 0
1.85 -0.039 -2.204 -0 -1.2 0
1.929 -0.045 -2.282 -0 -1.2 0
2.021 -0.047 -2.373 -0 -1.2 0
2.113 -0.054 -2.465 -0 -1.2 0
2.226 -0.056 -2.578 -0 -1.2 0
2.354 -0.055 -2.704 -0 -1.2 0
2.475 -0.064 -2.824 -0 -1.2 0
2.617 -0.071 -2.966 -0 -1.2 0
2.793 -0.072 -3.142 -0 -1.2 0
2.978 -0.077 -3.325 -0 -1.2 0
3.191 -0.083 -3.536 -0 -1.2 0
3.438 -0.089 -3.782 -0 -1.2 0
3.701 -0.102 -4.043 -0 -1.2 0
3.874 -0.152 -4.215 -0 -1.2 0
3.864 -0.25 -4.205 -0 -1.2 0
3.86 -0.346 -4.2 -0 -1.2 0
3.855 -0.441 -4.195 -0 -1.2 0
3.856 -0.535 -4.194 -0 -1.2 0
3.856 -0.629 -4.193 -0 -1.2 0
3.854 -0.723 -4.192 -0 -1.2 0
3.844 -0.817 -4.181 -0 -1.2 0
3.833 -0.91 -4.17 -0 -1.2 0
3.829 -1.002 -4.164 -0 -1.2 0
3.823 -1.094 -4.157 -0 -1.2 0
3.822 -1.185 -4.157 -0 -1.2 0
3.821 -1.277 -4.155 -0 -1.2 0
3.819 -1.369 -4.152 -0 -1.2 0
3.815 -1.461 -4.148 -0 -1.2 0
3.803 -1.552 -4.135 -0 -1.2 0
3.804 -1.644 -4.136 -0 -1.2 0
9.137 -2.651 -9.429 -0 -1.2 0
9.132 -2.876 -9.422 -0 -1.2 0
9.123 -3.101 -9.413 -0 -1.2 0
9.118 -3.328 -9.406 -0 -1.2 0
9.118 -3.557 -9.405 -0 -1.2 0
9.122 -3.789 -9.406 -0 -1.2 0
9.115 -4.02 -9.399 -0 -1.2 0
9.113 -4.254 -9.396 -0 -1.2 0
0.836 0.01 -1.242 -0 -1.2 0
0.864 0.011 -1.272 -0 -1.2 0
0.892 0.011 -1.302 -0 -1.2 0
0.915 0.004 -1.326 -0 -1.2 0
0.943 0.002 -1.358 -0 -1.2 0
0.972 0 -1.388 -0 -1.2 0
0.996 -0.011 -1.413 -0 -1.2 0
1.036 -0.004 -1.456 -0 -1.2 0
1.059 -0.016 -1.481 -0 -1.2 0
1.095 -0.018 -1.518 -0 -1.2 0
1.135 -0.015 -1.562 -0 -1.2 0
1.165 -0.026 -1.594 -0 -1.2 0
1.2 -0.032 -1.632 -0 -1.2 0
1.248 -0.029 -1.682 -0 -1.2 0
1.289 -0.033 -1.727 -0 -1.2 0
1.338 -0.035 -1.778 -0 -1.2 0
1.387 -0.037 -1.83 -0 -1.2 0
1.429 -0.047 -1.876 -0 -1.2 0
1.49 -0.045 -1.941 -0 -1.2 0
1.551 -0.046 -2.006 -0 -1.2 0
1.62 -0.046 -2.079 -0 -1.2 0
1.694 -0.045 -2.158 -0 -1.2 0
1.77 -0.047 -2.239 -0 -1.2 0
1.864 -0.042 -2.34 -0 -1.2 0
1.947 -0.048 -2.429 -0 -1.2 0
2.043 -0.052 -2.531 -0 -1.2 0
2.146 -0.057 -2.64 -0 -1.2 0
2.261 -0.059 -2.764 -0 -1.2 0
2.385 -0.065 -2.896 -0 -1.2 0
2.528 -0.069 -3.049 -0 -1.2 0
2.698 -0.07 -3.23 -0 -1.2 0
2.876 -0.077 -3.421 -0 -1.2 0
3.061 -0.09 -3.618 -0 -1.2 0
3.313 -0.09 -3.887 -0 -1.2 0
3.56 -0.106 -4.151 -0 -1.2 0
3.813 -0.133 -4.421 -0 -1.2 0
3.804 -0.233 -4.411 -0 -1.2 0
3.801 -0.331 -4.407 -0 -1.2 0
3.803 -0.427 -4.409 -0 -1.2 0
3.797 -0.525 -4.402 -0 -1.2 0
3.796 -0.621 -4.4 -0 -1.2 0
3.796 -0.716 -4.398 -0 -1.2 0
3.786 -0.812 -4.388 -0 -1.2 0
3.782 -0.907 -4.383 -0 -1.2 0
3.771 -1.002 -4.371 -0 -1.2 0
3.771 -1.096 -4.371 -0 -1.2 0
3.771 -1.19 -4.37 -0 -1.2 0
3.756 -1.283 -4.354 -0 -1.2 0
3.76 -1.378 -4.358 -0 -1.2 0
3.757 -1.471 -4.353 -0 -1.2 0
3.725 -1.562 -4.319 -0 -1.2 0
3.705 -1.653 -4.297 -0 -1.2 0
8.973 -2.686 -9.917 -0 -1.2 0
8.96 -2.914 -9.902 -0 -1.2 0
8.965 -3.147 -9.906 -0 -1.2 0
8.953 -3.376 -9.892 -0 -1.2 0
8.952 -3.61 -9.89 -0 -1.2 0
8.941 -3.842 -9.878 -0 -1.2 0
8.935 -4.077 -9.869 -0 -1.2 0
8.945 -4.319 -9.879 -0 -1.2 0
0.8 0.01 -1.255 -0 -1.2 0
0.822 0.004 -1.28 -0 -1.2 0
0.849 0.004 -1.312 -0 -1.2 0
0.871 -0.002 -1.337 -0 -1.2 0
0.904 0.002 -1.374 -0 -1.2 0
0.931 0 -1.406 -0 -1.2 0
0.954 -0.011 -1.433 -0 -1.2 0
0.987 -0.01 -1.471 -0 -1.2 0
1.02 -0.01 -1.509 -0 -1.2 0
1.048 -0.018 -1.541 -0 -1.2 0
1.081 -0.021 -1.58 -0 -1.2 0
1.115 -0.026 -1.619 -0 -1.2 0
1.155 -0.027 -1.665 -0 -1.2 0
1.189 -0.034 -1.705 -0 -1.2 0
1.235 -0.033 -1.757 -0 -1.2 0
1.281 -0.035 -1.81 -0 -1.2 0
1.328 -0.038 -1.864 -0 -1.2 0
1.379 -0.038 -1.924 -0 -1.2 0
1.427 -0.046 -1.979 -0 -1.2 0
1.485 -0.047 -2.046 -0 -1.2 0
1.545 -0.051 -2.114 -0 -1.2 0
1.61 -0.054 -2.19 -0 -1.2 0
1.688 -0.052 -2.28 -0 -1.2 0
1.773 -0.051 -2.379 -0 -1.2 0
1.864 -0.049 -2.484 -0 -1.2 0
1.955 -0.053 -2.589 -0 -1.2 0
2.048 -0.061 -2.696 -0 -1.2 0
2.153 -0.066 -2.817 -0 -1.2 0
2.29 -0.064 -2.975 -0 -1.2 0
2.427 -0.068 -3.134 -0 -1.2 0
2.571 -0.076 -3.3 -0 -1.2 0
2.742 -0.082 -3.496 -0 -1.2 0
2.931 -0.091 -3.716 -0 -1.2 0
3.141 -0.103 -3.958 -0 -1.2 0
3.403 -0.11 -4.259 -0 -1.2 0
3.716 -0.116 -4.622 -0 -1.2 0
3.721 -0.215 -4.627 -0 -1.2 0
3.724 -0.314 -4.63 -0 -1.2 0
3.713 -0.415 -4.617 -0 -1.2 0
3.714 -0.513 -4.618 -0 -1.2 0
3.714 -0.611 -4.617 -0 -1.2 0
3.705 -0.71 -4.608 -0 -1.2 0
3.704 -0.807 -4.604 -0 -1.2 0
3.694 -0.905 -4.593 -0 -1.2 0
3.695 -1.001 -4.594 -0 -1.2 0
3.683 -1.097 -4.58 -0 -1.2 0
3.683 -1.193 -4.578 -0 -1.2 0
3.681 -1.289 -4.576 -0 -1.2 0
3.679 -1.385 -4.573 -0 -1.2 0
3.669 -1.48 -4.561 -0 -1.2 0
3.658 -1.575 -4.548 -0 -1.2 0
8.849 -2.501 -10.539 -0 -1.2 0
8.839 -2.736 -10.526 -0 -1.2 0
8.845 -2.975 -10.533 -0 -1.2 0
8.771 -3.196 -10.446 -0 -1.2 0
8.752 -3.429 -10.424 -0 -1.2 0
8.751 -3.668 -10.421 -0 -1.2 0
8.746 -3.907 -10.414 -0 -1.2 0
8.739 -4.146 -10.405 -0 -1.2 0
8.729 -4.386 -10.392 -0 -1.2 0
0.765 0.009 -1.267 -0 -1.2 0
0.787 0.003 -1.292 -0 -1.2 0
0.817 0.01 -1.33 -0 -1.2 0
0.833 -0.003 -1.351 -0 -1.2 0
0.864 0.001 -1.389 -0 -1.2 0
0.89 -0.001 -1.422 -0 -1.2 0
0.917 -0.005 -1.455 -0 -1.2 0
0.943 -0.011 -1.488 -0 -1.2 0
0.97 -0.017 -1.521 -0 -1.2 0
1.002 -0.018 -1.561 -0 -1.2 0
1.04 -0.015 -1.607 -0 -1.2 0
1.073 -0.02 -1.648 -0 -1.2 0
1.105 -0.027 -1.688 -0 -1.2 0
1.143 -0.029 -1.736 -0 -1.2 0
1.187 -0.028 -1.79 -0 -1.2 0
1.231 -0.03 -1.845 -0 -1.2 0
1.276 -0.033 -1.901 -0 -1.2 0
1.314 -0.043 -1.95 -0 -1.2 0
1.365 -0.046 -2.012 -0 -1.2 0
1.422 -0.047 -2.082 -0 -1.2 0
1.484 -0.047 -2.16 -0 -1.2 0
1.553 -0.046 -2.245 -0 -1.2 0
1.622 -0.048 -2.33 -0 -1.2 0
1.703 -0.047 -2.431 -0 -1.2 0
1.784 -0.049 -2.533 -0 -1.2 0
1.866 -0.056 -2.634 -0 -1.2 0
1.96 -0.061 -2.751 -0 -1.2 0
2.073 -0.061 -2.891 -0 -1.2 0
2.191 -0.065 -3.039 -0 -1.2 0
2.348 -0.058 -3.232 -0 -1.2 0
2.467 -0.075 -3.382 -0 -1.2 0
2.637 -0.079 -3.591 -0 -1.2 0
2.793 -0.096 -3.787 -0 -1.2 0
3.007 -0.104 -4.052 -0 -1.2 0
3.263 -0.109 -4.37 -0 -1.2 0
3.557 -0.118 -4.736 -0 -1.2 0
3.655 -0.194 -4.856 -0 -1.2 0
3.646 -0.298 -4.845 -0 -1.2 0
3.642 -0.4 -4.839 -0 -1.2 0
3.637 -0.502 -4.833 -0 -1.2 0
3.629 -0.603 -4.824 -0 -1.2 0
3.635 -0.702 -4.83 -0 -1.2 0
3.633 -0.802 -4.827 -0 -1.2 0
3.623 -0.902 -4.815 -0 -1.2 0
3.625 -1.001 -4.817 -0 -1.2 0
3.613 -1.099 -4.802 -0 -1.2 0
3.613 -1.197 -4.801 -0 -1.2 0
3.605 -1.295 -4.791 -0 -1.2 0
3.603 -1.394 -4.788 -0 -1.2 0
3.599 -1.492 -4.783 -0 -1.2 0
3.575 -1.587 -4.754 -0 -1.2 0
8.902 -2.577 -11.371 -0 -1.2 0
8.779 -2.801 -11.217 -0 -1.2 0
8.697 -3.03 -11.115 -0 -1.2 0
8.583 -3.246 -10.971 -0 -1.2 0
8.571 -3.486 -10.955 -0 -1.2 0
8.555 -3.726 -10.936 -0 -1.2 0
8.557 -3.972 -10.937 -0 -1.2 0
8.554 -4.219 -10.934 -0 -1.2 0
8.538 -4.462 -10.912 -0 -1.2 0
0.726 0.002 -1.27 -0 -1.2 0
0.754 0.01 -1.308 -0 -1.2 0
0.774 0.003 -1.335 -0 -1.2 0
0.799 0.003 -1.369 -0 -1.2 0
0.824 0.001 -1.402 -0 -1.2 0
0.849 -0.001 -1.435 -0 -1.2 0
0.875 -0.005 -1.47 -0 -1.2 0
0.9 -0.011 -1.504 -0 -1.2 0
0.926 -0.017 -1.537 -0 -1.2 0
0.956 -0.019 -1.579 -0 -1.2 0
0.992 -0.016 -1.627 -0 -1.2 0
1.023 -0.021 -1.668 -0 -1.2 0
1.058 -0.022 -1.717 -0 -1.2 0
1.091 -0.03 -1.758 -0 -1.2 0
1.132 -0.029 -1.815 -0 -1.2 0
1.169 -0.036 -1.864 -0 -1.2 0
1.217 -0.034 -1.928 -0 -1.2 0
1.26 -0.039 -1.985 -0 -1.2 0
1.307 -0.043 -2.05 -0 -1.2 0
1.356 -0.048 -2.114 -0 -1.2 0
1.415 -0.048 -2.194 -0 -1.2 0
1.475 -0.051 -2.274 -0 -1.2 0
1.547 -0.049 -2.37 -0 -1.2 0
1.613 -0.055 -2.459 -0 -1.2 0
1.702 -0.05 -2.577 -0 -1.2 0
1.786 -0.054 -2.69 -0 -1.2 0
1.875 -0.059 -2.81 -0 -1.2 0
1.977 -0.062 -2.946 -0 -1.2 0
2.091 -0.066 -3.098 -0 -1.2 0
2.222 -0.067 -3.274 -0 -1.2 0
2.359 -0.073 -3.459 -0 -1.2 0
2.51 -0.082 -3.66 -0 -1.2 0
2.671 -0.095 -3.876 -0 -1.2 0
2.868 -0.105 -4.141 -0 -1.2 0
3.113 -0.11 -4.468 -0 -1.2 0
3.389 -0.121 -4.837 -0 -1.2 0
3.582 -0.17 -5.095 -0 -1.2 0
3.567 -0.278 -5.075 -0 -1.2 0
3.563 -0.383 -5.07 -0 -1.2 0
3.564 -0.486 -5.071 -0 -1.2 0
3.552 -0.591 -5.056 -0 -1.2 0
3.551 -0.693 -5.054 -0 -1.2 0
3.549 -0.795 -5.051 -0 -1.2 0
3.546 -0.897 -5.047 -0 -1.2 0
3.547 -0.999 -5.048 -0 -1.2 0
3.536 -1.1 -5.033 -0 -1.2 0
3.524 -1.2 -5.016 -0 -1.2 0
3.528 -1.302 -5.022 -0 -1.2 0
3.52 -1.402 -5.01 -0 -1.2 0
3.522 -1.503 -5.014 -0 -1.2 0
3.488 -1.6 -4.967 -0 -1.2 0
3.566 -1.714 -5.071 -0 -1.2 0
8.428 -2.815 -11.583 -0 -1.2 0
8.421 -3.062 -11.573 -0 -1.2 0
8.388 -3.302 -11.528 -0 -1.2 0
8.37 -3.546 -11.503 -0 -1.2 0
8.367 -3.796 -11.498 -0 -1.2 0
8.361 -4.046 -11.49 -0 -1.2 0
8.358 -4.298 -11.486 -0 -1.2 0
16.355 -7.884 -22.19 -0 -1.2 0
0.692 0.009 -1.286 -0 -1.2 0
0.711 0.003 -1.314 -0 -1.2 0
0.734 0.003 -1.347 -0 -1.2 0
0.762 0.009 -1.388 -0 -1.2 0
0.781 0.001 -1.416 -0 -1.2 0
0.805 -0.001 -1.451 -0 -1.2 0
0.829 -0.005 -1.485 -0 -1.2 0
0.853 -0.011 -1.521 -0 -1.2 0
0.882 -0.011 -1.562 -0 -1.2 0
0.911 -0.013 -1.604 -0 -1.2 0
0.936 -0.022 -1.641 -0 -1.2 0
0.97 -0.021 -1.69 -0 -1.2 0
0.999 -0.028 -1.732 -0 -1.2 0
1.033 -0.03 -1.782 -0 -1.2 0
1.074 -0.029 -1.84 -0 -1.2 0
1.113 -0.031 -1.898 -0 -1.2 0
1.154 -0.034 -1.956 -0 -1.2 0
1.199 -0.035 -2.022 -0 -1.2 0
1.24 -0.043 -2.081 -0 -1.2 0
1.285 -0.048 -2.148 -0 -1.2 0
1.348 -0.044 -2.238 -0 -1.2 0
1.4 -0.051 -2.312 -0 -1.2 0
1.457 -0.057 -2.396 -0 -1.2 0
1.529 -0.055 -2.502 -0 -1.2 0
1.603 -0.058 -2.609 -0 -1.2 0
1.688 -0.057 -2.732 -0 -1.2 0
1.778 -0.059 -2.863 -0 -1.2 0
1.869 -0.065 -2.996 -0 -1.2 0
1.977 -0.068 -3.151 -0 -1.2 0
2.107 -0.067 -3.34 -0 -1.2 0
2.232 -0.076 -3.522 -0 -1.2 0
2.38 -0.082 -3.736 -0 -1.2 0
2.533 -0.095 -3.959 -0 -1.2 0
2.708 -0.109 -4.214 -0 -1.2 0
2.952 -0.11 -4.567 -0 -1.2 0
3.213 -0.121 -4.946 -0 -1.2 0
3.485 -0.145 -5.341 -0 -1.2 0
3.488 -0.252 -5.346 -0 -1.2 0
3.485 -0.36 -5.341 -0 -1.2 0
3.481 -0.467 -5.335 -0 -1.2 0
3.475 -0.574 -5.327 -0 -1.2 0
3.469 -0.681 -5.317 -0 -1.2 0
3.467 -0.786 -5.314 -0 -1.2 0
3.464 -0.891 -5.31 -0 -1.2 0
3.403 -0.998 -5.221 -0 -1.2 0
3.449 -1.1 -5.288 -0 -1.2 0
3.448 -1.204 -5.287 -0 -1.2 0
3.441 -1.308 -5.277 -0 -1.2 0
3.439 -1.411 -5.273 -0 -1.2 0
3.418 -1.513 -5.243 -0 -1.2 0
3.413 -1.616 -5.237 -0 -1.2 0
8.17 -2.603 -12.14 -0 -1.2 0
8.159 -2.853 -12.125 -0 -1.2 0
8.152 -3.105 -12.114 -0 -1.2 0
8.153 -3.359 -12.116 -0 -1.2 0
8.147 -3.613 -12.106 -0 -1.2 0
8.143 -3.869 -12.1 -0 -1.2 0
8.137 -4.126 -12.091 -0 -1.2 0
8.128 -4.383 -12.077 -0 -1.2 0
0.652 0.002 -1.286 -0 -1.2 0
0.678 0.01 -1.326 -0 -1.2 0
0.692 -0.002 -1.348 -0 -1.2 0
0.718 0.003 -1.389 -0 -1.2 0
0.737 -0.005 -1.418 -0 -1.2 0
0.764 -0.001 -1.46 -0 -1.2 0
0.791 0 -1.502 -0 -1.2 0
0.809 -0.011 -1.531 -0 -1.2 0
0.841 -0.005 -1.581 -0 -1.2 0
0.864 -0.013 -1.617 -0 -1.2 0
0.891 -0.016 -1.661 -0 -1.2 0
0.919 -0.021 -1.705 -0 -1.2 0
0.953 -0.022 -1.755 -0 -1.2 0
0.985 -0.025 -1.806 -0 -1.2 0
1.023 -0.024 -1.866 -0 -1.2 0
1.06 -0.026 -1.926 -0 -1.2 0
1.099 -0.029 -1.985 -0 -1.2 0
1.137 -0.035 -2.045 -0 -1.2 0
1.186 -0.034 -2.121 -0 -1.2 0
1.219 -0.048 -2.174 -0 -1.2 0
1.282 -0.04 -2.273 -0 -1.2 0
1.322 -0.055 -2.335 -0 -1.2 0
1.386 -0.053 -2.436 -0 -1.2 0
1.45 -0.055 -2.536 -0 -1.2 0
1.521 -0.058 -2.645 -0 -1.2 0
1.606 -0.054 -2.78 -0 -1.2 0
1.687 -0.059 -2.906 -0 -1.2 0
1.773 -0.065 -3.041 -0 -1.2 0
1.881 -0.066 -3.209 -0 -1.2 0
2.004 -0.064 -3.402 -0 -1.2 0
2.123 -0.073 -3.588 -0 -1.2 0
2.268 -0.077 -3.815 -0 -1.2 0
2.419 -0.088 -4.051 -0 -1.2 0
2.581 -0.105 -4.305 -0 -1.2 0
2.806 -0.109 -4.658 -0 -1.2 0
3.059 -0.119 -5.053 -0 -1.2 0
3.355 -0.132 -5.516 -0 -1.2 0
3.4 -0.229 -5.588 -0 -1.2 0
3.398 -0.34 -5.583 -0 -1.2 0
3.399 -0.449 -5.585 -0 -1.2 0
3.399 -0.559 -5.586 -0 -1.2 0
3.393 -0.668 -5.577 -0 -1.2 0
3.386 -0.778 -5.566 -0 -1.2 0
3.377 -0.886 -5.553 -0 -1.2 0
3.358 -0.995 -5.521 -0 -1.2 0
3.352 -1.101 -5.514 -0 -1.2 0
3.368 -1.208 -5.538 -0 -1.2 0
3.367 -1.315 -5.536 -0 -1.2 0
3.358 -1.422 -5.523 -0 -1.2 0
3.323 -1.525 -5.467 -0 -1.2 0
3.324 -1.631 -5.469 -0 -1.2 0
8.158 -2.684 -13.037 -0 -1.2 0
8.147 -2.948 -13.019 -0 -1.2 0
7.98 -3.171 -12.757 -0 -1.2 0
7.954 -3.426 -12.717 -0 -1.2 0
7.941 -3.685 -12.697 -0 -1.2 0
7.936 -3.947 -12.69 -0 -1.2 0
7.935 -4.213 -12.688 -0 -1.2 0
7.92 -4.475 -12.664 -0 -1.2 0
0.62 0.009 -1.297 -0 -1.2 0
0.641 0.01 -1.331 -0 -1.2 0
0.655 -0.002 -1.355 -0 -1.2 0
0.683 0.009 -1.403 -0 -1.2 0
0.704 0.007 -1.439 -0 -1.2 0
0.722 -0.001 -1.469 -0 -1.2 0
0.747 0 -1.512 -0 -1.2 0
0.769 -0.005 -1.549 -0 -1.2 0
0.795 -0.005 -1.592 -0 -1.2 0
0.821 -0.007 -1.636 -0 -1.2 0
0.843 -0.016 -1.674 -0 -1.2 0
0.873 -0.016 -1.725 -0 -1.2 0
0.905 -0.017 -1.778 -0 -1.2 0
0.936 -0.019 -1.83 -0 -1.2 0
0.971 -0.019 -1.89 -0 -1.2 0
1.007 -0.021 -1.952 -0 -1.2 0
1.043 -0.024 -2.013 -0 -1.2 0
1.08 -0.03 -2.074 -0 -1.2 0
1.125 -0.029 -2.151 -0 -1.2 0
1.162 -0.04 -2.213 -0 -1.2 0
1.213 -0.04 -2.299 -0 -1.2 0
1.263 -0.043 -2.385 -0 -1.2 0
1.31 -0.053 -2.464 -0 -1.2 0
1.381 -0.048 -2.584 -0 -1.2 0
1.442 -0.054 -2.688 -0 -1.2 0
1.513 -0.057 -2.808 -0 -1.2 0
1.594 -0.059 -2.945 -0 -1.2 0
1.685 -0.059 -3.1 -0 -1.2 0
1.782 -0.063 -3.264 -0 -1.2 0
1.899 -0.061 -3.461 -0 -1.2 0
2.026 -0.063 -3.676 -0 -1.2 0
2.153 -0.072 -3.891 -0 -1.2 0
2.306 -0.079 -4.149 -0 -1.2 0
2.469 -0.093 -4.425 -0 -1.2 0
2.677 -0.1 -4.777 -0 -1.2 0
2.911 -0.112 -5.173 -0 -1.2 0
3.206 -0.121 -5.672 -0 -1.2 0
3.532 -0.141 -6.223 -0 -1.2 0
3.984 -0.153 -6.989 -0 -1.2 0
3.293 -0.433 -5.82 -0 -1.2 0
3.299 -0.544 -5.829 -0 -1.2 0
3.298 -0.656 -5.828 -0 -1.2 0
3.296 -0.768 -5.827 -0 -1.2 0
3.293 -0.879 -5.822 -0 -1.2 0
3.269 -0.991 -5.781 -0 -1.2 0
3.279 -1.101 -5.799 -0 -1.2 0
3.279 -1.211 -5.798 -0 -1.2 0
3.277 -1.322 -5.796 -0 -1.2 0
3.249 -1.43 -5.749 -0 -1.2 0
3.256 -1.541 -5.761 -0 -1.2 0
7.787 -2.432 -13.429 -0 -1.2 0
7.789 -2.701 -13.432 -0 -1.2 0
7.779 -2.967 -13.416 -0 -1.2 0
7.75 -3.229 -13.368 -0 -1.2 0
7.735 -3.494 -13.343 -0 -1.2 0
7.737 -3.766 -13.348 -0 -1.2 0
7.727 -4.035 -13.331 -0 -1.2 0
7.724 -4.308 -13.327 -0 -1.2 0
0.58 0.009 -1.302 -0 -1.2 0
0.597 0.003 -1.331 -0 -1.2 0
0.612 -0.002 -1.361 -0 -1.2 0
0.639 0.009 -1.41 -0 -1.2 0
0.656 0.001 -1.44 -0 -1.2 0
0.675 -0.001 -1.478 -0 -1.2 0
0.699 0 -1.521 -0 -1.2 0
0.723 0.001 -1.566 -0 -1.2 0
0.744 -0.005 -1.603 -0 -1.2 0
0.768 -0.007 -1.649 -0 -1.2 0
0.793 -0.011 -1.695 -0 -1.2 0
0.822 -0.01 -1.747 -0 -1.2 0
0.851 -0.011 -1.8 -0 -1.2 0
0.884 -0.009 -1.862 -0 -1.2 0
0.917 -0.009 -1.923 -0 -1.2 0
0.951 -0.011 -1.985 -0 -1.2 0
0.981 -0.019 -2.041 -0 -1.2 0
1.019 -0.021 -2.111 -0 -1.2 0
1.062 -0.02 -2.19 -0 -1.2 0
1.096 -0.031 -2.254 -0 -1.2 0
1.148 -0.027 -2.35 -0 -1.2 0
1.183 -0.043 -2.414 -0 -1.2 0
1.244 -0.038 -2.527 -0 -1.2 0
1.297 -0.044 -2.625 -0 -1.2 0
1.359 -0.047 -2.739 -0 -1.2 0
1.426 -0.05 -2.862 -0 -1.2 0
1.503 -0.052 -3.003 -0 -1.2 0
1.588 -0.053 -3.16 -0 -1.2 0
1.683 -0.054 -3.335 -0 -1.2 0
1.792 -0.053 -3.537 -0 -1.2 0
1.911 -0.056 -3.757 -0 -1.2 0
2.039 -0.061 -3.993 -0 -1.2 0
2.169 -0.076 -4.232 -0 -1.2 0
2.327 -0.087 -4.522 -0 -1.2 0
2.522 -0.094 -4.882 -0 -1.2 0
2.755 -0.101 -5.312 -0 -1.2 0
3.036 -0.11 -5.831 -0 -1.2 0
3.341 -0.131 -6.393 -0 -1.2 0
3.751 -0.149 -7.149 -0 -1.2 0
4.308 -0.164 -8.176 -0 -1.2 0
4.966 -0.2 -9.39 -0 -1.2 0
5.886 -0.248 -11.086 -0 -1.2 0
7.054 -0.335 -13.239 -0 -1.2 0
3.18 -0.872 -6.099 -0 -1.2 0
3.157 -0.988 -6.057 -0 -1.2 0
3.177 -1.101 -6.093 -0 -1.2 0
3.176 -1.215 -6.092 -0 -1.2 0
3.17 -1.329 -6.081 -0 -1.2 0
3.139 -1.44 -6.024 -0 -1.2 0
7.501 -2.197 -14.068 -0 -1.2 0
7.494 -2.47 -14.058 -0 -1.2 0
7.491 -2.745 -14.053 -0 -1.2 0
7.494 -3.022 -14.061 -0 -1.2 0
7.487 -3.297 -14.046 -0 -1.2 0
7.481 -3.574 -14.037 -0 -1.2 0
7.473 -3.851 -14.022 -0 -1.2 0
7.472 -4.132 -14.021 -0 -1.2 0
7.459 -4.409 -13.999 -0 -1.2 0
0.54 0.002 -1.298 -0 -1.2 0
0.557 0.003 -1.335 -0 -1.2 0
0.579 0.01 -1.377 -0 -1.2 0
0.598 0.009 -1.415 -0 -1.2 0
0.612 0.001 -1.446 -0 -1.2 0
0.631 -0.001 -1.483 -0 -1.2 0
0.654 0 -1.528 -0 -1.2 0
0.673 -0.005 -1.567 -0 -1.2 0
0.696 -0.005 -1.611 -0 -1.2 0
0.722 -0.001 -1.665 -0 -1.2 0
0.741 -0.011 -1.703 -0 -1.2 0
0.771 -0.004 -1.765 -0 -1.2 0
0.799 -0.006 -1.819 -0 -1.2 0
0.826 -0.009 -1.875 -0 -1.2 0
0.858 -0.009 -1.937 -0 -1.2 0
0.889 -0.011 -2.001 -0 -1.2 0
0.925 -0.01 -2.072 -0 -1.2 0
0.96 -0.011 -2.144 -0 -1.2 0
0.993 -0.02 -2.209 -0 -1.2 0
1.029 -0.026 -2.282 -0 -1.2 0
1.074 -0.027 -2.371 -0 -1.2 0
1.118 -0.031 -2.462 -0 -1.2 0
1.167 -0.034 -2.56 -0 -1.2 0
1.221 -0.037 -2.668 -0 -1.2 0
1.279 -0.04 -2.785 -0 -1.2 0
1.346 -0.04 -2.918 -0 -1.2 0
1.409 -0.049 -3.044 -0 -1.2 0
1.493 -0.048 -3.214 -0 -1.2 0
1.577 -0.052 -3.384 -0 -1.2 0
1.688 -0.046 -3.606 -0 -1.2 0
1.782 -0.058 -3.796 -0 -1.2 0
1.902 -0.064 -4.037 -0 -1.2 0
2.036 -0.071 -4.306 -0 -1.2 0
2.196 -0.076 -4.627 -0 -1.2 0
2.366 -0.09 -4.968 -0 -1.2 0
2.593 -0.094 -5.424 -0 -1.2 0
2.842 -0.109 -5.925 -0 -1.2 0
3.163 -0.12 -6.57 -0 -1.2 0
3.546 -0.139 -7.339 -0 -1.2 0
4.076 -0.152 -8.404 -0 -1.2 0
4.673 -0.195 -9.603 -0 -1.2 0
5.581 -0.236 -11.429 -0 -1.2 0
6.713 -0.321 -13.702 -0 -1.2 0
7.288 -0.538 -14.858 -0 -1.2 0
7.282 -0.822 -14.847 -0 -1.2 0
7.282 -1.105 -14.849 -0 -1.2 0
7.272 -1.388 -14.83 -0 -1.2 0
3.034 -1.336 -6.314 -0 -1.2 0
3.045 -1.454 -6.336 -0 -1.2 0
7.348 -2.251 -14.985 -0 -1.2 0
7.377 -2.544 -15.044 -0 -1.2 0
7.369 -2.832 -15.028 -0 -1.2 0
7.296 -3.103 -14.884 -0 -1.2 0
7.239 -3.374 -14.771 -0 -1.2 0
7.234 -3.661 -14.76 -0 -1.2 0
7.234 -3.951 -14.762 -0 -1.2 0
7.227 -4.239 -14.75 -0 -1.2 0
0.499 0.002 -1.3 -0 -1.2 0
0.519 0.01 -1.344 -0 -1.2 0
0.53 -0.002 -1.367 -0 -1.2 0
0.55 0.003 -1.412 -0 -1.2 0
0.568 0.001 -1.45 -0 -1.2 0
0.581 -0.008 -1.481 -0 -1.2 0
0.605 0 -1.534 -0 -1.2 0
0.623 -0.005 -1.573 -0 -1.2 0
0.645 -0.005 -1.618 -0 -1.2 0
0.669 -0.001 -1.673 -0 -1.2 0
0.687 -0.011 -1.713 -0 -1.2 0
0.712 -0.01 -1.767 -0 -1.2 0
0.74 -0.006 -1.83 -0 -1.2 0
0.765 -0.009 -1.886 -0 -1.2 0
0.794 -0.009 -1.95 -0 -1.2 0
0.823 -0.011 -2.014 -0 -1.2 0
0.857 -0.01 -2.087 -0 -1.2 0
0.89 -0.011 -2.16 -0 -1.2 0
0.92 -0.02 -2.226 -0 -1.2 0
0.958 -0.022 -2.308 -0 -1.2 0
0.999 -0.023 -2.399 -0 -1.2 0
1.037 -0.031 -2.483 -0 -1.2 0
1.086 -0.03 -2.592 -0 -1.2 0
1.136 -0.033 -2.701 -0 -1.2 0
1.186 -0.04 -2.811 -0 -1.2 0
1.243 -0.044 -2.939 -0 -1.2 0
1.31 -0.047 -3.085 -0 -1.2 0
1.388 -0.045 -3.257 -0 -1.2 0
1.463 -0.052 -3.422 -0 -1.2 0
1.566 -0.046 -3.648 -0 -1.2 0
1.653 -0.058 -3.839 -0 -1.2 0
1.764 -0.064 -4.086 -0 -1.2 0
1.896 -0.067 -4.376 -0 -1.2 0
2.037 -0.076 -4.686 -0 -1.2 0
2.203 -0.086 -5.05 -0 -1.2 0
2.401 -0.097 -5.487 -0 -1.2 0
2.644 -0.106 -6.024 -0 -1.2 0
2.933 -0.12 -6.661 -0 -1.2 0
3.273 -0.143 -7.408 -0 -1.2 0
3.756 -0.16 -8.472 -0 -1.2 0
4.347 -0.193 -9.774 -0 -1.2 0
5.182 -0.235 -11.613 -0 -1.2 0
6.211 -0.324 -13.88 -0 -1.2 0
7.018 -0.517 -15.656 -0 -1.2 0
7.008 -0.812 -15.636 -0 -1.2 0
7.008 -1.106 -15.638 -0 -1.2 0
7.002 -1.399 -15.627 -0 -1.2 0
6.995 -1.693 -15.611 -0 -1.2 0
6.993 -1.987 -15.608 -0 -1.2 0
6.989 -2.281 -15.601 -0 -1.2 0
6.983 -2.575 -15.59 -0 -1.2 0
6.979 -2.87 -15.582 -0 -1.2 0
6.977 -3.166 -15.579 -0 -1.2 0
6.965 -3.46 -15.553 -0 -1.2 0
6.963 -3.759 -15.549 -0 -1.2 0
6.962 -4.059 -15.55 -0 -1.2 0
6.956 -4.359 -15.537 -0 -1.2 0
0.457 0.002 -1.3 -0 -1.2 0
0.471 -0.003 -1.331 -0 -1.2 0
0.485 -0.002 -1.369 -0 -1.2 0
0.504 0.003 -1.413 -0 -1.2 0
0.52 0.001 -1.452 -0 -1.2 0
0.533 -0.008 -1.484 -0 -1.2 0
0.552 -0.005 -1.531 -0 -1.2 0
0.571 -0.005 -1.577 -0 -1.2 0
0.59 -0.005 -1.624 -0 -1.2 0
0.609 -0.007 -1.672 -0 -1.2 0
0.632 -0.005 -1.727 -0 -1.2 0
0.652 -0.01 -1.775 -0 -1.2 0
0.678 -0.006 -1.839 -0 -1.2 0
0.702 -0.009 -1.896 -0 -1.2 0
0.728 -0.009 -1.961 -0 -1.2 0
0.758 -0.006 -2.035 -0 -1.2 0
0.785 -0.01 -2.1 -0 -1.2 0
0.812 -0.016 -2.167 -0 -1.2 0
0.839 -0.025 -2.233 -0 -1.2 0
0.873 -0.026 -2.317 -0 -1.2 0
0.918 -0.019 -2.426 -0 -1.2 0
0.956 -0.023 -2.519 -0 -1.2 0
0.994 -0.03 -2.614 -0 -1.2 0
1.044 -0.029 -2.733 -0 -1.2 0
1.093 -0.033 -2.854 -0 -1.2 0
1.146 -0.038 -2.985 -0 -1.2 0
1.203 -0.043 -3.124 -0 -1.2 0
1.271 -0.045 -3.29 -0 -1.2 0
1.35 -0.043 -3.483 -0 -1.2 0
1.43 -0.049 -3.678 -0 -1.2 0
1.513 -0.058 -3.882 -0 -1.2 0
1.618 -0.061 -4.141 -0 -1.2 0
1.747 -0.06 -4.455 -0 -1.2 0
1.872 -0.072 -4.761 -0 -1.2 0
2.023 -0.083 -5.131 -0 -1.2 0
2.208 -0.092 -5.584 -0 -1.2 0
2.42 -0.106 -6.103 -0 -1.2 0
2.681 -0.121 -6.742 -0 -1.2 0
3.002 -0.141 -7.528 -0 -1.2 0
3.44 -0.159 -8.601 -0 -1.2 0
3.988 -0.19 -9.944 -0 -1.2 0
4.756 -0.233 -11.822 -0 -1.2 0
5.763 -0.313 -14.284 -0 -1.2 0
6.681 -0.493 -16.533 -0 -1.2 0
6.668 -0.801 -16.505 -0 -1.2 0
6.665 -1.106 -16.498 -0 -1.2 0
6.659 -1.411 -16.486 -0 -1.2 0
6.664 -1.717 -16.497 -0 -1.2 0
6.628 -2.019 -16.411 -0 -1.2 0
6.616 -2.322 -16.385 -0 -1.2 0
6.614 -2.627 -16.381 -0 -1.2 0
6.609 -2.933 -16.372 -0 -1.2 0
6.648 -3.253 -16.47 -0 -1.2 0
6.629 -3.556 -16.423 -0 -1.2 0
6.626 -3.867 -16.418 -0 -1.2 0
6.622 -4.177 -16.408 -0 -1.2 0
6.615 -4.489 -16.392 -0 -1.2 0
0.417 0.002 -1.299 -0 -1.2 0
0.43 0.003 -1.337 -0 -1.2 0
0.439 -0.009 -1.361 -0 -1.2 0
0.459 0.003 -1.414 -0 -1.2 0
0.471 -0.005 -1.446 -0 -1.2 0
0.485 -0.008 -1.486 -0 -1.2 0
0.503 -0.005 -1.533 -0 -1.2 0
0.517 -0.011 -1.572 -0 -1.2 0
0.537 -0.005 -1.628 -0 -1.2 0
0.555 -0.007 -1.676 -0 -1.2 0
0.576 -0.005 -1.732 -0 -1.2 0
0.6 0 -1.796 -0 -1.2 0
0.617 -0.006 -1.846 -0 -1.2 0
0.638 -0.009 -1.903 -0 -1.2 0
0.665 -0.003 -1.977 -0 -1.2 0
0.687 -0.011 -2.035 -0 -1.2 0
0.712 -0.015 -2.103 -0 -1.2 0
0.739 -0.016 -2.178 -0 -1.2 0
0.767 -0.02 -2.254 -0 -1.2 0
0.799 -0.022 -2.338 -0 -1.2 0
0.833 -0.023 -2.433 -0 -1.2 0
0.871 -0.023 -2.535 -0 -1.2 0
0.912 -0.022 -2.648 -0 -1.2 0
0.954 -0.025 -2.761 -0 -1.2 0
1.003 -0.025 -2.893 -0 -1.2 0
1.05 -0.031 -3.024 -0 -1.2 0
1.106 -0.034 -3.174 -0 -1.2 0
1.171 -0.032 -3.352 -0 -1.2 0
1.231 -0.043 -3.512 -0 -1.2 0
1.307 -0.046 -3.719 -0 -1.2 0
1.379 -0.058 -3.917 -0 -1.2 0
1.482 -0.056 -4.198 -0 -1.2 0
1.593 -0.06 -4.498 -0 -1.2 0
1.723 -0.062 -4.854 -0 -1.2 0
1.855 -0.077 -5.211 -0 -1.2 0
2.021 -0.088 -5.661 -0 -1.2 0
2.22 -0.1 -6.205 -0 -1.2 0
2.462 -0.114 -6.863 -0 -1.2 0
2.754 -0.135 -7.661 -0 -1.2 0
3.142 -0.158 -8.711 -0 -1.2 0
3.693 -0.176 -10.212 -0 -1.2 0
4.403 -0.219 -12.145 -0 -1.2 0
5.352 -0.298 -14.726 -0 -1.2 0
6.353 -0.467 -17.448 -0 -1.2 0
6.351 -0.787 -17.447 -0 -1.2 0
6.345 -1.106 -17.43 -0 -1.2 0
6.339 -1.425 -17.418 -0 -1.2 0
6.336 -1.743 -17.411 -0 -1.2 0
6.33 -2.062 -17.398 -0 -1.2 0
6.326 -2.381 -17.389 -0 -1.2 0
6.324 -2.701 -17.384 -0 -1.2 0
6.32 -3.022 -17.374 -0 -1.2 0
6.316 -3.343 -17.368 -0 -1.2 0
6.308 -3.664 -17.348 -0 -1.2 0
6.308 -3.989 -17.35 -0 -1.2 0
6.306 -4.315 -17.347 -0 -1.2 0
0.374 -0.004 -1.288 -0 -1.2 0
0.387 -0.003 -1.326 -0 -1.2 0
0.397 -0.009 -1.358 -0 -1.2 0
0.41 -0.01 -1.397 -0 -1.2 0
0.422 -0.011 -1.437 -0 -1.2 0
0.441 -0.001 -1.491 -0 -1.2 0
0.457 0 -1.538 -0 -1.2 0
0.467 -0.011 -1.571 -0 -1.2 0
0.486 -0.005 -1.627 -0 -1.2 0
0.501 -0.007 -1.676 -0 -1.2 0
0.517 -0.011 -1.725 -0 -1.2 0
0.539 -0.004 -1.79 -0 -1.2 0
0.556 -0.011 -1.84 -0 -1.2 0
0.58 -0.004 -1.914 -0 -1.2 0
0.598 -0.009 -1.973 -0 -1.2 0
0.621 -0.011 -2.04 -0 -1.2 0
0.643 -0.015 -2.107 -0 -1.2 0
0.668 -0.016 -2.184 -0 -1.2 0
0.693 -0.02 -2.261 -0 -1.2 0
0.721 -0.022 -2.347 -0 -1.2 0
0.755 -0.019 -2.451 -0 -1.2 0
0.79 -0.019 -2.555 -0 -1.2 0
0.824 -0.022 -2.66 -0 -1.2 0
0.859 -0.029 -2.765 -0 -1.2 0
0.902 -0.029 -2.899 -0 -1.2 0
0.946 -0.034 -3.032 -0 -1.2 0
1.002 -0.03 -3.202 -0 -1.2 0
1.052 -0.038 -3.355 -0 -1.2 0
1.112 -0.043 -3.535 -0 -1.2 0
1.177 -0.049 -3.735 -0 -1.2 0
1.246 -0.058 -3.944 -0 -1.2 0
1.333 -0.061 -4.21 -0 -1.2 0
1.432 -0.064 -4.514 -0 -1.2 0
1.551 -0.066 -4.875 -0 -1.2 0
1.67 -0.081 -5.236 -0 -1.2 0
1.819 -0.092 -5.692 -0 -1.2 0
1.997 -0.104 -6.234 -0 -1.2 0
2.209 -0.121 -6.879 -0 -1.2 0
2.486 -0.136 -7.725 -0 -1.2 0
2.819 -0.164 -8.741 -0 -1.2 0
3.306 -0.185 -10.222 -0 -1.2 0
3.945 -0.227 -12.17 -0 -1.2 0
4.874 -0.292 -15 -0 -1.2 0
5.987 -0.44 -18.392 -0 -1.2 0
6.007 -0.773 -18.458 -0 -1.2 0
6.001 -1.107 -18.442 -0 -1.2 0
5.999 -1.441 -18.439 -0 -1.2 0
6.002 -1.776 -18.45 -0 -1.2 0
5.981 -2.106 -18.389 -0 -1.2 0
5.974 -2.439 -18.37 -0 -1.2 0
5.961 -2.771 -18.335 -0 -1.2 0
5.989 -3.116 -18.418 -0 -1.2 0
5.972 -3.448 -18.373 -0 -1.2 0
5.967 -3.785 -18.359 -0 -1.2 0
5.966 -4.125 -18.36 -0 -1.2 0
5.951 -4.459 -18.316 -0 -1.2 0
0.331 -0.004 -1.284 -0 -1.2 0
0.342 -0.003 -1.323 -0 -1.2 0
0.353 -0.002 -1.363 -0 -1.2 0
0.363 -0.01 -1.395 -0 -1.2 0
0.376 -0.005 -1.443 -0 -1.2 0
0.388 -0.008 -1.483 -0 -1.2 0
0.401 -0.005 -1.531 -0 -1.2 0
0.415 -0.005 -1.579 -0 -1.2 0
0.427 -0.011 -1.62 -0 -1.2 0
0.445 -0.001 -1.685 -0 -1.2 0
0.458 -0.011 -1.727 -0 -1.2 0
0.477 -0.004 -1.793 -0 -1.2 0
0.493 -0.006 -1.851 -0 -1.2 0
0.508 -0.014 -1.902 -0 -1.2 0
0.528 -0.014 -1.969 -0 -1.2 0
0.546 -0.016 -2.037 -0 -1.2 0
0.569 -0.015 -2.114 -0 -1.2 0
0.591 -0.016 -2.191 -0 -1.2 0
0.611 -0.025 -2.261 -0 -1.2 0
0.638 -0.022 -2.356 -0 -1.2 0
0.666 -0.023 -2.452 -0 -1.2 0
0.696 -0.023 -2.558 -0 -1.2 0
0.725 -0.03 -2.655 -0 -1.2 0
0.757 -0.033 -2.77 -0 -1.2 0
0.796 -0.033 -2.905 -0 -1.2 0
0.835 -0.037 -3.04 -0 -1.2 0
0.879 -0.039 -3.194 -0 -1.2 0
0.931 -0.038 -3.375 -0 -1.2 0
0.981 -0.046 -3.549 -0 -1.2 0
1.038 -0.051 -3.751 -0 -1.2 0
1.1 -0.061 -3.964 -0 -1.2 0
1.177 -0.064 -4.232 -0 -1.2 0
1.259 -0.071 -4.521 -0 -1.2 0
1.362 -0.074 -4.876 -0 -1.2 0
1.474 -0.083 -5.269 -0 -1.2 0
1.593 -0.101 -5.683 -0 -1.2 0
1.747 -0.115 -6.221 -0 -1.2 0
1.935 -0.131 -6.875 -0 -1.2 0
2.178 -0.146 -7.72 -0 -1.2 0
2.473 -0.171 -8.748 -0 -1.2 0
2.878 -0.2 -10.16 -0 -1.2 0
3.444 -0.239 -12.131 -0 -1.2 0
4.227 -0.308 -14.86 -0 -1.2 0
5.551 -0.407 -19.471 -0 -1.2 0
5.583 -0.755 -19.586 -0 -1.2 0
5.578 -1.106 -19.57 -0 -1.2 0
5.576 -1.457 -19.568 -0 -1.2 0
5.57 -1.807 -19.549 -0 -1.2 0
5.565 -2.158 -19.535 -0 -1.2 0
5.56 -2.509 -19.524 -0 -1.2 0
5.56 -2.862 -19.526 -0 -1.2 0
5.552 -3.213 -19.503 -0 -1.2 0
5.548 -3.566 -19.494 -0 -1.2 0
5.54 -3.918 -19.469 -0 -1.2 0
5.541 -4.276 -19.476 -0 -1.2 0
5.541 -4.636 -19.477 -0 -1.2 0
0.29 -0.004 -1.278 -0 -1.2 0
0.301 -0.003 -1.317 -0 -1.2 0
0.309 -0.009 -1.35 -0 -1.2 0
0.318 -0.01 -1.39 -0 -1.2 0
0.331 -0.005 -1.438 -0 -1.2 0
0.338 -0.014 -1.471 -0 -1.2 0
0.351 -0.012 -1.519 -0 -1.2 0
0.361 -0.017 -1.56 -0 -1.2 0
0.375 -0.011 -1.617 -0 -1.2 0
0.389 -0.007 -1.675 -0 -1.2 0
0.402 -0.011 -1.725 -0 -1.2 0
0.417 -0.01 -1.783 -0 -1.2 0
0.433 -0.006 -1.851 -0 -1.2 0
0.446 -0.014 -1.901 -0 -1.2 0
0.464 -0.014 -1.969 -0 -1.2 0
0.482 -0.011 -2.046 -0 -1.2 0
0.498 -0.019 -2.107 -0 -1.2 0
0.517 -0.021 -2.185 -0 -1.2 0
0.537 -0.025 -2.264 -0 -1.2 0
0.559 -0.026 -2.351 -0 -1.2 0
0.585 -0.023 -2.457 -0 -1.2 0
0.612 -0.023 -2.564 -0 -1.2 0
0.636 -0.03 -2.661 -0 -1.2 0
0.667 -0.029 -2.787 -0 -1.2 0
0.699 -0.033 -2.914 -0 -1.2 0
0.735 -0.033 -3.059 -0 -1.2 0
0.769 -0.042 -3.196 -0 -1.2 0
0.811 -0.047 -3.362 -0 -1.2 0
0.859 -0.048 -3.555 -0 -1.2 0
0.907 -0.056 -3.75 -0 -1.2 0
0.964 -0.063 -3.973 -0 -1.2 0
1.031 -0.066 -4.243 -0 -1.2 0
1.101 -0.076 -4.526 -0 -1.2 0
1.188 -0.081 -4.875 -0 -1.2 0
1.283 -0.092 -5.253 -0 -1.2 0
1.402 -0.1 -5.728 -0 -1.2 0
1.531 -0.118 -6.242 -0 -1.2 0
1.698 -0.131 -6.912 -0 -1.2 0
1.905 -0.149 -7.745 -0 -1.2 0
2.162 -0.175 -8.774 -0 -1.2 0
2.509 -0.206 -10.16 -0 -1.2 0
3.029 -0.236 -12.245 -0 -1.2 0
3.717 -0.306 -15 -0 -1.2 0
5.176 -0.734 -20.848 -0 -1.2 0
5.164 -1.105 -20.803 -0 -1.2 0
5.159 -1.475 -20.79 -0 -1.2 0
1.833 -1.362 -7.468 -0 -1.2 0
1.835 -1.493 -7.482 -0 -1.2 0
5.248 -2.614 -21.16 -0 -1.2 0
5.237 -2.99 -21.122 -0 -1.2 0
5.162 -3.337 -20.826 -0 -1.2 0
5.131 -3.698 -20.709 -0 -1.2 0
5.126 -4.07 -20.691 -0 -1.2 0
5.13 -4.451 -20.714 -0 -1.2 0
0.249 -0.004 -1.27 -0 -1.2 0
