# .PCD v.7 - Point Cloud Data file format
FIELDS x y z vp_x vp_y vp_z
SIZE 4 4 4 4 4 4
TYPE F F F F F F
COUNT 1 1 1 1 1 1
WIDTH 1633
HEIGHT 1
VIEWPOINT 0 -1.20013 0 1 0 0 0
POINTS 1633
DATA ascii
7.546 -7.268 1.546 -0 -1.2 0
4.814 -5.147 0.996 -0 -1.2 0
6.871 -7.122 1.415 -0 -1.2 0
5.218 -5.814 1.082 -0 -1.2 0
4.242 -5.051 0.886 -0 -1.2 0
4.244 -5.193 0.888 -0 -1.2 0
1.201 0.037 0.197 -0 -1.2 0
1.235 0.032 0.202 -0 -1.2 0
1.276 0.032 0.208 -0 -1.2 0
1.317 0.032 0.215 -0 -1.2 0
1.358 0.031 0.221 -0 -1.2 0
1.407 0.034 0.229 -0 -1.2 0
1.45 0.03 0.235 -0 -1.2 0
1.5 0.032 0.243 -0 -1.2 0
1.55 0.032 0.251 -0 -1.2 0
1.601 0.029 0.259 -0 -1.2 0
1.661 0.032 0.268 -0 -1.2 0
1.729 0.039 0.279 -0 -1.2 0
1.781 0.033 0.287 -0 -1.2 0
1.85 0.035 0.298 -0 -1.2 0
1.92 0.036 0.308 -0 -1.2 0
1.999 0.04 0.32 -0 -1.2 0
2.061 0.032 0.329 -0 -1.2 0
2.141 0.031 0.342 -0 -1.2 0
2.221 0.027 0.354 -0 -1.2 0
2.328 0.035 0.371 -0 -1.2 0
2.419 0.03 0.385 -0 -1.2 0
2.519 0.028 0.401 -0 -1.2 0
2.646 0.033 0.42 -0 -1.2 0
2.775 0.035 0.44 -0 -1.2 0
2.922 0.04 0.463 -0 -1.2 0
3.071 0.039 0.487 -0 -1.2 0
3.248 0.045 0.514 -0 -1.2 0
3.436 0.048 0.543 -0 -1.2 0
3.634 0.047 0.574 -0 -1.2 0
3.871 0.052 0.611 -0 -1.2 0
4.118 0.051 0.649 -0 -1.2 0
4.414 0.054 0.696 -0 -1.2 0
4.76 0.06 0.749 -0 -1.2 0
5.145 0.062 0.809 -0 -1.2 0
5.561 0.057 0.874 -0 -1.2 0
6.133 0.068 0.962 -0 -1.2 0
6.824 0.08 1.07 -0 -1.2 0
7.595 0.08 1.189 -0 -1.2 0
8.271 0.039 1.295 -0 -1.2 0
8.976 -0.021 1.406 -0 -1.2 0
9.376 -0.137 1.47 -0 -1.2 0
9.362 -0.304 1.47 -0 -1.2 0
9.334 -0.47 1.468 -0 -1.2 0
9.334 -0.633 1.47 -0 -1.2 0
9.3 -0.797 1.468 -0 -1.2 0
9.264 -0.96 1.464 -0 -1.2 0
9.255 -1.121 1.465 -0 -1.2 0
9.263 -1.283 1.469 -0 -1.2 0
9.189 -1.442 1.459 -0 -1.2 0
9.22 -1.605 1.467 -0 -1.2 0
9.211 -1.766 1.468 -0 -1.2 0
9.119 -1.919 1.455 -0 -1.2 0
9.103 -2.079 1.456 -0 -1.2 0
9.114 -2.241 1.46 -0 -1.2 0
9.063 -2.395 1.454 -0 -1.2 0
9.127 -2.568 1.466 -0 -1.2 0
9.129 -2.732 1.469 -0 -1.2 0
9.108 -2.893 1.468 -0 -1.2 0
9.076 -3.052 1.465 -0 -1.2 0
9.069 -3.217 1.467 -0 -1.2 0
9.032 -3.376 1.463 -0 -1.2 0
9.01 -3.538 1.462 -0 -1.2 0
9.004 -3.706 1.464 -0 -1.2 0
8.976 -3.868 1.461 -0 -1.2 0
8.964 -4.038 1.462 -0 -1.2 0
8.958 -4.21 1.464 -0 -1.2 0
8.959 -4.387 1.466 -0 -1.2 0
8.965 -4.568 1.47 -0 -1.2 0
8.977 -4.754 1.474 -0 -1.2 0
8.857 -4.886 1.458 -0 -1.2 0
11.836 -6.422 1.944 -0 -1.2 0
20.92 -10.987 3.423 -0 -1.2 0
11.033 -6.529 1.82 -0 -1.2 0
11.385 -6.955 1.881 -0 -1.2 0
11.343 -7.185 1.878 -0 -1.2 0
11.314 -7.428 1.877 -0 -1.2 0
11.433 -7.76 1.9 -0 -1.2 0
11.172 -7.871 1.862 -0 -1.2 0
21.015 -14.402 3.487 -0 -1.2 0
10.873 -8.221 1.82 -0 -1.2 0
10.806 -8.449 1.813 -0 -1.2 0
10.806 -8.73 1.817 -0 -1.2 0
6.345 -5.718 1.079 -0 -1.2 0
6.162 -5.748 1.051 -0 -1.2 0
6.585 -6.256 1.124 -0 -1.2 0
4.949 -5.095 0.853 -0 -1.2 0
10.936 -10.355 1.86 -0 -1.2 0
4.585 -5.067 0.796 -0 -1.2 0
4.509 -5.139 0.785 -0 -1.2 0
5.058 -5.805 0.88 -0 -1.2 0
3.794 -4.729 0.668 -0 -1.2 0
1.207 0.037 0.156 -0 -1.2 0
1.241 0.031 0.16 -0 -1.2 0
1.281 0.032 0.165 -0 -1.2 0
1.323 0.031 0.17 -0 -1.2 0
1.372 0.036 0.176 -0 -1.2 0
1.414 0.034 0.181 -0 -1.2 0
1.456 0.029 0.187 -0 -1.2 0
1.507 0.031 0.193 -0 -1.2 0
1.558 0.031 0.199 -0 -1.2 0
1.617 0.035 0.206 -0 -1.2 0
1.668 0.031 0.212 -0 -1.2 0
1.729 0.032 0.22 -0 -1.2 0
1.789 0.032 0.227 -0 -1.2 0
1.859 0.034 0.235 -0 -1.2 0
1.929 0.035 0.244 -0 -1.2 0
1.999 0.033 0.253 -0 -1.2 0
2.079 0.036 0.262 -0 -1.2 0
2.151 0.03 0.271 -0 -1.2 0
2.231 0.026 0.281 -0 -1.2 0
2.339 0.034 0.294 -0 -1.2 0
2.439 0.034 0.306 -0 -1.2 0
2.539 0.031 0.318 -0 -1.2 0
2.659 0.031 0.332 -0 -1.2 0
2.788 0.033 0.347 -0 -1.2 0
2.927 0.034 0.364 -0 -1.2 0
3.085 0.038 0.383 -0 -1.2 0
3.273 0.047 0.406 -0 -1.2 0
3.452 0.046 0.428 -0 -1.2 0
3.641 0.042 0.451 -0 -1.2 0
3.889 0.05 0.481 -0 -1.2 0
4.156 0.054 0.514 -0 -1.2 0
4.445 0.054 0.549 -0 -1.2 0
4.792 0.059 0.591 -0 -1.2 0
5.159 0.057 0.635 -0 -1.2 0
5.606 0.058 0.69 -0 -1.2 0
6.211 0.075 0.762 -0 -1.2 0
6.905 0.085 0.846 -0 -1.2 0
7.641 0.077 0.936 -0 -1.2 0
8.26 0.029 1.012 -0 -1.2 0
8.958 -0.032 1.098 -0 -1.2 0
9.183 -0.166 1.127 -0 -1.2 0
9.178 -0.328 1.129 -0 -1.2 0
9.16 -0.489 1.129 -0 -1.2 0
9.159 -0.649 1.131 -0 -1.2 0
9.155 -0.808 1.133 -0 -1.2 0
9.138 -0.967 1.134 -0 -1.2 0
9.129 -1.125 1.135 -0 -1.2 0
9.137 -1.284 1.138 -0 -1.2 0
9.132 -1.443 1.14 -0 -1.2 0
9.134 -1.602 1.143 -0 -1.2 0
9.114 -1.76 1.143 -0 -1.2 0
9.141 -1.922 1.148 -0 -1.2 0
9.125 -2.08 1.149 -0 -1.2 0
9.146 -2.244 1.154 -0 -1.2 0
9.154 -2.407 1.157 -0 -1.2 0
9.169 -2.573 1.161 -0 -1.2 0
9.181 -2.738 1.165 -0 -1.2 0
9.16 -2.9 1.165 -0 -1.2 0
9.127 -3.059 1.163 -0 -1.2 0
9.131 -3.226 1.167 -0 -1.2 0
9.141 -3.397 1.17 -0 -1.2 0
9.147 -3.569 1.173 -0 -1.2 0
9.15 -3.741 1.176 -0 -1.2 0
9.198 -3.929 1.185 -0 -1.2 0
9.241 -4.12 1.194 -0 -1.2 0
9.937 -4.542 1.284 -0 -1.2 0
14.468 -6.413 1.862 -0 -1.2 0
9.265 -4.673 1.205 -0 -1.2 0
10.691 -5.445 1.388 -0 -1.2 0
10.12 -5.417 1.319 -0 -1.2 0
12.841 -6.857 1.671 -0 -1.2 0
12.048 -6.753 1.573 -0 -1.2 0
12.018 -6.998 1.573 -0 -1.2 0
11.87 -7.184 1.558 -0 -1.2 0
11.85 -7.436 1.559 -0 -1.2 0
11.816 -7.687 1.559 -0 -1.2 0
11.606 -7.836 1.536 -0 -1.2 0
11.97 -8.332 1.587 -0 -1.2 0
20.927 -14.296 2.765 -0 -1.2 0
20.936 -14.819 2.773 -0 -1.2 0
11.553 -8.932 1.546 -0 -1.2 0
11.505 -9.195 1.543 -0 -1.2 0
7.775 -6.752 1.054 -0 -1.2 0
11.746 -9.996 1.585 -0 -1.2 0
5.142 -5.092 0.71 -0 -1.2 0
4.988 -5.11 0.691 -0 -1.2 0
11.259 -10.592 1.534 -0 -1.2 0
4.628 -5.089 0.647 -0 -1.2 0
4.713 -5.31 0.661 -0 -1.2 0
3.873 -4.665 0.549 -0 -1.2 0
4.891 -5.789 0.69 -0 -1.2 0
1.211 0.036 0.112 -0 -1.2 0
1.252 0.037 0.115 -0 -1.2 0
1.294 0.038 0.119 -0 -1.2 0
1.328 0.031 0.122 -0 -1.2 0
1.385 0.042 0.127 -0 -1.2 0
1.427 0.039 0.13 -0 -1.2 0
1.47 0.036 0.134 -0 -1.2 0
1.512 0.03 0.137 -0 -1.2 0
1.571 0.036 0.142 -0 -1.2 0
1.631 0.04 0.147 -0 -1.2 0
1.675 0.031 0.151 -0 -1.2 0
1.743 0.038 0.157 -0 -1.2 0
1.804 0.036 0.162 -0 -1.2 0
1.866 0.033 0.167 -0 -1.2 0
1.936 0.034 0.173 -0 -1.2 0
2.007 0.032 0.179 -0 -1.2 0
2.078 0.029 0.185 -0 -1.2 0
2.168 0.033 0.193 -0 -1.2 0
2.249 0.03 0.2 -0 -1.2 0
2.339 0.028 0.207 -0 -1.2 0
2.457 0.037 0.217 -0 -1.2 0
2.549 0.029 0.225 -0 -1.2 0
2.669 0.03 0.235 -0 -1.2 0
2.807 0.036 0.247 -0 -1.2 0
2.947 0.037 0.259 -0 -1.2 0
3.097 0.036 0.271 -0 -1.2 0
3.285 0.045 0.287 -0 -1.2 0
3.455 0.041 0.302 -0 -1.2 0
3.655 0.04 0.318 -0 -1.2 0
3.913 0.05 0.339 -0 -1.2 0
4.182 0.054 0.362 -0 -1.2 0
4.481 0.057 0.387 -0 -1.2 0
4.82 0.059 0.416 -0 -1.2 0
5.198 0.058 0.448 -0 -1.2 0
5.657 0.061 0.487 -0 -1.2 0
6.254 0.075 0.536 -0 -1.2 0
6.971 0.088 0.597 -0 -1.2 0
7.729 0.083 0.661 -0 -1.2 0
8.311 0.026 0.711 -0 -1.2 0
9.022 -0.033 0.772 -0 -1.2 0
9.317 -0.161 0.798 -0 -1.2 0
9.401 -0.317 0.808 -0 -1.2 0
20.519 0.264 1.738 -0 -1.2 0
20.59 -0.089 1.75 -0 -1.2 0
20.573 -0.45 1.754 -0 -1.2 0
20.641 -0.807 1.765 -0 -1.2 0
20.663 -1.166 1.773 -0 -1.2 0
20.568 -1.524 1.77 -0 -1.2 0
20.726 -1.888 1.789 -0 -1.2 0
20.729 -2.251 1.795 -0 -1.2 0
20.726 -2.613 1.8 -0 -1.2 0
20.735 -2.978 1.807 -0 -1.2 0
20.729 -3.342 1.812 -0 -1.2 0
20.746 -3.71 1.819 -0 -1.2 0
20.746 -4.079 1.825 -0 -1.2 0
20.76 -4.451 1.831 -0 -1.2 0
20.756 -4.823 1.837 -0 -1.2 0
20.756 -5.198 1.842 -0 -1.2 0
20.759 -5.576 1.849 -0 -1.2 0
20.755 -5.955 1.854 -0 -1.2 0
20.754 -6.338 1.86 -0 -1.2 0
14.382 -4.99 1.301 -0 -1.2 0
20.769 -7.12 1.873 -0 -1.2 0
20.757 -7.51 1.879 -0 -1.2 0
9.475 -4.191 0.874 -0 -1.2 0
9.221 -4.285 0.854 -0 -1.2 0
9.127 -4.431 0.849 -0 -1.2 0
9.077 -4.591 0.846 -0 -1.2 0
12.049 -5.99 1.119 -0 -1.2 0
10.515 -5.577 0.984 -0 -1.2 0
12.935 -6.885 1.208 -0 -1.2 0
20.78 -10.86 1.932 -0 -1.2 0
20.786 -11.309 1.939 -0 -1.2 0
12.605 -7.546 1.19 -0 -1.2 0
12.158 -7.585 1.153 -0 -1.2 0
20.258 -12.402 1.911 -0 -1.2 0
20.851 -13.215 1.974 -0 -1.2 0
20.857 -13.711 1.982 -0 -1.2 0
11.449 -8.269 1.104 -0 -1.2 0
5.756 -4.812 0.57 -0 -1.2 0
11.39 -8.797 1.107 -0 -1.2 0
11.246 -8.988 1.098 -0 -1.2 0
10.906 -9.035 1.07 -0 -1.2 0
8.554 -7.537 0.848 -0 -1.2 0
5.897 -5.675 0.594 -0 -1.2 0
8.849 -8.259 0.884 -0 -1.2 0
5.072 -5.315 0.519 -0 -1.2 0
7.613 -7.699 0.771 -0 -1.2 0
3.433 -4.13 0.363 -0 -1.2 0
4.91 -5.632 0.51 -0 -1.2 0
3.675 -4.586 0.39 -0 -1.2 0
1.214 0.035 0.071 -0 -1.2 0
1.248 0.03 0.072 -0 -1.2 0
1.297 0.037 0.075 -0 -1.2 0
1.331 0.03 0.077 -0 -1.2 0
1.373 0.028 0.079 -0 -1.2 0
1.423 0.032 0.081 -0 -1.2 0
1.465 0.028 0.083 -0 -1.2 0
1.524 0.036 0.086 -0 -1.2 0
1.575 0.035 0.089 -0 -1.2 0
1.635 0.039 0.092 -0 -1.2 0
1.679 0.03 0.094 -0 -1.2 0
1.739 0.031 0.097 -0 -1.2 0
1.808 0.035 0.101 -0 -1.2 0
1.87 0.032 0.104 -0 -1.2 0
1.932 0.028 0.107 -0 -1.2 0
2.012 0.031 0.111 -0 -1.2 0
2.083 0.028 0.114 -0 -1.2 0
2.173 0.032 0.119 -0 -1.2 0
2.254 0.029 0.123 -0 -1.2 0
2.345 0.027 0.128 -0 -1.2 0
2.463 0.036 0.134 -0 -1.2 0
2.564 0.032 0.139 -0 -1.2 0
2.684 0.033 0.145 -0 -1.2 0
2.814 0.034 0.151 -0 -1.2 0
2.954 0.035 0.158 -0 -1.2 0
3.123 0.042 0.167 -0 -1.2 0
3.293 0.043 0.175 -0 -1.2 0
3.482 0.046 0.185 -0 -1.2 0
3.673 0.041 0.194 -0 -1.2 0
3.932 0.051 0.208 -0 -1.2 0
4.201 0.055 0.221 -0 -1.2 0
4.501 0.057 0.236 -0 -1.2 0
4.831 0.056 0.253 -0 -1.2 0
5.22 0.058 0.272 -0 -1.2 0
5.689 0.062 0.295 -0 -1.2 0
6.288 0.075 0.324 -0 -1.2 0
6.996 0.086 0.36 -0 -1.2 0
7.786 0.084 0.4 -0 -1.2 0
8.389 0.031 0.431 -0 -1.2 0
8.983 -0.045 0.462 -0 -1.2 0
12.945 0.2 0.657 -0 -1.2 0
17.912 0.39 0.905 -0 -1.2 0
18.284 0.102 0.928 -0 -1.2 0
18.232 -0.218 0.93 -0 -1.2 0
18.335 -0.532 0.94 -0 -1.2 0
20.578 -0.819 1.058 -0 -1.2 0
20.58 -1.176 1.064 -0 -1.2 0
20.505 -1.532 1.066 -0 -1.2 0
20.644 -1.895 1.079 -0 -1.2 0
20.657 -2.255 1.085 -0 -1.2 0
20.664 -2.616 1.091 -0 -1.2 0
20.663 -2.978 1.097 -0 -1.2 0
20.667 -3.341 1.103 -0 -1.2 0
20.664 -3.705 1.108 -0 -1.2 0
20.675 -4.073 1.115 -0 -1.2 0
15.356 -3.578 0.839 -0 -1.2 0
20.686 -4.813 1.127 -0 -1.2 0
14.604 -3.979 0.807 -0 -1.2 0
13.009 -3.897 0.726 -0 -1.2 0
20.687 -5.938 1.145 -0 -1.2 0
14.133 -4.658 0.794 -0 -1.2 0
14.193 -4.937 0.802 -0 -1.2 0
14.028 -5.155 0.797 -0 -1.2 0
20.689 -7.485 1.169 -0 -1.2 0
13.897 -5.645 0.798 -0 -1.2 0
9.865 -4.507 0.577 -0 -1.2 0
9.833 -4.687 0.578 -0 -1.2 0
10.132 -4.998 0.598 -0 -1.2 0
9.091 -4.775 0.542 -0 -1.2 0
8.952 -4.9 0.537 -0 -1.2 0
8.821 -5.026 0.532 -0 -1.2 0
13.15 -7.252 0.786 -0 -1.2 0
12.521 -7.223 0.754 -0 -1.2 0
12.35 -7.407 0.748 -0 -1.2 0
20.569 -12.095 1.236 -0 -1.2 0
11.93 -7.724 0.732 -0 -1.2 0
7.569 -5.454 0.476 -0 -1.2 0
20.768 -13.64 1.271 -0 -1.2 0
11.965 -8.584 0.747 -0 -1.2 0
5.718 -4.782 0.372 -0 -1.2 0
4.787 -4.29 0.319 -0 -1.2 0
5.946 -5.23 0.391 -0 -1.2 0
5.599 -5.131 0.372 -0 -1.2 0
5.568 -5.256 0.372 -0 -1.2 0
8.876 -8.27 0.587 -0 -1.2 0
5.152 -5.376 0.353 -0 -1.2 0
3.515 -4.093 0.252 -0 -1.2 0
5.517 -6.02 0.382 -0 -1.2 0
4.071 -4.833 0.291 -0 -1.2 0
7.189 -8.005 0.498 -0 -1.2 0
1.216 0.035 0.029 -0 -1.2 0
1.249 0.029 0.03 -0 -1.2 0
1.298 0.037 0.031 -0 -1.2 0
1.332 0.029 0.031 -0 -1.2 0
1.382 0.034 0.032 -0 -1.2 0
1.417 0.025 0.033 -0 -1.2 0
1.467 0.027 0.033 -0 -1.2 0
1.525 0.035 0.034 -0 -1.2 0
1.577 0.034 0.035 -0 -1.2 0
1.628 0.032 0.036 -0 -1.2 0
1.689 0.035 0.037 -0 -1.2 0
1.749 0.036 0.038 -0 -1.2 0
1.811 0.034 0.039 -0 -1.2 0
1.872 0.031 0.04 -0 -1.2 0
1.943 0.032 0.041 -0 -1.2 0
2.014 0.03 0.042 -0 -1.2 0
2.085 0.027 0.044 -0 -1.2 0
2.175 0.03 0.045 -0 -1.2 0
2.256 0.027 0.046 -0 -1.2 0
2.347 0.026 0.048 -0 -1.2 0
2.457 0.03 0.05 -0 -1.2 0
2.576 0.035 0.052 -0 -1.2 0
2.687 0.031 0.053 -0 -1.2 0
2.817 0.033 0.056 -0 -1.2 0
2.967 0.037 0.058 -0 -1.2 0
3.117 0.037 0.06 -0 -1.2 0
3.296 0.041 0.063 -0 -1.2 0
3.477 0.041 0.066 -0 -1.2 0
3.668 0.036 0.069 -0 -1.2 0
3.926 0.046 0.074 -0 -1.2 0
4.206 0.052 0.078 -0 -1.2 0
4.506 0.054 0.083 -0 -1.2 0
4.865 0.061 0.088 -0 -1.2 0
5.236 0.057 0.095 -0 -1.2 0
5.715 0.063 0.102 -0 -1.2 0
6.354 0.083 0.112 -0 -1.2 0
7.054 0.09 0.124 -0 -1.2 0
7.824 0.084 0.136 -0 -1.2 0
8.468 0.035 0.148 -0 -1.2 0
9.242 -0.021 0.161 -0 -1.2 0
12.87 0.184 0.217 -0 -1.2 0
17.793 0.369 0.294 -0 -1.2 0
18.235 0.087 0.306 -0 -1.2 0
18.303 -0.226 0.312 -0 -1.2 0
18.265 -0.545 0.317 -0 -1.2 0
20.512 -0.832 0.357 -0 -1.2 0
20.504 -1.188 0.363 -0 -1.2 0
20.468 -1.542 0.368 -0 -1.2 0
20.887 -1.915 0.381 -0 -1.2 0
20.84 -2.275 0.386 -0 -1.2 0
20.827 -2.638 0.392 -0 -1.2 0
20.826 -3.002 0.398 -0 -1.2 0
20.829 -3.367 0.404 -0 -1.2 0
20.836 -3.735 0.41 -0 -1.2 0
20.678 -4.081 0.413 -0 -1.2 0
20.603 -4.436 0.418 -0 -1.2 0
20.611 -4.806 0.424 -0 -1.2 0
20.602 -5.175 0.43 -0 -1.2 0
14.431 -4.209 0.314 -0 -1.2 0
20.924 -6 0.448 -0 -1.2 0
20.932 -6.388 0.455 -0 -1.2 0
20.924 -6.774 0.461 -0 -1.2 0
14.831 -5.391 0.338 -0 -1.2 0
20.904 -7.556 0.473 -0 -1.2 0
13.001 -5.352 0.31 -0 -1.2 0
12.698 -5.497 0.307 -0 -1.2 0
11.523 -5.312 0.284 -0 -1.2 0
10.711 -5.225 0.27 -0 -1.2 0
10.647 -5.413 0.272 -0 -1.2 0
10.707 -5.655 0.277 -0 -1.2 0
8.612 -4.933 0.231 -0 -1.2 0
8.507 -5.063 0.231 -0 -1.2 0
10.598 -6.274 0.285 -0 -1.2 0
12.381 -7.422 0.332 -0 -1.2 0
20.531 -12.073 0.541 -0 -1.2 0
11.883 -7.696 0.328 -0 -1.2 0
11.757 -7.895 0.33 -0 -1.2 0
7.193 -5.402 0.216 -0 -1.2 0
4.96 -4.164 0.159 -0 -1.2 0
5.784 -4.823 0.183 -0 -1.2 0
10.759 -8.354 0.32 -0 -1.2 0
5.904 -5.199 0.191 -0 -1.2 0
7.726 -6.688 0.245 -0 -1.2 0
7.779 -6.935 0.25 -0 -1.2 0
9.066 -8.164 0.291 -0 -1.2 0
4.256 -4.493 0.153 -0 -1.2 0
5.937 -6.037 0.205 -0 -1.2 0
3.519 -4.095 0.134 -0 -1.2 0
3.422 -4.114 0.132 -0 -1.2 0
4.905 -5.616 0.181 -0 -1.2 0
4.153 -5.044 0.16 -0 -1.2 0
1.194 0.012 -0.035 -0 -1.2 0
1.234 0.014 -0.037 -0 -1.2 0
1.275 0.014 -0.039 -0 -1.2 0
1.309 0.008 -0.04 -0 -1.2 0
1.366 0.019 -0.042 -0 -1.2 0
1.393 0.004 -0.043 -0 -1.2 0
1.45 0.014 -0.045 -0 -1.2 0
1.493 0.008 -0.047 -0 -1.2 0
1.544 0.009 -0.049 -0 -1.2 0
1.595 0.007 -0.051 -0 -1.2 0
1.655 0.01 -0.053 -0 -1.2 0
1.715 0.012 -0.055 -0 -1.2 0
1.784 0.017 -0.058 -0 -1.2 0
1.846 0.013 -0.06 -0 -1.2 0
1.916 0.015 -0.063 -0 -1.2 0
1.987 0.013 -0.066 -0 -1.2 0
2.058 0.01 -0.069 -0 -1.2 0
2.131 0.005 -0.071 -0 -1.2 0
2.22 0.007 -0.075 -0 -1.2 0
2.319 0.01 -0.079 -0 -1.2 0
2.428 0.015 -0.083 -0 -1.2 0
2.529 0.011 -0.087 -0 -1.2 0
2.649 0.013 -0.091 -0 -1.2 0
2.778 0.015 -0.096 -0 -1.2 0
2.909 0.013 -0.101 -0 -1.2 0
3.06 0.013 -0.107 -0 -1.2 0
3.238 0.019 -0.114 -0 -1.2 0
3.418 0.018 -0.121 -0 -1.2 0
3.609 0.014 -0.128 -0 -1.2 0
3.857 0.022 -0.138 -0 -1.2 0
4.136 0.03 -0.148 -0 -1.2 0
4.425 0.03 -0.16 -0 -1.2 0
4.775 0.036 -0.173 -0 -1.2 0
5.164 0.038 -0.188 -0 -1.2 0
5.653 0.046 -0.207 -0 -1.2 0
6.262 0.06 -0.231 -0 -1.2 0
6.971 0.071 -0.258 -0 -1.2 0
7.8 0.075 -0.29 -0 -1.2 0
8.611 0.047 -0.32 -0 -1.2 0
9.633 0.017 -0.36 -0 -1.2 0
8.389 -0.274 -0.307 -0 -1.2 0
9.2 -0.513 -0.334 -0 -1.2 0
9.149 -0.675 -0.33 -0 -1.2 0
7.857 -0.872 -0.277 -0 -1.2 0
20.359 -0.852 -0.757 -0 -1.2 0
20.361 -1.205 -0.751 -0 -1.2 0
20.316 -1.558 -0.744 -0 -1.2 0
20.436 -1.916 -0.742 -0 -1.2 0
20.429 -2.271 -0.736 -0 -1.2 0
20.445 -2.628 -0.73 -0 -1.2 0
20.436 -2.986 -0.725 -0 -1.2 0
20.44 -3.344 -0.719 -0 -1.2 0
20.447 -3.705 -0.713 -0 -1.2 0
20.448 -4.067 -0.707 -0 -1.2 0
20.453 -4.432 -0.701 -0 -1.2 0
20.442 -4.795 -0.694 -0 -1.2 0
20.442 -5.164 -0.688 -0 -1.2 0
20.447 -5.535 -0.682 -0 -1.2 0
20.444 -5.908 -0.676 -0 -1.2 0
20.445 -6.285 -0.67 -0 -1.2 0
20.458 -6.668 -0.664 -0 -1.2 0
20.454 -7.051 -0.658 -0 -1.2 0
12.292 -4.898 -0.38 -0 -1.2 0
20.452 -7.83 -0.645 -0 -1.2 0
11.974 -5.257 -0.362 -0 -1.2 0
14.403 -6.39 -0.437 -0 -1.2 0
10.499 -5.154 -0.307 -0 -1.2 0
13.35 -6.533 -0.393 -0 -1.2 0
13.18 -6.731 -0.383 -0 -1.2 0
9.572 -5.376 -0.267 -0 -1.2 0
10.761 -6.139 -0.301 -0 -1.2 0
9.319 -5.655 -0.253 -0 -1.2 0
8.101 -5.229 -0.213 -0 -1.2 0
7.5 -5.083 -0.193 -0 -1.2 0
11.981 -7.765 -0.321 -0 -1.2 0
11.138 -7.548 -0.292 -0 -1.2 0
6.616 -5.059 -0.159 -0 -1.2 0
11.625 -8.383 -0.297 -0 -1.2 0
6.014 -4.983 -0.137 -0 -1.2 0
5.161 -4.55 -0.111 -0 -1.2 0
12.429 -9.825 -0.303 -0 -1.2 0
5.497 -5.062 -0.116 -0 -1.2 0
4.99 -4.822 -0.101 -0 -1.2 0
4.202 -4.337 -0.079 -0 -1.2 0
4.424 -4.635 -0.082 -0 -1.2 0
8.152 -7.924 -0.171 -0 -1.2 0
5.215 -5.589 -0.097 -0 -1.2 0
3.568 -4.251 -0.055 -0 -1.2 0
3.826 -4.606 -0.059 -0 -1.2 0
3.635 -4.545 -0.053 -0 -1.2 0
1.198 0.019 -0.079 -0 -1.2 0
1.232 0.013 -0.081 -0 -1.2 0
1.273 0.014 -0.084 -0 -1.2 0
1.314 0.014 -0.087 -0 -1.2 0
1.363 0.019 -0.091 -0 -1.2 0
1.39 0.003 -0.093 -0 -1.2 0
1.44 0.007 -0.096 -0 -1.2 0
1.49 0.007 -0.1 -0 -1.2 0
1.541 0.008 -0.104 -0 -1.2 0
1.592 0.006 -0.108 -0 -1.2 0
1.66 0.015 -0.113 -0 -1.2 0
1.712 0.011 -0.117 -0 -1.2 0
1.772 0.01 -0.121 -0 -1.2 0
1.85 0.018 -0.127 -0 -1.2 0
1.903 0.008 -0.131 -0 -1.2 0
1.974 0.007 -0.136 -0 -1.2 0
2.054 0.009 -0.142 -0 -1.2 0
2.134 0.009 -0.148 -0 -1.2 0
2.224 0.01 -0.155 -0 -1.2 0
2.323 0.013 -0.162 -0 -1.2 0
2.414 0.009 -0.169 -0 -1.2 0
2.524 0.009 -0.177 -0 -1.2 0
2.643 0.012 -0.186 -0 -1.2 0
2.773 0.013 -0.195 -0 -1.2 0
2.912 0.014 -0.206 -0 -1.2 0
3.062 0.015 -0.217 -0 -1.2 0
3.222 0.013 -0.229 -0 -1.2 0
3.411 0.016 -0.243 -0 -1.2 0
3.61 0.015 -0.258 -0 -1.2 0
3.849 0.02 -0.275 -0 -1.2 0
4.137 0.031 -0.297 -0 -1.2 0
4.426 0.03 -0.318 -0 -1.2 0
4.765 0.033 -0.343 -0 -1.2 0
5.173 0.039 -0.374 -0 -1.2 0
5.681 0.051 -0.411 -0 -1.2 0
6.269 0.061 -0.456 -0 -1.2 0
6.966 0.068 -0.508 -0 -1.2 0
7.814 0.075 -0.571 -0 -1.2 0
8.693 0.056 -0.636 -0 -1.2 0
10.039 0.061 -0.736 -0 -1.2 0
12.331 0.114 -0.906 -0 -1.2 0
10.045 -0.289 -0.73 -0 -1.2 0
18.983 0.111 -1.401 -0 -1.2 0
9.141 -0.68 -0.656 -0 -1.2 0
20.282 -0.511 -1.486 -0 -1.2 0
9.848 -0.988 -0.704 -0 -1.2 0
20.301 -1.217 -1.475 -0 -1.2 0
20.246 -1.569 -1.465 -0 -1.2 0
20.365 -1.926 -1.468 -0 -1.2 0
20.378 -2.283 -1.463 -0 -1.2 0
20.364 -2.638 -1.456 -0 -1.2 0
20.375 -2.996 -1.45 -0 -1.2 0
20.379 -3.355 -1.445 -0 -1.2 0
20.376 -3.714 -1.439 -0 -1.2 0
20.378 -4.076 -1.432 -0 -1.2 0
20.392 -4.441 -1.427 -0 -1.2 0
20.381 -4.805 -1.42 -0 -1.2 0
20.372 -5.17 -1.413 -0 -1.2 0
20.386 -5.544 -1.408 -0 -1.2 0
20.374 -5.914 -1.4 -0 -1.2 0
20.385 -6.293 -1.395 -0 -1.2 0
20.369 -6.667 -1.387 -0 -1.2 0
12.045 -4.607 -0.804 -0 -1.2 0
12.068 -4.842 -0.803 -0 -1.2 0
14.483 -5.875 -0.964 -0 -1.2 0
14.935 -6.313 -0.99 -0 -1.2 0
10.632 -5.009 -0.693 -0 -1.2 0
10.367 -5.116 -0.671 -0 -1.2 0
13.231 -6.503 -0.86 -0 -1.2 0
10.744 -5.699 -0.69 -0 -1.2 0
11.799 -6.398 -0.756 -0 -1.2 0
11.931 -6.71 -0.761 -0 -1.2 0
12.342 -7.168 -0.783 -0 -1.2 0
11.338 -6.918 -0.713 -0 -1.2 0
7.494 -5.092 -0.459 -0 -1.2 0
7.38 -5.197 -0.448 -0 -1.2 0
7.127 -5.217 -0.43 -0 -1.2 0
13.713 -9.399 -0.846 -0 -1.2 0
10.26 -7.54 -0.622 -0 -1.2 0
6.353 -5.217 -0.372 -0 -1.2 0
5.818 -5.009 -0.336 -0 -1.2 0
5.978 -5.27 -0.343 -0 -1.2 0
5.221 -4.869 -0.293 -0 -1.2 0
5.274 -5.049 -0.294 -0 -1.2 0
4.844 -4.854 -0.265 -0 -1.2 0
4.708 -4.879 -0.255 -0 -1.2 0
8.478 -8.22 -0.478 -0 -1.2 0
5.377 -5.743 -0.29 -0 -1.2 0
4.72 -5.31 -0.249 -0 -1.2 0
4.392 -5.15 -0.228 -0 -1.2 0
4.213 -5.119 -0.214 -0 -1.2 0
1.195 0.018 -0.118 -0 -1.2 0
1.228 0.012 -0.122 -0 -1.2 0
1.269 0.013 -0.126 -0 -1.2 0
1.31 0.013 -0.131 -0 -1.2 0
1.359 0.018 -0.136 -0 -1.2 0
1.393 0.009 -0.14 -0 -1.2 0
1.435 0.006 -0.144 -0 -1.2 0
1.493 0.013 -0.15 -0 -1.2 0
1.544 0.013 -0.156 -0 -1.2 0
1.587 0.005 -0.161 -0 -1.2 0
1.647 0.008 -0.167 -0 -1.2 0
1.715 0.015 -0.174 -0 -1.2 0
1.767 0.008 -0.18 -0 -1.2 0
1.836 0.011 -0.187 -0 -1.2 0
1.906 0.013 -0.195 -0 -1.2 0
1.968 0.006 -0.202 -0 -1.2 0
2.048 0.008 -0.21 -0 -1.2 0
2.12 0.002 -0.218 -0 -1.2 0
2.217 0.009 -0.228 -0 -1.2 0
2.316 0.012 -0.239 -0 -1.2 0
2.416 0.012 -0.25 -0 -1.2 0
2.516 0.008 -0.261 -0 -1.2 0
2.635 0.01 -0.273 -0 -1.2 0
2.764 0.012 -0.287 -0 -1.2 0
2.894 0.009 -0.301 -0 -1.2 0
3.062 0.016 -0.319 -0 -1.2 0
3.221 0.015 -0.337 -0 -1.2 0
3.41 0.017 -0.357 -0 -1.2 0
3.599 0.013 -0.377 -0 -1.2 0
3.857 0.024 -0.405 -0 -1.2 0
4.115 0.025 -0.433 -0 -1.2 0
4.423 0.031 -0.466 -0 -1.2 0
4.751 0.03 -0.501 -0 -1.2 0
5.168 0.038 -0.546 -0 -1.2 0
5.693 0.054 -0.603 -0 -1.2 0
6.269 0.06 -0.666 -0 -1.2 0
6.955 0.066 -0.74 -0 -1.2 0
7.82 0.075 -0.833 -0 -1.2 0
8.716 0.058 -0.929 -0 -1.2 0
8.232 -0.151 -0.873 -0 -1.2 0
9.108 -0.209 -0.966 -0 -1.2 0
7.497 -0.5 -0.788 -0 -1.2 0
7.557 -0.626 -0.792 -0 -1.2 0
9.123 -0.685 -0.96 -0 -1.2 0
20.221 -0.523 -2.157 -0 -1.2 0
9.819 -0.993 -1.029 -0 -1.2 0
8.398 -1.154 -0.873 -0 -1.2 0
20.175 -1.58 -2.134 -0 -1.2 0
20.572 -1.95 -2.17 -0 -1.2 0
20.584 -2.311 -2.166 -0 -1.2 0
20.581 -2.671 -2.159 -0 -1.2 0
20.62 -3.036 -2.156 -0 -1.2 0
20.555 -3.393 -2.143 -0 -1.2 0
20.779 -3.786 -2.16 -0 -1.2 0
20.474 -4.111 -2.122 -0 -1.2 0
20.312 -4.45 -2.098 -0 -1.2 0
20.32 -4.816 -2.093 -0 -1.2 0
20.311 -5.182 -2.085 -0 -1.2 0
20.354 -5.561 -2.083 -0 -1.2 0
20.527 -5.976 -2.095 -0 -1.2 0
20.477 -6.344 -2.083 -0 -1.2 0
11.847 -4.343 -1.189 -0 -1.2 0
11.722 -4.53 -1.172 -0 -1.2 0
20.445 -7.492 -2.059 -0 -1.2 0
10.748 -4.652 -1.065 -0 -1.2 0
10.694 -4.84 -1.056 -0 -1.2 0
10.6 -5.015 -1.043 -0 -1.2 0
10.605 -5.228 -1.039 -0 -1.2 0
10.532 -5.411 -1.029 -0 -1.2 0
11.406 -6.006 -1.112 -0 -1.2 0
10.032 -5.618 -0.971 -0 -1.2 0
20.357 -10.746 -1.993 -0 -1.2 0
9.38 -5.719 -0.899 -0 -1.2 0
9.36 -5.913 -0.893 -0 -1.2 0
7.524 -5.125 -0.71 -0 -1.2 0
7.341 -5.191 -0.689 -0 -1.2 0
12.13 -8.177 -1.152 -0 -1.2 0
5.801 -4.589 -0.534 -0 -1.2 0
6.909 -5.432 -0.638 -0 -1.2 0
5.909 -4.94 -0.539 -0 -1.2 0
5.555 -4.843 -0.503 -0 -1.2 0
5.375 -4.857 -0.483 -0 -1.2 0
6.176 -5.589 -0.557 -0 -1.2 0
6.644 -6.114 -0.597 -0 -1.2 0
4.095 -4.273 -0.356 -0 -1.2 0
4.541 -4.755 -0.395 -0 -1.2 0
4.879 -5.175 -0.424 -0 -1.2 0
4.831 -5.278 -0.417 -0 -1.2 0
7.267 -7.657 -0.637 -0 -1.2 0
4.43 -5.201 -0.375 -0 -1.2 0
4.223 -5.143 -0.354 -0 -1.2 0
1.183 0.01 -0.157 -0 -1.2 0
1.23 0.019 -0.164 -0 -1.2 0
1.264 0.012 -0.168 -0 -1.2 0
1.305 0.013 -0.174 -0 -1.2 0
1.353 0.017 -0.181 -0 -1.2 0
1.388 0.008 -0.186 -0 -1.2 0
1.437 0.011 -0.193 -0 -1.2 0
1.487 0.013 -0.2 -0 -1.2 0
1.538 0.012 -0.207 -0 -1.2 0
1.581 0.005 -0.213 -0 -1.2 0
1.64 0.007 -0.221 -0 -1.2 0
1.708 0.014 -0.231 -0 -1.2 0
1.76 0.007 -0.238 -0 -1.2 0
1.829 0.01 -0.248 -0 -1.2 0
1.89 0.006 -0.257 -0 -1.2 0
1.96 0.005 -0.267 -0 -1.2 0
2.048 0.012 -0.279 -0 -1.2 0
2.119 0.006 -0.289 -0 -1.2 0
2.208 0.007 -0.302 -0 -1.2 0
2.315 0.014 -0.317 -0 -1.2 0
2.415 0.015 -0.331 -0 -1.2 0
2.515 0.012 -0.345 -0 -1.2 0
2.624 0.009 -0.361 -0 -1.2 0
2.762 0.014 -0.38 -0 -1.2 0
2.901 0.015 -0.4 -0 -1.2 0
3.059 0.018 -0.422 -0 -1.2 0
3.218 0.016 -0.444 -0 -1.2 0
3.396 0.015 -0.47 -0 -1.2 0
3.594 0.014 -0.498 -0 -1.2 0
3.831 0.019 -0.531 -0 -1.2 0
4.098 0.023 -0.569 -0 -1.2 0
4.395 0.025 -0.611 -0 -1.2 0
4.741 0.03 -0.66 -0 -1.2 0
5.146 0.035 -0.717 -0 -1.2 0
5.67 0.051 -0.791 -0 -1.2 0
6.234 0.055 -0.872 -0 -1.2 0
6.917 0.06 -0.968 -0 -1.2 0
7.778 0.069 -1.09 -0 -1.2 0
8.69 0.054 -1.219 -0 -1.2 0
10.125 0.068 -1.422 -0 -1.2 0
9.346 -0.187 -1.307 -0 -1.2 0
7.97 -0.464 -1.107 -0 -1.2 0
10.638 -0.433 -1.485 -0 -1.2 0
9.076 -0.691 -1.26 -0 -1.2 0
20.177 -0.534 -2.831 -0 -1.2 0
8.283 -1.015 -1.142 -0 -1.2 0
20.166 -1.24 -2.818 -0 -1.2 0
20.111 -1.593 -2.803 -0 -1.2 0
20.24 -1.952 -2.815 -0 -1.2 0
20.243 -2.306 -2.809 -0 -1.2 0
20.239 -2.663 -2.802 -0 -1.2 0
20.24 -3.02 -2.796 -0 -1.2 0
20.254 -3.38 -2.791 -0 -1.2 0
20.261 -3.741 -2.786 -0 -1.2 0
20.272 -4.105 -2.781 -0 -1.2 0
20.248 -4.464 -2.771 -0 -1.2 0
20.246 -4.83 -2.764 -0 -1.2 0
20.237 -5.196 -2.756 -0 -1.2 0
20.271 -5.573 -2.754 -0 -1.2 0
20.336 -5.962 -2.757 -0 -1.2 0
20.374 -6.351 -2.756 -0 -1.2 0
20.367 -6.731 -2.747 -0 -1.2 0
11.884 -4.598 -1.587 -0 -1.2 0
10.762 -4.47 -1.431 -0 -1.2 0
20.408 -7.913 -2.732 -0 -1.2 0
12.538 -5.517 -1.663 -0 -1.2 0
10.538 -5.015 -1.389 -0 -1.2 0
10.266 -5.118 -1.348 -0 -1.2 0
11.057 -5.654 -1.451 -0 -1.2 0
10.923 -5.822 -1.429 -0 -1.2 0
7.59 -4.525 -0.981 -0 -1.2 0
9.151 -5.433 -1.185 -0 -1.2 0
8.382 -5.245 -1.08 -0 -1.2 0
8.081 -5.27 -1.037 -0 -1.2 0
5.88 -4.25 -0.744 -0 -1.2 0
5.902 -4.396 -0.745 -0 -1.2 0
10.669 -7.349 -1.365 -0 -1.2 0
5.862 -4.644 -0.735 -0 -1.2 0
5.8 -4.745 -0.724 -0 -1.2 0
5.165 -4.465 -0.639 -0 -1.2 0
5.516 -4.836 -0.682 -0 -1.2 0
5.321 -4.838 -0.655 -0 -1.2 0
6.182 -5.617 -0.762 -0 -1.2 0
6.064 -5.693 -0.744 -0 -1.2 0
5.961 -5.778 -0.729 -0 -1.2 0
4.591 -4.815 -0.552 -0 -1.2 0
6.054 -6.202 -0.734 -0 -1.2 0
7.856 -7.984 -0.956 -0 -1.2 0
6.504 -6.987 -0.783 -0 -1.2 0
4.996 -5.759 -0.592 -0 -1.2 0
2.999 -3.956 -0.342 -0 -1.2 0
1.183 0.017 -0.201 -0 -1.2 0
1.223 0.018 -0.208 -0 -1.2 0
1.256 0.011 -0.214 -0 -1.2 0
1.297 0.012 -0.222 -0 -1.2 0
1.346 0.016 -0.23 -0 -1.2 0
1.38 0.008 -0.236 -0 -1.2 0
1.429 0.01 -0.245 -0 -1.2 0
1.479 0.012 -0.254 -0 -1.2 0
1.529 0.011 -0.263 -0 -1.2 0
1.579 0.01 -0.272 -0 -1.2 0
1.638 0.012 -0.282 -0 -1.2 0
1.69 0.008 -0.292 -0 -1.2 0
1.758 0.012 -0.304 -0 -1.2 0
1.818 0.009 -0.315 -0 -1.2 0
1.879 0.005 -0.325 -0 -1.2 0
1.957 0.008 -0.339 -0 -1.2 0
2.027 0.005 -0.352 -0 -1.2 0
2.107 0.005 -0.366 -0 -1.2 0
2.204 0.011 -0.384 -0 -1.2 0
2.293 0.009 -0.399 -0 -1.2 0
2.392 0.009 -0.417 -0 -1.2 0
2.5 0.01 -0.436 -0 -1.2 0
2.609 0.007 -0.456 -0 -1.2 0
2.746 0.012 -0.48 -0 -1.2 0
2.884 0.013 -0.505 -0 -1.2 0
3.041 0.016 -0.533 -0 -1.2 0
3.208 0.017 -0.563 -0 -1.2 0
3.386 0.016 -0.595 -0 -1.2 0
3.573 0.012 -0.628 -0 -1.2 0
3.818 0.019 -0.672 -0 -1.2 0
4.084 0.023 -0.719 -0 -1.2 0
4.379 0.025 -0.772 -0 -1.2 0
4.742 0.034 -0.837 -0 -1.2 0
5.116 0.031 -0.904 -0 -1.2 0
5.627 0.045 -0.995 -0 -1.2 0
6.188 0.049 -1.095 -0 -1.2 0
6.906 0.061 -1.225 -0 -1.2 0
7.723 0.062 -1.371 -0 -1.2 0
8.679 0.054 -1.541 -0 -1.2 0
10.242 0.082 -1.821 -0 -1.2 0
9.018 -0.22 -1.596 -0 -1.2 0
8.443 -0.427 -1.49 -0 -1.2 0
8.444 -0.575 -1.487 -0 -1.2 0
9.043 -0.696 -1.593 -0 -1.2 0
8.321 -0.875 -1.46 -0 -1.2 0
20.096 -0.9 -3.563 -0 -1.2 0
20.089 -1.254 -3.555 -0 -1.2 0
20.024 -1.607 -3.537 -0 -1.2 0
20.162 -1.966 -3.555 -0 -1.2 0
20.175 -2.323 -3.551 -0 -1.2 0
20.161 -2.679 -3.542 -0 -1.2 0
20.162 -3.037 -3.535 -0 -1.2 0
20.166 -3.397 -3.529 -0 -1.2 0
20.173 -3.759 -3.524 -0 -1.2 0
20.174 -4.121 -3.518 -0 -1.2 0
20.179 -4.486 -3.512 -0 -1.2 0
20.177 -4.852 -3.505 -0 -1.2 0
20.178 -5.221 -3.498 -0 -1.2 0
20.163 -5.589 -3.489 -0 -1.2 0
20.17 -5.964 -3.483 -0 -1.2 0
20.18 -6.344 -3.478 -0 -1.2 0
20.174 -6.723 -3.47 -0 -1.2 0
20.17 -7.106 -3.462 -0 -1.2 0
20.168 -7.493 -3.454 -0 -1.2 0
20.169 -7.885 -3.447 -0 -1.2 0
10.255 -4.734 -1.735 -0 -1.2 0
20.157 -8.679 -3.43 -0 -1.2 0
20.162 -9.087 -3.424 -0 -1.2 0
7.549 -4.219 -1.26 -0 -1.2 0
7.594 -4.394 -1.265 -0 -1.2 0
20.148 -10.336 -3.399 -0 -1.2 0
7.211 -4.529 -1.194 -0 -1.2 0
8.192 -5.179 -1.357 -0 -1.2 0
7.361 -4.92 -1.213 -0 -1.2 0
12.004 -7.633 -1.993 -0 -1.2 0
9.983 -6.752 -1.648 -0 -1.2 0
5.794 -4.49 -0.941 -0 -1.2 0
9.876 -7.156 -1.621 -0 -1.2 0
5.359 -4.486 -0.864 -0 -1.2 0
6.725 -5.531 -1.089 -0 -1.2 0
8.438 -6.891 -1.37 -0 -1.2 0
8.305 -7.015 -1.344 -0 -1.2 0
7.719 -6.796 -1.243 -0 -1.2 0
7.456 -6.802 -1.196 -0 -1.2 0
6.074 -5.9 -0.966 -0 -1.2 0
4.336 -4.627 -0.679 -0 -1.2 0
5.696 -5.927 -0.897 -0 -1.2 0
5.472 -5.899 -0.858 -0 -1.2 0
4.441 -5.116 -0.688 -0 -1.2 0
5.032 -5.825 -0.781 -0 -1.2 0
4.844 -5.806 -0.748 -0 -1.2 0
1.175 0.016 -0.241 -0 -1.2 0
1.215 0.017 -0.25 -0 -1.2 0
1.248 0.01 -0.257 -0 -1.2 0
1.289 0.011 -0.265 -0 -1.2 0
1.329 0.009 -0.274 -0 -1.2 0
1.37 0.007 -0.283 -0 -1.2 0
1.419 0.009 -0.293 -0 -1.2 0
1.469 0.011 -0.304 -0 -1.2 0
1.526 0.016 -0.316 -0 -1.2 0
1.569 0.009 -0.325 -0 -1.2 0
1.635 0.017 -0.339 -0 -1.2 0
1.687 0.012 -0.35 -0 -1.2 0
1.754 0.016 -0.365 -0 -1.2 0
1.814 0.014 -0.378 -0 -1.2 0
1.875 0.01 -0.391 -0 -1.2 0
1.944 0.007 -0.405 -0 -1.2 0
2.022 0.009 -0.422 -0 -1.2 0
2.101 0.008 -0.439 -0 -1.2 0
2.189 0.01 -0.458 -0 -1.2 0
2.287 0.011 -0.479 -0 -1.2 0
2.385 0.011 -0.5 -0 -1.2 0
2.484 0.008 -0.521 -0 -1.2 0
2.592 0.005 -0.544 -0 -1.2 0
2.728 0.011 -0.573 -0 -1.2 0
2.865 0.011 -0.602 -0 -1.2 0
3.03 0.018 -0.638 -0 -1.2 0
3.187 0.015 -0.671 -0 -1.2 0
3.363 0.014 -0.709 -0 -1.2 0
3.568 0.016 -0.753 -0 -1.2 0
3.803 0.019 -0.803 -0 -1.2 0
4.076 0.026 -0.861 -0 -1.2 0
4.369 0.027 -0.924 -0 -1.2 0
4.711 0.031 -0.997 -0 -1.2 0
5.092 0.03 -1.078 -0 -1.2 0
5.58 0.039 -1.183 -0 -1.2 0
6.166 0.049 -1.309 -0 -1.2 0
6.889 0.062 -1.464 -0 -1.2 0
7.711 0.064 -1.639 -0 -1.2 0
7.837 -0.057 -1.664 -0 -1.2 0
7.592 -0.227 -1.608 -0 -1.2 0
7.625 -0.358 -1.613 -0 -1.2 0
7.735 -0.484 -1.634 -0 -1.2 0
7.315 -0.648 -1.541 -0 -1.2 0
7.43 -0.772 -1.563 -0 -1.2 0
10.29 -0.825 -2.174 -0 -1.2 0
20.013 -0.912 -4.25 -0 -1.2 0
20.034 -1.267 -4.249 -0 -1.2 0
19.97 -1.622 -4.228 -0 -1.2 0
20.341 -1.992 -4.301 -0 -1.2 0
20.344 -2.355 -4.294 -0 -1.2 0
20.331 -2.716 -4.284 -0 -1.2 0
20.34 -3.081 -4.279 -0 -1.2 0
20.334 -3.445 -4.272 -0 -1.2 0
20.331 -3.81 -4.264 -0 -1.2 0
20.274 -4.17 -4.245 -0 -1.2 0
20.113 -4.51 -4.204 -0 -1.2 0
20.112 -4.877 -4.197 -0 -1.2 0
20.113 -5.248 -4.191 -0 -1.2 0
20.241 -5.649 -4.21 -0 -1.2 0
20.361 -6.057 -4.229 -0 -1.2 0
20.36 -6.439 -4.22 -0 -1.2 0
20.371 -6.828 -4.216 -0 -1.2 0
20.347 -7.212 -4.203 -0 -1.2 0
20.382 -7.616 -4.202 -0 -1.2 0
20.25 -7.97 -4.168 -0 -1.2 0
10.187 -4.74 -2.077 -0 -1.2 0
10.06 -4.896 -2.048 -0 -1.2 0
7.396 -4.029 -1.495 -0 -1.2 0
20.335 -9.641 -4.155 -0 -1.2 0
10.86 -5.868 -2.2 -0 -1.2 0
5.669 -3.687 -1.131 -0 -1.2 0
8.171 -5.023 -1.642 -0 -1.2 0
9.709 -5.982 -1.952 -0 -1.2 0
6.095 -4.28 -1.212 -0 -1.2 0
7.832 -5.377 -1.562 -0 -1.2 0
4.362 -3.557 -0.854 -0 -1.2 0
4.278 -3.607 -0.836 -0 -1.2 0
7.203 -5.534 -1.425 -0 -1.2 0
5.572 -4.651 -1.093 -0 -1.2 0
7.9 -6.357 -1.558 -0 -1.2 0
4.899 -4.458 -0.952 -0 -1.2 0
6.598 -5.819 -1.29 -0 -1.2 0
4.466 -4.389 -0.861 -0 -1.2 0
4.184 -4.29 -0.803 -0 -1.2 0
6.027 -5.898 -1.167 -0 -1.2 0
6.08 -6.117 -1.173 -0 -1.2 0
5.711 -5.976 -1.097 -0 -1.2 0
4.553 -5.108 -0.866 -0 -1.2 0
4.484 -5.187 -0.85 -0 -1.2 0
4.265 -5.119 -0.804 -0 -1.2 0
4.091 -5.088 -0.768 -0 -1.2 0
1.159 0.008 -0.279 -0 -1.2 0
1.205 0.016 -0.291 -0 -1.2 0
1.238 0.01 -0.299 -0 -1.2 0
1.286 0.016 -0.311 -0 -1.2 0
1.326 0.014 -0.321 -0 -1.2 0
1.367 0.012 -0.331 -0 -1.2 0
1.416 0.014 -0.343 -0 -1.2 0
1.457 0.01 -0.353 -0 -1.2 0
1.507 0.009 -0.366 -0 -1.2 0
1.564 0.014 -0.38 -0 -1.2 0
1.615 0.01 -0.393 -0 -1.2 0
1.665 0.006 -0.405 -0 -1.2 0
1.741 0.015 -0.424 -0 -1.2 0
1.792 0.007 -0.437 -0 -1.2 0
1.86 0.008 -0.454 -0 -1.2 0
1.921 0.001 -0.469 -0 -1.2 0
2.007 0.008 -0.49 -0 -1.2 0
2.085 0.006 -0.51 -0 -1.2 0
2.172 0.008 -0.532 -0 -1.2 0
2.269 0.01 -0.556 -0 -1.2 0
2.366 0.01 -0.58 -0 -1.2 0
2.464 0.007 -0.605 -0 -1.2 0
2.572 0.004 -0.631 -0 -1.2 0
2.707 0.009 -0.665 -0 -1.2 0
2.852 0.013 -0.701 -0 -1.2 0
3.015 0.019 -0.742 -0 -1.2 0
3.171 0.016 -0.781 -0 -1.2 0
3.355 0.018 -0.827 -0 -1.2 0
3.55 0.017 -0.875 -0 -1.2 0
3.782 0.02 -0.933 -0 -1.2 0
4.053 0.025 -1.001 -0 -1.2 0
4.354 0.029 -1.076 -0 -1.2 0
4.674 0.028 -1.156 -0 -1.2 0
5.071 0.031 -1.255 -0 -1.2 0
5.546 0.038 -1.373 -0 -1.2 0
6.118 0.045 -1.516 -0 -1.2 0
6.893 0.067 -1.71 -0 -1.2 0
7.699 0.066 -1.911 -0 -1.2 0
8.621 0.051 -2.141 -0 -1.2 0
8.024 -0.173 -1.987 -0 -1.2 0
8.252 -0.295 -2.042 -0 -1.2 0
8.274 -0.441 -2.045 -0 -1.2 0
8.381 -0.582 -2.068 -0 -1.2 0
8.399 -0.731 -2.07 -0 -1.2 0
8.366 -0.881 -2.06 -0 -1.2 0
19.973 -0.924 -4.953 -0 -1.2 0
19.965 -1.281 -4.945 -0 -1.2 0
19.902 -1.637 -4.922 -0 -1.2 0
20.047 -1.999 -4.951 -0 -1.2 0
20.031 -2.358 -4.94 -0 -1.2 0
20.047 -2.719 -4.937 -0 -1.2 0
20.037 -3.079 -4.928 -0 -1.2 0
20.041 -3.442 -4.922 -0 -1.2 0
20.039 -3.805 -4.914 -0 -1.2 0
20.039 -4.17 -4.907 -0 -1.2 0
20.033 -4.536 -4.899 -0 -1.2 0
20.041 -4.907 -4.893 -0 -1.2 0
20.032 -5.276 -4.884 -0 -1.2 0
20.017 -5.646 -4.873 -0 -1.2 0
20.024 -6.025 -4.867 -0 -1.2 0
20.033 -6.407 -4.862 -0 -1.2 0
20.036 -6.791 -4.856 -0 -1.2 0
20.04 -7.179 -4.85 -0 -1.2 0
10.177 -4.371 -2.443 -0 -1.2 0
20.047 -7.968 -4.836 -0 -1.2 0
20.039 -8.365 -4.825 -0 -1.2 0
20.032 -8.767 -4.817 -0 -1.2 0
9.501 -4.91 -2.264 -0 -1.2 0
20.025 -9.589 -4.799 -0 -1.2 0
9.6 -5.348 -2.281 -0 -1.2 0
9.951 -5.717 -2.361 -0 -1.2 0
9.688 -5.804 -2.293 -0 -1.2 0
7.824 -5.059 -1.843 -0 -1.2 0
9.559 -6.163 -2.255 -0 -1.2 0
7.456 -5.206 -1.748 -0 -1.2 0
7.664 -5.5 -1.795 -0 -1.2 0
11.505 -8.004 -2.704 -0 -1.2 0
7.164 -5.548 -1.669 -0 -1.2 0
6.843 -5.513 -1.589 -0 -1.2 0
6.613 -5.528 -1.532 -0 -1.2 0
6.449 -5.582 -1.49 -0 -1.2 0
6.285 -5.631 -1.448 -0 -1.2 0
6.13 -5.682 -1.408 -0 -1.2 0
5.033 -4.986 -1.148 -0 -1.2 0
4.73 -4.88 -1.075 -0 -1.2 0
4.426 -4.76 -1.001 -0 -1.2 0
4.133 -4.635 -0.931 -0 -1.2 0
5.868 -6.337 -1.331 -0 -1.2 0
7.697 -8.242 -1.75 -0 -1.2 0
5.448 -6.306 -1.226 -0 -1.2 0
5.45 -6.492 -1.223 -0 -1.2 0
1.155 0.014 -0.323 -0 -1.2 0
1.194 0.016 -0.334 -0 -1.2 0
1.226 0.009 -0.343 -0 -1.2 0
1.266 0.009 -0.355 -0 -1.2 0
1.313 0.014 -0.369 -0 -1.2 0
1.354 0.011 -0.38 -0 -1.2 0
1.402 0.013 -0.394 -0 -1.2 0
1.443 0.009 -0.406 -0 -1.2 0
1.5 0.014 -0.422 -0 -1.2 0
1.549 0.013 -0.437 -0 -1.2 0
1.607 0.015 -0.453 -0 -1.2 0
1.657 0.009 -0.468 -0 -1.2 0
1.724 0.014 -0.487 -0 -1.2 0
1.775 0.005 -0.502 -0 -1.2 0
1.842 0.007 -0.521 -0 -1.2 0
1.91 0.005 -0.541 -0 -1.2 0
1.996 0.011 -0.565 -0 -1.2 0
2.056 0.001 -0.583 -0 -1.2 0
2.151 0.007 -0.61 -0 -1.2 0
2.247 0.008 -0.638 -0 -1.2 0
2.343 0.008 -0.666 -0 -1.2 0
2.44 0.005 -0.694 -0 -1.2 0
2.547 0.002 -0.724 -0 -1.2 0
2.68 0.007 -0.763 -0 -1.2 0
2.824 0.011 -0.804 -0 -1.2 0
2.977 0.014 -0.848 -0 -1.2 0
3.15 0.018 -0.898 -0 -1.2 0
3.332 0.019 -0.951 -0 -1.2 0
3.524 0.017 -1.006 -0 -1.2 0
3.755 0.02 -1.072 -0 -1.2 0
4.023 0.025 -1.15 -0 -1.2 0
4.311 0.026 -1.233 -0 -1.2 0
4.629 0.024 -1.324 -0 -1.2 0
5.032 0.03 -1.441 -0 -1.2 0
5.492 0.034 -1.573 -0 -1.2 0
6.068 0.042 -1.739 -0 -1.2 0
6.826 0.062 -1.959 -0 -1.2 0
7.652 0.065 -2.197 -0 -1.2 0
8.7 0.068 -2.499 -0 -1.2 0
10.131 0.078 -2.912 -0 -1.2 0
8.601 -0.258 -2.465 -0 -1.2 0
8.768 -0.4 -2.509 -0 -1.2 0
8.789 -0.557 -2.513 -0 -1.2 0
8.98 -0.707 -2.564 -0 -1.2 0
10.197 -0.836 -2.912 -0 -1.2 0
9.451 -1.025 -2.694 -0 -1.2 0
19.099 -1.289 -5.47 -0 -1.2 0
19.056 -1.632 -5.452 -0 -1.2 0
19.191 -1.983 -5.483 -0 -1.2 0
19.174 -2.329 -5.472 -0 -1.2 0
19.182 -2.678 -5.467 -0 -1.2 0
19.173 -3.026 -5.458 -0 -1.2 0
19.188 -3.377 -5.455 -0 -1.2 0
19.187 -3.729 -5.447 -0 -1.2 0
19.189 -4.082 -5.441 -0 -1.2 0
19.186 -4.436 -5.433 -0 -1.2 0
19.185 -4.793 -5.426 -0 -1.2 0
19.188 -5.153 -5.42 -0 -1.2 0
19.176 -5.511 -5.409 -0 -1.2 0
19.185 -5.878 -5.405 -0 -1.2 0
19.178 -6.243 -5.395 -0 -1.2 0
19.174 -6.612 -5.387 -0 -1.2 0
19.173 -6.986 -5.379 -0 -1.2 0
19.174 -7.364 -5.372 -0 -1.2 0
19.187 -7.75 -5.367 -0 -1.2 0
19.192 -8.139 -5.361 -0 -1.2 0
19.199 -8.532 -5.356 -0 -1.2 0
19.217 -8.936 -5.353 -0 -1.2 0
7.566 -4.319 -2.085 -0 -1.2 0
10.134 -5.639 -2.799 -0 -1.2 0
9.909 -5.75 -2.732 -0 -1.2 0
6.996 -4.521 -1.917 -0 -1.2 0
19.222 -11.011 -5.313 -0 -1.2 0
8.869 -5.845 -2.431 -0 -1.2 0
8.62 -5.909 -2.358 -0 -1.2 0
7.314 -5.343 -1.993 -0 -1.2 0
7.318 -5.517 -1.99 -0 -1.2 0
6.726 -5.318 -1.823 -0 -1.2 0
4.866 -4.254 -1.308 -0 -1.2 0
5.046 -4.501 -1.355 -0 -1.2 0
4.719 -4.396 -1.263 -0 -1.2 0
4.71 -4.514 -1.258 -0 -1.2 0
5.048 -4.901 -1.348 -0 -1.2 0
5.199 -5.16 -1.386 -0 -1.2 0
5.409 -5.483 -1.44 -0 -1.2 0
5.358 -5.597 -1.424 -0 -1.2 0
6.046 -6.367 -1.606 -0 -1.2 0
5.746 -6.464 -1.518 -0 -1.2 0
4.22 -5.153 -1.104 -0 -1.2 0
4.214 -5.29 -1.099 -0 -1.2 0
1.136 0.006 -0.359 -0 -1.2 0
1.182 0.015 -0.374 -0 -1.2 0
1.221 0.015 -0.386 -0 -1.2 0
1.253 0.008 -0.397 -0 -1.2 0
1.3 0.013 -0.412 -0 -1.2 0
1.347 0.017 -0.427 -0 -1.2 0
1.388 0.012 -0.44 -0 -1.2 0
1.429 0.008 -0.454 -0 -1.2 0
1.477 0.007 -0.469 -0 -1.2 0
1.534 0.011 -0.488 -0 -1.2 0
1.591 0.014 -0.506 -0 -1.2 0
1.64 0.008 -0.522 -0 -1.2 0
1.706 0.013 -0.544 -0 -1.2 0
1.757 0.004 -0.56 -0 -1.2 0
1.832 0.011 -0.585 -0 -1.2 0
1.899 0.008 -0.606 -0 -1.2 0
1.975 0.01 -0.631 -0 -1.2 0
2.044 0.003 -0.653 -0 -1.2 0
2.129 0.005 -0.681 -0 -1.2 0
2.224 0.007 -0.712 -0 -1.2 0
2.311 0.003 -0.74 -0 -1.2 0
2.407 -0.001 -0.771 -0 -1.2 0
2.521 0 -0.808 -0 -1.2 0
2.653 0.005 -0.851 -0 -1.2 0
2.795 0.009 -0.897 -0 -1.2 0
2.965 0.019 -0.952 -0 -1.2 0
3.127 0.019 -1.005 -0 -1.2 0
3.298 0.017 -1.061 -0 -1.2 0
3.489 0.015 -1.122 -0 -1.2 0
3.726 0.021 -1.199 -0 -1.2 0
3.982 0.023 -1.283 -0 -1.2 0
4.277 0.026 -1.378 -0 -1.2 0
4.582 0.021 -1.477 -0 -1.2 0
4.999 0.031 -1.613 -0 -1.2 0
5.456 0.034 -1.761 -0 -1.2 0
6.026 0.042 -1.946 -0 -1.2 0
6.766 0.059 -2.187 -0 -1.2 0
7.613 0.065 -2.462 -0 -1.2 0
8.47 0.043 -2.74 -0 -1.2 0
8.178 -0.148 -2.64 -0 -1.2 0
7.786 -0.337 -2.51 -0 -1.2 0
8.623 -0.41 -2.78 -0 -1.2 0
8.435 -0.58 -2.716 -0 -1.2 0
19.036 -0.261 -6.163 -0 -1.2 0
8.458 -0.885 -2.718 -0 -1.2 0
19.037 -0.956 -6.15 -0 -1.2 0
19.049 -1.303 -6.146 -0 -1.2 0
18.987 -1.649 -6.12 -0 -1.2 0
19.12 -2.002 -6.155 -0 -1.2 0
19.123 -2.352 -6.149 -0 -1.2 0
19.121 -2.702 -6.142 -0 -1.2 0
19.122 -3.053 -6.135 -0 -1.2 0
19.117 -3.405 -6.126 -0 -1.2 0
19.116 -3.759 -6.119 -0 -1.2 0
19.127 -4.116 -6.115 -0 -1.2 0
19.114 -4.471 -6.103 -0 -1.2 0
19.114 -4.83 -6.096 -0 -1.2 0
19.125 -5.194 -6.093 -0 -1.2 0
19.122 -5.557 -6.084 -0 -1.2 0
19.121 -5.923 -6.076 -0 -1.2 0
19.114 -6.29 -6.066 -0 -1.2 0
19.119 -6.665 -6.06 -0 -1.2 0
19.118 -7.041 -6.052 -0 -1.2 0
19.099 -7.415 -6.039 -0 -1.2 0
19.121 -7.807 -6.038 -0 -1.2 0
19.116 -8.194 -6.028 -0 -1.2 0
19.114 -8.587 -6.019 -0 -1.2 0
19.113 -8.985 -6.011 -0 -1.2 0
19.113 -9.389 -6.003 -0 -1.2 0
9.63 -5.462 -3.004 -0 -1.2 0
19.091 -10.205 -5.979 -0 -1.2 0
6.908 -4.517 -2.14 -0 -1.2 0
7.85 -5.165 -2.433 -0 -1.2 0
7.723 -5.273 -2.389 -0 -1.2 0
6.312 -4.647 -1.944 -0 -1.2 0
6.087 -4.661 -1.871 -0 -1.2 0
5.831 -4.647 -1.788 -0 -1.2 0
5.105 -4.323 -1.558 -0 -1.2 0
5.558 -4.753 -1.697 -0 -1.2 0
4.622 -4.244 -1.403 -0 -1.2 0
5.049 -4.672 -1.533 -0 -1.2 0
6.125 -5.611 -1.863 -0 -1.2 0
5.136 -5.011 -1.555 -0 -1.2 0
5.533 -5.475 -1.675 -0 -1.2 0
8.217 -7.873 -2.497 -0 -1.2 0
8.245 -8.141 -2.501 -0 -1.2 0
8.171 -8.328 -2.473 -0 -1.2 0
5.869 -6.451 -1.763 -0 -1.2 0
4.153 -4.992 -1.236 -0 -1.2 0
5.349 -6.32 -1.597 -0 -1.2 0
4.069 -5.187 -1.205 -0 -1.2 0
1.13 0.013 -0.399 -0 -1.2 0
1.168 0.014 -0.413 -0 -1.2 0
1.2 0.007 -0.424 -0 -1.2 0
1.246 0.013 -0.441 -0 -1.2 0
1.292 0.019 -0.457 -0 -1.2 0
1.325 0.009 -0.469 -0 -1.2 0
1.372 0.011 -0.486 -0 -1.2 0
1.42 0.013 -0.504 -0 -1.2 0
1.468 0.012 -0.521 -0 -1.2 0
1.516 0.01 -0.538 -0 -1.2 0
1.573 0.013 -0.559 -0 -1.2 0
1.622 0.007 -0.577 -0 -1.2 0
1.679 0.007 -0.597 -0 -1.2 0
1.745 0.009 -0.621 -0 -1.2 0
1.811 0.01 -0.645 -0 -1.2 0
1.878 0.007 -0.669 -0 -1.2 0
1.945 0.004 -0.693 -0 -1.2 0
2.029 0.007 -0.724 -0 -1.2 0
2.105 0.004 -0.751 -0 -1.2 0
2.199 0.005 -0.785 -0 -1.2 0
2.293 0.005 -0.819 -0 -1.2 0
2.388 0.002 -0.854 -0 -1.2 0
2.492 -0.001 -0.891 -0 -1.2 0
2.623 0.003 -0.939 -0 -1.2 0
2.764 0.007 -0.99 -0 -1.2 0
2.931 0.017 -1.05 -0 -1.2 0
3.1 0.02 -1.111 -0 -1.2 0
3.279 0.021 -1.176 -0 -1.2 0
3.494 0.028 -1.254 -0 -1.2 0
3.702 0.023 -1.329 -0 -1.2 0
3.946 0.022 -1.417 -0 -1.2 0
4.238 0.025 -1.523 -0 -1.2 0
4.557 0.024 -1.638 -0 -1.2 0
4.934 0.025 -1.774 -0 -1.2 0
5.385 0.028 -1.937 -0 -1.2 0
6.004 0.047 -2.162 -0 -1.2 0
6.681 0.053 -2.407 -0 -1.2 0
7.517 0.059 -2.71 -0 -1.2 0
7.247 -0.118 -2.608 -0 -1.2 0
7.31 -0.246 -2.628 -0 -1.2 0
7.184 -0.394 -2.58 -0 -1.2 0
7.298 -0.517 -2.619 -0 -1.2 0
7.326 -0.65 -2.625 -0 -1.2 0
8.442 -0.734 -3.027 -0 -1.2 0
8.429 -0.89 -3.02 -0 -1.2 0
8.272 -1.045 -2.96 -0 -1.2 0
19.332 -1.321 -6.954 -0 -1.2 0
21.556 -1.745 -7.749 -0 -1.2 0
19.318 -2.035 -6.935 -0 -1.2 0
19.321 -2.392 -6.928 -0 -1.2 0
19.046 -2.727 -6.822 -0 -1.2 0
19.056 -3.082 -6.818 -0 -1.2 0
19.041 -3.436 -6.805 -0 -1.2 0
19.236 -3.819 -6.868 -0 -1.2 0
19.256 -4.184 -6.867 -0 -1.2 0
19.27 -4.55 -6.864 -0 -1.2 0
19.278 -4.918 -6.859 -0 -1.2 0
19.279 -5.287 -6.852 -0 -1.2 0
19.292 -5.661 -6.849 -0 -1.2 0
19.355 -6.051 -6.864 -0 -1.2 0
19.054 -6.346 -6.749 -0 -1.2 0
19.049 -6.721 -6.739 -0 -1.2 0
19.055 -7.102 -6.734 -0 -1.2 0
19.1 -7.501 -6.742 -0 -1.2 0
7.337 -3.688 -2.566 -0 -1.2 0
19.328 -8.368 -6.806 -0 -1.2 0
19.296 -8.758 -6.786 -0 -1.2 0
19.283 -9.16 -6.774 -0 -1.2 0
19.517 -9.676 -6.847 -0 -1.2 0
19.167 -9.937 -6.715 -0 -1.2 0
7.571 -4.73 -2.63 -0 -1.2 0
6.337 -4.271 -2.193 -0 -1.2 0
8.066 -5.331 -2.796 -0 -1.2 0
5.395 -4.036 -1.857 -0 -1.2 0
6.093 -4.565 -2.098 -0 -1.2 0
5.215 -4.181 -1.788 -0 -1.2 0
7.009 -5.43 -2.411 -0 -1.2 0
5.578 -4.672 -1.91 -0 -1.2 0
6.642 -5.532 -2.277 -0 -1.2 0
4.752 -4.374 -1.616 -0 -1.2 0
4.806 -4.539 -1.634 -0 -1.2 0
4.166 -4.183 -1.409 -0 -1.2 0
5.382 -5.253 -1.827 -0 -1.2 0
9.411 -8.688 -3.212 -0 -1.2 0
5.924 -6.02 -2.007 -0 -1.2 0
4.379 -4.845 -1.472 -0 -1.2 0
5.746 -6.218 -1.939 -0 -1.2 0
5.492 -6.162 -1.848 -0 -1.2 0
4.051 -4.941 -1.351 -0 -1.2 0
5.181 -6.213 -1.734 -0 -1.2 0
5.062 -6.271 -1.69 -0 -1.2 0
1.121 0.019 -0.441 -0 -1.2 0
1.152 0.013 -0.454 -0 -1.2 0
1.191 0.013 -0.469 -0 -1.2 0
1.229 0.013 -0.485 -0 -1.2 0
1.268 0.011 -0.501 -0 -1.2 0
1.314 0.015 -0.519 -0 -1.2 0
1.354 0.01 -0.535 -0 -1.2 0
1.401 0.012 -0.554 -0 -1.2 0
1.441 0.005 -0.57 -0 -1.2 0
1.496 0.009 -0.592 -0 -1.2 0
1.551 0.012 -0.615 -0 -1.2 0
1.608 0.012 -0.637 -0 -1.2 0
1.656 0.005 -0.657 -0 -1.2 0
1.721 0.008 -0.683 -0 -1.2 0
1.786 0.008 -0.709 -0 -1.2 0
1.852 0.006 -0.736 -0 -1.2 0
1.918 0.002 -0.762 -0 -1.2 0
2.001 0.006 -0.796 -0 -1.2 0
2.085 0.006 -0.829 -0 -1.2 0
2.169 0.004 -0.863 -0 -1.2 0
2.262 0.003 -0.901 -0 -1.2 0
2.356 0 -0.939 -0 -1.2 0
2.467 0.001 -0.983 -0 -1.2 0
2.579 -0.002 -1.028 -0 -1.2 0
2.735 0.008 -1.091 -0 -1.2 0
2.892 0.014 -1.154 -0 -1.2 0
3.067 0.021 -1.225 -0 -1.2 0
3.234 0.019 -1.292 -0 -1.2 0
3.456 0.028 -1.381 -0 -1.2 0
3.669 0.027 -1.467 -0 -1.2 0
3.893 0.019 -1.557 -0 -1.2 0
4.18 0.022 -1.673 -0 -1.2 0
4.505 0.024 -1.804 -0 -1.2 0
4.885 0.026 -1.957 -0 -1.2 0
5.366 0.036 -2.15 -0 -1.2 0
5.913 0.04 -2.372 -0 -1.2 0
6.599 0.05 -2.648 -0 -1.2 0
7.415 0.053 -2.976 -0 -1.2 0
7.884 -0.021 -3.164 -0 -1.2 0
7.57 -0.208 -3.033 -0 -1.2 0
7.658 -0.341 -3.065 -0 -1.2 0
7.347 -0.51 -2.937 -0 -1.2 0
7.486 -0.638 -2.99 -0 -1.2 0
7.531 -0.776 -3.004 -0 -1.2 0
8.342 -0.895 -3.33 -0 -1.2 0
19.467 -0.977 -7.807 -0 -1.2 0
8.077 -1.201 -3.216 -0 -1.2 0
19.484 -1.706 -7.798 -0 -1.2 0
19.482 -2.071 -7.789 -0 -1.2 0
19.457 -2.434 -7.771 -0 -1.2 0
18.982 -2.758 -7.573 -0 -1.2 0
18.965 -3.114 -7.558 -0 -1.2 0
18.96 -3.472 -7.549 -0 -1.2 0
19.188 -3.864 -7.632 -0 -1.2 0
19.226 -4.236 -7.639 -0 -1.2 0
22.801 -5.258 -9.057 -0 -1.2 0
22.231 -5.583 -8.821 -0 -1.2 0
19.21 -5.344 -7.609 -0 -1.2 0
19.232 -5.724 -7.61 -0 -1.2 0
19.184 -6.089 -7.583 -0 -1.2 0
18.896 -6.389 -7.461 -0 -1.2 0
18.962 -6.786 -7.479 -0 -1.2 0
18.968 -7.171 -7.473 -0 -1.2 0
19.002 -7.57 -7.479 -0 -1.2 0
19.223 -8.041 -7.558 -0 -1.2 0
22.037 -9.523 -8.658 -0 -1.2 0
21.578 -9.802 -8.468 -0 -1.2 0
19.171 -9.238 -7.511 -0 -1.2 0
19.4 -9.755 -7.592 -0 -1.2 0
7.586 -4.625 -2.945 -0 -1.2 0
6.107 -4.064 -2.361 -0 -1.2 0
5.908 -4.098 -2.281 -0 -1.2 0
7.242 -4.951 -2.799 -0 -1.2 0
5.075 -3.901 -1.95 -0 -1.2 0
7 -5.149 -2.698 -0 -1.2 0
7.469 -5.605 -2.877 -0 -1.2 0
5.688 -4.656 -2.18 -0 -1.2 0
6.369 -5.248 -2.441 -0 -1.2 0
18.948 -14.054 -7.318 -0 -1.2 0
4.749 -4.422 -1.808 -0 -1.2 0
6.43 -5.794 -2.455 -0 -1.2 0
6.293 -5.864 -2.398 -0 -1.2 0
18.554 -15.815 -7.122 -0 -1.2 0
6.595 -6.471 -2.507 -0 -1.2 0
5.571 -5.958 -2.105 -0 -1.2 0
5.585 -6.144 -2.107 -0 -1.2 0
5.042 -5.808 -1.895 -0 -1.2 0
4.03 -4.978 -1.506 -0 -1.2 0
4.788 -6.057 -1.788 -0 -1.2 0
1.105 0.018 -0.479 -0 -1.2 0
1.136 0.012 -0.492 -0 -1.2 0
1.167 0.005 -0.506 -0 -1.2 0
1.212 0.012 -0.526 -0 -1.2 0
1.25 0.01 -0.543 -0 -1.2 0
1.296 0.014 -0.563 -0 -1.2 0
1.335 0.009 -0.58 -0 -1.2 0
1.381 0.011 -0.6 -0 -1.2 0
1.428 0.01 -0.621 -0 -1.2 0
1.475 0.008 -0.642 -0 -1.2 0
1.522 0.005 -0.663 -0 -1.2 0
1.577 0.005 -0.687 -0 -1.2 0
1.641 0.009 -0.715 -0 -1.2 0
1.689 0.001 -0.737 -0 -1.2 0
1.761 0.007 -0.768 -0 -1.2 0
1.818 0 -0.794 -0 -1.2 0
1.9 0.006 -0.83 -0 -1.2 0
1.973 0.004 -0.862 -0 -1.2 0
2.048 0.001 -0.895 -0 -1.2 0
2.147 0.007 -0.939 -0 -1.2 0
2.239 0.006 -0.979 -0 -1.2 0
2.323 -0.001 -1.017 -0 -1.2 0
2.424 -0.004 -1.061 -0 -1.2 0
2.56 0.003 -1.121 -0 -1.2 0
2.705 0.011 -1.185 -0 -1.2 0
2.86 0.015 -1.254 -0 -1.2 0
3.024 0.018 -1.326 -0 -1.2 0
3.215 0.026 -1.411 -0 -1.2 0
3.416 0.028 -1.5 -0 -1.2 0
3.618 0.024 -1.589 -0 -1.2 0
3.856 0.022 -1.694 -0 -1.2 0
4.131 0.022 -1.815 -0 -1.2 0
4.46 0.025 -1.961 -0 -1.2 0
4.87 0.035 -2.142 -0 -1.2 0
5.3 0.034 -2.332 -0 -1.2 0
5.849 0.04 -2.576 -0 -1.2 0
6.489 0.042 -2.858 -0 -1.2 0
7.312 0.048 -3.222 -0 -1.2 0
7.909 -0.008 -3.485 -0 -1.2 0
9.753 0.063 -4.301 -0 -1.2 0
8.643 -0.235 -3.804 -0 -1.2 0
8.42 -0.419 -3.701 -0 -1.2 0
8.367 -0.581 -3.675 -0 -1.2 0
18.836 -0.278 -8.308 -0 -1.2 0
8.418 -0.897 -3.691 -0 -1.2 0
18.838 -0.993 -8.294 -0 -1.2 0
18.841 -1.35 -8.286 -0 -1.2 0
18.791 -1.706 -8.256 -0 -1.2 0
18.9 -2.068 -8.297 -0 -1.2 0
18.903 -2.428 -8.29 -0 -1.2 0
18.9 -2.788 -8.281 -0 -1.2 0
18.909 -3.15 -8.278 -0 -1.2 0
18.886 -3.509 -8.259 -0 -1.2 0
19.156 -3.913 -8.37 -0 -1.2 0
19.157 -4.282 -8.362 -0 -1.2 0
19.151 -4.653 -8.352 -0 -1.2 0
19.14 -5.025 -8.338 -0 -1.2 0
19.131 -5.399 -8.326 -0 -1.2 0
19.134 -5.779 -8.319 -0 -1.2 0
18.988 -6.122 -8.247 -0 -1.2 0
18.89 -6.476 -8.196 -0 -1.2 0
18.902 -6.863 -8.193 -0 -1.2 0
18.897 -7.248 -8.183 -0 -1.2 0
19.07 -7.699 -8.249 -0 -1.2 0
19.147 -8.126 -8.274 -0 -1.2 0
19.157 -8.534 -8.268 -0 -1.2 0
19.149 -8.942 -8.257 -0 -1.2 0
19.101 -9.336 -8.226 -0 -1.2 0
19.131 -9.769 -8.23 -0 -1.2 0
7.338 -4.562 -3.132 -0 -1.2 0
7.049 -4.582 -3.004 -0 -1.2 0
7.027 -4.731 -2.992 -0 -1.2 0
6.969 -4.862 -2.963 -0 -1.2 0
4.956 -3.877 -2.095 -0 -1.2 0
7.363 -5.428 -3.125 -0 -1.2 0
7.693 -5.813 -3.262 -0 -1.2 0
19.099 -13.366 -8.137 -0 -1.2 0
18.935 -13.745 -8.056 -0 -1.2 0
18.88 -14.203 -8.022 -0 -1.2 0
18.931 -14.746 -8.033 -0 -1.2 0
6.19 -5.684 -2.6 -0 -1.2 0
18.646 -15.574 -7.89 -0 -1.2 0
5.798 -5.715 -2.427 -0 -1.2 0
5.724 -5.822 -2.392 -0 -1.2 0
4.871 -5.555 -2.02 -0 -1.2 0
4.993 -5.831 -2.069 -0 -1.2 0
4.681 -5.686 -1.933 -0 -1.2 0
5.654 -6.856 -2.338 -0 -1.2 0
4.034 -5.322 -1.656 -0 -1.2 0
1.088 0.017 -0.516 -0 -1.2 0
1.119 0.011 -0.53 -0 -1.2 0
1.156 0.012 -0.548 -0 -1.2 0
1.193 0.011 -0.566 -0 -1.2 0
1.224 0.003 -0.581 -0 -1.2 0
1.276 0.013 -0.606 -0 -1.2 0
1.314 0.008 -0.625 -0 -1.2 0
1.353 0.004 -0.643 -0 -1.2 0
1.406 0.009 -0.669 -0 -1.2 0
1.459 0.012 -0.695 -0 -1.2 0
1.506 0.009 -0.717 -0 -1.2 0
1.553 0.004 -0.74 -0 -1.2 0
1.608 0.003 -0.766 -0 -1.2 0
1.671 0.005 -0.797 -0 -1.2 0
1.742 0.011 -0.831 -0 -1.2 0
1.79 -0.001 -0.854 -0 -1.2 0
1.87 0.004 -0.893 -0 -1.2 0
1.943 0.003 -0.928 -0 -1.2 0
2.024 0.003 -0.967 -0 -1.2 0
2.106 0.001 -1.007 -0 -1.2 0
2.204 0.004 -1.054 -0 -1.2 0
2.287 -0.002 -1.094 -0 -1.2 0
2.395 -0.002 -1.146 -0 -1.2 0
2.52 0.001 -1.207 -0 -1.2 0
2.663 0.009 -1.276 -0 -1.2 0
2.816 0.013 -1.349 -0 -1.2 0
2.977 0.016 -1.427 -0 -1.2 0
3.174 0.026 -1.522 -0 -1.2 0
3.372 0.028 -1.618 -0 -1.2 0
3.571 0.023 -1.714 -0 -1.2 0
3.805 0.022 -1.827 -0 -1.2 0
4.093 0.026 -1.966 -0 -1.2 0
4.399 0.024 -2.114 -0 -1.2 0
4.795 0.032 -2.305 -0 -1.2 0
5.227 0.032 -2.514 -0 -1.2 0
5.749 0.034 -2.766 -0 -1.2 0
6.371 0.033 -3.066 -0 -1.2 0
7.172 0.038 -3.453 -0 -1.2 0
7.645 -0.033 -3.679 -0 -1.2 0
7.483 -0.202 -3.598 -0 -1.2 0
7.498 -0.346 -3.601 -0 -1.2 0
7.715 -0.472 -3.704 -0 -1.2 0
7.412 -0.639 -3.554 -0 -1.2 0
7.392 -0.782 -3.54 -0 -1.2 0
8.351 -0.9 -4.002 -0 -1.2 0
18.782 -1.005 -9.036 -0 -1.2 0
18.775 -1.366 -9.024 -0 -1.2 0
18.736 -1.728 -8.996 -0 -1.2 0
18.833 -2.094 -9.036 -0 -1.2 0
18.836 -2.458 -9.029 -0 -1.2 0
18.833 -2.823 -9.019 -0 -1.2 0
18.834 -3.188 -9.011 -0 -1.2 0
18.836 -3.555 -9.004 -0 -1.2 0
18.843 -3.924 -9 -0 -1.2 0
18.844 -4.294 -8.992 -0 -1.2 0
18.839 -4.665 -8.981 -0 -1.2 0
18.845 -5.04 -8.976 -0 -1.2 0
18.837 -5.414 -8.963 -0 -1.2 0
18.84 -5.793 -8.955 -0 -1.2 0
18.837 -6.173 -8.945 -0 -1.2 0
18.827 -6.555 -8.932 -0 -1.2 0
18.829 -6.943 -8.924 -0 -1.2 0
18.823 -7.333 -8.914 -0 -1.2 0
18.82 -7.728 -8.903 -0 -1.2 0
18.819 -8.127 -8.894 -0 -1.2 0
18.828 -8.535 -8.888 -0 -1.2 0
18.822 -8.941 -8.877 -0 -1.2 0
18.824 -9.357 -8.869 -0 -1.2 0
7.187 -4.387 -3.36 -0 -1.2 0
7.036 -4.475 -3.286 -0 -1.2 0
18.806 -10.627 -8.831 -0 -1.2 0
6.553 -4.54 -3.052 -0 -1.2 0
6.717 -4.786 -3.125 -0 -1.2 0
7.469 -5.383 -3.474 -0 -1.2 0
4.821 -3.963 -2.228 -0 -1.2 0
6.184 -4.941 -2.864 -0 -1.2 0
6.473 -5.288 -2.997 -0 -1.2 0
6.3 -5.336 -2.912 -0 -1.2 0
6.18 -5.417 -2.852 -0 -1.2 0
5.879 -5.362 -2.708 -0 -1.2 0
5.67 -5.364 -2.607 -0 -1.2 0
18.531 -15.723 -8.584 -0 -1.2 0
5.339 -5.415 -2.446 -0 -1.2 0
6.143 -6.445 -2.811 -0 -1.2 0
5.997 -6.503 -2.739 -0 -1.2 0
4.9 -5.657 -2.229 -0 -1.2 0
5.819 -6.72 -2.649 -0 -1.2 0
