# .PCD v.7 - Point Cloud Data file format
FIELDS x y z vp_x vp_y vp_z
SIZE 4 4 4 4 4 4
TYPE F F F F F F
COUNT 1 1 1 1 1 1
WIDTH 1598
HEIGHT 1
VIEWPOINT 0 -1.2001 0 1 0 0 0
POINTS 1598
DATA ascii
0.811 -0.034 -1.405 -0 -1.2 0
0.836 -0.038 -1.439 -0 -1.2 0
0.863 -0.042 -1.472 -0 -1.2 0
0.898 -0.036 -1.518 -0 -1.2 0
0.935 -0.031 -1.565 -0 -1.2 0
0.962 -0.04 -1.599 -0 -1.2 0
0.998 -0.039 -1.646 -0 -1.2 0
1.035 -0.039 -1.694 -0 -1.2 0
1.068 -0.047 -1.735 -0 -1.2 0
1.111 -0.046 -1.79 -0 -1.2 0
1.154 -0.045 -1.845 -0 -1.2 0
1.197 -0.049 -1.901 -0 -1.2 0
1.252 -0.044 -1.971 -0 -1.2 0
1.302 -0.047 -2.035 -0 -1.2 0
1.357 -0.048 -2.106 -0 -1.2 0
1.424 -0.044 -2.192 -0 -1.2 0
1.486 -0.046 -2.271 -0 -1.2 0
1.553 -0.048 -2.358 -0 -1.2 0
1.628 -0.05 -2.452 -0 -1.2 0
1.708 -0.052 -2.555 -0 -1.2 0
1.788 -0.058 -2.658 -0 -1.2 0
1.875 -0.065 -2.769 -0 -1.2 0
1.979 -0.068 -2.903 -0 -1.2 0
2.091 -0.073 -3.045 -0 -1.2 0
2.208 -0.081 -3.195 -0 -1.2 0
2.355 -0.082 -3.384 -0 -1.2 0
2.52 -0.084 -3.597 -0 -1.2 0
2.699 -0.09 -3.824 -0 -1.2 0
2.902 -0.098 -4.085 -0 -1.2 0
3.142 -0.106 -4.392 -0 -1.2 0
3.419 -0.115 -4.746 -0 -1.2 0
3.793 -0.114 -5.226 -0 -1.2 0
4.247 -0.115 -5.809 -0 -1.2 0
4.564 -0.171 -6.213 -0 -1.2 0
5.344 -0.161 -7.213 -0 -1.2 0
5.333 -0.315 -7.19 -0 -1.2 0
5.34 -0.467 -7.188 -0 -1.2 0
5.351 -0.617 -7.192 -0 -1.2 0
5.361 -0.768 -7.194 -0 -1.2 0
5.361 -0.919 -7.187 -0 -1.2 0
5.375 -1.07 -7.192 -0 -1.2 0
5.378 -1.22 -7.188 -0 -1.2 0
5.382 -1.37 -7.182 -0 -1.2 0
5.39 -1.522 -7.182 -0 -1.2 0
5.395 -1.673 -7.179 -0 -1.2 0
5.406 -1.826 -7.182 -0 -1.2 0
5.414 -1.979 -7.183 -0 -1.2 0
5.415 -2.13 -7.175 -0 -1.2 0
5.421 -2.284 -7.172 -0 -1.2 0
5.43 -2.439 -7.174 -0 -1.2 0
5.439 -2.595 -7.175 -0 -1.2 0
5.445 -2.752 -7.172 -0 -1.2 0
5.456 -2.911 -7.175 -0 -1.2 0
5.459 -3.069 -7.169 -0 -1.2 0
5.473 -3.232 -7.176 -0 -1.2 0
5.477 -3.393 -7.172 -0 -1.2 0
5.487 -3.558 -7.173 -0 -1.2 0
5.495 -3.724 -7.173 -0 -1.2 0
5.501 -3.891 -7.169 -0 -1.2 0
5.511 -4.061 -7.171 -0 -1.2 0
5.518 -4.233 -7.169 -0 -1.2 0
5.524 -4.405 -7.165 -0 -1.2 0
5.528 -4.579 -7.158 -0 -1.2 0
5.542 -4.761 -7.164 -0 -1.2 0
5.552 -4.945 -7.166 -0 -1.2 0
5.561 -5.13 -7.165 -0 -1.2 0
5.568 -5.317 -7.16 -0 -1.2 0
5.571 -5.505 -7.153 -0 -1.2 0
5.584 -5.703 -7.157 -0 -1.2 0
5.594 -5.903 -7.157 -0 -1.2 0
5.596 -6.099 -7.146 -0 -1.2 0
5.607 -6.307 -7.147 -0 -1.2 0
5.609 -6.511 -7.136 -0 -1.2 0
5.625 -6.733 -7.141 -0 -1.2 0
5.643 -6.962 -7.149 -0 -1.2 0
5.736 -7.279 -7.248 -0 -1.2 0
5.508 -7.248 -6.958 -0 -1.2 0
5.605 -7.581 -7.061 -0 -1.2 0
5.515 -7.701 -6.936 -0 -1.2 0
5.613 -8.054 -7.039 -0 -1.2 0
5.537 -8.199 -6.932 -0 -1.2 0
5.69 -8.646 -7.098 -0 -1.2 0
5.699 -8.918 -7.092 -0 -1.2 0
5.671 -9.144 -7.043 -0 -1.2 0
0.683 -0.034 -1.28 -0 -1.2 0
0.711 -0.026 -1.319 -0 -1.2 0
0.731 -0.034 -1.347 -0 -1.2 0
0.751 -0.041 -1.373 -0 -1.2 0
0.78 -0.037 -1.413 -0 -1.2 0
0.805 -0.04 -1.447 -0 -1.2 0
0.839 -0.033 -1.494 -0 -1.2 0
0.864 -0.039 -1.529 -0 -1.2 0
0.899 -0.035 -1.576 -0 -1.2 0
0.925 -0.043 -1.61 -0 -1.2 0
0.961 -0.042 -1.659 -0 -1.2 0
1.001 -0.037 -1.715 -0 -1.2 0
1.037 -0.04 -1.764 -0 -1.2 0
1.068 -0.049 -1.807 -0 -1.2 0
1.11 -0.049 -1.863 -0 -1.2 0
1.157 -0.048 -1.927 -0 -1.2 0
1.199 -0.053 -1.985 -0 -1.2 0
1.257 -0.047 -2.065 -0 -1.2 0
1.31 -0.048 -2.137 -0 -1.2 0
1.374 -0.043 -2.225 -0 -1.2 0
1.428 -0.051 -2.298 -0 -1.2 0
1.494 -0.053 -2.387 -0 -1.2 0
1.564 -0.056 -2.485 -0 -1.2 0
1.647 -0.054 -2.597 -0 -1.2 0
1.725 -0.06 -2.702 -0 -1.2 0
1.813 -0.065 -2.824 -0 -1.2 0
1.908 -0.072 -2.953 -0 -1.2 0
2.009 -0.08 -3.091 -0 -1.2 0
2.134 -0.083 -3.259 -0 -1.2 0
2.275 -0.085 -3.453 -0 -1.2 0
2.428 -0.089 -3.663 -0 -1.2 0
2.605 -0.094 -3.905 -0 -1.2 0
2.795 -0.106 -4.162 -0 -1.2 0
3.025 -0.114 -4.477 -0 -1.2 0
3.32 -0.116 -4.879 -0 -1.2 0
3.662 -0.121 -5.347 -0 -1.2 0
4.099 -0.124 -5.943 -0 -1.2 0
4.408 -0.18 -6.364 -0 -1.2 0
5.099 -0.185 -7.307 -0 -1.2 0
5.084 -0.339 -7.275 -0 -1.2 0
5.096 -0.488 -7.281 -0 -1.2 0
5.101 -0.638 -7.278 -0 -1.2 0
5.103 -0.788 -7.271 -0 -1.2 0
5.111 -0.937 -7.271 -0 -1.2 0
5.123 -1.087 -7.277 -0 -1.2 0
5.128 -1.236 -7.273 -0 -1.2 0
5.136 -1.385 -7.275 -0 -1.2 0
5.138 -1.535 -7.267 -0 -1.2 0
5.143 -1.686 -7.265 -0 -1.2 0
5.154 -1.837 -7.268 -0 -1.2 0
5.157 -1.988 -7.262 -0 -1.2 0
5.163 -2.14 -7.261 -0 -1.2 0
5.169 -2.291 -7.257 -0 -1.2 0
5.178 -2.445 -7.26 -0 -1.2 0
5.18 -2.599 -7.253 -0 -1.2 0
5.193 -2.756 -7.259 -0 -1.2 0
5.203 -2.914 -7.263 -0 -1.2 0
5.207 -3.07 -7.256 -0 -1.2 0
5.214 -3.23 -7.255 -0 -1.2 0
5.22 -3.39 -7.251 -0 -1.2 0
5.235 -3.556 -7.261 -0 -1.2 0
5.243 -3.721 -7.26 -0 -1.2 0
5.249 -3.886 -7.257 -0 -1.2 0
5.259 -4.056 -7.259 -0 -1.2 0
5.26 -4.223 -7.25 -0 -1.2 0
5.272 -4.398 -7.254 -0 -1.2 0
5.276 -4.57 -7.247 -0 -1.2 0
5.283 -4.747 -7.245 -0 -1.2 0
5.294 -4.93 -7.248 -0 -1.2 0
5.304 -5.114 -7.248 -0 -1.2 0
5.31 -5.299 -7.244 -0 -1.2 0
5.32 -5.49 -7.244 -0 -1.2 0
5.327 -5.683 -7.242 -0 -1.2 0
5.332 -5.877 -7.235 -0 -1.2 0
5.346 -6.082 -7.239 -0 -1.2 0
5.351 -6.284 -7.232 -0 -1.2 0
5.359 -6.492 -7.229 -0 -1.2 0
5.37 -6.707 -7.229 -0 -1.2 0
5.382 -6.929 -7.231 -0 -1.2 0
5.392 -7.154 -7.229 -0 -1.2 0
5.219 -7.171 -6.991 -0 -1.2 0
5.309 -7.496 -7.092 -0 -1.2 0
5.286 -7.693 -7.047 -0 -1.2 0
5.27 -7.902 -7.011 -0 -1.2 0
5.346 -8.241 -7.093 -0 -1.2 0
5.423 -8.591 -7.172 -0 -1.2 0
5.437 -8.868 -7.174 -0 -1.2 0
5.425 -9.113 -7.14 -0 -1.2 0
0.655 -0.035 -1.284 -0 -1.2 0
0.681 -0.028 -1.324 -0 -1.2 0
0.705 -0.029 -1.358 -0 -1.2 0
0.725 -0.036 -1.386 -0 -1.2 0
0.752 -0.033 -1.426 -0 -1.2 0
0.776 -0.036 -1.461 -0 -1.2 0
0.801 -0.041 -1.496 -0 -1.2 0
0.829 -0.041 -1.538 -0 -1.2 0
0.862 -0.037 -1.587 -0 -1.2 0
0.891 -0.04 -1.629 -0 -1.2 0
0.921 -0.044 -1.672 -0 -1.2 0
0.959 -0.039 -1.729 -0 -1.2 0
0.994 -0.042 -1.778 -0 -1.2 0
1.025 -0.052 -1.822 -0 -1.2 0
1.069 -0.047 -1.887 -0 -1.2 0
1.109 -0.051 -1.946 -0 -1.2 0
1.154 -0.052 -2.011 -0 -1.2 0
1.205 -0.05 -2.086 -0 -1.2 0
1.256 -0.051 -2.16 -0 -1.2 0
1.313 -0.052 -2.242 -0 -1.2 0
1.364 -0.059 -2.317 -0 -1.2 0
1.442 -0.049 -2.431 -0 -1.2 0
1.5 -0.06 -2.515 -0 -1.2 0
1.578 -0.058 -2.629 -0 -1.2 0
1.657 -0.062 -2.746 -0 -1.2 0
1.742 -0.067 -2.869 -0 -1.2 0
1.833 -0.073 -3.002 -0 -1.2 0
1.931 -0.083 -3.142 -0 -1.2 0
2.044 -0.089 -3.307 -0 -1.2 0
2.179 -0.091 -3.505 -0 -1.2 0
2.332 -0.095 -3.727 -0 -1.2 0
2.501 -0.1 -3.974 -0 -1.2 0
2.683 -0.111 -4.238 -0 -1.2 0
2.909 -0.118 -4.567 -0 -1.2 0
3.175 -0.127 -4.954 -0 -1.2 0
3.513 -0.131 -5.448 -0 -1.2 0
3.92 -0.139 -6.041 -0 -1.2 0
4.268 -0.184 -6.545 -0 -1.2 0
4.844 -0.208 -7.385 -0 -1.2 0
4.836 -0.36 -7.361 -0 -1.2 0
4.847 -0.508 -7.367 -0 -1.2 0
4.852 -0.657 -7.363 -0 -1.2 0
4.855 -0.806 -7.358 -0 -1.2 0
4.863 -0.955 -7.358 -0 -1.2 0
4.868 -1.103 -7.356 -0 -1.2 0
4.873 -1.251 -7.351 -0 -1.2 0
4.881 -1.399 -7.353 -0 -1.2 0
4.889 -1.548 -7.353 -0 -1.2 0
4.889 -1.696 -7.343 -0 -1.2 0
4.898 -1.846 -7.346 -0 -1.2 0
4.907 -1.996 -7.347 -0 -1.2 0
4.913 -2.147 -7.346 -0 -1.2 0
4.919 -2.299 -7.344 -0 -1.2 0
4.928 -2.452 -7.347 -0 -1.2 0
4.931 -2.604 -7.339 -0 -1.2 0
4.942 -2.76 -7.345 -0 -1.2 0
4.947 -2.915 -7.342 -0 -1.2 0
4.957 -3.073 -7.343 -0 -1.2 0
4.958 -3.229 -7.335 -0 -1.2 0
4.969 -3.391 -7.339 -0 -1.2 0
4.973 -3.55 -7.333 -0 -1.2 0
4.987 -3.716 -7.341 -0 -1.2 0
4.993 -3.881 -7.338 -0 -1.2 0
5.003 -4.049 -7.339 -0 -1.2 0
5.01 -4.219 -7.34 -0 -1.2 0
5.016 -4.388 -7.336 -0 -1.2 0
5.02 -4.56 -7.329 -0 -1.2 0
5.033 -4.74 -7.335 -0 -1.2 0
5.033 -4.914 -7.324 -0 -1.2 0
5.047 -5.1 -7.331 -0 -1.2 0
5.055 -5.285 -7.327 -0 -1.2 0
5.059 -5.47 -7.321 -0 -1.2 0
5.072 -5.666 -7.326 -0 -1.2 0
5.077 -5.859 -7.32 -0 -1.2 0
5.091 -6.063 -7.324 -0 -1.2 0
5.101 -6.269 -7.325 -0 -1.2 0
5.099 -6.465 -7.309 -0 -1.2 0
5.105 -6.674 -7.302 -0 -1.2 0
5.123 -6.901 -7.312 -0 -1.2 0
5.132 -7.125 -7.31 -0 -1.2 0
5.02 -7.204 -7.141 -0 -1.2 0
5.007 -7.403 -7.107 -0 -1.2 0
5.112 -7.764 -7.235 -0 -1.2 0
5.032 -7.886 -7.109 -0 -1.2 0
5.066 -8.167 -7.137 -0 -1.2 0
5.162 -8.549 -7.251 -0 -1.2 0
5.177 -8.824 -7.253 -0 -1.2 0
5.17 -9.074 -7.226 -0 -1.2 0
0.628 -0.031 -1.295 -0 -1.2 0
0.646 -0.037 -1.323 -0 -1.2 0
0.668 -0.038 -1.358 -0 -1.2 0
0.69 -0.039 -1.393 -0 -1.2 0
0.712 -0.042 -1.428 -0 -1.2 0
0.735 -0.045 -1.463 -0 -1.2 0
0.766 -0.038 -1.512 -0 -1.2 0
0.793 -0.038 -1.555 -0 -1.2 0
0.816 -0.046 -1.59 -0 -1.2 0
0.848 -0.043 -1.641 -0 -1.2 0
0.877 -0.048 -1.685 -0 -1.2 0
0.914 -0.043 -1.742 -0 -1.2 0
0.946 -0.046 -1.794 -0 -1.2 0
0.975 -0.056 -1.838 -0 -1.2 0
1.017 -0.051 -1.905 -0 -1.2 0
1.051 -0.061 -1.957 -0 -1.2 0
1.103 -0.051 -2.039 -0 -1.2 0
1.146 -0.055 -2.108 -0 -1.2 0
1.196 -0.056 -2.184 -0 -1.2 0
1.248 -0.057 -2.268 -0 -1.2 0
1.308 -0.056 -2.36 -0 -1.2 0
1.362 -0.063 -2.446 -0 -1.2 0
1.432 -0.062 -2.555 -0 -1.2 0
1.502 -0.064 -2.664 -0 -1.2 0
1.577 -0.069 -2.782 -0 -1.2 0
1.658 -0.073 -2.909 -0 -1.2 0
1.74 -0.084 -3.036 -0 -1.2 0
1.832 -0.093 -3.18 -0 -1.2 0
1.95 -0.093 -3.365 -0 -1.2 0
2.073 -0.099 -3.558 -0 -1.2 0
2.219 -0.103 -3.786 -0 -1.2 0
2.375 -0.111 -4.03 -0 -1.2 0
2.557 -0.119 -4.316 -0 -1.2 0
2.772 -0.127 -4.653 -0 -1.2 0
3.009 -0.142 -5.024 -0 -1.2 0
3.347 -0.142 -5.554 -0 -1.2 0
3.718 -0.156 -6.136 -0 -1.2 0
4.091 -0.193 -6.717 -0 -1.2 0
4.576 -0.231 -7.475 -0 -1.2 0
4.573 -0.382 -7.459 -0 -1.2 0
4.578 -0.53 -7.457 -0 -1.2 0
4.588 -0.678 -7.461 -0 -1.2 0
4.591 -0.826 -7.456 -0 -1.2 0
4.599 -0.973 -7.456 -0 -1.2 0
4.604 -1.12 -7.453 -0 -1.2 0
4.614 -1.267 -7.457 -0 -1.2 0
4.617 -1.414 -7.451 -0 -1.2 0
4.623 -1.562 -7.451 -0 -1.2 0
4.624 -1.71 -7.44 -0 -1.2 0
4.634 -1.859 -7.444 -0 -1.2 0
4.642 -2.009 -7.446 -0 -1.2 0
4.643 -2.158 -7.436 -0 -1.2 0
4.654 -2.31 -7.442 -0 -1.2 0
4.663 -2.462 -7.445 -0 -1.2 0
4.665 -2.613 -7.437 -0 -1.2 0
4.677 -2.769 -7.444 -0 -1.2 0
4.677 -2.921 -7.432 -0 -1.2 0
4.69 -3.079 -7.442 -0 -1.2 0
4.692 -3.235 -7.433 -0 -1.2 0
4.704 -3.395 -7.438 -0 -1.2 0
4.707 -3.554 -7.433 -0 -1.2 0
4.71 -3.713 -7.425 -0 -1.2 0
4.721 -3.879 -7.43 -0 -1.2 0
4.731 -4.047 -7.432 -0 -1.2 0
4.738 -4.215 -7.432 -0 -1.2 0
4.75 -4.388 -7.436 -0 -1.2 0
4.749 -4.555 -7.423 -0 -1.2 0
4.756 -4.731 -7.422 -0 -1.2 0
4.767 -4.911 -7.425 -0 -1.2 0
4.771 -5.089 -7.418 -0 -1.2 0
4.783 -5.276 -7.422 -0 -1.2 0
4.788 -5.461 -7.417 -0 -1.2 0
4.796 -5.651 -7.414 -0 -1.2 0
4.807 -5.848 -7.416 -0 -1.2 0
4.814 -6.046 -7.414 -0 -1.2 0
4.83 -6.256 -7.423 -0 -1.2 0
4.824 -6.446 -7.398 -0 -1.2 0
4.834 -6.659 -7.4 -0 -1.2 0
4.842 -6.874 -7.396 -0 -1.2 0
4.848 -7.091 -7.388 -0 -1.2 0
4.923 -7.404 -7.483 -0 -1.2 0
4.743 -7.385 -7.201 -0 -1.2 0
4.768 -7.64 -7.223 -0 -1.2 0
4.839 -7.967 -7.308 -0 -1.2 0
4.762 -8.088 -7.178 -0 -1.2 0
4.867 -8.487 -7.314 -0 -1.2 0
4.891 -8.774 -7.329 -0 -1.2 0
4.899 -9.044 -7.321 -0 -1.2 0
0.598 -0.033 -1.297 -0 -1.2 0
0.619 -0.032 -1.332 -0 -1.2 0
0.64 -0.033 -1.368 -0 -1.2 0
0.657 -0.041 -1.396 -0 -1.2 0
0.679 -0.044 -1.432 -0 -1.2 0
0.7 -0.047 -1.468 -0 -1.2 0
0.73 -0.04 -1.518 -0 -1.2 0
0.756 -0.04 -1.562 -0 -1.2 0
0.782 -0.042 -1.605 -0 -1.2 0
0.805 -0.051 -1.643 -0 -1.2 0
0.84 -0.045 -1.701 -0 -1.2 0
0.87 -0.046 -1.753 -0 -1.2 0
0.893 -0.06 -1.791 -0 -1.2 0
0.929 -0.059 -1.851 -0 -1.2 0
0.965 -0.059 -1.911 -0 -1.2 0
1.006 -0.059 -1.979 -0 -1.2 0
1.046 -0.059 -2.048 -0 -1.2 0
1.092 -0.058 -2.125 -0 -1.2 0
1.138 -0.06 -2.203 -0 -1.2 0
1.185 -0.065 -2.28 -0 -1.2 0
1.241 -0.064 -2.374 -0 -1.2 0
1.292 -0.071 -2.462 -0 -1.2 0
1.359 -0.07 -2.572 -0 -1.2 0
1.425 -0.073 -2.684 -0 -1.2 0
1.492 -0.08 -2.796 -0 -1.2 0
1.574 -0.082 -2.934 -0 -1.2 0
1.652 -0.092 -3.064 -0 -1.2 0
1.739 -0.102 -3.21 -0 -1.2 0
1.847 -0.106 -3.39 -0 -1.2 0
1.969 -0.108 -3.596 -0 -1.2 0
2.106 -0.112 -3.827 -0 -1.2 0
2.255 -0.122 -4.076 -0 -1.2 0
2.429 -0.13 -4.368 -0 -1.2 0
2.628 -0.14 -4.702 -0 -1.2 0
2.844 -0.159 -5.063 -0 -1.2 0
3.16 -0.161 -5.595 -0 -1.2 0
3.518 -0.174 -6.196 -0 -1.2 0
3.857 -0.216 -6.763 -0 -1.2 0
4.349 -0.249 -7.587 -0 -1.2 0
4.352 -0.398 -7.579 -0 -1.2 0
4.357 -0.546 -7.577 -0 -1.2 0
4.362 -0.694 -7.573 -0 -1.2 0
4.365 -0.842 -7.567 -0 -1.2 0
4.372 -0.989 -7.566 -0 -1.2 0
4.378 -1.136 -7.564 -0 -1.2 0
4.376 -1.283 -7.551 -0 -1.2 0
4.385 -1.43 -7.553 -0 -1.2 0
4.386 -1.577 -7.544 -0 -1.2 0
4.392 -1.725 -7.542 -0 -1.2 0
4.396 -1.873 -7.538 -0 -1.2 0
4.394 -2.02 -7.522 -0 -1.2 0
4.4 -2.169 -7.521 -0 -1.2 0
4.41 -2.32 -7.527 -0 -1.2 0
4.409 -2.469 -7.513 -0 -1.2 0
4.422 -2.622 -7.523 -0 -1.2 0
4.423 -2.773 -7.513 -0 -1.2 0
4.433 -2.928 -7.518 -0 -1.2 0
4.437 -3.082 -7.511 -0 -1.2 0
4.448 -3.241 -7.519 -0 -1.2 0
4.449 -3.396 -7.508 -0 -1.2 0
4.464 -3.559 -7.519 -0 -1.2 0
4.466 -3.718 -7.511 -0 -1.2 0
4.471 -3.881 -7.508 -0 -1.2 0
4.481 -4.047 -7.511 -0 -1.2 0
4.489 -4.215 -7.511 -0 -1.2 0
4.495 -4.384 -7.508 -0 -1.2 0
4.504 -4.557 -7.509 -0 -1.2 0
4.507 -4.727 -7.501 -0 -1.2 0
4.518 -4.906 -7.505 -0 -1.2 0
4.527 -5.088 -7.505 -0 -1.2 0
4.529 -5.266 -7.495 -0 -1.2 0
4.539 -5.454 -7.496 -0 -1.2 0
4.546 -5.643 -7.495 -0 -1.2 0
4.552 -5.834 -7.489 -0 -1.2 0
4.555 -6.027 -7.48 -0 -1.2 0
4.566 -6.231 -7.483 -0 -1.2 0
4.575 -6.436 -7.48 -0 -1.2 0
4.585 -6.649 -7.482 -0 -1.2 0
4.584 -6.851 -7.465 -0 -1.2 0
4.594 -7.073 -7.464 -0 -1.2 0
4.763 -7.515 -7.712 -0 -1.2 0
4.556 -7.449 -7.369 -0 -1.2 0
4.499 -7.589 -7.264 -0 -1.2 0
4.555 -7.895 -7.332 -0 -1.2 0
4.54 -8.104 -7.291 -0 -1.2 0
4.53 -8.326 -7.258 -0 -1.2 0
4.639 -8.751 -7.409 -0 -1.2 0
4.651 -9.027 -7.407 -0 -1.2 0
0.567 -0.035 -1.298 -0 -1.2 0
0.587 -0.035 -1.334 -0 -1.2 0
0.607 -0.036 -1.371 -0 -1.2 0
0.623 -0.044 -1.4 -0 -1.2 0
0.643 -0.046 -1.436 -0 -1.2 0
0.664 -0.05 -1.473 -0 -1.2 0
0.688 -0.049 -1.517 -0 -1.2 0
0.716 -0.044 -1.568 -0 -1.2 0
0.741 -0.046 -1.612 -0 -1.2 0
0.762 -0.055 -1.651 -0 -1.2 0
0.792 -0.054 -1.703 -0 -1.2 0
0.821 -0.055 -1.755 -0 -1.2 0
0.854 -0.053 -1.817 -0 -1.2 0
0.876 -0.068 -1.855 -0 -1.2 0
0.915 -0.063 -1.924 -0 -1.2 0
0.953 -0.063 -1.993 -0 -1.2 0
0.987 -0.069 -2.056 -0 -1.2 0
1.026 -0.072 -2.126 -0 -1.2 0
1.066 -0.078 -2.197 -0 -1.2 0
1.113 -0.078 -2.285 -0 -1.2 0
1.167 -0.077 -2.38 -0 -1.2 0
1.22 -0.08 -2.477 -0 -1.2 0
1.278 -0.082 -2.581 -0 -1.2 0
1.345 -0.082 -2.703 -0 -1.2 0
1.409 -0.089 -2.817 -0 -1.2 0
1.482 -0.094 -2.948 -0 -1.2 0
1.56 -0.102 -3.088 -0 -1.2 0
1.643 -0.111 -3.237 -0 -1.2 0
1.744 -0.116 -3.421 -0 -1.2 0
1.869 -0.114 -3.647 -0 -1.2 0
1.981 -0.128 -3.849 -0 -1.2 0
2.13 -0.133 -4.12 -0 -1.2 0
2.29 -0.144 -4.408 -0 -1.2 0
2.475 -0.157 -4.74 -0 -1.2 0
2.674 -0.178 -5.099 -0 -1.2 0
2.969 -0.182 -5.632 -0 -1.2 0
3.312 -0.193 -6.252 -0 -1.2 0
3.624 -0.237 -6.812 -0 -1.2 0
4.108 -0.268 -7.686 -0 -1.2 0
4.105 -0.417 -7.669 -0 -1.2 0
4.115 -0.564 -7.676 -0 -1.2 0
4.12 -0.712 -7.672 -0 -1.2 0
4.128 -0.859 -7.674 -0 -1.2 0
4.135 -1.006 -7.674 -0 -1.2 0
4.14 -1.153 -7.672 -0 -1.2 0
4.149 -1.3 -7.676 -0 -1.2 0
4.152 -1.447 -7.67 -0 -1.2 0
4.154 -1.594 -7.661 -0 -1.2 0
4.159 -1.742 -7.658 -0 -1.2 0
4.168 -1.891 -7.662 -0 -1.2 0
4.176 -2.04 -7.663 -0 -1.2 0
4.178 -2.189 -7.654 -0 -1.2 0
4.173 -2.336 -7.634 -0 -1.2 0
4.167 -2.483 -7.611 -0 -1.2 0
4.17 -2.632 -7.603 -0 -1.2 0
4.175 -2.784 -7.603 -0 -1.2 0
4.181 -2.937 -7.599 -0 -1.2 0
4.188 -3.092 -7.601 -0 -1.2 0
4.191 -3.246 -7.592 -0 -1.2 0
4.201 -3.405 -7.597 -0 -1.2 0
4.206 -3.562 -7.593 -0 -1.2 0
4.212 -3.723 -7.593 -0 -1.2 0
4.223 -3.888 -7.598 -0 -1.2 0
4.223 -4.048 -7.584 -0 -1.2 0
4.236 -4.218 -7.593 -0 -1.2 0
4.242 -4.386 -7.59 -0 -1.2 0
4.246 -4.555 -7.584 -0 -1.2 0
4.254 -4.729 -7.584 -0 -1.2 0
4.264 -4.908 -7.588 -0 -1.2 0
4.269 -5.084 -7.581 -0 -1.2 0
4.271 -5.261 -7.571 -0 -1.2 0
4.28 -5.448 -7.573 -0 -1.2 0
4.288 -5.637 -7.572 -0 -1.2 0
4.294 -5.827 -7.567 -0 -1.2 0
4.302 -6.023 -7.565 -0 -1.2 0
4.309 -6.222 -7.56 -0 -1.2 0
4.317 -6.426 -7.558 -0 -1.2 0
4.323 -6.633 -7.552 -0 -1.2 0
4.332 -6.846 -7.55 -0 -1.2 0
4.337 -7.061 -7.543 -0 -1.2 0
4.444 -7.425 -7.705 -0 -1.2 0
4.269 -7.388 -7.393 -0 -1.2 0
4.277 -7.618 -7.387 -0 -1.2 0
4.246 -7.792 -7.317 -0 -1.2 0
4.331 -8.159 -7.442 -0 -1.2 0
4.26 -8.278 -7.304 -0 -1.2 0
4.376 -8.721 -7.476 -0 -1.2 0
4.391 -9.003 -7.482 -0 -1.2 0
4.377 -9.239 -7.436 -0 -1.2 0
0.528 -0.036 -1.303 -0 -1.2 0
0.546 -0.036 -1.339 -0 -1.2 0
0.565 -0.037 -1.376 -0 -1.2 0
0.584 -0.039 -1.412 -0 -1.2 0
0.603 -0.042 -1.45 -0 -1.2 0
0.622 -0.045 -1.487 -0 -1.2 0
0.641 -0.05 -1.524 -0 -1.2 0
0.664 -0.051 -1.57 -0 -1.2 0
0.691 -0.047 -1.623 -0 -1.2 0
0.714 -0.05 -1.668 -0 -1.2 0
0.737 -0.055 -1.715 -0 -1.2 0
0.768 -0.051 -1.776 -0 -1.2 0
0.789 -0.065 -1.815 -0 -1.2 0
0.82 -0.064 -1.877 -0 -1.2 0
0.848 -0.071 -1.933 -0 -1.2 0
0.887 -0.065 -2.011 -0 -1.2 0
0.92 -0.07 -2.075 -0 -1.2 0
0.96 -0.069 -2.154 -0 -1.2 0
0.993 -0.08 -2.219 -0 -1.2 0
1.042 -0.077 -2.316 -0 -1.2 0
1.095 -0.071 -2.422 -0 -1.2 0
1.137 -0.082 -2.504 -0 -1.2 0
1.191 -0.085 -2.61 -0 -1.2 0
1.25 -0.089 -2.726 -0 -1.2 0
1.317 -0.089 -2.86 -0 -1.2 0
1.385 -0.095 -2.994 -0 -1.2 0
1.454 -0.105 -3.128 -0 -1.2 0
1.539 -0.11 -3.297 -0 -1.2 0
1.626 -0.12 -3.467 -0 -1.2 0
1.733 -0.123 -3.681 -0 -1.2 0
1.855 -0.128 -3.921 -0 -1.2 0
1.986 -0.138 -4.18 -0 -1.2 0
2.139 -0.148 -4.483 -0 -1.2 0
2.321 -0.157 -4.839 -0 -1.2 0
2.514 -0.176 -5.223 -0 -1.2 0
2.776 -0.186 -5.739 -0 -1.2 0
3.087 -0.201 -6.354 -0 -1.2 0
3.395 -0.243 -6.961 -0 -1.2 0
3.821 -0.28 -7.799 -0 -1.2 0
3.823 -0.429 -7.79 -0 -1.2 0
3.823 -0.578 -7.78 -0 -1.2 0
3.833 -0.724 -7.784 -0 -1.2 0
3.835 -0.871 -7.778 -0 -1.2 0
3.842 -1.018 -7.778 -0 -1.2 0
3.847 -1.165 -7.776 -0 -1.2 0
3.852 -1.311 -7.771 -0 -1.2 0
3.859 -1.457 -7.774 -0 -1.2 0
3.861 -1.603 -7.764 -0 -1.2 0
3.871 -1.752 -7.771 -0 -1.2 0
3.875 -1.899 -7.766 -0 -1.2 0
3.877 -2.047 -7.76 -0 -1.2 0
3.889 -2.197 -7.767 -0 -1.2 0
3.885 -2.344 -7.747 -0 -1.2 0
3.875 -2.489 -7.716 -0 -1.2 0
3.882 -2.64 -7.717 -0 -1.2 0
3.883 -2.79 -7.707 -0 -1.2 0
3.893 -2.944 -7.712 -0 -1.2 0
3.9 -3.099 -7.714 -0 -1.2 0
3.908 -3.254 -7.714 -0 -1.2 0
3.909 -3.408 -7.703 -0 -1.2 0
3.917 -3.568 -7.706 -0 -1.2 0
3.924 -3.729 -7.706 -0 -1.2 0
3.926 -3.886 -7.696 -0 -1.2 0
3.935 -4.053 -7.699 -0 -1.2 0
3.942 -4.219 -7.7 -0 -1.2 0
3.948 -4.387 -7.697 -0 -1.2 0
3.953 -4.554 -7.691 -0 -1.2 0
3.965 -4.732 -7.7 -0 -1.2 0
3.97 -4.906 -7.696 -0 -1.2 0
3.978 -5.086 -7.697 -0 -1.2 0
3.982 -5.263 -7.687 -0 -1.2 0
3.986 -5.446 -7.682 -0 -1.2 0
3.998 -5.639 -7.688 -0 -1.2 0
4.004 -5.829 -7.683 -0 -1.2 0
4.008 -6.02 -7.674 -0 -1.2 0
4.015 -6.218 -7.67 -0 -1.2 0
4.022 -6.422 -7.668 -0 -1.2 0
4.033 -6.633 -7.67 -0 -1.2 0
4.041 -6.846 -7.668 -0 -1.2 0
4.043 -7.055 -7.654 -0 -1.2 0
4.055 -7.283 -7.657 -0 -1.2 0
3.934 -7.308 -7.417 -0 -1.2 0
3.972 -7.585 -7.469 -0 -1.2 0
3.971 -7.803 -7.446 -0 -1.2 0
4.017 -8.113 -7.513 -0 -1.2 0
3.993 -8.301 -7.446 -0 -1.2 0
4.082 -8.712 -7.59 -0 -1.2 0
4.091 -8.979 -7.582 -0 -1.2 0
4.078 -9.215 -7.538 -0 -1.2 0
0.489 -0.044 -1.296 -0 -1.2 0
0.506 -0.044 -1.333 -0 -1.2 0
0.525 -0.038 -1.378 -0 -1.2 0
0.541 -0.046 -1.408 -0 -1.2 0
0.56 -0.043 -1.453 -0 -1.2 0
0.576 -0.053 -1.484 -0 -1.2 0
0.597 -0.052 -1.529 -0 -1.2 0
0.618 -0.052 -1.575 -0 -1.2 0
0.643 -0.048 -1.629 -0 -1.2 0
0.665 -0.052 -1.675 -0 -1.2 0
0.686 -0.057 -1.723 -0 -1.2 0
0.715 -0.053 -1.785 -0 -1.2 0
0.736 -0.061 -1.833 -0 -1.2 0
0.759 -0.071 -1.88 -0 -1.2 0
0.792 -0.067 -1.951 -0 -1.2 0
0.825 -0.067 -2.024 -0 -1.2 0
0.859 -0.068 -2.096 -0 -1.2 0
0.893 -0.072 -2.17 -0 -1.2 0
0.928 -0.078 -2.244 -0 -1.2 0
0.976 -0.07 -2.351 -0 -1.2 0
1.019 -0.074 -2.442 -0 -1.2 0
1.058 -0.085 -2.524 -0 -1.2 0
1.108 -0.088 -2.634 -0 -1.2 0
1.167 -0.088 -2.76 -0 -1.2 0
1.222 -0.095 -2.879 -0 -1.2 0
1.292 -0.095 -3.032 -0 -1.2 0
1.352 -0.109 -3.16 -0 -1.2 0
1.432 -0.113 -3.332 -0 -1.2 0
1.516 -0.121 -3.513 -0 -1.2 0
1.616 -0.125 -3.731 -0 -1.2 0
1.726 -0.133 -3.967 -0 -1.2 0
1.851 -0.141 -4.238 -0 -1.2 0
1.99 -0.153 -4.538 -0 -1.2 0
2.162 -0.161 -4.91 -0 -1.2 0
2.347 -0.178 -5.308 -0 -1.2 0
2.598 -0.186 -5.852 -0 -1.2 0
2.892 -0.203 -6.486 -0 -1.2 0
3.2 -0.239 -7.149 -0 -1.2 0
3.546 -0.292 -7.893 -0 -1.2 0
3.548 -0.44 -7.884 -0 -1.2 0
3.549 -0.587 -7.874 -0 -1.2 0
3.558 -0.734 -7.878 -0 -1.2 0
3.56 -0.88 -7.872 -0 -1.2 0
3.563 -1.027 -7.863 -0 -1.2 0
3.572 -1.173 -7.87 -0 -1.2 0
3.576 -1.319 -7.866 -0 -1.2 0
3.583 -1.465 -7.868 -0 -1.2 0
3.586 -1.612 -7.86 -0 -1.2 0
3.595 -1.759 -7.866 -0 -1.2 0
3.602 -1.907 -7.871 -0 -1.2 0
3.606 -2.055 -7.863 -0 -1.2 0
3.611 -2.204 -7.863 -0 -1.2 0
3.612 -2.352 -7.851 -0 -1.2 0
3.603 -2.496 -7.819 -0 -1.2 0
3.606 -2.646 -7.812 -0 -1.2 0
3.617 -2.799 -7.82 -0 -1.2 0
3.621 -2.951 -7.816 -0 -1.2 0
3.625 -3.103 -7.81 -0 -1.2 0
3.632 -3.259 -7.81 -0 -1.2 0
3.636 -3.415 -7.807 -0 -1.2 0
3.641 -3.571 -7.802 -0 -1.2 0
3.652 -3.735 -7.811 -0 -1.2 0
3.657 -3.896 -7.809 -0 -1.2 0
3.662 -4.057 -7.804 -0 -1.2 0
3.665 -4.221 -7.797 -0 -1.2 0
3.675 -4.391 -7.803 -0 -1.2 0
3.68 -4.56 -7.798 -0 -1.2 0
3.691 -4.737 -7.806 -0 -1.2 0
3.693 -4.907 -7.794 -0 -1.2 0
3.701 -5.087 -7.796 -0 -1.2 0
3.704 -5.264 -7.785 -0 -1.2 0
3.712 -5.45 -7.789 -0 -1.2 0
3.72 -5.638 -7.788 -0 -1.2 0
3.726 -5.828 -7.783 -0 -1.2 0
3.734 -6.024 -7.782 -0 -1.2 0
3.74 -6.222 -7.778 -0 -1.2 0
3.749 -6.426 -7.777 -0 -1.2 0
3.758 -6.637 -7.779 -0 -1.2 0
3.763 -6.844 -7.77 -0 -1.2 0
3.769 -7.058 -7.764 -0 -1.2 0
3.776 -7.281 -7.759 -0 -1.2 0
3.66 -7.299 -7.508 -0 -1.2 0
3.7 -7.581 -7.569 -0 -1.2 0
3.699 -7.8 -7.546 -0 -1.2 0
3.727 -8.076 -7.579 -0 -1.2 0
3.731 -8.317 -7.566 -0 -1.2 0
3.805 -8.707 -7.694 -0 -1.2 0
3.813 -8.975 -7.687 -0 -1.2 0
3.811 -9.232 -7.661 -0 -1.2 0
0.454 -0.037 -1.303 -0 -1.2 0
0.462 -0.058 -1.32 -0 -1.2 0
0.482 -0.045 -1.372 -0 -1.2 0
0.498 -0.046 -1.409 -0 -1.2 0
0.518 -0.043 -1.455 -0 -1.2 0
0.534 -0.047 -1.494 -0 -1.2 0
0.551 -0.052 -1.533 -0 -1.2 0
0.569 -0.053 -1.579 -0 -1.2 0
0.587 -0.061 -1.618 -0 -1.2 0
0.61 -0.058 -1.673 -0 -1.2 0
0.633 -0.058 -1.729 -0 -1.2 0
0.653 -0.064 -1.777 -0 -1.2 0
0.68 -0.062 -1.841 -0 -1.2 0
0.701 -0.072 -1.889 -0 -1.2 0
0.732 -0.068 -1.962 -0 -1.2 0
0.759 -0.073 -2.027 -0 -1.2 0
0.79 -0.074 -2.101 -0 -1.2 0
0.825 -0.073 -2.183 -0 -1.2 0
0.856 -0.079 -2.257 -0 -1.2 0
0.894 -0.08 -2.349 -0 -1.2 0
0.934 -0.084 -2.442 -0 -1.2 0
0.976 -0.087 -2.544 -0 -1.2 0
1.02 -0.093 -2.646 -0 -1.2 0
1.073 -0.094 -2.774 -0 -1.2 0
1.128 -0.097 -2.903 -0 -1.2 0
1.186 -0.103 -3.041 -0 -1.2 0
1.248 -0.111 -3.189 -0 -1.2 0
1.318 -0.118 -3.354 -0 -1.2 0
1.396 -0.126 -3.539 -0 -1.2 0
1.482 -0.136 -3.741 -0 -1.2 0
1.579 -0.145 -3.972 -0 -1.2 0
1.706 -0.146 -4.275 -0 -1.2 0
1.83 -0.16 -4.569 -0 -1.2 0
1.982 -0.173 -4.928 -0 -1.2 0
2.161 -0.186 -5.352 -0 -1.2 0
2.385 -0.198 -5.886 -0 -1.2 0
2.664 -0.212 -6.549 -0 -1.2 0
2.975 -0.24 -7.285 -0 -1.2 0
3.257 -0.304 -7.949 -0 -1.2 0
3.271 -0.449 -7.968 -0 -1.2 0
3.275 -0.596 -7.967 -0 -1.2 0
3.28 -0.743 -7.962 -0 -1.2 0
3.283 -0.888 -7.956 -0 -1.2 0
3.289 -1.035 -7.956 -0 -1.2 0
3.294 -1.18 -7.954 -0 -1.2 0
3.301 -1.327 -7.96 -0 -1.2 0
3.309 -1.473 -7.962 -0 -1.2 0
3.31 -1.618 -7.953 -0 -1.2 0
3.316 -1.765 -7.95 -0 -1.2 0
3.319 -1.912 -7.946 -0 -1.2 0
3.327 -2.06 -7.949 -0 -1.2 0
3.336 -2.211 -7.957 -0 -1.2 0
3.337 -2.358 -7.946 -0 -1.2 0
3.349 -2.511 -7.959 -0 -1.2 0
3.352 -2.66 -7.951 -0 -1.2 0
3.361 -2.815 -7.959 -0 -1.2 0
3.366 -2.967 -7.955 -0 -1.2 0
3.373 -3.123 -7.958 -0 -1.2 0
3.379 -3.279 -7.958 -0 -1.2 0
3.385 -3.436 -7.955 -0 -1.2 0
3.385 -3.59 -7.941 -0 -1.2 0
3.392 -3.751 -7.942 -0 -1.2 0
3.394 -3.91 -7.931 -0 -1.2 0
3.398 -4.073 -7.926 -0 -1.2 0
3.404 -4.239 -7.927 -0 -1.2 0
3.407 -4.403 -7.916 -0 -1.2 0
3.412 -4.571 -7.911 -0 -1.2 0
3.419 -4.745 -7.91 -0 -1.2 0
3.424 -4.919 -7.907 -0 -1.2 0
3.428 -5.095 -7.9 -0 -1.2 0
3.434 -5.276 -7.899 -0 -1.2 0
3.44 -5.458 -7.894 -0 -1.2 0
3.443 -5.642 -7.885 -0 -1.2 0
3.453 -5.836 -7.888 -0 -1.2 0
3.457 -6.027 -7.88 -0 -1.2 0
3.463 -6.224 -7.875 -0 -1.2 0
3.471 -6.428 -7.875 -0 -1.2 0
3.477 -6.633 -7.87 -0 -1.2 0
3.485 -6.846 -7.868 -0 -1.2 0
3.483 -7.05 -7.847 -0 -1.2 0
3.495 -7.277 -7.85 -0 -1.2 0
3.385 -7.288 -7.589 -0 -1.2 0
3.436 -7.595 -7.68 -0 -1.2 0
3.431 -7.807 -7.649 -0 -1.2 0
3.438 -8.045 -7.643 -0 -1.2 0
3.477 -8.358 -7.705 -0 -1.2 0
3.522 -8.696 -7.779 -0 -1.2 0
3.532 -8.97 -7.78 -0 -1.2 0
3.532 -9.225 -7.754 -0 -1.2 0
0.41 -0.044 -1.295 -0 -1.2 0
0.427 -0.037 -1.34 -0 -1.2 0
0.442 -0.038 -1.378 -0 -1.2 0
0.454 -0.046 -1.41 -0 -1.2 0
0.468 -0.049 -1.45 -0 -1.2 0
0.486 -0.048 -1.496 -0 -1.2 0
0.498 -0.059 -1.528 -0 -1.2 0
0.519 -0.053 -1.583 -0 -1.2 0
0.536 -0.055 -1.63 -0 -1.2 0
0.555 -0.059 -1.679 -0 -1.2 0
0.576 -0.058 -1.734 -0 -1.2 0
0.595 -0.065 -1.783 -0 -1.2 0
0.619 -0.062 -1.848 -0 -1.2 0
0.64 -0.068 -1.905 -0 -1.2 0
0.663 -0.075 -1.962 -0 -1.2 0
0.691 -0.074 -2.037 -0 -1.2 0
0.719 -0.075 -2.112 -0 -1.2 0
0.751 -0.074 -2.196 -0 -1.2 0
0.779 -0.08 -2.271 -0 -1.2 0
0.812 -0.086 -2.356 -0 -1.2 0
0.847 -0.089 -2.45 -0 -1.2 0
0.889 -0.088 -2.561 -0 -1.2 0
0.932 -0.091 -2.673 -0 -1.2 0
0.974 -0.099 -2.786 -0 -1.2 0
1.023 -0.103 -2.918 -0 -1.2 0
1.077 -0.109 -3.058 -0 -1.2 0
1.137 -0.113 -3.216 -0 -1.2 0
1.2 -0.121 -3.385 -0 -1.2 0
1.271 -0.129 -3.572 -0 -1.2 0
1.35 -0.139 -3.778 -0 -1.2 0
1.438 -0.148 -4.012 -0 -1.2 0
1.547 -0.155 -4.301 -0 -1.2 0
1.671 -0.163 -4.627 -0 -1.2 0
1.808 -0.176 -4.991 -0 -1.2 0
1.964 -0.193 -5.403 -0 -1.2 0
2.175 -0.203 -5.963 -0 -1.2 0
2.418 -0.221 -6.608 -0 -1.2 0
2.715 -0.245 -7.393 -0 -1.2 0
2.965 -0.312 -8.048 -0 -1.2 0
2.978 -0.457 -8.067 -0 -1.2 0
2.986 -0.603 -8.075 -0 -1.2 0
2.99 -0.75 -8.072 -0 -1.2 0
2.994 -0.897 -8.065 -0 -1.2 0
2.996 -1.043 -8.056 -0 -1.2 0
2.994 -1.189 -8.035 -0 -1.2 0
2.998 -1.334 -8.032 -0 -1.2 0
3.012 -1.481 -8.053 -0 -1.2 0
3.021 -1.628 -8.062 -0 -1.2 0
3.022 -1.774 -8.051 -0 -1.2 0
3.026 -1.92 -8.047 -0 -1.2 0
3.029 -2.067 -8.04 -0 -1.2 0
3.038 -2.218 -8.049 -0 -1.2 0
3.043 -2.366 -8.046 -0 -1.2 0
3.043 -2.514 -8.033 -0 -1.2 0
3.054 -2.666 -8.043 -0 -1.2 0
3.052 -2.815 -8.024 -0 -1.2 0
3.06 -2.969 -8.03 -0 -1.2 0
3.067 -3.124 -8.032 -0 -1.2 0
3.069 -3.277 -8.024 -0 -1.2 0
3.082 -3.438 -8.039 -0 -1.2 0
3.082 -3.593 -8.025 -0 -1.2 0
3.092 -3.756 -8.035 -0 -1.2 0
3.094 -3.915 -8.024 -0 -1.2 0
3.098 -4.078 -8.019 -0 -1.2 0
3.105 -4.244 -8.02 -0 -1.2 0
3.111 -4.412 -8.018 -0 -1.2 0
3.118 -4.584 -8.022 -0 -1.2 0
3.122 -4.754 -8.013 -0 -1.2 0
3.13 -4.932 -8.018 -0 -1.2 0
3.135 -5.108 -8.012 -0 -1.2 0
3.138 -5.284 -8.001 -0 -1.2 0
3.143 -5.466 -7.996 -0 -1.2 0
3.153 -5.659 -8.003 -0 -1.2 0
3.155 -5.844 -7.992 -0 -1.2 0
3.163 -6.04 -7.991 -0 -1.2 0
3.169 -6.238 -7.987 -0 -1.2 0
3.174 -6.437 -7.978 -0 -1.2 0
3.182 -6.648 -7.981 -0 -1.2 0
3.186 -6.855 -7.971 -0 -1.2 0
3.19 -7.063 -7.958 -0 -1.2 0
3.191 -7.274 -7.94 -0 -1.2 0
3.094 -7.291 -7.681 -0 -1.2 0
3.143 -7.603 -7.781 -0 -1.2 0
3.122 -7.777 -7.708 -0 -1.2 0
3.132 -8.02 -7.708 -0 -1.2 0
3.185 -8.372 -7.814 -0 -1.2 0
3.224 -8.704 -7.884 -0 -1.2 0
3.232 -8.971 -7.877 -0 -1.2 0
3.229 -9.219 -7.845 -0 -1.2 0
0.372 -0.045 -1.291 -0 -1.2 0
0.387 -0.038 -1.336 -0 -1.2 0
0.401 -0.04 -1.376 -0 -1.2 0
0.414 -0.042 -1.415 -0 -1.2 0
0.425 -0.051 -1.447 -0 -1.2 0
0.441 -0.049 -1.494 -0 -1.2 0
0.454 -0.054 -1.534 -0 -1.2 0
0.471 -0.054 -1.582 -0 -1.2 0
0.486 -0.057 -1.63 -0 -1.2 0
0.503 -0.06 -1.679 -0 -1.2 0
0.523 -0.06 -1.735 -0 -1.2 0
0.542 -0.061 -1.793 -0 -1.2 0
0.564 -0.059 -1.859 -0 -1.2 0
0.584 -0.064 -1.917 -0 -1.2 0
0.607 -0.066 -1.984 -0 -1.2 0
0.629 -0.071 -2.05 -0 -1.2 0
0.658 -0.067 -2.135 -0 -1.2 0
0.686 -0.068 -2.22 -0 -1.2 0
0.71 -0.078 -2.288 -0 -1.2 0
0.744 -0.075 -2.391 -0 -1.2 0
0.774 -0.084 -2.478 -0 -1.2 0
0.812 -0.083 -2.591 -0 -1.2 0
0.85 -0.087 -2.705 -0 -1.2 0
0.892 -0.091 -2.828 -0 -1.2 0
0.931 -0.102 -2.942 -0 -1.2 0
0.983 -0.105 -3.093 -0 -1.2 0
1.031 -0.116 -3.236 -0 -1.2 0
1.093 -0.121 -3.415 -0 -1.2 0
1.159 -0.127 -3.614 -0 -1.2 0
1.23 -0.137 -3.823 -0 -1.2 0
1.317 -0.143 -4.078 -0 -1.2 0
1.41 -0.154 -4.352 -0 -1.2 0
1.521 -0.162 -4.683 -0 -1.2 0
1.647 -0.176 -5.052 -0 -1.2 0
1.797 -0.19 -5.497 -0 -1.2 0
1.992 -0.199 -6.074 -0 -1.2 0
2.22 -0.216 -6.745 -0 -1.2 0
2.493 -0.242 -7.549 -0 -1.2 0
2.773 -0.295 -8.373 -0 -1.2 0
3.377 -0.3 -10.161 -0 -1.2 0
4.235 -0.322 -12.699 -0 -1.2 0
6.152 -7.301 -17.618 -0 -1.2 0
5.489 -7.568 -15.627 -0 -1.2 0
5.524 -7.928 -15.689 -0 -1.2 0
4.998 -7.567 -14.171 -0 -1.2 0
5.015 -7.887 -14.188 -0 -1.2 0
4.497 -7.452 -12.702 -0 -1.2 0
4.508 -7.74 -12.702 -0 -1.2 0
2.879 -5.497 -8.121 -0 -1.2 0
2.879 -5.677 -8.104 -0 -1.2 0
2.885 -5.867 -8.1 -0 -1.2 0
2.927 -6.125 -8.196 -0 -1.2 0
2.903 -6.272 -8.11 -0 -1.2 0
2.902 -6.46 -8.086 -0 -1.2 0
2.945 -6.738 -8.183 -0 -1.2 0
2.941 -6.93 -8.149 -0 -1.2 0
2.923 -7.1 -8.08 -0 -1.2 0
2.934 -7.329 -8.085 -0 -1.2 0
2.832 -7.316 -7.785 -0 -1.2 0
2.842 -7.549 -7.79 -0 -1.2 0
2.842 -7.766 -7.768 -0 -1.2 0
2.897 -8.12 -7.89 -0 -1.2 0
2.89 -8.334 -7.849 -0 -1.2 0
2.955 -8.739 -7.996 -0 -1.2 0
2.96 -9 -7.982 -0 -1.2 0
2.961 -9.256 -7.955 -0 -1.2 0
0.334 -0.038 -1.295 -0 -1.2 0
0.346 -0.039 -1.334 -0 -1.2 0
0.357 -0.046 -1.366 -0 -1.2 0
0.37 -0.042 -1.413 -0 -1.2 0
0.383 -0.045 -1.453 -0 -1.2 0
0.395 -0.049 -1.493 -0 -1.2 0
0.409 -0.049 -1.541 -0 -1.2 0
0.423 -0.049 -1.59 -0 -1.2 0
0.438 -0.051 -1.638 -0 -1.2 0
0.453 -0.055 -1.687 -0 -1.2 0
0.468 -0.06 -1.737 -0 -1.2 0
0.485 -0.062 -1.795 -0 -1.2 0
0.503 -0.065 -1.853 -0 -1.2 0
0.523 -0.065 -1.92 -0 -1.2 0
0.541 -0.071 -1.979 -0 -1.2 0
0.564 -0.071 -2.055 -0 -1.2 0
0.587 -0.073 -2.131 -0 -1.2 0
0.615 -0.068 -2.226 -0 -1.2 0
0.636 -0.079 -2.296 -0 -1.2 0
0.667 -0.076 -2.4 -0 -1.2 0
0.693 -0.085 -2.487 -0 -1.2 0
0.725 -0.088 -2.593 -0 -1.2 0
0.76 -0.092 -2.708 -0 -1.2 0
0.797 -0.096 -2.832 -0 -1.2 0
0.837 -0.101 -2.966 -0 -1.2 0
0.881 -0.107 -3.109 -0 -1.2 0
0.93 -0.113 -3.273 -0 -1.2 0
0.979 -0.124 -3.436 -0 -1.2 0
1.04 -0.129 -3.636 -0 -1.2 0
1.102 -0.139 -3.848 -0 -1.2 0
1.18 -0.146 -4.105 -0 -1.2 0
1.26 -0.16 -4.373 -0 -1.2 0
1.364 -0.166 -4.717 -0 -1.2 0
1.479 -0.178 -5.1 -0 -1.2 0
1.611 -0.194 -5.54 -0 -1.2 0
1.787 -0.204 -6.123 -0 -1.2 0
1.985 -0.224 -6.783 -0 -1.2 0
2.229 -0.25 -7.596 -0 -1.2 0
2.512 -0.293 -8.535 -0 -1.2 0
2.895 -0.344 -9.808 -0 -1.2 0
3.768 -0.339 -12.726 -0 -1.2 0
5.637 -8.501 -18.006 -0 -1.2 0
6.06 -10.644 -19.168 -0 -1.2 0
6.234 -11.339 -19.667 -0 -1.2 0
6.441 -12.12 -20.266 -0 -1.2 0
6.116 -11.983 -19.197 -0 -1.2 0
5.913 -12.454 -18.462 -0 -1.2 0
5.288 -11.63 -16.475 -0 -1.2 0
2.911 -7.293 -9.045 -0 -1.2 0
2.734 -7.119 -8.477 -0 -1.2 0
2.719 -7.293 -8.404 -0 -1.2 0
2.636 -7.306 -8.123 -0 -1.2 0
2.581 -7.384 -7.934 -0 -1.2 0
2.584 -7.599 -7.915 -0 -1.2 0
2.582 -7.81 -7.885 -0 -1.2 0
2.61 -8.107 -7.944 -0 -1.2 0
2.595 -8.294 -7.874 -0 -1.2 0
2.776 -9.05 -8.387 -0 -1.2 0
0.29 -0.039 -1.29 -0 -1.2 0
0.301 -0.04 -1.33 -0 -1.2 0
0.309 -0.048 -1.361 -0 -1.2 0
0.321 -0.043 -1.409 -0 -1.2 0
0.33 -0.052 -1.442 -0 -1.2 0
0.342 -0.05 -1.49 -0 -1.2 0
0.355 -0.05 -1.539 -0 -1.2 0
0.366 -0.056 -1.58 -0 -1.2 0
0.379 -0.059 -1.629 -0 -1.2 0
0.392 -0.062 -1.679 -0 -1.2 0
0.406 -0.062 -1.737 -0 -1.2 0
0.422 -0.064 -1.796 -0 -1.2 0
0.436 -0.066 -1.854 -0 -1.2 0
0.452 -0.072 -1.914 -0 -1.2 0
0.47 -0.073 -1.982 -0 -1.2 0
0.489 -0.073 -2.059 -0 -1.2 0
0.508 -0.079 -2.128 -0 -1.2 0
0.529 -0.079 -2.215 -0 -1.2 0
0.551 -0.085 -2.293 -0 -1.2 0
0.575 -0.087 -2.39 -0 -1.2 0
0.601 -0.091 -2.486 -0 -1.2 0
0.628 -0.094 -2.593 -0 -1.2 0
0.658 -0.098 -2.709 -0 -1.2 0
0.689 -0.105 -2.826 -0 -1.2 0
0.726 -0.106 -2.97 -0 -1.2 0
0.764 -0.113 -3.116 -0 -1.2 0
0.804 -0.121 -3.271 -0 -1.2 0
0.849 -0.13 -3.445 -0 -1.2 0
0.899 -0.138 -3.639 -0 -1.2 0
0.954 -0.149 -3.851 -0 -1.2 0
1.02 -0.157 -4.102 -0 -1.2 0
1.092 -0.167 -4.383 -0 -1.2 0
1.18 -0.177 -4.721 -0 -1.2 0
1.278 -0.191 -5.099 -0 -1.2 0
1.395 -0.204 -5.552 -0 -1.2 0
1.533 -0.223 -6.085 -0 -1.2 0
1.705 -0.242 -6.752 -0 -1.2 0
1.938 -0.26 -7.651 -0 -1.2 0
2.164 -0.311 -8.521 -0 -1.2 0
2.564 -0.341 -10.069 -0 -1.2 0
3.241 -0.362 -12.691 -0 -1.2 0
4.85 -6.665 -18.11 -0 -1.2 0
4.848 -7.004 -18.057 -0 -1.2 0
4.988 -7.885 -18.487 -0 -1.2 0
4.767 -8.27 -17.577 -0 -1.2 0
4.444 -8.105 -16.347 -0 -1.2 0
4.312 -8.536 -15.781 -0 -1.2 0
4.484 -9.172 -16.363 -0 -1.2 0
4.4 -9.356 -16.016 -0 -1.2 0
4.215 -9.33 -15.3 -0 -1.2 0
4.43 -10.101 -16.036 -0 -1.2 0
5.374 -12.458 -19.389 -0 -1.2 0
5.104 -12.295 -18.362 -0 -1.2 0
4.281 -10.829 -15.363 -0 -1.2 0
4.577 -11.884 -16.37 -0 -1.2 0
4.489 -12.054 -16.007 -0 -1.2 0
3.753 -10.566 -13.346 -0 -1.2 0
5.168 -14.619 -18.305 -0 -1.2 0
5.024 -14.689 -17.74 -0 -1.2 0
5.273 -15.848 -18.555 -0 -1.2 0
4.515 -14.56 -15.783 -0 -1.2 0
4.597 -15.251 -16.01 -0 -1.2 0
4.684 -17.447 -16.059 -0 -1.2 0
0.249 -0.055 -1.267 -0 -1.2 0
0.259 -0.049 -1.313 -0 -1.2 0
0.266 -0.056 -1.346 -0 -1.2 0
0.277 -0.051 -1.395 -0 -1.2 0
0.286 -0.054 -1.435 -0 -1.2 0
0.293 -0.065 -1.467 -0 -1.2 0
0.304 -0.064 -1.517 -0 -1.2 0
0.315 -0.066 -1.566 -0 -1.2 0
0.326 -0.067 -1.615 -0 -1.2 0
0.337 -0.071 -1.665 -0 -1.2 0
0.348 -0.076 -1.715 -0 -1.2 0
0.363 -0.072 -1.783 -0 -1.2 0
0.374 -0.08 -1.834 -0 -1.2 0
0.391 -0.076 -1.91 -0 -1.2 0
0.405 -0.082 -1.97 -0 -1.2 0
0.422 -0.082 -2.048 -0 -1.2 0
0.44 -0.083 -2.126 -0 -1.2 0
0.457 -0.088 -2.205 -0 -1.2 0
0.477 -0.09 -2.292 -0 -1.2 0
0.496 -0.096 -2.381 -0 -1.2 0
0.52 -0.096 -2.487 -0 -1.2 0
0.54 -0.108 -2.576 -0 -1.2 0
0.566 -0.11 -2.694 -0 -1.2 0
0.596 -0.111 -2.83 -0 -1.2 0
0.627 -0.116 -2.966 -0 -1.2 0
0.661 -0.119 -3.122 -0 -1.2 0
0.696 -0.128 -3.278 -0 -1.2 0
0.733 -0.139 -3.444 -0 -1.2 0
0.774 -0.151 -3.63 -0 -1.2 0
0.826 -0.157 -3.864 -0 -1.2 0
0.879 -0.17 -4.098 -0 -1.2 0
0.94 -0.184 -4.371 -0 -1.2 0
1.009 -0.199 -4.684 -0 -1.2 0
1.098 -0.209 -5.083 -0 -1.2 0
1.195 -0.226 -5.521 -0 -1.2 0
1.319 -0.242 -6.076 -0 -1.2 0
1.462 -0.266 -6.72 -0 -1.2 0
1.661 -0.285 -7.617 -0 -1.2 0
1.864 -0.334 -8.524 -0 -1.2 0
2.225 -0.362 -10.152 -0 -1.2 0
2.826 -0.385 -12.863 -0 -1.2 0
3.871 -0.425 -17.577 -0 -1.2 0
3.91 -4.129 -17.214 -0 -1.2 0
3.851 -4.991 -16.822 -0 -1.2 0
4.198 -6.343 -18.189 -0 -1.2 0
4.533 -7.126 -19.588 -0 -1.2 0
5.022 -8.593 -21.588 -0 -1.2 0
3.971 -7.339 -17.02 -0 -1.2 0
4.314 -8.236 -18.438 -0 -1.2 0
4.101 -8.222 -17.48 -0 -1.2 0
3.942 -8.271 -16.753 -0 -1.2 0
3.732 -8.201 -15.816 -0 -1.2 0
3.9 -8.853 -16.477 -0 -1.2 0
3.648 -8.661 -15.368 -0 -1.2 0
4.682 -11.231 -19.665 -0 -1.2 0
3.538 -9.049 -14.813 -0 -1.2 0
3.627 -9.575 -15.143 -0 -1.2 0
3.535 -9.674 -14.708 -0 -1.2 0
3.691 -10.394 -15.31 -0 -1.2 0
4.058 -11.702 -16.775 -0 -1.2 0
3.382 -10.239 -13.934 -0 -1.2 0
3.16 -10.243 -12.933 -0 -1.2 0
3.477 -11.512 -14.177 -0 -1.2 0
3.467 -11.833 -14.089 -0 -1.2 0
4.381 -15.138 -17.733 -0 -1.2 0
3.726 -13.417 -15.029 -0 -1.2 0
3.819 -14.551 -15.281 -0 -1.2 0
3.941 -15.427 -15.706 -0 -1.2 0
4.204 -16.872 -16.682 -0 -1.2 0
4.153 -17.166 -16.409 -0 -1.2 0
4.078 -17.365 -16.041 -0 -1.2 0
4.085 -17.898 -15.996 -0 -1.2 0
0.213 -0.044 -1.273 -0 -1.2 0
0.218 -0.058 -1.298 -0 -1.2 0
0.225 -0.065 -1.331 -0 -1.2 0
0.233 -0.061 -1.379 -0 -1.2 0
0.242 -0.058 -1.428 -0 -1.2 0
0.251 -0.062 -1.469 -0 -1.2 0
0.258 -0.068 -1.511 -0 -1.2 0
0.267 -0.069 -1.56 -0 -1.2 0
0.278 -0.065 -1.618 -0 -1.2 0
0.285 -0.08 -1.652 -0 -1.2 0
0.296 -0.08 -1.71 -0 -1.2 0
0.307 -0.081 -1.769 -0 -1.2 0
0.32 -0.08 -1.838 -0 -1.2 0
0.331 -0.085 -1.898 -0 -1.2 0
0.345 -0.081 -1.975 -0 -1.2 0
0.357 -0.091 -2.036 -0 -1.2 0
0.372 -0.093 -2.114 -0 -1.2 0
0.387 -0.097 -2.194 -0 -1.2 0
0.405 -0.095 -2.291 -0 -1.2 0
0.421 -0.101 -2.38 -0 -1.2 0
0.441 -0.105 -2.478 -0 -1.2 0
0.459 -0.114 -2.578 -0 -1.2 0
0.48 -0.12 -2.686 -0 -1.2 0
0.505 -0.121 -2.822 -0 -1.2 0
0.53 -0.127 -2.96 -0 -1.2 0
0.559 -0.133 -3.107 -0 -1.2 0
0.589 -0.138 -3.274 -0 -1.2 0
0.62 -0.153 -3.432 -0 -1.2 0
0.657 -0.161 -3.629 -0 -1.2 0
0.695 -0.175 -3.835 -0 -1.2 0
0.74 -0.188 -4.07 -0 -1.2 0
0.791 -0.201 -4.345 -0 -1.2 0
0.852 -0.214 -4.669 -0 -1.2 0
0.922 -0.23 -5.042 -0 -1.2 0
1.009 -0.245 -5.503 -0 -1.2 0
1.112 -0.262 -6.053 -0 -1.2 0
1.232 -0.289 -6.69 -0 -1.2 0
1.389 -0.316 -7.524 -0 -1.2 0
1.587 -0.352 -8.585 -0 -1.2 0
1.903 -0.38 -10.273 -0 -1.2 0
2.349 -0.429 -12.649 -0 -1.2 0
3.34 -4.173 -17.34 -0 -1.2 0
3.318 -4.762 -17.126 -0 -1.2 0
3.364 -6.054 -17.158 -0 -1.2 0
4.488 -8.141 -22.834 -0 -1.2 0
3.854 -7.501 -19.542 -0 -1.2 0
4.309 -8.669 -21.785 -0 -1.2 0
3.518 -7.605 -17.73 -0 -1.2 0
4.186 -9.247 -21.032 -0 -1.2 0
3.3 -7.828 -16.519 -0 -1.2 0
2.8 -7.072 -13.97 -0 -1.2 0
3.369 -8.626 -16.76 -0 -1.2 0
3.609 -9.521 -17.898 -0 -1.2 0
3.134 -8.714 -15.484 -0 -1.2 0
3.022 -8.742 -14.877 -0 -1.2 0
2.966 -9.203 -14.501 -0 -1.2 0
3.187 -10.145 -15.531 -0 -1.2 0
2.807 -9.351 -13.623 -0 -1.2 0
2.979 -10.182 -14.409 -0 -1.2 0
2.946 -10.402 -14.201 -0 -1.2 0
2.656 -9.764 -12.746 -0 -1.2 0
2.939 -11.028 -14.055 -0 -1.2 0
2.853 -11.057 -13.589 -0 -1.2 0
3.1 -12.286 -14.706 -0 -1.2 0
3.224 -13.121 -15.237 -0 -1.2 0
3.461 -14.43 -16.291 -0 -1.2 0
2.94 -12.767 -13.777 -0 -1.2 0
3.177 -14.115 -14.823 -0 -1.2 0
2.841 -13.086 -13.191 -0 -1.2 0
3.465 -17.141 -15.863 -0 -1.2 0
0.17 -0.051 -1.256 -0 -1.2 0
0.176 -0.058 -1.288 -0 -1.2 0
0.18 -0.065 -1.321 -0 -1.2 0
0.189 -0.054 -1.378 -0 -1.2 0
0.194 -0.064 -1.411 -0 -1.2 0
0.201 -0.062 -1.46 -0 -1.2 0
0.207 -0.074 -1.493 -0 -1.2 0
0.215 -0.069 -1.552 -0 -1.2 0
0.222 -0.076 -1.594 -0 -1.2 0
0.229 -0.08 -1.644 -0 -1.2 0
0.237 -0.085 -1.695 -0 -1.2 0
0.246 -0.087 -1.755 -0 -1.2 0
0.256 -0.09 -1.814 -0 -1.2 0
0.266 -0.085 -1.891 -0 -1.2 0
0.277 -0.087 -1.961 -0 -1.2 0
0.288 -0.091 -2.031 -0 -1.2 0
0.298 -0.098 -2.102 -0 -1.2 0
0.311 -0.097 -2.19 -0 -1.2 0
0.323 -0.103 -2.27 -0 -1.2 0
0.337 -0.109 -2.359 -0 -1.2 0
0.355 -0.105 -2.476 -0 -1.2 0
0.368 -0.117 -2.566 -0 -1.2 0
0.387 -0.117 -2.694 -0 -1.2 0
0.405 -0.125 -2.813 -0 -1.2 0
0.426 -0.129 -2.951 -0 -1.2 0
0.447 -0.139 -3.09 -0 -1.2 0
0.472 -0.145 -3.258 -0 -1.2 0
0.497 -0.158 -3.417 -0 -1.2 0
0.526 -0.167 -3.614 -0 -1.2 0
0.558 -0.18 -3.822 -0 -1.2 0
0.592 -0.195 -4.049 -0 -1.2 0
0.636 -0.206 -4.335 -0 -1.2 0
0.682 -0.222 -4.641 -0 -1.2 0
0.74 -0.236 -5.026 -0 -1.2 0
0.811 -0.248 -5.5 -0 -1.2 0
0.887 -0.273 -6.003 -0 -1.2 0
0.983 -0.298 -6.645 -0 -1.2 0
1.107 -0.326 -7.464 -0 -1.2 0
1.266 -0.361 -8.521 -0 -1.2 0
1.5 -0.398 -10.081 -0 -1.2 0
1.864 -0.442 -12.511 -0 -1.2 0
2.547 -0.493 -17.067 -0 -1.2 0
4.118 -5.32 -26.634 -0 -1.2 0
2.759 -4.852 -17.634 -0 -1.2 0
2.78 -5.195 -17.709 -0 -1.2 0
2.58 -5.479 -16.314 -0 -1.2 0
2.743 -6.068 -17.29 -0 -1.2 0
2.857 -6.6 -17.947 -0 -1.2 0
2.899 -7.012 -18.149 -0 -1.2 0
2.803 -7.136 -17.483 -0 -1.2 0
2.963 -7.822 -18.414 -0 -1.2 0
2.594 -7.278 -16.054 -0 -1.2 0
2.637 -7.689 -16.264 -0 -1.2 0
2.385 -7.331 -14.646 -0 -1.2 0
3.01 -9.337 -18.434 -0 -1.2 0
2.44 -8.051 -14.868 -0 -1.2 0
2.363 -8.113 -14.346 -0 -1.2 0
2.387 -8.472 -14.433 -0 -1.2 0
3.406 -12.08 -20.555 -0 -1.2 0
2.417 -9.162 -14.505 -0 -1.2 0
2.574 -10.014 -15.389 -0 -1.2 0
2.346 -9.512 -13.962 -0 -1.2 0
2.41 -10.052 -14.283 -0 -1.2 0
2.353 -10.142 -13.885 -0 -1.2 0
2.37 -10.519 -13.922 -0 -1.2 0
2.232 -10.263 -13.054 -0 -1.2 0
2.126 -10.11 -12.373 -0 -1.2 0
2.264 -11.016 -13.122 -0 -1.2 0
2.368 -11.809 -13.663 -0 -1.2 0
2.471 -12.631 -14.188 -0 -1.2 0
2.472 -12.994 -14.123 -0 -1.2 0
2.423 -13.109 -13.765 -0 -1.2 0
2.34 -13.407 -13.153 -0 -1.2 0
2.821 -16.416 -15.784 -0 -1.2 0
2.814 -16.839 -15.662 -0 -1.2 0
2.578 -15.927 -14.257 -0 -1.2 0
0.132 -0.071 -1.222 -0 -1.2 0
0.138 -0.057 -1.277 -0 -1.2 0
0.142 -0.071 -1.302 -0 -1.2 0
0.147 -0.066 -1.351 -0 -1.2 0
0.152 -0.063 -1.4 -0 -1.2 0
0.158 -0.067 -1.441 -0 -1.2 0
0.162 -0.073 -1.483 -0 -1.2 0
0.168 -0.079 -1.525 -0 -1.2 0
0.173 -0.081 -1.575 -0 -1.2 0
0.18 -0.079 -1.634 -0 -1.2 0
0.187 -0.083 -1.685 -0 -1.2 0
0.194 -0.08 -1.753 -0 -1.2 0
0.199 -0.093 -1.796 -0 -1.2 0
0.208 -0.092 -1.865 -0 -1.2 0
0.216 -0.09 -1.943 -0 -1.2 0
0.225 -0.094 -2.013 -0 -1.2 0
0.235 -0.096 -2.092 -0 -1.2 0
0.244 -0.1 -2.172 -0 -1.2 0
0.253 -0.106 -2.253 -0 -1.2 0
0.265 -0.103 -2.361 -0 -1.2 0
0.276 -0.112 -2.45 -0 -1.2 0
0.289 -0.116 -2.56 -0 -1.2 0
0.302 -0.122 -2.67 -0 -1.2 0
0.317 -0.127 -2.799 -0 -1.2 0
0.331 -0.138 -2.919 -0 -1.2 0
0.348 -0.146 -3.058 -0 -1.2 0
0.368 -0.152 -3.226 -0 -1.2 0
0.388 -0.159 -3.404 -0 -1.2 0
0.411 -0.17 -3.593 -0 -1.2 0
0.435 -0.183 -3.802 -0 -1.2 0
0.464 -0.194 -4.049 -0 -1.2 0
0.495 -0.21 -4.307 -0 -1.2 0
0.534 -0.223 -4.634 -0 -1.2 0
0.579 -0.236 -5.021 -0 -1.2 0
0.6 -0.297 -5.192 -0 -1.2 0
0.689 -0.279 -5.952 -0 -1.2 0
0.763 -0.305 -6.578 -0 -1.2 0
0.86 -0.331 -7.41 -0 -1.2 0
0.98 -0.37 -8.431 -0 -1.2 0
1.158 -0.407 -9.949 -0 -1.2 0
1.437 -0.451 -12.34 -0 -1.2 0
1.926 -0.512 -16.518 -0 -1.2 0
2.152 -2.965 -17.878 -0 -1.2 0
1.963 -3.358 -16.157 -0 -1.2 0
1.977 -3.654 -16.204 -0 -1.2 0
2.221 -4.602 -18.083 -0 -1.2 0
2.145 -4.782 -17.378 -0 -1.2 0
2.276 -5.33 -18.375 -0 -1.2 0
2.293 -5.684 -18.432 -0 -1.2 0
1.82 -4.985 -14.542 -0 -1.2 0
2.316 -6.386 -18.471 -0 -1.2 0
2.236 -6.516 -17.749 -0 -1.2 0
2.196 -6.73 -17.359 -0 -1.2 0
2.255 -7.201 -17.746 -0 -1.2 0
2.249 -7.507 -17.628 -0 -1.2 0
2.225 -7.753 -17.355 -0 -1.2 0
2.2 -7.996 -17.09 -0 -1.2 0
1.899 -7.312 -14.664 -0 -1.2 0
1.972 -8.128 -15.095 -0 -1.2 0
2.128 -9.006 -16.228 -0 -1.2 0
1.914 -8.484 -14.514 -0 -1.2 0
2.113 -9.583 -15.97 -0 -1.2 0
1.905 -9.02 -14.308 -0 -1.2 0
2.623 -12.857 -19.562 -0 -1.2 0
2.204 -11.301 -16.333 -0 -1.2 0
2.511 -13.138 -18.533 -0 -1.2 0
2.475 -13.361 -18.173 -0 -1.2 0
1.869 -10.628 -13.625 -0 -1.2 0
1.732 -10.195 -12.542 -0 -1.2 0
1.896 -11.391 -13.673 -0 -1.2 0
1.715 -10.683 -12.289 -0 -1.2 0
1.737 -11.103 -12.375 -0 -1.2 0
2.014 -13.075 -14.281 -0 -1.2 0
1.887 -12.642 -13.292 -0 -1.2 0
1.872 -12.892 -13.112 -0 -1.2 0
2.078 -14.589 -14.471 -0 -1.2 0
2.352 -16.837 -16.289 -0 -1.2 0
2.223 -16.393 -15.291 -0 -1.2 0
2.178 -16.507 -14.878 -0 -1.2 0
0.095 -0.064 -1.216 -0 -1.2 0
0.098 -0.07 -1.249 -0 -1.2 0
0.102 -0.057 -1.305 -0 -1.2 0
0.106 -0.066 -1.339 -0 -1.2 0
0.11 -0.062 -1.388 -0 -1.2 0
0.113 -0.067 -1.43 -0 -1.2 0
0.117 -0.072 -1.472 -0 -1.2 0
0.121 -0.073 -1.522 -0 -1.2 0
0.125 -0.08 -1.563 -0 -1.2 0
0.13 -0.084 -1.614 -0 -1.2 0
0.134 -0.083 -1.673 -0 -1.2 0
0.14 -0.085 -1.733 -0 -1.2 0
0.144 -0.093 -1.785 -0 -1.2 0
0.15 -0.087 -1.864 -0 -1.2 0
0.156 -0.094 -1.924 -0 -1.2 0
0.161 -0.099 -1.994 -0 -1.2 0
0.168 -0.099 -2.074 -0 -1.2 0
0.175 -0.104 -2.154 -0 -1.2 0
0.183 -0.106 -2.244 -0 -1.2 0
0.189 -0.115 -2.324 -0 -1.2 0
0.199 -0.115 -2.433 -0 -1.2 0
0.208 -0.119 -2.542 -0 -1.2 0
0.217 -0.126 -2.652 -0 -1.2 0
0.227 -0.133 -2.772 -0 -1.2 0
0.239 -0.141 -2.902 -0 -1.2 0
0.251 -0.146 -3.051 -0 -1.2 0
0.264 -0.157 -3.201 -0 -1.2 0
0.279 -0.165 -3.38 -0 -1.2 0
0.295 -0.175 -3.569 -0 -1.2 0
0.313 -0.187 -3.778 -0 -1.2 0
0.333 -0.2 -4.017 -0 -1.2 0
0.356 -0.214 -4.286 -0 -1.2 0
0.383 -0.228 -4.604 -0 -1.2 0
0.413 -0.246 -4.962 -0 -1.2 0
0.441 -0.281 -5.291 -0 -1.2 0
0.443 -0.374 -5.285 -0 -1.2 0
0.447 -0.464 -5.306 -0 -1.2 0
0.448 -0.56 -5.277 -0 -1.2 0
0.451 -0.651 -5.286 -0 -1.2 0
0.451 -0.744 -5.263 -0 -1.2 0
0.454 -0.834 -5.269 -0 -1.2 0
0.458 -0.925 -5.283 -0 -1.2 0
0.462 -1.015 -5.305 -0 -1.2 0
0.466 -1.106 -5.326 -0 -1.2 0
0.472 -1.199 -5.375 -0 -1.2 0
0.479 -1.292 -5.422 -0 -1.2 0
0.473 -1.38 -5.328 -0 -1.2 0
0.472 -1.47 -5.293 -0 -1.2 0
0.467 -1.554 -5.197 -0 -1.2 0
0.494 -1.673 -5.485 -0 -1.2 0
1.562 -3.263 -17.778 -0 -1.2 0
1.6 -3.624 -18.112 -0 -1.2 0
1.607 -3.943 -18.095 -0 -1.2 0
1.594 -4.224 -17.845 -0 -1.2 0
1.587 -4.514 -17.681 -0 -1.2 0
1.583 -4.805 -17.54 -0 -1.2 0
1.371 -4.559 -15.074 -0 -1.2 0
1.499 -5.169 -16.414 -0 -1.2 0
1.522 -5.521 -16.59 -0 -1.2 0
1.7 -6.363 -18.445 -0 -1.2 0
1.349 -5.511 -14.51 -0 -1.2 0
1.728 -7.101 -18.553 -0 -1.2 0
1.743 -7.478 -18.606 -0 -1.2 0
1.755 -7.852 -18.632 -0 -1.2 0
1.765 -8.226 -18.641 -0 -1.2 0
1.781 -8.628 -18.708 -0 -1.2 0
1.434 -7.409 -14.933 -0 -1.2 0
1.812 -9.446 -18.817 -0 -1.2 0
1.822 -9.84 -18.812 -0 -1.2 0
1.608 -9.106 -16.481 -0 -1.2 0
1.608 -9.415 -16.383 -0 -1.2 0
1.48 -9.025 -14.969 -0 -1.2 0
1.888 -11.623 -19.045 -0 -1.2 0
1.354 -8.868 -13.518 -0 -1.2 0
1.342 -9.061 -13.313 -0 -1.2 0
1.276 -8.918 -12.572 -0 -1.2 0
1.422 -10.107 -13.929 -0 -1.2 0
1.573 -11.408 -15.339 -0 -1.2 0
1.499 -11.221 -14.513 -0 -1.2 0
1.28 -9.977 -12.279 -0 -1.2 0
1.332 -10.622 -12.695 -0 -1.2 0
1.339 -10.959 -12.677 -0 -1.2 0
1.353 -11.353 -12.72 -0 -1.2 0
1.358 -11.689 -12.676 -0 -1.2 0
1.373 -12.111 -12.724 -0 -1.2 0
1.544 -13.853 -14.217 -0 -1.2 0
1.738 -15.882 -15.901 -0 -1.2 0
1.598 -15.04 -14.488 -0 -1.2 0
1.686 -16.23 -15.18 -0 -1.2 0
1.64 -16.197 -14.63 -0 -1.2 0
0.054 -0.069 -1.196 -0 -1.2 0
0.057 -0.062 -1.243 -0 -1.2 0
0.059 -0.069 -1.276 -0 -1.2 0
0.06 -0.064 -1.325 -0 -1.2 0
0.063 -0.061 -1.374 -0 -1.2 0
0.065 -0.071 -1.408 -0 -1.2 0
0.067 -0.077 -1.45 -0 -1.2 0
0.07 -0.071 -1.508 -0 -1.2 0
0.072 -0.079 -1.551 -0 -1.2 0
0.074 -0.077 -1.61 -0 -1.2 0
0.077 -0.082 -1.661 -0 -1.2 0
0.08 -0.088 -1.712 -0 -1.2 0
0.083 -0.091 -1.772 -0 -1.2 0
0.086 -0.086 -1.851 -0 -1.2 0
0.089 -0.088 -1.921 -0 -1.2 0
0.093 -0.097 -1.982 -0 -1.2 0
0.097 -0.103 -2.053 -0 -1.2 0
0.101 -0.103 -2.142 -0 -1.2 0
0.106 -0.105 -2.232 -0 -1.2 0
0.11 -0.11 -2.322 -0 -1.2 0
0.115 -0.11 -2.431 -0 -1.2 0
0.12 -0.118 -2.532 -0 -1.2 0
0.125 -0.124 -2.642 -0 -1.2 0
0.131 -0.135 -2.753 -0 -1.2 0
0.138 -0.139 -2.892 -0 -1.2 0
0.145 -0.148 -3.032 -0 -1.2 0
0.153 -0.155 -3.191 -0 -1.2 0
0.161 -0.166 -3.361 -0 -1.2 0
0.17 -0.176 -3.551 -0 -1.2 0
0.181 -0.186 -3.77 -0 -1.2 0
0.192 -0.2 -4 -0 -1.2 0
0.206 -0.213 -4.279 -0 -1.2 0
0.221 -0.226 -4.597 -0 -1.2 0
0.239 -0.246 -4.947 -0 -1.2 0
0.259 -0.268 -5.356 -0 -1.2 0
0.285 -0.285 -5.894 -0 -1.2 0
0.315 -0.313 -6.502 -0 -1.2 0
0.352 -0.346 -7.26 -0 -1.2 0
0.401 -0.383 -8.267 -0 -1.2 0
0.474 -0.419 -9.763 -0 -1.2 0
0.577 -0.474 -11.888 -0 -1.2 0
0.718 -0.574 -14.782 -0 -1.2 0
0.275 -1.013 -5.311 -0 -1.2 0
0.275 -1.105 -5.252 -0 -1.2 0
0.275 -1.195 -5.212 -0 -1.2 0
0.277 -1.284 -5.21 -0 -1.2 0
0.271 -1.364 -5.046 -0 -1.2 0
0.271 -1.447 -4.981 -0 -1.2 0
0.27 -1.528 -4.924 -0 -1.2 0
0.289 -1.65 -5.264 -0 -1.2 0
0.294 -1.747 -5.313 -0 -1.2 0
0.294 -1.834 -5.272 -0 -1.2 0
0.296 -1.925 -5.258 -0 -1.2 0
0.298 -2.017 -5.252 -0 -1.2 0
0.963 -4.538 -17.847 -0 -1.2 0
0.968 -4.846 -17.774 -0 -1.2 0
0.974 -5.159 -17.725 -0 -1.2 0
0.98 -5.476 -17.69 -0 -1.2 0
0.832 -5.041 -14.823 -0 -1.2 0
0.988 -6.097 -17.556 -0 -1.2 0
0.993 -6.408 -17.485 -0 -1.2 0
0.998 -6.721 -17.418 -0 -1.2 0
1 -7.026 -17.327 -0 -1.2 0
1.009 -7.364 -17.324 -0 -1.2 0
1.015 -7.689 -17.277 -0 -1.2 0
0.899 -7.169 -15.122 -0 -1.2 0
0.908 -7.485 -15.142 -0 -1.2 0
1.034 -8.69 -17.156 -0 -1.2 0
1.036 -8.997 -17.038 -0 -1.2 0
1.039 -9.309 -16.934 -0 -1.2 0
1.035 -9.57 -16.726 -0 -1.2 0
1.034 -9.847 -16.548 -0 -1.2 0
1.033 -10.128 -16.384 -0 -1.2 0
0.974 -9.869 -15.281 -0 -1.2 0
0.937 -9.795 -14.561 -0 -1.2 0
1.122 -11.869 -17.331 -0 -1.2 0
1.03 -11.262 -15.74 -0 -1.2 0
0.852 -9.706 -12.844 -0 -1.2 0
0.852 -9.938 -12.708 -0 -1.2 0
0.822 -9.853 -12.132 -0 -1.2 0
0.87 -10.627 -12.727 -0 -1.2 0
0.958 -11.903 -13.913 -0 -1.2 0
0.89 -11.371 -12.767 -0 -1.2 0
0.873 -11.418 -12.38 -0 -1.2 0
0.922 -12.28 -12.944 -0 -1.2 0
0.968 -13.15 -13.468 -0 -1.2 0
1.032 -14.267 -14.206 -0 -1.2 0
1.011 -14.304 -13.759 -0 -1.2 0
1.136 -16.32 -15.307 -0 -1.2 0
1.156 -16.95 -15.393 -0 -1.2 0
1.161 -17.398 -15.285 -0 -1.2 0
0.018 -0.053 -1.194 -0 -1.2 0
0.018 -0.053 -1.235 -0 -1.2 0
0.019 -0.06 -1.267 -0 -1.2 0
0.02 -0.063 -1.309 -0 -1.2 0
0.02 -0.059 -1.359 -0 -1.2 0
0.022 -0.069 -1.392 -0 -1.2 0
0.022 -0.062 -1.45 -0 -1.2 0
0.023 -0.07 -1.492 -0 -1.2 0
0.024 -0.071 -1.543 -0 -1.2 0
0.024 -0.081 -1.586 -0 -1.2 0
0.026 -0.08 -1.645 -0 -1.2 0
0.027 -0.087 -1.697 -0 -1.2 0
0.027 -0.085 -1.766 -0 -1.2 0
0.028 -0.089 -1.827 -0 -1.2 0
0.029 -0.091 -1.897 -0 -1.2 0
0.031 -0.091 -1.976 -0 -1.2 0
0.032 -0.096 -2.048 -0 -1.2 0
0.033 -0.096 -2.137 -0 -1.2 0
0.035 -0.107 -2.209 -0 -1.2 0
0.036 -0.111 -2.298 -0 -1.2 0
0.038 -0.108 -2.417 -0 -1.2 0
0.04 -0.116 -2.517 -0 -1.2 0
0.042 -0.122 -2.627 -0 -1.2 0
0.044 -0.133 -2.738 -0 -1.2 0
0.046 -0.137 -2.878 -0 -1.2 0
0.049 -0.142 -3.028 -0 -1.2 0
0.051 -0.153 -3.178 -0 -1.2 0
0.054 -0.164 -3.347 -0 -1.2 0
0.057 -0.171 -3.547 -0 -1.2 0
0.061 -0.182 -3.767 -0 -1.2 0
0.064 -0.196 -3.997 -0 -1.2 0
0.07 -0.208 -4.276 -0 -1.2 0
0.075 -0.226 -4.576 -0 -1.2 0
0.081 -0.243 -4.935 -0 -1.2 0
0.087 -0.261 -5.374 -0 -1.2 0
0.096 -0.282 -5.893 -0 -1.2 0
0.107 -0.308 -6.511 -0 -1.2 0
0.119 -0.34 -7.271 -0 -1.2 0
0.097 -0.634 -5.41 -0 -1.2 0
0.099 -0.734 -5.329 -0 -1.2 0
0.1 -0.827 -5.304 -0 -1.2 0
0.102 -0.919 -5.308 -0 -1.2 0
0.104 -1.011 -5.29 -0 -1.2 0
0.106 -1.102 -5.271 -0 -1.2 0
0.107 -1.192 -5.231 -0 -1.2 0
0.11 -1.282 -5.228 -0 -1.2 0
0.11 -1.367 -5.135 -0 -1.2 0
0.113 -1.457 -5.149 -0 -1.2 0
0.116 -1.551 -5.202 -0 -1.2 0
0.118 -1.643 -5.214 -0 -1.2 0
0.121 -1.737 -5.244 -0 -1.2 0
0.125 -1.846 -5.361 -0 -1.2 0
