# .PCD v.7 - Point Cloud Data file format
FIELDS x y z vp_x vp_y vp_z
SIZE 4 4 4 4 4 4
TYPE F F F F F F
COUNT 1 1 1 1 1 1
WIDTH 1536
HEIGHT 1
VIEWPOINT 0 -1.20007 0 1 0 0 0
POINTS 1536
DATA ascii
-3.849 -22.076 21.134 -0 -1.2 0
-3.974 -16.239 25.644 -0 -1.2 0
-3.921 -16.688 25.381 -0 -1.2 0
-3.867 -17.134 25.11 -0 -1.2 0
-3.812 -17.573 24.832 -0 -1.2 0
-3.755 -18.008 24.546 -0 -1.2 0
-3.698 -18.438 24.253 -0 -1.2 0
-3.639 -18.863 23.951 -0 -1.2 0
-3.58 -19.281 23.643 -0 -1.2 0
-3.519 -19.695 23.329 -0 -1.2 0
-3.457 -20.103 23.006 -0 -1.2 0
-3.394 -20.505 22.676 -0 -1.2 0
-3.33 -20.901 22.341 -0 -1.2 0
-3.265 -21.292 21.997 -0 -1.2 0
-3.198 -21.676 21.647 -0 -1.2 0
-3.131 -22.054 21.291 -0 -1.2 0
-3.186 -14.374 26.782 -0 -1.2 0
-3.146 -14.842 26.55 -0 -1.2 0
-3.106 -15.305 26.309 -0 -1.2 0
-3.065 -15.764 26.06 -0 -1.2 0
-3.024 -16.218 25.803 -0 -1.2 0
-2.981 -16.668 25.539 -0 -1.2 0
-2.937 -17.113 25.267 -0 -1.2 0
-2.892 -17.553 24.987 -0 -1.2 0
-2.846 -17.989 24.7 -0 -1.2 0
-2.801 -18.418 24.404 -0 -1.2 0
-2.753 -18.843 24.102 -0 -1.2 0
-2.705 -19.262 23.792 -0 -1.2 0
-2.656 -19.676 23.475 -0 -1.2 0
-2.606 -20.085 23.151 -0 -1.2 0
-2.556 -20.487 22.82 -0 -1.2 0
-2.504 -20.883 22.482 -0 -1.2 0
-2.452 -21.274 22.137 -0 -1.2 0
-2.399 -21.658 21.785 -0 -1.2 0
-2.345 -22.037 21.427 -0 -1.2 0
-2.388 -11.981 27.938 -0 -1.2 0
-2.36 -12.466 27.746 -0 -1.2 0
-2.332 -12.95 27.546 -0 -1.2 0
-2.303 -13.428 27.336 -0 -1.2 0
-2.274 -13.904 27.119 -0 -1.2 0
-2.243 -14.375 26.893 -0 -1.2 0
-2.213 -14.843 26.659 -0 -1.2 0
-2.18 -15.306 26.417 -0 -1.2 0
-2.148 -15.765 26.167 -0 -1.2 0
-2.115 -16.219 25.909 -0 -1.2 0
-2.081 -16.669 25.643 -0 -1.2 0
-2.047 -17.114 25.37 -0 -1.2 0
-2.012 -17.554 25.088 -0 -1.2 0
-1.977 -17.99 24.799 -0 -1.2 0
-1.941 -18.419 24.503 -0 -1.2 0
-1.903 -18.844 24.198 -0 -1.2 0
-1.866 -19.263 23.887 -0 -1.2 0
-1.828 -19.677 23.569 -0 -1.2 0
-1.79 -20.085 23.244 -0 -1.2 0
-1.751 -20.488 22.911 -0 -1.2 0
-1.711 -20.884 22.571 -0 -1.2 0
-1.671 -21.275 22.224 -0 -1.2 0
-1.631 -21.659 21.871 -0 -1.2 0
-1.59 -22.038 21.511 -0 -1.2 0
-1.74 0.851 29.983 -0 -1.2 0
-1.731 0.327 30.014 -0 -1.2 0
-1.722 -0.195 30.035 -0 -1.2 0
-1.712 -0.717 30.046 -0 -1.2 0
-1.702 -1.24 30.05 -0 -1.2 0
-1.691 -1.763 30.043 -0 -1.2 0
-1.681 -2.288 30.027 -0 -1.2 0
-1.669 -2.81 30.003 -0 -1.2 0
-1.657 -3.332 29.969 -0 -1.2 0
-1.644 -3.854 29.926 -0 -1.2 0
-1.631 -4.375 29.874 -0 -1.2 0
-1.617 -4.895 29.814 -0 -1.2 0
-1.602 -5.414 29.744 -0 -1.2 0
-1.588 -5.931 29.664 -0 -1.2 0
-1.573 -6.447 29.576 -0 -1.2 0
-1.541 -7.473 29.373 -0 -1.2 0
-1.524 -7.984 29.259 -0 -1.2 0
-1.507 -8.492 29.135 -0 -1.2 0
-1.49 -8.999 29.002 -0 -1.2 0
-1.472 -9.503 28.861 -0 -1.2 0
-1.453 -10.004 28.71 -0 -1.2 0
-1.435 -10.503 28.552 -0 -1.2 0
-1.415 -10.998 28.384 -0 -1.2 0
-1.396 -11.491 28.207 -0 -1.2 0
-1.375 -11.98 28.022 -0 -1.2 0
-1.355 -12.466 27.829 -0 -1.2 0
-1.333 -12.949 27.628 -0 -1.2 0
-1.312 -13.428 27.417 -0 -1.2 0
-1.29 -13.904 27.199 -0 -1.2 0
-1.267 -14.375 26.973 -0 -1.2 0
-1.245 -14.843 26.737 -0 -1.2 0
-1.222 -15.306 26.495 -0 -1.2 0
-1.199 -15.765 26.244 -0 -1.2 0
-1.175 -16.219 25.984 -0 -1.2 0
-1.15 -16.669 25.718 -0 -1.2 0
-1.127 -17.114 25.443 -0 -1.2 0
-1.102 -17.554 25.161 -0 -1.2 0
-1.076 -17.989 24.871 -0 -1.2 0
-1.051 -18.419 24.573 -0 -1.2 0
-1.025 -18.844 24.268 -0 -1.2 0
-0.999 -19.263 23.956 -0 -1.2 0
-0.973 -19.677 23.636 -0 -1.2 0
-0.945 -20.085 23.309 -0 -1.2 0
-0.918 -20.487 22.975 -0 -1.2 0
-0.891 -20.884 22.634 -0 -1.2 0
-0.863 -21.274 22.287 -0 -1.2 0
-0.836 -21.659 21.932 -0 -1.2 0
-0.807 -22.037 21.57 -0 -1.2 0
-0.532 0.853 30.048 -0 -1.2 0
-0.522 0.329 30.078 -0 -1.2 0
-0.512 -0.193 30.098 -0 -1.2 0
-0.502 -0.715 30.11 -0 -1.2 0
-0.492 -1.238 30.112 -0 -1.2 0
-0.481 -1.761 30.105 -0 -1.2 0
-0.47 -2.286 30.089 -0 -1.2 0
-0.46 -2.808 30.064 -0 -1.2 0
-0.449 -3.33 30.03 -0 -1.2 0
-0.438 -3.852 29.987 -0 -1.2 0
-0.426 -4.373 29.934 -0 -1.2 0
-0.415 -4.893 29.873 -0 -1.2 0
-0.403 -5.412 29.803 -0 -1.2 0
-0.392 -5.929 29.723 -0 -1.2 0
-0.38 -6.445 29.634 -0 -1.2 0
-0.368 -6.959 29.536 -0 -1.2 0
-0.356 -7.471 29.43 -0 -1.2 0
-0.344 -7.982 29.315 -0 -1.2 0
-0.332 -8.49 29.19 -0 -1.2 0
-0.32 -8.997 29.057 -0 -1.2 0
-0.308 -9.501 28.915 -0 -1.2 0
-0.295 -10.002 28.764 -0 -1.2 0
-0.282 -10.501 28.605 -0 -1.2 0
-0.269 -10.996 28.436 -0 -1.2 0
-0.257 -11.489 28.26 -0 -1.2 0
-0.244 -11.978 28.074 -0 -1.2 0
-0.231 -12.464 27.88 -0 -1.2 0
-0.218 -12.947 27.678 -0 -1.2 0
-0.205 -13.426 27.468 -0 -1.2 0
-0.192 -13.902 27.248 -0 -1.2 0
-0.179 -14.373 27.021 -0 -1.2 0
-0.166 -14.841 26.785 -0 -1.2 0
-0.152 -15.304 26.541 -0 -1.2 0
-0.139 -15.763 26.289 -0 -1.2 0
-0.125 -16.217 26.03 -0 -1.2 0
-0.111 -16.667 25.762 -0 -1.2 0
-0.099 -17.112 25.487 -0 -1.2 0
-0.085 -17.552 25.204 -0 -1.2 0
-0.071 -17.988 24.913 -0 -1.2 0
-0.057 -18.417 24.614 -0 -1.2 0
-0.044 -18.842 24.309 -0 -1.2 0
-0.03 -19.261 23.995 -0 -1.2 0
-0.016 -19.675 23.675 -0 -1.2 0
-0.003 -20.084 23.347 -0 -1.2 0
0.01 -20.486 23.013 -0 -1.2 0
0.023 -20.882 22.671 -0 -1.2 0
0.038 -21.273 22.323 -0 -1.2 0
0.051 -21.657 21.967 -0 -1.2 0
0.065 -22.036 21.605 -0 -1.2 0
0.59 0.855 30.062 -0 -1.2 0
0.6 0.332 30.092 -0 -1.2 0
0.611 -0.19 30.112 -0 -1.2 0
0.622 -0.713 30.123 -0 -1.2 0
0.632 -1.236 30.125 -0 -1.2 0
0.643 -1.759 30.118 -0 -1.2 0
0.653 -2.283 30.102 -0 -1.2 0
0.663 -2.805 30.076 -0 -1.2 0
0.672 -3.327 30.042 -0 -1.2 0
0.682 -3.849 29.998 -0 -1.2 0
0.691 -4.371 29.946 -0 -1.2 0
0.701 -4.89 29.884 -0 -1.2 0
0.71 -5.409 29.813 -0 -1.2 0
0.718 -5.926 29.733 -0 -1.2 0
0.726 -6.442 29.644 -0 -1.2 0
0.735 -6.956 29.546 -0 -1.2 0
0.743 -7.469 29.44 -0 -1.2 0
0.751 -7.979 29.323 -0 -1.2 0
0.759 -8.488 29.199 -0 -1.2 0
0.766 -8.994 29.066 -0 -1.2 0
0.773 -9.498 28.923 -0 -1.2 0
0.781 -9.999 28.772 -0 -1.2 0
0.787 -10.498 28.612 -0 -1.2 0
0.793 -10.993 28.444 -0 -1.2 0
0.8 -11.486 28.266 -0 -1.2 0
0.805 -11.976 28.08 -0 -1.2 0
0.812 -12.461 27.886 -0 -1.2 0
0.817 -12.945 27.684 -0 -1.2 0
0.822 -13.424 27.473 -0 -1.2 0
0.828 -13.899 27.254 -0 -1.2 0
0.833 -14.37 27.025 -0 -1.2 0
0.837 -14.838 26.789 -0 -1.2 0
0.842 -15.301 26.546 -0 -1.2 0
0.845 -15.761 26.294 -0 -1.2 0
0.849 -16.215 26.034 -0 -1.2 0
0.853 -16.664 25.766 -0 -1.2 0
0.856 -17.11 25.49 -0 -1.2 0
0.859 -17.549 25.206 -0 -1.2 0
0.862 -17.985 24.916 -0 -1.2 0
0.865 -18.415 24.617 -0 -1.2 0
0.867 -18.84 24.312 -0 -1.2 0
0.869 -19.259 23.998 -0 -1.2 0
0.87 -19.673 23.677 -0 -1.2 0
0.872 -20.081 23.349 -0 -1.2 0
0.874 -20.484 23.014 -0 -1.2 0
0.874 -20.88 22.672 -0 -1.2 0
0.875 -21.27 22.323 -0 -1.2 0
0.875 -21.655 21.968 -0 -1.2 0
0.876 -22.034 21.606 -0 -1.2 0
1.711 0.859 30.037 -0 -1.2 0
1.723 0.336 30.065 -0 -1.2 0
1.735 -0.186 30.085 -0 -1.2 0
1.746 -0.709 30.097 -0 -1.2 0
1.757 -1.232 30.098 -0 -1.2 0
1.767 -1.755 30.09 -0 -1.2 0
1.777 -2.279 30.074 -0 -1.2 0
1.785 -2.801 30.048 -0 -1.2 0
1.794 -3.324 30.014 -0 -1.2 0
1.802 -3.845 29.969 -0 -1.2 0
1.81 -4.367 29.916 -0 -1.2 0
1.816 -4.886 29.854 -0 -1.2 0
1.823 -5.405 29.784 -0 -1.2 0
1.828 -5.922 29.703 -0 -1.2 0
1.834 -6.438 29.614 -0 -1.2 0
1.839 -6.953 29.516 -0 -1.2 0
1.843 -7.465 29.409 -0 -1.2 0
1.847 -7.975 29.293 -0 -1.2 0
1.85 -8.484 29.168 -0 -1.2 0
1.852 -8.991 29.034 -0 -1.2 0
1.854 -9.494 28.892 -0 -1.2 0
1.856 -9.995 28.74 -0 -1.2 0
1.857 -10.494 28.581 -0 -1.2 0
1.857 -10.99 28.412 -0 -1.2 0
1.856 -11.483 28.235 -0 -1.2 0
1.856 -11.972 28.049 -0 -1.2 0
1.854 -12.458 27.855 -0 -1.2 0
1.853 -12.941 27.653 -0 -1.2 0
1.85 -13.42 27.441 -0 -1.2 0
1.847 -13.896 27.222 -0 -1.2 0
1.843 -14.367 26.995 -0 -1.2 0
1.839 -14.835 26.758 -0 -1.2 0
1.835 -15.298 26.515 -0 -1.2 0
1.829 -15.757 26.262 -0 -1.2 0
1.824 -16.211 26.003 -0 -1.2 0
1.817 -16.661 25.735 -0 -1.2 0
1.811 -17.106 25.459 -0 -1.2 0
1.803 -17.546 25.176 -0 -1.2 0
1.795 -17.982 24.885 -0 -1.2 0
1.787 -18.412 24.586 -0 -1.2 0
1.778 -18.837 24.28 -0 -1.2 0
1.768 -19.256 23.967 -0 -1.2 0
1.758 -19.67 23.647 -0 -1.2 0
1.747 -20.078 23.319 -0 -1.2 0
1.736 -20.48 22.985 -0 -1.2 0
1.724 -20.877 22.643 -0 -1.2 0
1.712 -21.267 22.294 -0 -1.2 0
1.699 -21.652 21.939 -0 -1.2 0
1.686 -22.031 21.578 -0 -1.2 0
2.918 0.864 29.96 -0 -1.2 0
2.932 0.341 29.988 -0 -1.2 0
2.944 -0.181 30.008 -0 -1.2 0
2.956 -0.704 30.019 -0 -1.2 0
2.967 -1.226 30.02 -0 -1.2 0
2.977 -1.75 30.011 -0 -1.2 0
2.986 -2.274 29.995 -0 -1.2 0
2.994 -2.796 29.969 -0 -1.2 0
3.002 -3.318 29.934 -0 -1.2 0
3.009 -3.84 29.89 -0 -1.2 0
3.014 -4.361 29.837 -0 -1.2 0
3.018 -4.881 29.775 -0 -1.2 0
3.022 -5.4 29.703 -0 -1.2 0
3.025 -5.917 29.623 -0 -1.2 0
3.027 -6.433 29.534 -0 -1.2 0
3.027 -6.947 29.436 -0 -1.2 0
3.028 -7.46 29.329 -0 -1.2 0
3.027 -7.97 29.212 -0 -1.2 0
3.025 -8.479 29.088 -0 -1.2 0
3.022 -8.986 28.954 -0 -1.2 0
3.019 -9.489 28.812 -0 -1.2 0
3.014 -9.99 28.661 -0 -1.2 0
3.009 -10.489 28.501 -0 -1.2 0
3.003 -10.985 28.333 -0 -1.2 0
2.995 -11.478 28.156 -0 -1.2 0
2.987 -11.967 27.97 -0 -1.2 0
2.977 -12.453 27.776 -0 -1.2 0
2.968 -12.936 27.574 -0 -1.2 0
2.957 -13.415 27.363 -0 -1.2 0
2.945 -13.891 27.144 -0 -1.2 0
2.933 -14.362 26.917 -0 -1.2 0
2.919 -14.83 26.681 -0 -1.2 0
2.905 -15.293 26.438 -0 -1.2 0
2.889 -15.752 26.187 -0 -1.2 0
2.874 -16.207 25.927 -0 -1.2 0
2.856 -16.656 25.66 -0 -1.2 0
2.838 -17.102 25.384 -0 -1.2 0
2.82 -17.542 25.102 -0 -1.2 0
2.8 -17.977 24.811 -0 -1.2 0
2.78 -18.407 24.514 -0 -1.2 0
2.758 -18.832 24.209 -0 -1.2 0
2.737 -19.251 23.896 -0 -1.2 0
2.714 -19.666 23.577 -0 -1.2 0
2.69 -20.074 23.25 -0 -1.2 0
2.666 -20.476 22.915 -0 -1.2 0
2.64 -20.873 22.575 -0 -1.2 0
2.614 -21.263 22.227 -0 -1.2 0
2.586 -21.648 21.873 -0 -1.2 0
2.559 -22.027 21.511 -0 -1.2 0
4.028 0.871 29.847 -0 -1.2 0
4.043 0.347 29.876 -0 -1.2 0
4.057 -0.175 29.894 -0 -1.2 0
4.068 -0.697 29.905 -0 -1.2 0
4.08 -1.22 29.905 -0 -1.2 0
4.09 -1.743 29.898 -0 -1.2 0
4.098 -2.267 29.88 -0 -1.2 0
4.106 -2.79 29.854 -0 -1.2 0
4.111 -3.312 29.819 -0 -1.2 0
4.116 -3.834 29.775 -0 -1.2 0
4.12 -4.355 29.721 -0 -1.2 0
4.123 -4.875 29.659 -0 -1.2 0
4.124 -5.394 29.587 -0 -1.2 0
4.124 -5.911 29.508 -0 -1.2 0
4.123 -6.427 29.418 -0 -1.2 0
4.119 -6.941 29.321 -0 -1.2 0
4.116 -7.454 29.213 -0 -1.2 0
4.111 -7.964 29.098 -0 -1.2 0
4.104 -8.473 28.973 -0 -1.2 0
4.097 -8.979 28.84 -0 -1.2 0
4.088 -9.483 28.698 -0 -1.2 0
4.078 -9.984 28.548 -0 -1.2 0
4.067 -10.483 28.388 -0 -1.2 0
4.054 -10.979 28.219 -0 -1.2 0
4.041 -11.472 28.044 -0 -1.2 0
4.025 -11.961 27.858 -0 -1.2 0
4.01 -12.447 27.665 -0 -1.2 0
3.992 -12.93 27.463 -0 -1.2 0
3.973 -13.409 27.253 -0 -1.2 0
3.954 -13.885 27.035 -0 -1.2 0
3.933 -14.356 26.808 -0 -1.2 0
3.91 -14.824 26.573 -0 -1.2 0
3.887 -15.287 26.33 -0 -1.2 0
3.863 -15.747 26.08 -0 -1.2 0
3.837 -16.201 25.821 -0 -1.2 0
3.81 -16.651 25.555 -0 -1.2 0
3.782 -17.096 25.281 -0 -1.2 0
3.753 -17.536 24.999 -0 -1.2 0
3.723 -17.972 24.71 -0 -1.2 0
3.691 -18.402 24.413 -0 -1.2 0
3.66 -18.827 24.109 -0 -1.2 0
3.626 -19.246 23.797 -0 -1.2 0
3.591 -19.66 23.479 -0 -1.2 0
3.555 -20.069 23.153 -0 -1.2 0
3.519 -20.471 22.821 -0 -1.2 0
3.48 -20.868 22.481 -0 -1.2 0
3.441 -21.258 22.135 -0 -1.2 0
3.402 -21.643 21.781 -0 -1.2 0
3.361 -22.022 21.421 -0 -1.2 0
5.046 0.867 29.708 -0 -1.2 0
5.061 0.343 29.736 -0 -1.2 0
5.076 -0.178 29.754 -0 -1.2 0
5.088 -0.701 29.764 -0 -1.2 0
5.1 -1.224 29.764 -0 -1.2 0
5.109 -1.747 29.756 -0 -1.2 0
5.117 -2.271 29.738 -0 -1.2 0
5.123 -2.794 29.712 -0 -1.2 0
5.129 -3.316 29.676 -0 -1.2 0
5.132 -3.837 29.631 -0 -1.2 0
5.134 -4.359 29.578 -0 -1.2 0
5.134 -4.879 29.516 -0 -1.2 0
5.132 -5.398 29.444 -0 -1.2 0
5.13 -5.915 29.364 -0 -1.2 0
5.125 -6.431 29.275 -0 -1.2 0
5.119 -6.945 29.177 -0 -1.2 0
5.112 -7.457 29.07 -0 -1.2 0
5.103 -7.968 28.954 -0 -1.2 0
5.092 -8.476 28.83 -0 -1.2 0
5.079 -8.983 28.697 -0 -1.2 0
5.066 -9.487 28.555 -0 -1.2 0
5.051 -9.988 28.405 -0 -1.2 0
5.034 -10.487 28.246 -0 -1.2 0
5.016 -10.982 28.079 -0 -1.2 0
4.997 -11.475 27.903 -0 -1.2 0
4.975 -11.965 27.719 -0 -1.2 0
4.952 -12.45 27.526 -0 -1.2 0
4.928 -12.934 27.325 -0 -1.2 0
4.902 -13.413 27.115 -0 -1.2 0
4.875 -13.889 26.897 -0 -1.2 0
4.846 -14.36 26.672 -0 -1.2 0
4.816 -14.828 26.437 -0 -1.2 0
4.784 -15.291 26.196 -0 -1.2 0
4.751 -15.75 25.946 -0 -1.2 0
4.717 -16.205 25.688 -0 -1.2 0
4.681 -16.654 25.423 -0 -1.2 0
4.643 -17.1 25.15 -0 -1.2 0
4.605 -17.539 24.87 -0 -1.2 0
4.564 -17.975 24.581 -0 -1.2 0
4.523 -18.405 24.286 -0 -1.2 0
4.48 -18.83 23.983 -0 -1.2 0
4.436 -19.249 23.672 -0 -1.2 0
4.39 -19.663 23.355 -0 -1.2 0
4.343 -20.072 23.031 -0 -1.2 0
4.295 -20.474 22.7 -0 -1.2 0
4.246 -20.871 22.362 -0 -1.2 0
4.195 -21.261 22.017 -0 -1.2 0
4.143 -21.646 21.665 -0 -1.2 0
4.089 -22.025 21.307 -0 -1.2 0
6.147 0.881 29.517 -0 -1.2 0
6.164 0.357 29.544 -0 -1.2 0
6.178 -0.164 29.562 -0 -1.2 0
6.191 -0.687 29.572 -0 -1.2 0
6.202 -1.21 29.572 -0 -1.2 0
6.211 -1.733 29.564 -0 -1.2 0
6.217 -2.257 29.546 -0 -1.2 0
6.223 -2.779 29.519 -0 -1.2 0
6.226 -3.302 29.484 -0 -1.2 0
6.227 -3.823 29.44 -0 -1.2 0
6.227 -4.345 29.387 -0 -1.2 0
6.225 -4.865 29.325 -0 -1.2 0
6.22 -5.384 29.254 -0 -1.2 0
6.214 -5.901 29.174 -0 -1.2 0
6.207 -6.417 29.086 -0 -1.2 0
6.197 -6.931 28.989 -0 -1.2 0
6.185 -7.444 28.883 -0 -1.2 0
6.171 -7.954 28.767 -0 -1.2 0
6.156 -8.463 28.644 -0 -1.2 0
6.137 -8.97 28.511 -0 -1.2 0
6.119 -9.474 28.371 -0 -1.2 0
6.098 -9.975 28.222 -0 -1.2 0
6.074 -10.474 28.064 -0 -1.2 0
6.05 -10.969 27.897 -0 -1.2 0
6.023 -11.462 27.722 -0 -1.2 0
5.995 -11.952 27.539 -0 -1.2 0
5.965 -12.437 27.347 -0 -1.2 0
5.933 -12.921 27.147 -0 -1.2 0
5.898 -13.4 26.94 -0 -1.2 0
5.863 -13.876 26.723 -0 -1.2 0
5.826 -14.347 26.499 -0 -1.2 0
5.786 -14.815 26.267 -0 -1.2 0
5.746 -15.279 26.026 -0 -1.2 0
5.703 -15.738 25.778 -0 -1.2 0
5.659 -16.192 25.523 -0 -1.2 0
5.612 -16.642 25.259 -0 -1.2 0
5.565 -17.088 24.988 -0 -1.2 0
5.516 -17.528 24.709 -0 -1.2 0
5.465 -17.964 24.423 -0 -1.2 0
5.412 -18.394 24.13 -0 -1.2 0
5.358 -18.819 23.829 -0 -1.2 0
5.302 -19.238 23.52 -0 -1.2 0
5.244 -19.653 23.205 -0 -1.2 0
5.185 -20.061 22.883 -0 -1.2 0
5.123 -20.464 22.554 -0 -1.2 0
5.062 -20.86 22.218 -0 -1.2 0
4.997 -21.251 21.876 -0 -1.2 0
4.933 -21.636 21.527 -0 -1.2 0
4.866 -22.015 21.171 -0 -1.2 0
7.178 0.896 29.297 -0 -1.2 0
7.196 0.373 29.324 -0 -1.2 0
7.066 -2.213 28.589 -0 -1.2 0
7.079 -2.725 28.602 -0 -1.2 0
7.088 -3.237 28.597 -0 -1.2 0
7.102 -3.752 28.613 -0 -1.2 0
7.114 -4.268 28.618 -0 -1.2 0
7.123 -4.786 28.616 -0 -1.2 0
7.136 -5.307 28.624 -0 -1.2 0
7.146 -5.83 28.623 -0 -1.2 0
7.159 -6.358 28.631 -0 -1.2 0
7.14 -6.864 28.517 -0 -1.2 0
7.115 -7.363 28.374 -0 -1.2 0
7.161 -7.93 28.516 -0 -1.2 0
7.151 -8.448 28.431 -0 -1.2 0
7.129 -8.955 28.3 -0 -1.2 0
7.104 -9.459 28.161 -0 -1.2 0
7.077 -9.96 28.012 -0 -1.2 0
7.049 -10.459 27.855 -0 -1.2 0
7.018 -10.955 27.69 -0 -1.2 0
6.984 -11.448 27.516 -0 -1.2 0
6.95 -11.938 27.335 -0 -1.2 0
6.912 -12.423 27.145 -0 -1.2 0
6.873 -12.907 26.946 -0 -1.2 0
6.831 -13.386 26.74 -0 -1.2 0
6.788 -13.862 26.525 -0 -1.2 0
6.743 -14.334 26.303 -0 -1.2 0
6.695 -14.802 26.073 -0 -1.2 0
6.645 -15.265 25.835 -0 -1.2 0
6.594 -15.725 25.588 -0 -1.2 0
6.54 -16.18 25.334 -0 -1.2 0
6.485 -16.629 25.073 -0 -1.2 0
6.427 -17.075 24.804 -0 -1.2 0
6.367 -17.515 24.527 -0 -1.2 0
6.306 -17.951 24.243 -0 -1.2 0
6.243 -18.381 23.953 -0 -1.2 0
6.178 -18.807 23.654 -0 -1.2 0
6.111 -19.226 23.348 -0 -1.2 0
6.042 -19.641 23.036 -0 -1.2 0
5.971 -20.049 22.716 -0 -1.2 0
5.898 -20.452 22.39 -0 -1.2 0
5.824 -20.849 22.056 -0 -1.2 0
5.748 -21.24 21.716 -0 -1.2 0
5.67 -21.625 21.37 -0 -1.2 0
5.591 -22.004 21.017 -0 -1.2 0
8.221 0.387 29.069 -0 -1.2 0
8.061 -0.155 28.471 -0 -1.2 0
8.071 -0.667 28.471 -0 -1.2 0
8.086 -1.179 28.49 -0 -1.2 0
8.093 -1.691 28.482 -0 -1.2 0
8.107 -2.205 28.495 -0 -1.2 0
8.121 -2.719 28.507 -0 -1.2 0
8.126 -3.233 28.492 -0 -1.2 0
8.135 -3.749 28.488 -0 -1.2 0
8.15 -4.269 28.503 -0 -1.2 0
8.161 -4.791 28.51 -0 -1.2 0
8.174 -5.315 28.517 -0 -1.2 0
8.186 -5.842 28.525 -0 -1.2 0
8.196 -6.371 28.524 -0 -1.2 0
8.176 -6.881 28.418 -0 -1.2 0
8.142 -7.381 28.268 -0 -1.2 0
8.163 -7.926 28.305 -0 -1.2 0
8.139 -8.434 28.183 -0 -1.2 0
8.112 -8.941 28.053 -0 -1.2 0
8.082 -9.445 27.915 -0 -1.2 0
8.05 -9.947 27.768 -0 -1.2 0
8.015 -10.446 27.613 -0 -1.2 0
7.979 -10.941 27.45 -0 -1.2 0
7.939 -11.435 27.277 -0 -1.2 0
7.897 -11.925 27.098 -0 -1.2 0
7.853 -12.41 26.909 -0 -1.2 0
7.806 -12.894 26.713 -0 -1.2 0
7.757 -13.373 26.508 -0 -1.2 0
7.706 -13.85 26.295 -0 -1.2 0
7.652 -14.321 26.075 -0 -1.2 0
7.596 -14.789 25.847 -0 -1.2 0
7.539 -15.253 25.61 -0 -1.2 0
7.478 -15.713 25.367 -0 -1.2 0
7.415 -16.167 25.115 -0 -1.2 0
7.351 -16.617 24.856 -0 -1.2 0
7.283 -17.063 24.589 -0 -1.2 0
7.214 -17.503 24.315 -0 -1.2 0
7.142 -17.94 24.034 -0 -1.2 0
7.068 -18.37 23.745 -0 -1.2 0
6.992 -18.796 23.45 -0 -1.2 0
6.915 -19.215 23.147 -0 -1.2 0
6.834 -19.63 22.837 -0 -1.2 0
6.752 -20.039 22.521 -0 -1.2 0
6.668 -20.442 22.197 -0 -1.2 0
6.582 -20.838 21.868 -0 -1.2 0
6.493 -21.23 21.53 -0 -1.2 0
6.403 -21.615 21.187 -0 -1.2 0
6.311 -21.994 20.837 -0 -1.2 0
9.188 -0.135 28.344 -0 -1.2 0
9.197 -0.65 28.343 -0 -1.2 0
9.21 -1.165 28.354 -0 -1.2 0
9.217 -1.681 28.345 -0 -1.2 0
9.234 -2.198 28.366 -0 -1.2 0
9.245 -2.716 28.37 -0 -1.2 0
9.255 -3.235 28.373 -0 -1.2 0
9.266 -3.754 28.378 -0 -1.2 0
9.279 -4.277 28.384 -0 -1.2 0
9.287 -4.8 28.38 -0 -1.2 0
9.302 -5.329 28.396 -0 -1.2 0
9.311 -5.858 28.394 -0 -1.2 0
9.293 -6.374 28.308 -0 -1.2 0
9.272 -6.889 28.213 -0 -1.2 0
9.248 -7.401 28.111 -0 -1.2 0
9.221 -7.912 27.998 -0 -1.2 0
9.191 -8.421 27.879 -0 -1.2 0
9.085 -9.933 27.468 -0 -1.2 0
9.045 -10.433 27.315 -0 -1.2 0
9.002 -10.928 27.152 -0 -1.2 0
8.955 -11.422 26.983 -0 -1.2 0
8.906 -11.912 26.805 -0 -1.2 0
8.854 -12.398 26.618 -0 -1.2 0
8.8 -12.882 26.425 -0 -1.2 0
8.744 -13.361 26.222 -0 -1.2 0
8.684 -13.837 26.012 -0 -1.2 0
8.621 -14.308 25.794 -0 -1.2 0
8.557 -14.777 25.569 -0 -1.2 0
8.489 -15.241 25.335 -0 -1.2 0
8.42 -15.7 25.094 -0 -1.2 0
8.346 -16.155 24.845 -0 -1.2 0
8.272 -16.605 24.589 -0 -1.2 0
8.195 -17.052 24.326 -0 -1.2 0
8.114 -17.492 24.055 -0 -1.2 0
8.031 -17.928 23.777 -0 -1.2 0
7.946 -18.359 23.492 -0 -1.2 0
7.859 -18.784 23.2 -0 -1.2 0
7.769 -19.204 22.899 -0 -1.2 0
7.677 -19.619 22.594 -0 -1.2 0
7.583 -20.028 22.281 -0 -1.2 0
7.487 -20.431 21.96 -0 -1.2 0
7.388 -20.828 21.635 -0 -1.2 0
7.286 -21.219 21.301 -0 -1.2 0
7.183 -21.605 20.962 -0 -1.2 0
7.077 -21.984 20.617 -0 -1.2 0
10.252 -0.116 28.236 -0 -1.2 0
10.261 -0.635 28.235 -0 -1.2 0
10.274 -1.154 28.245 -0 -1.2 0
10.285 -1.674 28.245 -0 -1.2 0
10.295 -2.195 28.248 -0 -1.2 0
10.309 -2.716 28.261 -0 -1.2 0
10.323 -3.239 28.273 -0 -1.2 0
10.337 -3.765 28.287 -0 -1.2 0
10.342 -4.29 28.274 -0 -1.2 0
10.329 -4.81 28.214 -0 -1.2 0
10.315 -5.329 28.146 -0 -1.2 0
10.296 -5.846 28.069 -0 -1.2 0
10.274 -6.362 27.984 -0 -1.2 0
10.249 -6.877 27.89 -0 -1.2 0
10.19 -7.9 27.678 -0 -1.2 0
9.939 -10.917 26.842 -0 -1.2 0
9.886 -11.411 26.675 -0 -1.2 0
9.773 -12.386 26.314 -0 -1.2 0
9.712 -12.871 26.122 -0 -1.2 0
9.647 -13.35 25.923 -0 -1.2 0
9.581 -13.826 25.716 -0 -1.2 0
9.51 -14.298 25.5 -0 -1.2 0
9.437 -14.766 25.277 -0 -1.2 0
9.361 -15.23 25.047 -0 -1.2 0
9.283 -15.69 24.809 -0 -1.2 0
9.201 -16.145 24.563 -0 -1.2 0
9.117 -16.595 24.31 -0 -1.2 0
9.029 -17.042 24.049 -0 -1.2 0
8.94 -17.482 23.782 -0 -1.2 0
8.847 -17.918 23.507 -0 -1.2 0
8.753 -18.349 23.226 -0 -1.2 0
8.654 -18.775 22.936 -0 -1.2 0
8.554 -19.195 22.641 -0 -1.2 0
8.451 -19.61 22.338 -0 -1.2 0
8.345 -20.019 22.029 -0 -1.2 0
8.237 -20.422 21.713 -0 -1.2 0
8.127 -20.819 21.391 -0 -1.2 0
8.013 -21.211 21.062 -0 -1.2 0
7.899 -21.596 20.726 -0 -1.2 0
7.78 -21.976 20.386 -0 -1.2 0
11.309 -0.098 28.082 -0 -1.2 0
11.321 -0.621 28.09 -0 -1.2 0
11.331 -1.143 28.091 -0 -1.2 0
11.337 -1.667 28.082 -0 -1.2 0
11.339 -2.191 28.066 -0 -1.2 0
11.338 -2.713 28.041 -0 -1.2 0
11.333 -3.236 28.008 -0 -1.2 0
11.325 -3.757 27.965 -0 -1.2 0
11.314 -4.279 27.915 -0 -1.2 0
11.299 -4.799 27.856 -0 -1.2 0
11.282 -5.318 27.789 -0 -1.2 0
11.26 -5.835 27.713 -0 -1.2 0
11.235 -6.352 27.629 -0 -1.2 0
11.207 -6.866 27.537 -0 -1.2 0
10.799 -11.401 26.337 -0 -1.2 0
10.738 -11.89 26.163 -0 -1.2 0
10.673 -12.377 25.982 -0 -1.2 0
10.534 -13.34 25.596 -0 -1.2 0
10.458 -13.817 25.391 -0 -1.2 0
10.38 -14.288 25.178 -0 -1.2 0
10.3 -14.757 24.959 -0 -1.2 0
10.216 -15.221 24.731 -0 -1.2 0
10.038 -16.136 24.253 -0 -1.2 0
9.542 -18.34 22.934 -0 -1.2 0
9.433 -18.766 22.649 -0 -1.2 0
9.323 -19.186 22.357 -0 -1.2 0
9.209 -19.601 22.059 -0 -1.2 0
9.092 -20.011 21.754 -0 -1.2 0
8.973 -20.414 21.442 -0 -1.2 0
8.851 -20.811 21.124 -0 -1.2 0
8.726 -21.203 20.799 -0 -1.2 0
8.599 -21.589 20.468 -0 -1.2 0
8.47 -21.968 20.132 -0 -1.2 0
12.35 -0.087 27.654 -0 -1.2 0
12.363 -0.61 27.662 -0 -1.2 0
12.371 -1.133 27.663 -0 -1.2 0
12.376 -1.656 27.655 -0 -1.2 0
12.378 -2.18 27.639 -0 -1.2 0
12.375 -2.703 27.614 -0 -1.2 0
12.369 -3.225 27.581 -0 -1.2 0
12.36 -3.747 27.54 -0 -1.2 0
12.346 -4.269 27.49 -0 -1.2 0
12.308 -5.308 27.366 -0 -1.2 0
12.283 -5.825 27.291 -0 -1.2 0
12.187 -7.369 27.019 -0 -1.2 0
11.833 -10.897 26.101 -0 -1.2 0
11.627 -12.367 25.589 -0 -1.2 0
11.552 -12.851 25.401 -0 -1.2 0
11.305 -14.279 24.798 -0 -1.2 0
11.215 -14.748 24.581 -0 -1.2 0
10.823 -16.577 23.641 -0 -1.2 0
10.38 -18.332 22.589 -0 -1.2 0
10.138 -19.178 22.021 -0 -1.2 0
10.013 -19.593 21.727 -0 -1.2 0
9.885 -20.003 21.427 -0 -1.2 0
9.754 -20.406 21.12 -0 -1.2 0
9.619 -20.804 20.807 -0 -1.2 0
9.483 -21.195 20.488 -0 -1.2 0
9.343 -21.581 20.163 -0 -1.2 0
9.201 -21.961 19.832 -0 -1.2 0
13.332 -0.591 27.222 -0 -1.2 0
13.341 -1.114 27.222 -0 -1.2 0
13.346 -1.637 27.215 -0 -1.2 0
13.347 -2.161 27.199 -0 -1.2 0
13.344 -2.684 27.175 -0 -1.2 0
13.336 -3.206 27.142 -0 -1.2 0
13.324 -3.728 27.101 -0 -1.2 0
13.309 -4.25 27.053 -0 -1.2 0
13.171 -6.838 26.689 -0 -1.2 0
13.132 -7.35 26.591 -0 -1.2 0
12.673 -11.373 25.529 -0 -1.2 0
12.261 -13.79 24.614 -0 -1.2 0
11.034 -18.743 21.962 -0 -1.2 0
10.902 -19.163 21.679 -0 -1.2 0
10.766 -19.578 21.391 -0 -1.2 0
10.627 -19.988 21.095 -0 -1.2 0
10.485 -20.392 20.794 -0 -1.2 0
10.34 -20.789 20.485 -0 -1.2 0
10.192 -21.181 20.172 -0 -1.2 0
10.04 -21.567 19.852 -0 -1.2 0
9.885 -21.947 19.527 -0 -1.2 0
14.283 -2.141 26.733 -0 -1.2 0
14.279 -2.663 26.709 -0 -1.2 0
14.271 -3.186 26.678 -0 -1.2 0
14.258 -3.707 26.637 -0 -1.2 0
14.24 -4.229 26.59 -0 -1.2 0
14.219 -4.749 26.534 -0 -1.2 0
14.163 -5.786 26.399 -0 -1.2 0
14.089 -6.817 26.233 -0 -1.2 0
13.948 -8.35 25.923 -0 -1.2 0
13.699 -10.364 25.402 -0 -1.2 0
13.295 -12.815 24.579 -0 -1.2 0
13.105 -13.771 24.197 -0 -1.2 0
12.189 -17.431 22.387 -0 -1.2 0
12.058 -17.868 22.129 -0 -1.2 0
11.785 -18.726 21.595 -0 -1.2 0
11.643 -19.147 21.318 -0 -1.2 0
11.038 -20.774 20.147 -0 -1.2 0
10.878 -21.166 19.839 -0 -1.2 0
10.716 -21.552 19.524 -0 -1.2 0
10.55 -21.933 19.204 -0 -1.2 0
15.228 -1.073 26.241 -0 -1.2 0
15.231 -2.12 26.219 -0 -1.2 0
15.225 -2.643 26.196 -0 -1.2 0
15.215 -3.165 26.166 -0 -1.2 0
15.201 -3.687 26.127 -0 -1.2 0
15.182 -4.209 26.08 -0 -1.2 0
15.13 -5.248 25.964 -0 -1.2 0
14.919 -7.821 25.537 -0 -1.2 0
12.691 -18.283 21.456 -0 -1.2 0
12.542 -18.71 21.191 -0 -1.2 0
12.389 -19.13 20.919 -0 -1.2 0
11.572 -21.151 19.471 -0 -1.2 0
14.5 -14.678 22.893 -0 -1.2 0
12.205 -21.137 19.107 -0 -1.2 0
11.832 -21.905 18.499 -0 -1.2 0
16.937 -1.037 25.196 -0 -1.2 0
16.938 -2.084 25.175 -0 -1.2 0
16.931 -2.607 25.154 -0 -1.2 0
14.237 -17.822 20.87 -0 -1.2 0
14.075 -18.254 20.623 -0 -1.2 0
13.909 -18.681 20.369 -0 -1.2 0
12.824 -21.125 18.723 -0 -1.2 0
12.63 -21.512 18.429 -0 -1.2 0
17.831 -1.019 24.581 -0 -1.2 0
17.834 -1.542 24.575 -0 -1.2 0
17.831 -2.067 24.561 -0 -1.2 0
17.822 -2.589 24.541 -0 -1.2 0
17.808 -3.112 24.513 -0 -1.2 0
17.765 -4.156 24.435 -0 -1.2 0
17.66 -5.713 24.263 -0 -1.2 0
15.136 -17.37 20.608 -0 -1.2 0
14.623 -18.667 19.886 -0 -1.2 0
13.479 -21.112 18.283 -0 -1.2 0
18.644 -1.003 23.98 -0 -1.2 0
18.646 -1.527 23.975 -0 -1.2 0
18.642 -2.051 23.962 -0 -1.2 0
18.634 -2.573 23.942 -0 -1.2 0
18.599 -3.618 23.881 -0 -1.2 0
19.428 -0.961 23.358 -0 -1.2 0
19.43 -1.484 23.353 -0 -1.2 0
19.426 -2.009 23.341 -0 -1.2 0
19.417 -2.531 23.323 -0 -1.2 0
19.401 -3.054 23.297 -0 -1.2 0
15.706 -19.042 18.701 -0 -1.2 0
20.24 -0.378 22.656 -0 -1.2 0
20.248 -0.901 22.66 -0 -1.2 0
20.25 -1.424 22.657 -0 -1.2 0
20.246 -1.949 22.647 -0 -1.2 0
20.235 -2.471 22.631 -0 -1.2 0
20.219 -2.994 22.607 -0 -1.2 0
20.196 -3.516 22.576 -0 -1.2 0
16.148 -19.412 17.956 -0 -1.2 0
20.985 -0.359 21.975 -0 -1.2 0
20.993 -0.882 21.979 -0 -1.2 0
20.994 -1.405 21.976 -0 -1.2 0
20.99 -1.929 21.966 -0 -1.2 0
20.979 -2.452 21.951 -0 -1.2 0
20.961 -2.975 21.928 -0 -1.2 0
20.938 -3.497 21.898 -0 -1.2 0
20.907 -4.019 21.863 -0 -1.2 0
16.953 -18.978 17.662 -0 -1.2 0
16.735 -19.396 17.435 -0 -1.2 0
21.704 -0.34 21.27 -0 -1.2 0
21.712 -0.863 21.274 -0 -1.2 0
21.714 -1.386 21.271 -0 -1.2 0
21.709 -1.91 21.262 -0 -1.2 0
21.697 -2.433 21.247 -0 -1.2 0
21.679 -2.956 21.226 -0 -1.2 0
21.654 -3.478 21.198 -0 -1.2 0
22.45 -0.32 20.483 -0 -1.2 0
22.458 -0.843 20.487 -0 -1.2 0
22.459 -1.366 20.485 -0 -1.2 0
22.454 -1.891 20.478 -0 -1.2 0
22.442 -2.413 20.464 -0 -1.2 0
24.437 -0.269 18.062 -0 -1.2 0
24.446 -0.792 18.067 -0 -1.2 0
24.446 -1.315 18.067 -0 -1.2 0
24.441 -1.84 18.062 -0 -1.2 0
24.427 -2.363 18.05 -0 -1.2 0
24.405 -2.886 18.034 -0 -1.2 0
24.377 -3.408 18.013 -0 -1.2 0
24.341 -3.93 17.985 -0 -1.2 0
19.195 -19.739 14.247 -0 -1.2 0
25.028 -0.255 17.227 -0 -1.2 0
25.037 -0.778 17.232 -0 -1.2 0
25.038 -1.301 17.233 -0 -1.2 0
25.031 -1.825 17.228 -0 -1.2 0
25.017 -2.348 17.217 -0 -1.2 0
24.995 -2.871 17.203 -0 -1.2 0
24.966 -3.393 17.183 -0 -1.2 0
24.929 -3.916 17.158 -0 -1.2 0
24.833 -4.956 17.092 -0 -1.2 0
19.655 -19.727 13.616 -0 -1.2 0
19.382 -20.135 13.433 -0 -1.2 0
20.252 -20.132 12.062 -0 -1.2 0
24.069 -15.824 11.071 -0 -1.2 0
21.348 -20.138 9.919 -0 -1.2 0
24.875 -14.907 10.441 -0 -1.2 0
23.388 -17.615 9.877 -0 -1.2 0
21.334 -20.543 9.092 -0 -1.2 0
21.014 -20.939 8.969 -0 -1.2 0
24.96 -15.376 9.528 -0 -1.2 0
21.921 -20.147 8.496 -0 -1.2 0
21.279 -20.944 8.276 -0 -1.2 0
20.611 -21.718 8.046 -0 -1.2 0
25.024 -15.837 8.555 -0 -1.2 0
24.773 -16.29 8.481 -0 -1.2 0
23.977 -17.624 8.244 -0 -1.2 0
21.54 -20.946 7.514 -0 -1.2 0
25.272 -15.84 7.735 -0 -1.2 0
25.02 -16.294 7.669 -0 -1.2 0
24.758 -16.743 7.602 -0 -1.2 0
24.215 -17.627 7.461 -0 -1.2 0
23.932 -18.061 7.387 -0 -1.2 0
23.642 -18.49 7.311 -0 -1.2 0
22.411 -20.152 6.988 -0 -1.2 0
21.07 -21.723 6.634 -0 -1.2 0
25.252 -16.297 6.793 -0 -1.2 0
24.988 -16.747 6.735 -0 -1.2 0
24.718 -17.19 6.675 -0 -1.2 0
24.44 -17.63 6.614 -0 -1.2 0
24.155 -18.064 6.55 -0 -1.2 0
23.862 -18.493 6.485 -0 -1.2 0
23.562 -18.917 6.418 -0 -1.2 0
23.255 -19.336 6.349 -0 -1.2 0
22.619 -20.155 6.207 -0 -1.2 0
22.291 -20.557 6.133 -0 -1.2 0
21.267 -21.726 5.902 -0 -1.2 0
25.172 -16.749 5.923 -0 -1.2 0
24.9 -17.193 5.873 -0 -1.2 0
24.621 -17.632 5.821 -0 -1.2 0
24.333 -18.066 5.767 -0 -1.2 0
24.037 -18.496 5.712 -0 -1.2 0
23.11 -19.75 5.538 -0 -1.2 0
22.456 -20.559 5.415 -0 -1.2 0
22.118 -20.954 5.35 -0 -1.2 0
21.775 -21.344 5.285 -0 -1.2 0
21.424 -21.727 5.219 -0 -1.2 0
24.775 -17.636 5.024 -0 -1.2 0
24.485 -18.07 4.98 -0 -1.2 0
23.885 -18.922 4.888 -0 -1.2 0
23.573 -19.341 4.841 -0 -1.2 0
22.93 -20.161 4.742 -0 -1.2 0
22.597 -20.562 4.691 -0 -1.2 0
22.258 -20.957 4.638 -0 -1.2 0
21.912 -21.347 4.584 -0 -1.2 0
21.559 -21.73 4.529 -0 -1.2 0
25.189 -17.2 4.228 -0 -1.2 0
24.905 -17.64 4.194 -0 -1.2 0
24.317 -18.503 4.127 -0 -1.2 0
24.011 -18.926 4.091 -0 -1.2 0
23.698 -19.345 4.054 -0 -1.2 0
23.378 -19.757 4.016 -0 -1.2 0
23.051 -20.164 3.978 -0 -1.2 0
22.717 -20.565 3.938 -0 -1.2 0
22.376 -20.961 3.898 -0 -1.2 0
22.028 -21.35 3.856 -0 -1.2 0
21.674 -21.734 3.813 -0 -1.2 0
24.722 -18.078 3.274 -0 -1.2 0
24.423 -18.507 3.25 -0 -1.2 0
24.116 -18.93 3.227 -0 -1.2 0
23.801 -19.349 3.202 -0 -1.2 0
23.481 -19.761 3.177 -0 -1.2 0
23.152 -20.168 3.15 -0 -1.2 0
22.817 -20.569 3.123 -0 -1.2 0
22.475 -20.965 3.095 -0 -1.2 0
22.125 -21.354 3.067 -0 -1.2 0
21.77 -21.737 3.037 -0 -1.2 0
25.078 -17.654 2.472 -0 -1.2 0
24.785 -18.088 2.46 -0 -1.2 0
24.485 -18.517 2.447 -0 -1.2 0
24.178 -18.94 2.434 -0 -1.2 0
23.863 -19.358 2.42 -0 -1.2 0
23.54 -19.771 2.407 -0 -1.2 0
23.211 -20.177 2.392 -0 -1.2 0
22.874 -20.578 2.376 -0 -1.2 0
22.531 -20.973 2.361 -0 -1.2 0
22.182 -21.363 2.344 -0 -1.2 0
21.824 -21.746 2.328 -0 -1.2 0
24.212 -18.955 1.59 -0 -1.2 0
23.896 -19.373 1.588 -0 -1.2 0
23.573 -19.786 1.586 -0 -1.2 0
23.243 -20.192 1.584 -0 -1.2 0
22.906 -20.593 1.582 -0 -1.2 0
22.562 -20.988 1.58 -0 -1.2 0
22.212 -21.377 1.577 -0 -1.2 0
21.854 -21.76 1.574 -0 -1.2 0
24.421 -18.694 -1.071 -0 -1.2 0
23.468 -19.941 -1.017 -0 -1.2 0
22.099 -21.524 -0.945 -0 -1.2 0
24.69 -18.279 -1.874 -0 -1.2 0
24.388 -18.706 -1.846 -0 -1.2 0
24.078 -19.127 -1.818 -0 -1.2 0
23.761 -19.543 -1.789 -0 -1.2 0
23.106 -20.357 -1.731 -0 -1.2 0
22.422 -21.148 -1.672 -0 -1.2 0
24.625 -18.293 -2.72 -0 -1.2 0
24.324 -18.72 -2.681 -0 -1.2 0
24.015 -19.14 -2.641 -0 -1.2 0
23.7 -19.556 -2.601 -0 -1.2 0
23.376 -19.966 -2.56 -0 -1.2 0
23.046 -20.37 -2.519 -0 -1.2 0
21.656 -21.928 -2.349 -0 -1.2 0
24.536 -18.307 -3.518 -0 -1.2 0
24.236 -18.733 -3.469 -0 -1.2 0
23.929 -19.153 -3.419 -0 -1.2 0
23.614 -19.569 -3.367 -0 -1.2 0
23.292 -19.979 -3.316 -0 -1.2 0
22.963 -20.383 -3.263 -0 -1.2 0
22.627 -20.781 -3.209 -0 -1.2 0
21.579 -21.939 -3.043 -0 -1.2 0
23.812 -19.167 -4.198 -0 -1.2 0
23.499 -19.583 -4.137 -0 -1.2 0
23.179 -19.992 -4.073 -0 -1.2 0
22.851 -20.396 -4.009 -0 -1.2 0
22.517 -20.794 -3.944 -0 -1.2 0
22.177 -21.186 -3.879 -0 -1.2 0
21.829 -21.572 -3.812 -0 -1.2 0
23.961 -18.764 -5.109 -0 -1.2 0
22.703 -20.412 -4.813 -0 -1.2 0
22.371 -20.81 -4.736 -0 -1.2 0
22.033 -21.201 -4.658 -0 -1.2 0
21.687 -21.587 -4.578 -0 -1.2 0
21.336 -21.967 -4.498 -0 -1.2 0
22.54 -20.426 -5.548 -0 -1.2 0
22.21 -20.823 -5.46 -0 -1.2 0
21.874 -21.215 -5.37 -0 -1.2 0
21.531 -21.6 -5.28 -0 -1.2 0
21.183 -21.98 -5.186 -0 -1.2 0
29.048 -1.699 -8.542 -0 -1.2 0
29.037 -2.223 -8.525 -0 -1.2 0
23.594 -18.792 -6.635 -0 -1.2 0
22.99 -19.626 -6.449 -0 -1.2 0
22.677 -20.035 -6.354 -0 -1.2 0
22.357 -20.438 -6.257 -0 -1.2 0
22.031 -20.835 -6.158 -0 -1.2 0
21.698 -21.226 -6.057 -0 -1.2 0
21.359 -21.612 -5.955 -0 -1.2 0
21.012 -21.991 -5.851 -0 -1.2 0
28.753 -1.718 -9.537 -0 -1.2 0
28.495 -5.368 -9.366 -0 -1.2 0
23.064 -19.226 -7.335 -0 -1.2 0
21.812 -20.849 -6.904 -0 -1.2 0
21.483 -21.24 -6.792 -0 -1.2 0
21.147 -21.625 -6.677 -0 -1.2 0
20.804 -22.005 -6.562 -0 -1.2 0
28.447 -1.734 -10.446 -0 -1.2 0
28.437 -2.258 -10.429 -0 -1.2 0
28.39 -3.302 -10.387 -0 -1.2 0
28.354 -3.824 -10.362 -0 -1.2 0
28.309 -4.346 -10.333 -0 -1.2 0
28.192 -5.384 -10.267 -0 -1.2 0
28.122 -5.901 -10.229 -0 -1.2 0
22.218 -20.062 -7.827 -0 -1.2 0
21.906 -20.465 -7.708 -0 -1.2 0
27.793 -5.917 -11.115 -0 -1.2 0
23.406 -17.978 -9.129 -0 -1.2 0
23.131 -18.407 -9.012 -0 -1.2 0
22.85 -18.833 -8.893 -0 -1.2 0
22.562 -19.252 -8.771 -0 -1.2 0
23.611 -17.115 -10.149 -0 -1.2 0
23.354 -17.555 -10.029 -0 -1.2 0
23.09 -17.991 -9.906 -0 -1.2 0
22.819 -18.42 -9.779 -0 -1.2 0
22.542 -18.845 -9.651 -0 -1.2 0
22.257 -19.264 -9.52 -0 -1.2 0
21.052 -20.885 -8.967 -0 -1.2 0
20.734 -21.275 -8.822 -0 -1.2 0
20.411 -21.66 -8.675 -0 -1.2 0
20.081 -22.039 -8.526 -0 -1.2 0
23.29 -17.128 -10.867 -0 -1.2 0
23.037 -17.567 -10.738 -0 -1.2 0
22.777 -18.003 -10.607 -0 -1.2 0
22.51 -18.432 -10.472 -0 -1.2 0
22.236 -18.857 -10.335 -0 -1.2 0
21.955 -19.276 -10.194 -0 -1.2 0
21.669 -19.69 -10.051 -0 -1.2 0
21.374 -20.098 -9.904 -0 -1.2 0
21.075 -20.5 -9.755 -0 -1.2 0
20.768 -20.896 -9.603 -0 -1.2 0
20.136 -21.671 -9.291 -0 -1.2 0
19.81 -22.049 -9.132 -0 -1.2 0
23.187 -16.695 -11.71 -0 -1.2 0
22.945 -17.141 -11.576 -0 -1.2 0
22.695 -17.58 -11.44 -0 -1.2 0
22.439 -18.015 -11.3 -0 -1.2 0
22.177 -18.445 -11.157 -0 -1.2 0
21.908 -18.869 -11.011 -0 -1.2 0
21.631 -19.288 -10.861 -0 -1.2 0
21.349 -19.702 -10.709 -0 -1.2 0
21.059 -20.11 -10.553 -0 -1.2 0
20.764 -20.511 -10.395 -0 -1.2 0
20.462 -20.907 -10.233 -0 -1.2 0
19.52 -22.06 -9.731 -0 -1.2 0
23.02 -16.261 -12.6 -0 -1.2 0
22.79 -16.709 -12.463 -0 -1.2 0
22.552 -17.155 -12.321 -0 -1.2 0
22.308 -17.594 -12.177 -0 -1.2 0
22.057 -18.029 -12.029 -0 -1.2 0
21.799 -18.458 -11.877 -0 -1.2 0
21.534 -18.883 -11.721 -0 -1.2 0
21.263 -19.301 -11.562 -0 -1.2 0
20.985 -19.715 -11.4 -0 -1.2 0
20.701 -20.122 -11.235 -0 -1.2 0
20.411 -20.524 -11.066 -0 -1.2 0
20.115 -20.92 -10.894 -0 -1.2 0
19.812 -21.31 -10.718 -0 -1.2 0
19.504 -21.694 -10.54 -0 -1.2 0
19.19 -22.072 -10.36 -0 -1.2 0
22.404 -16.721 -13.139 -0 -1.2 0
22.17 -17.166 -12.991 -0 -1.2 0
21.93 -17.605 -12.838 -0 -1.2 0
21.684 -18.04 -12.682 -0 -1.2 0
21.43 -18.469 -12.522 -0 -1.2 0
21.171 -18.894 -12.358 -0 -1.2 0
20.632 -19.725 -12.02 -0 -1.2 0
20.353 -20.133 -11.846 -0 -1.2 0
20.068 -20.534 -11.668 -0 -1.2 0
19.777 -20.93 -11.487 -0 -1.2 0
19.177 -21.704 -11.115 -0 -1.2 0
18.868 -22.081 -10.924 -0 -1.2 0
22.432 -15.831 -14.107 -0 -1.2 0
22.217 -16.285 -13.959 -0 -1.2 0
21.765 -17.178 -13.651 -0 -1.2 0
21.04 -18.481 -13.159 -0 -1.2 0
20.524 -19.323 -12.812 -0 -1.2 0
19.705 -20.545 -12.262 -0 -1.2 0
19.127 -21.33 -11.878 -0 -1.2 0
18.831 -21.714 -11.682 -0 -1.2 0
18.528 -22.092 -11.481 -0 -1.2 0
21.307 -17.191 -14.349 -0 -1.2 0
21.077 -17.63 -14.18 -0 -1.2 0
20.841 -18.065 -14.008 -0 -1.2 0
20.598 -18.494 -13.832 -0 -1.2 0
19.833 -19.749 -13.279 -0 -1.2 0
19.292 -20.557 -12.891 -0 -1.2 0
19.013 -20.952 -12.691 -0 -1.2 0
18.728 -21.342 -12.488 -0 -1.2 0
18.438 -21.725 -12.281 -0 -1.2 0
18.142 -22.103 -12.07 -0 -1.2 0
21.89 -14.933 -15.787 -0 -1.2 0
20.169 -18.502 -14.44 -0 -1.2 0
19.926 -18.926 -14.252 -0 -1.2 0
18.057 -21.733 -12.821 -0 -1.2 0
17.768 -22.11 -12.601 -0 -1.2 0
19.945 -18.082 -15.239 -0 -1.2 0
19.714 -18.511 -15.047 -0 -1.2 0
19.476 -18.935 -14.851 -0 -1.2 0
20.77 -13.582 -18.245 -0 -1.2 0
19.124 -17.695 -16.653 -0 -1.2 0
21.865 0.126 -21.034 -0 -1.2 0
17.918 -19.004 -16.615 -0 -1.2 0
21.137 -1.475 -21.791 -0 -1.2 0
21.135 -2.522 -21.749 -0 -1.2 0
21.124 -3.044 -21.718 -0 -1.2 0
21.108 -3.566 -21.682 -0 -1.2 0
21.084 -4.087 -21.637 -0 -1.2 0
21.055 -4.608 -21.588 -0 -1.2 0
21.018 -5.127 -21.531 -0 -1.2 0
20.976 -5.645 -21.468 -0 -1.2 0
20.927 -6.162 -21.399 -0 -1.2 0
20.871 -6.677 -21.323 -0 -1.2 0
20.81 -7.19 -21.24 -0 -1.2 0
20.742 -7.702 -21.152 -0 -1.2 0
20.669 -8.211 -21.057 -0 -1.2 0
20.588 -8.719 -20.956 -0 -1.2 0
20.501 -9.224 -20.848 -0 -1.2 0
20.309 -10.226 -20.615 -0 -1.2 0
20.205 -10.724 -20.489 -0 -1.2 0
20.391 -2.555 -22.437 -0 -1.2 0
20.382 -3.077 -22.406 -0 -1.2 0
20.367 -3.599 -22.368 -0 -1.2 0
20.344 -4.12 -22.322 -0 -1.2 0
20.316 -4.641 -22.27 -0 -1.2 0
20.282 -5.16 -22.212 -0 -1.2 0
20.242 -5.678 -22.147 -0 -1.2 0
20.195 -6.194 -22.076 -0 -1.2 0
20.142 -6.709 -21.997 -0 -1.2 0
20.083 -7.222 -21.912 -0 -1.2 0
20.018 -7.734 -21.821 -0 -1.2 0
19.947 -8.243 -21.723 -0 -1.2 0
19.87 -8.75 -21.619 -0 -1.2 0
19.787 -9.256 -21.508 -0 -1.2 0
19.613 -1.018 -23.158 -0 -1.2 0
19.626 -2.064 -23.127 -0 -1.2 0
19.623 -2.588 -23.102 -0 -1.2 0
19.614 -3.11 -23.069 -0 -1.2 0
19.6 -3.632 -23.03 -0 -1.2 0
19.579 -4.153 -22.983 -0 -1.2 0
19.552 -4.674 -22.93 -0 -1.2 0
19.52 -5.193 -22.87 -0 -1.2 0
19.482 -5.711 -22.802 -0 -1.2 0
19.437 -6.227 -22.728 -0 -1.2 0
19.269 -7.766 -22.467 -0 -1.2 0
19.048 -9.288 -22.144 -0 -1.2 0
18.564 -11.771 -21.474 -0 -1.2 0
18.754 -1.055 -23.85 -0 -1.2 0
18.763 -1.578 -23.838 -0 -1.2 0
18.767 -2.101 -23.819 -0 -1.2 0
18.765 -2.624 -23.792 -0 -1.2 0
18.757 -3.146 -23.759 -0 -1.2 0
18.744 -3.668 -23.719 -0 -1.2 0
18.634 -5.747 -23.485 -0 -1.2 0
18.592 -6.263 -23.408 -0 -1.2 0
18.545 -6.778 -23.325 -0 -1.2 0
18.369 -8.311 -23.034 -0 -1.2 0
18.299 -8.818 -22.924 -0 -1.2 0
17.765 -11.805 -22.115 -0 -1.2 0
15.599 -18.691 -19.078 -0 -1.2 0
17.956 -1.604 -24.44 -0 -1.2 0
17.96 -2.127 -24.42 -0 -1.2 0
17.958 -2.651 -24.394 -0 -1.2 0
17.952 -3.172 -24.36 -0 -1.2 0
17.938 -3.694 -24.318 -0 -1.2 0
17.921 -4.215 -24.269 -0 -1.2 0
17.897 -4.736 -24.213 -0 -1.2 0
17.869 -5.255 -24.151 -0 -1.2 0
17.834 -5.773 -24.081 -0 -1.2 0
17.794 -6.289 -24.003 -0 -1.2 0
17.749 -6.803 -23.918 -0 -1.2 0
17.643 -7.827 -23.726 -0 -1.2 0
17.197 -10.846 -22.983 -0 -1.2 0
16.903 -12.317 -22.518 -0 -1.2 0
15.897 -16.079 -20.984 -0 -1.2 0
17.131 -1.629 -25.014 -0 -1.2 0
17.135 -2.152 -24.995 -0 -1.2 0
17.134 -2.676 -24.968 -0 -1.2 0
17.128 -3.197 -24.933 -0 -1.2 0
17.116 -3.719 -24.892 -0 -1.2 0
17.1 -4.24 -24.843 -0 -1.2 0
17.077 -4.761 -24.786 -0 -1.2 0
17.05 -5.28 -24.721 -0 -1.2 0
16.031 -12.823 -22.882 -0 -1.2 0
16.231 -0.608 -25.596 -0 -1.2 0
16.254 -1.654 -25.581 -0 -1.2 0
16.259 -2.177 -25.562 -0 -1.2 0
16.258 -2.7 -25.535 -0 -1.2 0
16.252 -3.222 -25.499 -0 -1.2 0
16.241 -3.744 -25.458 -0 -1.2 0
16.226 -4.265 -25.407 -0 -1.2 0
16.206 -4.786 -25.349 -0 -1.2 0
16.18 -5.304 -25.284 -0 -1.2 0
16.149 -5.822 -25.21 -0 -1.2 0
15.658 -10.397 -24.216 -0 -1.2 0
15.218 -12.846 -23.407 -0 -1.2 0
13.712 -16.14 -22.397 -0 -1.2 0
13.321 -17.477 -21.672 -0 -1.2 0
14.622 -0.648 -26.524 -0 -1.2 0
14.635 -1.171 -26.52 -0 -1.2 0
14.644 -1.694 -26.509 -0 -1.2 0
14.648 -2.216 -26.489 -0 -1.2 0
14.648 -2.74 -26.462 -0 -1.2 0
14.643 -3.262 -26.427 -0 -1.2 0
14.634 -3.784 -26.384 -0 -1.2 0
14.622 -4.304 -26.332 -0 -1.2 0
14.603 -4.825 -26.273 -0 -1.2 0
14.582 -5.344 -26.205 -0 -1.2 0
14.555 -5.861 -26.13 -0 -1.2 0
14.524 -6.377 -26.047 -0 -1.2 0
13.539 -13.839 -23.882 -0 -1.2 0
11.941 -13.873 -24.674 -0 -1.2 0
11.764 -14.812 -24.247 -0 -1.2 0
11.573 -15.735 -23.79 -0 -1.2 0
11.26 -17.085 -23.052 -0 -1.2 0
12.012 -0.192 -27.748 -0 -1.2 0
12.028 -0.715 -27.754 -0 -1.2 0
12.04 -1.238 -27.752 -0 -1.2 0
12.048 -1.76 -27.741 -0 -1.2 0
12.052 -2.283 -27.721 -0 -1.2 0
12.053 -2.807 -27.693 -0 -1.2 0
12.05 -3.329 -27.658 -0 -1.2 0
12.043 -3.85 -27.613 -0 -1.2 0
12.033 -4.371 -27.559 -0 -1.2 0
12.02 -4.892 -27.499 -0 -1.2 0
12.002 -5.41 -27.429 -0 -1.2 0
11.98 -5.928 -27.352 -0 -1.2 0
11.956 -6.443 -27.266 -0 -1.2 0
11.928 -6.958 -27.171 -0 -1.2 0
8.932 -22.406 -19.419 -0 -1.2 0
11.064 -0.227 -28.126 -0 -1.2 0
11.079 -0.749 -28.132 -0 -1.2 0
11.089 -1.272 -28.129 -0 -1.2 0
11.097 -1.795 -28.119 -0 -1.2 0
11.101 -2.318 -28.099 -0 -1.2 0
11.102 -2.842 -28.071 -0 -1.2 0
11.099 -3.363 -28.034 -0 -1.2 0
11.094 -3.885 -27.99 -0 -1.2 0
11.085 -4.406 -27.936 -0 -1.2 0
11.072 -4.926 -27.874 -0 -1.2 0
11.056 -5.445 -27.804 -0 -1.2 0
11.037 -5.962 -27.725 -0 -1.2 0
10.927 -8.014 -27.327 -0 -1.2 0
10.764 -10.034 -26.796 -0 -1.2 0
10.715 -10.532 -26.643 -0 -1.2 0
10.662 -11.028 -26.482 -0 -1.2 0
10.121 -0.26 -28.463 -0 -1.2 0
10.135 -0.783 -28.469 -0 -1.2 0
10.146 -1.305 -28.466 -0 -1.2 0
10.154 -1.828 -28.455 -0 -1.2 0
10.158 -2.351 -28.435 -0 -1.2 0
10.16 -2.875 -28.406 -0 -1.2 0
10.158 -3.396 -28.369 -0 -1.2 0
10.154 -3.918 -28.323 -0 -1.2 0
10.146 -4.439 -28.269 -0 -1.2 0
10.135 -4.959 -28.207 -0 -1.2 0
10.121 -5.477 -28.135 -0 -1.2 0
10.105 -5.995 -28.055 -0 -1.2 0
10.085 -6.51 -27.967 -0 -1.2 0
10.062 -7.024 -27.87 -0 -1.2 0
9.901 -9.565 -27.26 -0 -1.2 0
9.769 -11.059 -26.796 -0 -1.2 0
9.138 -15.821 -24.729 -0 -1.2 0
9.16 -0.292 -28.771 -0 -1.2 0
9.192 -1.861 -28.762 -0 -1.2 0
9.197 -2.383 -28.742 -0 -1.2 0
9.199 -2.907 -28.713 -0 -1.2 0
9.199 -3.429 -28.675 -0 -1.2 0
9.195 -3.95 -28.629 -0 -1.2 0
9.189 -4.471 -28.574 -0 -1.2 0
9.18 -4.991 -28.51 -0 -1.2 0
9.168 -5.509 -28.438 -0 -1.2 0
9.153 -6.027 -28.357 -0 -1.2 0
9.137 -6.542 -28.267 -0 -1.2 0
9.117 -7.056 -28.17 -0 -1.2 0
9.094 -7.568 -28.063 -0 -1.2 0
7.835 -18.498 -23.369 -0 -1.2 0
8.152 -2.417 -29.037 -0 -1.2 0
8.155 -2.94 -29.008 -0 -1.2 0
8.155 -3.462 -28.97 -0 -1.2 0
8.153 -3.984 -28.924 -0 -1.2 0
8.149 -4.504 -28.867 -0 -1.2 0
8.142 -5.024 -28.803 -0 -1.2 0
8.133 -5.543 -28.73 -0 -1.2 0
8.121 -6.06 -28.648 -0 -1.2 0
8.107 -6.575 -28.558 -0 -1.2 0
8.09 -7.089 -28.459 -0 -1.2 0
8.071 -7.601 -28.351 -0 -1.2 0
8.05 -8.111 -28.235 -0 -1.2 0
7.938 -10.128 -27.684 -0 -1.2 0
7.143 -0.881 -29.312 -0 -1.2 0
7.166 -2.449 -29.277 -0 -1.2 0
7.17 -2.973 -29.247 -0 -1.2 0
7.172 -3.495 -29.208 -0 -1.2 0
7.172 -4.016 -29.161 -0 -1.2 0
7.168 -4.536 -29.105 -0 -1.2 0
7.163 -5.057 -29.039 -0 -1.2 0
7.156 -5.575 -28.966 -0 -1.2 0
7.147 -6.092 -28.882 -0 -1.2 0
7.135 -6.607 -28.791 -0 -1.2 0
7.122 -7.121 -28.691 -0 -1.2 0
7.106 -7.633 -28.583 -0 -1.2 0
7.068 -8.65 -28.338 -0 -1.2 0
7.046 -9.156 -28.204 -0 -1.2 0
7.022 -9.659 -28.06 -0 -1.2 0
6.148 -0.912 -29.519 -0 -1.2 0
6.166 -1.958 -29.504 -0 -1.2 0
6.173 -2.481 -29.483 -0 -1.2 0
6.177 -3.004 -29.452 -0 -1.2 0
6.18 -3.526 -29.414 -0 -1.2 0
6.181 -4.047 -29.366 -0 -1.2 0
6.179 -4.568 -29.309 -0 -1.2 0
6.176 -5.088 -29.243 -0 -1.2 0
6.171 -5.606 -29.168 -0 -1.2 0
6.165 -6.123 -29.085 -0 -1.2 0
6.156 -6.638 -28.993 -0 -1.2 0
6.145 -7.152 -28.891 -0 -1.2 0
6.133 -7.663 -28.782 -0 -1.2 0
6.119 -8.173 -28.664 -0 -1.2 0
5.687 -15.477 -25.87 -0 -1.2 0
5.643 -15.934 -25.619 -0 -1.2 0
4.98 -0.947 -29.255 -0 -1.2 0
5.067 -1.468 -29.705 -0 -1.2 0
5.075 -1.991 -29.693 -0 -1.2 0
5.082 -2.513 -29.671 -0 -1.2 0
5.088 -3.037 -29.64 -0 -1.2 0
5.09 -3.559 -29.601 -0 -1.2 0
5.093 -4.08 -29.552 -0 -1.2 0
5.094 -4.6 -29.496 -0 -1.2 0
5.093 -5.12 -29.429 -0 -1.2 0
5.09 -5.638 -29.354 -0 -1.2 0
4.98 -10.718 -28.117 -0 -1.2 0
4.961 -11.213 -27.946 -0 -1.2 0
4.895 -12.677 -27.381 -0 -1.2 0
4.576 -17.306 -24.97 -0 -1.2 0
4.496 -18.177 -24.394 -0 -1.2 0
4.027 -0.966 -29.847 -0 -1.2 0
4.045 -2.011 -29.831 -0 -1.2 0
4.052 -2.534 -29.809 -0 -1.2 0
3.98 -8.612 -28.399 -0 -1.2 0
4.035 -9.237 -28.713 -0 -1.2 0
3.027 -4.099 -29.799 -0 -1.2 0
3.032 -4.619 -29.741 -0 -1.2 0
3.038 -5.657 -29.599 -0 -1.2 0
3.041 -6.689 -29.421 -0 -1.2 0
3.04 -7.714 -29.207 -0 -1.2 0
3.035 -8.73 -28.957 -0 -1.2 0
3.031 -9.236 -28.82 -0 -1.2 0
1.857 -2.533 -29.994 -0 -1.2 0
1.865 -3.057 -29.965 -0 -1.2 0
1.873 -3.578 -29.925 -0 -1.2 0
1.881 -4.1 -29.877 -0 -1.2 0
1.887 -4.62 -29.82 -0 -1.2 0
1.9 -5.658 -29.677 -0 -1.2 0
1.904 -6.175 -29.593 -0 -1.2 0
1.909 -6.69 -29.5 -0 -1.2 0
1.912 -7.203 -29.398 -0 -1.2 0
1.916 -7.715 -29.286 -0 -1.2 0
1.919 -8.224 -29.166 -0 -1.2 0
1.921 -8.732 -29.037 -0 -1.2 0
1.923 -9.237 -28.899 -0 -1.2 0
1.924 -9.74 -28.753 -0 -1.2 0
1.924 -10.24 -28.597 -0 -1.2 0
1.92 -12.211 -27.889 -0 -1.2 0
0.75 -3.578 -29.957 -0 -1.2 0
0.759 -4.1 -29.908 -0 -1.2 0
0.768 -4.62 -29.851 -0 -1.2 0
0.776 -5.14 -29.785 -0 -1.2 0
0.785 -5.658 -29.71 -0 -1.2 0
0.794 -6.175 -29.625 -0 -1.2 0
0.802 -6.69 -29.533 -0 -1.2 0
0.81 -7.203 -29.431 -0 -1.2 0
0.817 -7.715 -29.319 -0 -1.2 0
0.825 -8.224 -29.199 -0 -1.2 0
0.832 -8.731 -29.071 -0 -1.2 0
0.839 -9.237 -28.933 -0 -1.2 0
0.851 -10.24 -28.631 -0 -1.2 0
0.858 -10.737 -28.467 -0 -1.2 0
0.885 -13.175 -27.518 -0 -1.2 0
0.889 -13.653 -27.303 -0 -1.2 0
0.905 -15.523 -26.36 -0 -1.2 0
-0.423 -0.967 -30.048 -0 -1.2 0
-0.412 -1.49 -30.046 -0 -1.2 0
-0.402 -2.013 -30.035 -0 -1.2 0
-0.391 -2.536 -30.015 -0 -1.2 0
-0.38 -3.059 -29.986 -0 -1.2 0
-0.335 -5.142 -29.777 -0 -1.2 0
-0.323 -5.66 -29.702 -0 -1.2 0
-0.312 -6.177 -29.619 -0 -1.2 0
-0.3 -6.692 -29.525 -0 -1.2 0
-0.289 -7.206 -29.424 -0 -1.2 0
-0.277 -7.717 -29.313 -0 -1.2 0
-0.264 -8.226 -29.193 -0 -1.2 0
-0.253 -8.734 -29.064 -0 -1.2 0
-0.24 -9.239 -28.927 -0 -1.2 0
-1.486 -6.697 -29.472 -0 -1.2 0
-1.47 -7.21 -29.369 -0 -1.2 0
-1.454 -7.722 -29.259 -0 -1.2 0
-1.436 -8.231 -29.14 -0 -1.2 0
-1.419 -8.739 -29.012 -0 -1.2 0
-1.401 -9.244 -28.875 -0 -1.2 0
-1.383 -9.747 -28.729 -0 -1.2 0
-1.364 -10.247 -28.575 -0 -1.2 0
-1.179 -14.603 -26.801 -0 -1.2 0
-0.938 -19.048 -24.058 -0 -1.2 0
-0.696 -22.588 -20.963 -0 -1.2 0
-2.529 -8.234 -29.048 -0 -1.2 0
-2.507 -8.741 -28.921 -0 -1.2 0
-2.484 -9.247 -28.784 -0 -1.2 0
-2.461 -9.75 -28.64 -0 -1.2 0
-2.436 -10.25 -28.486 -0 -1.2 0
-2.385 -11.241 -28.152 -0 -1.2 0
-2.357 -11.732 -27.973 -0 -1.2 0
-2.33 -12.22 -27.784 -0 -1.2 0
-1.799 -19.468 -23.672 -0 -1.2 0
-1.761 -19.878 -23.35 -0 -1.2 0
-1.722 -20.284 -23.021 -0 -1.2 0
-1.682 -20.683 -22.685 -0 -1.2 0
-1.643 -21.077 -22.342 -0 -1.2 0
-1.602 -21.464 -21.992 -0 -1.2 0
-1.561 -21.845 -21.636 -0 -1.2 0
-1.478 -22.59 -20.903 -0 -1.2 0
-3.61 -8.238 -28.915 -0 -1.2 0
-3.582 -8.745 -28.789 -0 -1.2 0
-3.554 -9.25 -28.654 -0 -1.2 0
-3.525 -9.753 -28.51 -0 -1.2 0
-3.495 -10.253 -28.358 -0 -1.2 0
-3.464 -10.75 -28.195 -0 -1.2 0
-3.431 -11.244 -28.025 -0 -1.2 0
-3.397 -11.735 -27.847 -0 -1.2 0
-3.362 -12.223 -27.66 -0 -1.2 0
-3.327 -12.708 -27.465 -0 -1.2 0
-3.29 -13.188 -27.261 -0 -1.2 0
-3.253 -13.666 -27.049 -0 -1.2 0
-3.174 -14.609 -26.6 -0 -1.2 0
-3.134 -15.073 -26.363 -0 -1.2 0
-3.006 -16.444 -25.606 -0 -1.2 0
-2.627 -19.881 -23.249 -0 -1.2 0
-2.576 -20.286 -22.921 -0 -1.2 0
-2.523 -20.686 -22.587 -0 -1.2 0
-2.47 -21.079 -22.245 -0 -1.2 0
-2.417 -21.466 -21.897 -0 -1.2 0
-2.363 -21.848 -21.543 -0 -1.2 0
-2.308 -22.223 -21.181 -0 -1.2 0
-2.252 -22.592 -20.813 -0 -1.2 0
-4.981 -0.454 -29.562 -0 -1.2 0
-4.971 -0.977 -29.571 -0 -1.2 0
-4.96 -1.499 -29.57 -0 -1.2 0
-4.948 -2.022 -29.561 -0 -1.2 0
-4.818 -5.669 -29.242 -0 -1.2 0
-4.792 -6.186 -29.161 -0 -1.2 0
-4.766 -6.701 -29.07 -0 -1.2 0
-4.739 -7.214 -28.971 -0 -1.2 0
-4.71 -7.726 -28.864 -0 -1.2 0
-4.68 -8.235 -28.747 -0 -1.2 0
-4.648 -8.742 -28.622 -0 -1.2 0
-4.615 -9.248 -28.487 -0 -1.2 0
-4.581 -9.751 -28.345 -0 -1.2 0
-4.545 -10.25 -28.193 -0 -1.2 0
-4.507 -10.747 -28.033 -0 -1.2 0
-4.469 -11.242 -27.865 -0 -1.2 0
-4.429 -11.732 -27.687 -0 -1.2 0
-4.387 -12.221 -27.501 -0 -1.2 0
-4.344 -12.705 -27.308 -0 -1.2 0
-4.3 -13.185 -27.105 -0 -1.2 0
-4.255 -13.663 -26.895 -0 -1.2 0
-4.208 -14.136 -26.677 -0 -1.2 0
-4.159 -14.606 -26.449 -0 -1.2 0
-4.11 -15.071 -26.215 -0 -1.2 0
-4.06 -15.533 -25.972 -0 -1.2 0
-4.008 -15.989 -25.722 -0 -1.2 0
-3.955 -16.442 -25.462 -0 -1.2 0
-3.788 -17.769 -24.64 -0 -1.2 0
-3.672 -18.629 -24.054 -0 -1.2 0
-3.612 -19.051 -23.751 -0 -1.2 0
-3.489 -19.879 -23.121 -0 -1.2 0
-3.426 -20.284 -22.795 -0 -1.2 0
-3.361 -20.684 -22.464 -0 -1.2 0
-3.295 -21.077 -22.124 -0 -1.2 0
-3.23 -21.464 -21.779 -0 -1.2 0
-3.162 -21.846 -21.425 -0 -1.2 0
-3.094 -22.221 -21.067 -0 -1.2 0
-3.025 -22.59 -20.702 -0 -1.2 0
-6 -0.466 -29.355 -0 -1.2 0
-5.829 -5.682 -29.037 -0 -1.2 0
-5.802 -6.198 -28.957 -0 -1.2 0
-5.773 -6.713 -28.867 -0 -1.2 0
-5.742 -7.227 -28.769 -0 -1.2 0
-5.71 -7.738 -28.662 -0 -1.2 0
-5.675 -8.247 -28.546 -0 -1.2 0
-5.64 -8.754 -28.422 -0 -1.2 0
-5.603 -9.26 -28.288 -0 -1.2 0
-5.563 -9.762 -28.146 -0 -1.2 0
-5.522 -10.262 -27.996 -0 -1.2 0
-5.479 -10.759 -27.837 -0 -1.2 0
-5.436 -11.254 -27.67 -0 -1.2 0
-5.389 -11.744 -27.494 -0 -1.2 0
-5.341 -12.232 -27.31 -0 -1.2 0
-5.293 -12.717 -27.117 -0 -1.2 0
-5.242 -13.197 -26.916 -0 -1.2 0
-5.19 -13.675 -26.707 -0 -1.2 0
-5.135 -14.148 -26.49 -0 -1.2 0
-5.08 -14.617 -26.264 -0 -1.2 0
-5.023 -15.082 -26.031 -0 -1.2 0
-4.964 -15.544 -25.79 -0 -1.2 0
-4.904 -16 -25.541 -0 -1.2 0
-4.842 -16.452 -25.284 -0 -1.2 0
-4.779 -16.9 -25.02 -0 -1.2 0
-4.715 -17.342 -24.748 -0 -1.2 0
-4.648 -17.78 -24.468 -0 -1.2 0
-4.581 -18.212 -24.18 -0 -1.2 0
-4.512 -18.64 -23.886 -0 -1.2 0
-4.442 -19.061 -23.583 -0 -1.2 0
-4.37 -19.478 -23.275 -0 -1.2 0
-4.297 -19.889 -22.958 -0 -1.2 0
-4.223 -20.294 -22.635 -0 -1.2 0
-4.147 -20.693 -22.305 -0 -1.2 0
-4.071 -21.087 -21.969 -0 -1.2 0
-3.993 -21.474 -21.625 -0 -1.2 0
-3.913 -21.855 -21.275 -0 -1.2 0
-3.833 -22.23 -20.918 -0 -1.2 0
-3.752 -22.599 -20.554 -0 -1.2 0
-6.789 -6.728 -28.626 -0 -1.2 0
-6.755 -7.242 -28.528 -0 -1.2 0
-6.72 -7.753 -28.423 -0 -1.2 0
-6.682 -8.262 -28.308 -0 -1.2 0
-6.642 -8.769 -28.185 -0 -1.2 0
-6.6 -9.274 -28.052 -0 -1.2 0
-6.557 -9.777 -27.911 -0 -1.2 0
-6.51 -10.277 -27.762 -0 -1.2 0
-6.463 -10.774 -27.604 -0 -1.2 0
-6.412 -11.268 -27.439 -0 -1.2 0
-6.361 -11.758 -27.264 -0 -1.2 0
-6.307 -12.247 -27.081 -0 -1.2 0
-6.251 -12.731 -26.89 -0 -1.2 0
-6.194 -13.211 -26.691 -0 -1.2 0
-6.134 -13.689 -26.483 -0 -1.2 0
-6.073 -14.162 -26.268 -0 -1.2 0
-6.01 -14.631 -26.045 -0 -1.2 0
-5.945 -15.096 -25.813 -0 -1.2 0
-5.878 -15.557 -25.573 -0 -1.2 0
-5.809 -16.014 -25.326 -0 -1.2 0
-5.739 -16.466 -25.071 -0 -1.2 0
-5.667 -16.913 -24.809 -0 -1.2 0
-5.593 -17.355 -24.539 -0 -1.2 0
-5.517 -17.793 -24.261 -0 -1.2 0
-5.441 -18.225 -23.977 -0 -1.2 0
-5.361 -18.652 -23.684 -0 -1.2 0
-5.281 -19.074 -23.385 -0 -1.2 0
-5.199 -19.49 -23.078 -0 -1.2 0
-5.115 -19.901 -22.765 -0 -1.2 0
-5.029 -20.306 -22.443 -0 -1.2 0
-4.943 -20.705 -22.116 -0 -1.2 0
-4.855 -21.098 -21.782 -0 -1.2 0
-4.764 -21.485 -21.441 -0 -1.2 0
-4.673 -21.866 -21.094 -0 -1.2 0
-4.581 -22.241 -20.739 -0 -1.2 0
-4.487 -22.61 -20.379 -0 -1.2 0
