# .PCD v.7 - Point Cloud Data file format
FIELDS x y z vp_x vp_y vp_z
SIZE 4 4 4 4 4 4
TYPE F F F F F F
COUNT 1 1 1 1 1 1
WIDTH 1477
HEIGHT 1
VIEWPOINT 0 -1.20013 0 1 0 0 0
POINTS 1477
DATA ascii
18.552 -19.981 -14.263 -0 -1.2 0
17.771 -21.175 -13.607 -0 -1.2 0
17.5 -21.561 -13.38 -0 -1.2 0
17.223 -21.941 -13.149 -0 -1.2 0
16.941 -22.315 -12.913 -0 -1.2 0
16.993 -21.578 -13.992 -0 -1.2 0
16.451 -22.331 -13.505 -0 -1.2 0
22.159 -0.629 -20.34 -0 -1.2 0
22.173 -1.675 -20.323 -0 -1.2 0
22.17 -2.198 -20.305 -0 -1.2 0
22.159 -2.721 -20.281 -0 -1.2 0
22.143 -3.243 -20.251 -0 -1.2 0
22.119 -3.765 -20.214 -0 -1.2 0
22.09 -4.286 -20.172 -0 -1.2 0
22.053 -4.807 -20.123 -0 -1.2 0
22.009 -5.325 -20.068 -0 -1.2 0
21.959 -5.843 -20.008 -0 -1.2 0
21.838 -6.874 -19.868 -0 -1.2 0
16.242 -21.973 -14.293 -0 -1.2 0
15.976 -22.346 -14.039 -0 -1.2 0
21.458 -0.651 -21.078 -0 -1.2 0
21.468 -1.174 -21.072 -0 -1.2 0
21.472 -1.697 -21.06 -0 -1.2 0
21.469 -2.22 -21.043 -0 -1.2 0
21.459 -2.744 -21.018 -0 -1.2 0
21.443 -3.266 -20.987 -0 -1.2 0
21.421 -3.787 -20.949 -0 -1.2 0
21.392 -4.308 -20.905 -0 -1.2 0
21.356 -4.829 -20.856 -0 -1.2 0
21.314 -5.348 -20.799 -0 -1.2 0
21.266 -5.865 -20.736 -0 -1.2 0
21.21 -6.381 -20.667 -0 -1.2 0
21.149 -6.896 -20.592 -0 -1.2 0
20.746 -9.439 -20.122 -0 -1.2 0
15.736 -21.989 -14.825 -0 -1.2 0
20.672 -0.675 -21.848 -0 -1.2 0
20.682 -1.198 -21.843 -0 -1.2 0
20.686 -1.721 -21.831 -0 -1.2 0
20.682 -2.244 -21.812 -0 -1.2 0
20.673 -2.768 -21.787 -0 -1.2 0
20.659 -3.29 -21.755 -0 -1.2 0
20.637 -3.811 -21.717 -0 -1.2 0
20.609 -4.332 -21.672 -0 -1.2 0
20.575 -4.853 -21.62 -0 -1.2 0
20.535 -5.371 -21.562 -0 -1.2 0
20.489 -5.889 -21.497 -0 -1.2 0
20.377 -6.919 -21.348 -0 -1.2 0
20.312 -7.432 -21.264 -0 -1.2 0
20.241 -7.942 -21.172 -0 -1.2 0
20.164 -8.451 -21.076 -0 -1.2 0
20.08 -8.957 -20.972 -0 -1.2 0
19.685 -10.958 -20.494 -0 -1.2 0
14.92 -22.379 -15.107 -0 -1.2 0
19.917 -0.698 -22.537 -0 -1.2 0
19.927 -1.22 -22.532 -0 -1.2 0
19.931 -1.743 -22.52 -0 -1.2 0
19.928 -2.266 -22.501 -0 -1.2 0
19.92 -2.79 -22.476 -0 -1.2 0
19.905 -3.312 -22.443 -0 -1.2 0
19.885 -3.833 -22.403 -0 -1.2 0
19.858 -4.354 -22.358 -0 -1.2 0
19.826 -4.875 -22.304 -0 -1.2 0
19.788 -5.393 -22.245 -0 -1.2 0
19.742 -5.911 -22.178 -0 -1.2 0
19.692 -6.427 -22.105 -0 -1.2 0
19.636 -6.941 -22.025 -0 -1.2 0
19.505 -7.964 -21.844 -0 -1.2 0
19.43 -8.472 -21.745 -0 -1.2 0
19.264 -9.483 -21.525 -0 -1.2 0
19.074 -10.483 -21.279 -0 -1.2 0
18.971 -10.979 -21.146 -0 -1.2 0
18.367 -13.41 -20.386 -0 -1.2 0
14.856 -21.644 -16.153 -0 -1.2 0
14.623 -22.022 -15.877 -0 -1.2 0
14.385 -22.395 -15.595 -0 -1.2 0
19.078 -0.721 -23.251 -0 -1.2 0
19.088 -1.244 -23.245 -0 -1.2 0
19.092 -1.767 -23.234 -0 -1.2 0
19.089 -2.29 -23.214 -0 -1.2 0
19.082 -2.813 -23.188 -0 -1.2 0
19.069 -3.335 -23.155 -0 -1.2 0
19.049 -3.857 -23.114 -0 -1.2 0
19.024 -4.378 -23.066 -0 -1.2 0
18.993 -4.898 -23.012 -0 -1.2 0
18.956 -5.417 -22.951 -0 -1.2 0
18.914 -5.934 -22.883 -0 -1.2 0
18.866 -6.45 -22.807 -0 -1.2 0
18.812 -6.964 -22.725 -0 -1.2 0
18.539 -9.002 -22.327 -0 -1.2 0
17.963 -11.983 -21.527 -0 -1.2 0
17.468 -13.906 -20.863 -0 -1.2 0
14.241 -21.661 -16.675 -0 -1.2 0
14.018 -22.039 -16.39 -0 -1.2 0
13.79 -22.412 -16.1 -0 -1.2 0
18.317 -1.265 -23.856 -0 -1.2 0
18.321 -1.788 -23.844 -0 -1.2 0
18.319 -2.311 -23.825 -0 -1.2 0
18.312 -2.834 -23.798 -0 -1.2 0
18.3 -3.356 -23.763 -0 -1.2 0
18.281 -3.878 -23.723 -0 -1.2 0
18.257 -4.398 -23.674 -0 -1.2 0
18.228 -4.919 -23.619 -0 -1.2 0
18.193 -5.437 -23.556 -0 -1.2 0
18.152 -5.955 -23.486 -0 -1.2 0
18.106 -6.47 -23.409 -0 -1.2 0
18.055 -6.985 -23.325 -0 -1.2 0
17.868 -8.516 -23.029 -0 -1.2 0
16.063 -16.24 -20.419 -0 -1.2 0
13.461 -22.054 -16.83 -0 -1.2 0
13.243 -22.426 -16.532 -0 -1.2 0
17.527 -1.286 -24.442 -0 -1.2 0
17.531 -1.808 -24.429 -0 -1.2 0
17.529 -2.331 -24.409 -0 -1.2 0
17.523 -2.855 -24.383 -0 -1.2 0
17.511 -3.377 -24.348 -0 -1.2 0
17.493 -3.898 -24.306 -0 -1.2 0
17.471 -4.419 -24.256 -0 -1.2 0
17.443 -4.939 -24.199 -0 -1.2 0
17.41 -5.458 -24.136 -0 -1.2 0
17.372 -5.975 -24.064 -0 -1.2 0
17.327 -6.491 -23.985 -0 -1.2 0
17.224 -7.517 -23.806 -0 -1.2 0
17.165 -8.028 -23.705 -0 -1.2 0
14.06 -19.712 -18.966 -0 -1.2 0
12.683 -22.441 -16.947 -0 -1.2 0
12.064 -22.456 -17.373 -0 -1.2 0
15.814 -0.803 -25.58 -0 -1.2 0
15.822 -1.326 -25.575 -0 -1.2 0
15.827 -1.849 -25.563 -0 -1.2 0
15.826 -2.372 -25.543 -0 -1.2 0
15.821 -2.896 -25.514 -0 -1.2 0
15.811 -3.417 -25.479 -0 -1.2 0
15.796 -3.939 -25.435 -0 -1.2 0
15.776 -4.459 -25.383 -0 -1.2 0
15.751 -4.98 -25.325 -0 -1.2 0
15.722 -5.498 -25.258 -0 -1.2 0
15.688 -6.016 -25.184 -0 -1.2 0
15.606 -7.045 -25.012 -0 -1.2 0
15.505 -8.067 -24.81 -0 -1.2 0
14.818 -12.546 -23.532 -0 -1.2 0
14.03 -15.839 -22.135 -0 -1.2 0
12.029 -21.338 -18.688 -0 -1.2 0
11.663 -22.099 -18.068 -0 -1.2 0
14.944 -0.821 -26.098 -0 -1.2 0
14.952 -1.344 -26.093 -0 -1.2 0
14.957 -1.866 -26.08 -0 -1.2 0
14.957 -2.389 -26.06 -0 -1.2 0
14.951 -2.913 -26.031 -0 -1.2 0
14.943 -3.435 -25.995 -0 -1.2 0
14.929 -3.956 -25.951 -0 -1.2 0
14.91 -4.477 -25.898 -0 -1.2 0
14.601 -4.921 -25.34 -0 -1.2 0
14.1 -12.076 -24.186 -0 -1.2 0
13.718 -13.997 -23.445 -0 -1.2 0
13.021 -16.757 -22.119 -0 -1.2 0
13.956 0.207 -26.607 -0 -1.2 0
13.987 -0.839 -26.621 -0 -1.2 0
13.995 -1.362 -26.617 -0 -1.2 0
14 -1.885 -26.604 -0 -1.2 0
14.001 -2.408 -26.584 -0 -1.2 0
13.996 -2.932 -26.555 -0 -1.2 0
13.988 -3.453 -26.518 -0 -1.2 0
13.976 -3.975 -26.473 -0 -1.2 0
13.654 -4.421 -25.84 -0 -1.2 0
13.85 -6.566 -26.128 -0 -1.2 0
13.813 -7.08 -26.035 -0 -1.2 0
13.716 -8.098 -25.808 -0 -1.2 0
13.352 -8.432 -25.102 -0 -1.2 0
13.124 -12.579 -24.499 -0 -1.2 0
10.184 -22.495 -18.49 -0 -1.2 0
13.053 0.19 -27.061 -0 -1.2 0
13.092 -1.379 -27.073 -0 -1.2 0
12.849 -2.401 -26.526 -0 -1.2 0
13.075 -3.992 -26.927 -0 -1.2 0
12.684 -6.466 -26.011 -0 -1.2 0
12.715 -6.999 -26.051 -0 -1.2 0
12.378 -8.9 -25.272 -0 -1.2 0
9.545 -22.507 -18.813 -0 -1.2 0
12.133 0.173 -27.486 -0 -1.2 0
12.176 -2.441 -27.464 -0 -1.2 0
12.157 -4.008 -27.351 -0 -1.2 0
12.021 -7.113 -26.9 -0 -1.2 0
9.177 -21.772 -19.793 -0 -1.2 0
9.037 -22.149 -19.457 -0 -1.2 0
8.893 -22.519 -19.115 -0 -1.2 0
11.124 0.156 -27.91 -0 -1.2 0
11.152 -4.026 -27.774 -0 -1.2 0
11.03 -7.131 -27.317 -0 -1.2 0
10.997 -7.642 -27.212 -0 -1.2 0
8.565 -21.403 -20.439 -0 -1.2 0
8.439 -21.785 -20.105 -0 -1.2 0
8.31 -22.162 -19.764 -0 -1.2 0
8.179 -22.532 -19.417 -0 -1.2 0
10.174 0.139 -28.269 -0 -1.2 0
10.095 -7.146 -27.672 -0 -1.2 0
10.067 -7.658 -27.565 -0 -1.2 0
7.971 -21.027 -21.041 -0 -1.2 0
7.744 -21.797 -20.37 -0 -1.2 0
7.627 -22.173 -20.025 -0 -1.2 0
7.506 -22.543 -19.674 -0 -1.2 0
9.212 0.124 -28.597 -0 -1.2 0
9.151 -7.162 -27.995 -0 -1.2 0
8.871 -11.192 -26.899 -0 -1.2 0
7.244 -21.039 -21.29 -0 -1.2 0
7.143 -21.427 -20.954 -0 -1.2 0
7.039 -21.809 -20.612 -0 -1.2 0
6.934 -22.184 -20.262 -0 -1.2 0
6.826 -22.554 -19.907 -0 -1.2 0
8.257 0.105 -28.888 -0 -1.2 0
8.212 -7.18 -28.279 -0 -1.2 0
7.967 -11.209 -27.173 -0 -1.2 0
7.367 -15.234 -24.828 -0 -1.2 0
6.863 -19.442 -22.802 -0 -1.2 0
6.696 -20.259 -22.169 -0 -1.2 0
6.61 -20.659 -21.843 -0 -1.2 0
6.522 -21.053 -21.509 -0 -1.2 0
6.431 -21.44 -21.17 -0 -1.2 0
6.339 -21.822 -20.823 -0 -1.2 0
6.245 -22.198 -20.471 -0 -1.2 0
6.149 -22.567 -20.112 -0 -1.2 0
7.267 -4.095 -29.023 -0 -1.2 0
6.749 -14.123 -26.243 -0 -1.2 0
6.445 -14.626 -24.985 -0 -1.2 0
6.452 -15.197 -24.971 -0 -1.2 0
6.244 -18.19 -23.927 -0 -1.2 0
6.179 -18.618 -23.632 -0 -1.2 0
6.11 -19.04 -23.33 -0 -1.2 0
6.041 -19.457 -23.021 -0 -1.2 0
5.97 -19.868 -22.705 -0 -1.2 0
5.897 -20.274 -22.382 -0 -1.2 0
5.822 -20.674 -22.052 -0 -1.2 0
5.745 -21.067 -21.716 -0 -1.2 0
5.666 -21.455 -21.373 -0 -1.2 0
5.586 -21.836 -21.023 -0 -1.2 0
5.504 -22.212 -20.667 -0 -1.2 0
5.421 -22.581 -20.305 -0 -1.2 0
6.289 -0.978 -29.402 -0 -1.2 0
6.307 -4.113 -29.244 -0 -1.2 0
6.242 -7.728 -28.656 -0 -1.2 0
6.084 -11.244 -27.641 -0 -1.2 0
5.552 -15.04 -24.853 -0 -1.2 0
5.566 -16.204 -24.829 -0 -1.2 0
5.604 -16.892 -24.956 -0 -1.2 0
5.553 -17.334 -24.682 -0 -1.2 0
5.499 -17.773 -24.4 -0 -1.2 0
5.445 -18.205 -24.11 -0 -1.2 0
5.389 -18.633 -23.813 -0 -1.2 0
5.331 -19.055 -23.509 -0 -1.2 0
5.272 -19.471 -23.197 -0 -1.2 0
5.21 -19.882 -22.878 -0 -1.2 0
5.148 -20.288 -22.554 -0 -1.2 0
5.083 -20.687 -22.221 -0 -1.2 0
5.017 -21.081 -21.882 -0 -1.2 0
4.95 -21.468 -21.536 -0 -1.2 0
4.881 -21.849 -21.184 -0 -1.2 0
4.811 -22.224 -20.826 -0 -1.2 0
4.739 -22.594 -20.461 -0 -1.2 0
5.246 -0.996 -29.605 -0 -1.2 0
5.252 -1.519 -29.602 -0 -1.2 0
5.259 -2.042 -29.588 -0 -1.2 0
5.096 -11.262 -27.833 -0 -1.2 0
4.896 -14.626 -26.397 -0 -1.2 0
4.708 -16.908 -25.13 -0 -1.2 0
4.667 -17.35 -24.854 -0 -1.2 0
4.624 -17.788 -24.57 -0 -1.2 0
4.578 -18.22 -24.278 -0 -1.2 0
4.533 -18.648 -23.979 -0 -1.2 0
4.485 -19.07 -23.673 -0 -1.2 0
4.437 -19.486 -23.359 -0 -1.2 0
4.386 -19.897 -23.038 -0 -1.2 0
4.335 -20.302 -22.71 -0 -1.2 0
4.282 -20.701 -22.376 -0 -1.2 0
4.228 -21.095 -22.034 -0 -1.2 0
4.173 -21.482 -21.687 -0 -1.2 0
4.116 -21.863 -21.333 -0 -1.2 0
4.058 -22.238 -20.972 -0 -1.2 0
3.999 -22.607 -20.603 -0 -1.2 0
4.257 -1.014 -29.763 -0 -1.2 0
4.264 -1.536 -29.759 -0 -1.2 0
4.27 -2.059 -29.746 -0 -1.2 0
4.279 -3.106 -29.693 -0 -1.2 0
4.282 -3.627 -29.652 -0 -1.2 0
4.283 -4.148 -29.604 -0 -1.2 0
4.007 -14.641 -26.538 -0 -1.2 0
3.98 -15.106 -26.3 -0 -1.2 0
3.758 -16.495 -24.584 -0 -1.2 0
3.828 -17.365 -24.987 -0 -1.2 0
3.794 -17.802 -24.7 -0 -1.2 0
3.758 -18.234 -24.407 -0 -1.2 0
3.722 -18.662 -24.107 -0 -1.2 0
3.685 -19.083 -23.799 -0 -1.2 0
3.647 -19.5 -23.484 -0 -1.2 0
3.606 -19.91 -23.162 -0 -1.2 0
3.566 -20.315 -22.832 -0 -1.2 0
3.524 -20.714 -22.496 -0 -1.2 0
3.481 -21.107 -22.153 -0 -1.2 0
3.437 -21.494 -21.803 -0 -1.2 0
3.392 -21.875 -21.446 -0 -1.2 0
3.346 -22.25 -21.083 -0 -1.2 0
3.3 -22.619 -20.714 -0 -1.2 0
3.254 -0.507 -29.883 -0 -1.2 0
3.262 -1.03 -29.888 -0 -1.2 0
3.269 -1.553 -29.884 -0 -1.2 0
3.275 -2.076 -29.87 -0 -1.2 0
3.285 -3.122 -29.817 -0 -1.2 0
3.289 -3.644 -29.777 -0 -1.2 0
3.291 -4.165 -29.727 -0 -1.2 0
3.284 -7.268 -29.242 -0 -1.2 0
3.231 -10.799 -28.272 -0 -1.2 0
3.165 -11.121 -27.623 -0 -1.2 0
3.122 -11.499 -27.174 -0 -1.2 0
3.129 -12.045 -27.164 -0 -1.2 0
3.13 -14.186 -26.882 -0 -1.2 0
3.112 -14.656 -26.649 -0 -1.2 0
3.093 -15.12 -26.41 -0 -1.2 0
3.02 -15.331 -25.709 -0 -1.2 0
2.958 -15.58 -25.114 -0 -1.2 0
2.983 -17.379 -25.092 -0 -1.2 0
2.959 -17.816 -24.804 -0 -1.2 0
2.933 -18.248 -24.51 -0 -1.2 0
2.901 -18.64 -24.16 -0 -1.2 0
2.867 -19.019 -23.795 -0 -1.2 0
2.851 -19.513 -23.582 -0 -1.2 0
2.821 -19.923 -23.258 -0 -1.2 0
2.792 -20.328 -22.928 -0 -1.2 0
2.761 -20.727 -22.59 -0 -1.2 0
2.729 -21.12 -22.246 -0 -1.2 0
2.697 -21.507 -21.894 -0 -1.2 0
2.663 -21.887 -21.537 -0 -1.2 0
2.629 -22.262 -21.172 -0 -1.2 0
2.595 -22.63 -20.802 -0 -1.2 0
2.193 -1.57 -29.981 -0 -1.2 0
2.199 -2.093 -29.968 -0 -1.2 0
2.21 -3.139 -29.914 -0 -1.2 0
2.215 -3.661 -29.874 -0 -1.2 0
2.219 -4.182 -29.825 -0 -1.2 0
2.222 -4.702 -29.766 -0 -1.2 0
2.195 -5.167 -29.302 -0 -1.2 0
2.226 -5.74 -29.621 -0 -1.2 0
2.228 -6.257 -29.535 -0 -1.2 0
2.228 -6.771 -29.441 -0 -1.2 0
2.227 -7.285 -29.338 -0 -1.2 0
2.227 -7.796 -29.225 -0 -1.2 0
2.226 -8.305 -29.104 -0 -1.2 0
2.223 -8.812 -28.973 -0 -1.2 0
2.22 -9.317 -28.834 -0 -1.2 0
2.216 -9.82 -28.686 -0 -1.2 0
2.212 -10.319 -28.529 -0 -1.2 0
2.208 -10.816 -28.364 -0 -1.2 0
2.202 -11.31 -28.19 -0 -1.2 0
2.195 -11.8 -28.008 -0 -1.2 0
2.189 -12.288 -27.817 -0 -1.2 0
2.181 -12.772 -27.618 -0 -1.2 0
2.173 -13.252 -27.41 -0 -1.2 0
2.165 -13.73 -27.194 -0 -1.2 0
2.155 -14.202 -26.969 -0 -1.2 0
2.144 -14.671 -26.736 -0 -1.2 0
2.134 -15.136 -26.496 -0 -1.2 0
2.122 -15.597 -26.247 -0 -1.2 0
2.11 -16.053 -25.991 -0 -1.2 0
2.097 -16.505 -25.726 -0 -1.2 0
2.084 -16.952 -25.454 -0 -1.2 0
2.07 -17.393 -25.173 -0 -1.2 0
2.056 -17.831 -24.885 -0 -1.2 0
2.04 -18.262 -24.59 -0 -1.2 0
2.024 -18.69 -24.287 -0 -1.2 0
2.008 -19.111 -23.977 -0 -1.2 0
1.991 -19.527 -23.659 -0 -1.2 0
1.974 -19.937 -23.334 -0 -1.2 0
1.955 -20.342 -23.003 -0 -1.2 0
1.936 -20.74 -22.664 -0 -1.2 0
1.916 -21.133 -22.318 -0 -1.2 0
1.896 -21.52 -21.966 -0 -1.2 0
1.876 -21.9 -21.607 -0 -1.2 0
1.854 -22.274 -21.241 -0 -1.2 0
1.833 -22.643 -20.869 -0 -1.2 0
1.178 -0.532 -30.036 -0 -1.2 0
1.186 -1.055 -30.041 -0 -1.2 0
1.193 -1.578 -30.037 -0 -1.2 0
1.2 -2.101 -30.024 -0 -1.2 0
1.212 -3.147 -29.97 -0 -1.2 0
1.217 -3.669 -29.93 -0 -1.2 0
1.223 -4.19 -29.88 -0 -1.2 0
1.228 -4.71 -29.822 -0 -1.2 0
1.231 -5.23 -29.754 -0 -1.2 0
1.236 -5.748 -29.678 -0 -1.2 0
1.24 -6.264 -29.592 -0 -1.2 0
1.243 -6.779 -29.497 -0 -1.2 0
1.246 -7.292 -29.394 -0 -1.2 0
1.248 -7.804 -29.28 -0 -1.2 0
1.251 -8.313 -29.159 -0 -1.2 0
1.252 -8.82 -29.029 -0 -1.2 0
1.254 -9.324 -28.89 -0 -1.2 0
1.256 -9.827 -28.741 -0 -1.2 0
1.256 -10.327 -28.585 -0 -1.2 0
1.257 -10.823 -28.419 -0 -1.2 0
1.256 -11.317 -28.245 -0 -1.2 0
1.256 -11.808 -28.063 -0 -1.2 0
1.255 -12.296 -27.871 -0 -1.2 0
1.254 -12.779 -27.672 -0 -1.2 0
1.253 -13.259 -27.463 -0 -1.2 0
1.25 -13.737 -27.248 -0 -1.2 0
1.248 -14.209 -27.023 -0 -1.2 0
1.245 -14.679 -26.79 -0 -1.2 0
1.242 -15.143 -26.549 -0 -1.2 0
1.238 -15.604 -26.299 -0 -1.2 0
1.235 -16.06 -26.043 -0 -1.2 0
1.231 -16.512 -25.777 -0 -1.2 0
1.226 -16.958 -25.505 -0 -1.2 0
1.221 -17.4 -25.224 -0 -1.2 0
1.216 -17.838 -24.936 -0 -1.2 0
1.21 -18.269 -24.639 -0 -1.2 0
1.204 -18.696 -24.336 -0 -1.2 0
1.199 -19.117 -24.026 -0 -1.2 0
1.191 -19.533 -23.708 -0 -1.2 0
1.185 -19.943 -23.383 -0 -1.2 0
1.177 -20.348 -23.05 -0 -1.2 0
1.169 -20.747 -22.711 -0 -1.2 0
1.161 -21.139 -22.364 -0 -1.2 0
1.152 -21.526 -22.012 -0 -1.2 0
1.144 -21.906 -21.652 -0 -1.2 0
1.134 -22.28 -21.286 -0 -1.2 0
1.125 -22.648 -20.913 -0 -1.2 0
0.196 -0.54 -30.059 -0 -1.2 0
0.203 -1.063 -30.063 -0 -1.2 0
0.21 -1.586 -30.06 -0 -1.2 0
0.217 -2.109 -30.046 -0 -1.2 0
0.268 -6.272 -29.615 -0 -1.2 0
0.275 -6.787 -29.52 -0 -1.2 0
0.28 -7.3 -29.417 -0 -1.2 0
0.286 -7.812 -29.304 -0 -1.2 0
0.293 -8.321 -29.182 -0 -1.2 0
0.298 -8.828 -29.052 -0 -1.2 0
0.304 -9.332 -28.913 -0 -1.2 0
0.31 -9.835 -28.765 -0 -1.2 0
0.315 -10.334 -28.608 -0 -1.2 0
0.321 -10.831 -28.443 -0 -1.2 0
0.326 -11.325 -28.268 -0 -1.2 0
0.332 -11.815 -28.086 -0 -1.2 0
0.337 -12.303 -27.894 -0 -1.2 0
0.341 -12.787 -27.694 -0 -1.2 0
0.347 -13.267 -27.486 -0 -1.2 0
0.352 -13.744 -27.27 -0 -1.2 0
0.356 -14.217 -27.045 -0 -1.2 0
0.361 -14.686 -26.812 -0 -1.2 0
0.365 -15.15 -26.571 -0 -1.2 0
0.37 -15.611 -26.322 -0 -1.2 0
0.374 -16.067 -26.065 -0 -1.2 0
0.379 -16.519 -25.8 -0 -1.2 0
0.383 -16.965 -25.527 -0 -1.2 0
0.387 -17.407 -25.245 -0 -1.2 0
0.391 -17.844 -24.957 -0 -1.2 0
0.395 -18.276 -24.661 -0 -1.2 0
0.398 -18.703 -24.358 -0 -1.2 0
0.402 -19.124 -24.047 -0 -1.2 0
0.405 -19.54 -23.729 -0 -1.2 0
0.409 -19.95 -23.403 -0 -1.2 0
0.412 -20.354 -23.071 -0 -1.2 0
0.415 -20.753 -22.731 -0 -1.2 0
0.418 -21.145 -22.385 -0 -1.2 0
0.421 -21.532 -22.032 -0 -1.2 0
0.424 -21.912 -21.672 -0 -1.2 0
0.427 -22.286 -21.305 -0 -1.2 0
0.428 -22.654 -20.932 -0 -1.2 0
-0.766 -6.8 -29.509 -0 -1.2 0
-0.757 -7.314 -29.405 -0 -1.2 0
-0.748 -7.825 -29.292 -0 -1.2 0
-0.737 -8.334 -29.171 -0 -1.2 0
-0.727 -8.841 -29.04 -0 -1.2 0
-0.717 -9.345 -28.901 -0 -1.2 0
-0.706 -9.848 -28.753 -0 -1.2 0
-0.696 -10.348 -28.597 -0 -1.2 0
-0.684 -10.844 -28.431 -0 -1.2 0
-0.674 -11.338 -28.257 -0 -1.2 0
-0.662 -11.828 -28.075 -0 -1.2 0
-0.65 -12.316 -27.883 -0 -1.2 0
-0.639 -12.8 -27.684 -0 -1.2 0
-0.626 -13.279 -27.475 -0 -1.2 0
-0.614 -13.757 -27.26 -0 -1.2 0
-0.602 -14.229 -27.035 -0 -1.2 0
-0.589 -14.698 -26.801 -0 -1.2 0
-0.577 -15.162 -26.561 -0 -1.2 0
-0.563 -15.623 -26.311 -0 -1.2 0
-0.55 -16.079 -26.054 -0 -1.2 0
-0.537 -16.531 -25.79 -0 -1.2 0
-0.524 -16.977 -25.516 -0 -1.2 0
-0.51 -17.418 -25.235 -0 -1.2 0
-0.496 -17.856 -24.947 -0 -1.2 0
-0.481 -18.287 -24.651 -0 -1.2 0
-0.468 -18.714 -24.348 -0 -1.2 0
-0.453 -19.135 -24.037 -0 -1.2 0
-0.439 -19.551 -23.72 -0 -1.2 0
-0.424 -19.96 -23.394 -0 -1.2 0
-0.41 -20.365 -23.062 -0 -1.2 0
-0.395 -20.763 -22.722 -0 -1.2 0
-0.379 -21.156 -22.376 -0 -1.2 0
-0.365 -21.542 -22.023 -0 -1.2 0
-0.349 -21.922 -21.663 -0 -1.2 0
-0.334 -22.296 -21.297 -0 -1.2 0
-0.32 -22.664 -20.924 -0 -1.2 0
-1.666 -9.357 -28.859 -0 -1.2 0
-1.651 -9.86 -28.71 -0 -1.2 0
-1.636 -10.359 -28.553 -0 -1.2 0
-1.619 -10.855 -28.388 -0 -1.2 0
-1.603 -11.349 -28.214 -0 -1.2 0
-1.585 -11.839 -28.032 -0 -1.2 0
-1.568 -12.327 -27.842 -0 -1.2 0
-1.549 -12.811 -27.642 -0 -1.2 0
-1.531 -13.29 -27.434 -0 -1.2 0
-1.512 -13.768 -27.218 -0 -1.2 0
-1.493 -14.24 -26.994 -0 -1.2 0
-1.473 -14.709 -26.761 -0 -1.2 0
-1.452 -15.173 -26.521 -0 -1.2 0
-1.431 -15.634 -26.272 -0 -1.2 0
-1.409 -16.089 -26.016 -0 -1.2 0
-1.388 -16.541 -25.75 -0 -1.2 0
-1.366 -16.987 -25.478 -0 -1.2 0
-1.344 -17.429 -25.198 -0 -1.2 0
-1.32 -17.866 -24.91 -0 -1.2 0
-1.297 -18.297 -24.615 -0 -1.2 0
-1.273 -18.724 -24.312 -0 -1.2 0
-1.249 -19.145 -24.001 -0 -1.2 0
-1.225 -19.56 -23.684 -0 -1.2 0
-1.199 -19.97 -23.359 -0 -1.2 0
-1.174 -20.374 -23.027 -0 -1.2 0
-1.149 -20.772 -22.688 -0 -1.2 0
-1.122 -21.165 -22.343 -0 -1.2 0
-1.096 -21.551 -21.99 -0 -1.2 0
-1.069 -21.931 -21.631 -0 -1.2 0
-1.042 -22.305 -21.265 -0 -1.2 0
-1.014 -22.672 -20.893 -0 -1.2 0
-2.617 -9.368 -28.783 -0 -1.2 0
-2.597 -9.871 -28.636 -0 -1.2 0
-2.577 -10.37 -28.48 -0 -1.2 0
-2.555 -10.866 -28.315 -0 -1.2 0
-2.534 -11.36 -28.142 -0 -1.2 0
-2.51 -11.85 -27.96 -0 -1.2 0
-2.487 -12.338 -27.769 -0 -1.2 0
-2.462 -12.822 -27.571 -0 -1.2 0
-2.437 -13.301 -27.364 -0 -1.2 0
-2.411 -13.778 -27.148 -0 -1.2 0
-2.385 -14.25 -26.925 -0 -1.2 0
-2.357 -14.719 -26.692 -0 -1.2 0
-2.329 -15.183 -26.452 -0 -1.2 0
-2.3 -15.644 -26.204 -0 -1.2 0
-2.271 -16.1 -25.948 -0 -1.2 0
-2.24 -16.551 -25.684 -0 -1.2 0
-2.209 -16.997 -25.412 -0 -1.2 0
-2.179 -17.439 -25.133 -0 -1.2 0
-2.146 -17.876 -24.846 -0 -1.2 0
-2.113 -18.307 -24.551 -0 -1.2 0
-2.08 -18.733 -24.249 -0 -1.2 0
-2.046 -19.154 -23.939 -0 -1.2 0
-2.011 -19.57 -23.622 -0 -1.2 0
-1.975 -19.979 -23.299 -0 -1.2 0
-1.94 -20.383 -22.967 -0 -1.2 0
-1.903 -20.781 -22.63 -0 -1.2 0
-1.865 -21.173 -22.284 -0 -1.2 0
-1.828 -21.559 -21.933 -0 -1.2 0
-1.789 -21.939 -21.574 -0 -1.2 0
-1.751 -22.313 -21.21 -0 -1.2 0
-1.711 -22.68 -20.838 -0 -1.2 0
-3.756 -6.835 -29.27 -0 -1.2 0
-3.736 -7.349 -29.167 -0 -1.2 0
-3.717 -7.86 -29.056 -0 -1.2 0
-3.695 -8.369 -28.936 -0 -1.2 0
-3.672 -8.875 -28.805 -0 -1.2 0
-3.649 -9.38 -28.667 -0 -1.2 0
-3.624 -9.882 -28.521 -0 -1.2 0
-3.598 -10.382 -28.365 -0 -1.2 0
-3.572 -10.878 -28.201 -0 -1.2 0
-3.543 -11.372 -28.028 -0 -1.2 0
-3.515 -11.862 -27.847 -0 -1.2 0
-3.485 -12.349 -27.657 -0 -1.2 0
-3.453 -12.833 -27.459 -0 -1.2 0
-3.421 -13.312 -27.253 -0 -1.2 0
-3.388 -13.789 -27.038 -0 -1.2 0
-3.354 -14.261 -26.815 -0 -1.2 0
-3.318 -14.73 -26.584 -0 -1.2 0
-3.281 -15.194 -26.345 -0 -1.2 0
-3.244 -15.655 -26.098 -0 -1.2 0
-3.206 -16.11 -25.842 -0 -1.2 0
-3.166 -16.561 -25.58 -0 -1.2 0
-3.126 -17.008 -25.309 -0 -1.2 0
-3.085 -17.449 -25.031 -0 -1.2 0
-3.043 -17.886 -24.745 -0 -1.2 0
-2.999 -18.316 -24.451 -0 -1.2 0
-2.956 -18.743 -24.15 -0 -1.2 0
-2.911 -19.164 -23.842 -0 -1.2 0
-2.864 -19.579 -23.526 -0 -1.2 0
-2.818 -19.988 -23.204 -0 -1.2 0
-2.771 -20.393 -22.874 -0 -1.2 0
-2.722 -20.791 -22.537 -0 -1.2 0
-2.673 -21.182 -22.193 -0 -1.2 0
-2.623 -21.568 -21.843 -0 -1.2 0
-2.572 -21.948 -21.486 -0 -1.2 0
-2.52 -22.321 -21.123 -0 -1.2 0
-2.468 -22.689 -20.753 -0 -1.2 0
-4.881 -0.6 -29.659 -0 -1.2 0
-4.877 -1.123 -29.664 -0 -1.2 0
-4.863 -2.169 -29.647 -0 -1.2 0
-4.854 -2.692 -29.625 -0 -1.2 0
-4.768 -5.815 -29.305 -0 -1.2 0
-4.75 -6.332 -29.22 -0 -1.2 0
-4.729 -6.846 -29.126 -0 -1.2 0
-4.706 -7.359 -29.024 -0 -1.2 0
-4.682 -7.87 -28.913 -0 -1.2 0
-4.658 -8.379 -28.792 -0 -1.2 0
-4.631 -8.886 -28.664 -0 -1.2 0
-4.604 -9.39 -28.527 -0 -1.2 0
-4.574 -9.892 -28.38 -0 -1.2 0
-4.543 -10.392 -28.226 -0 -1.2 0
-4.511 -10.888 -28.062 -0 -1.2 0
-4.477 -11.382 -27.89 -0 -1.2 0
-4.443 -11.871 -27.71 -0 -1.2 0
-4.407 -12.359 -27.521 -0 -1.2 0
-4.369 -12.842 -27.324 -0 -1.2 0
-4.33 -13.322 -27.118 -0 -1.2 0
-4.291 -13.799 -26.905 -0 -1.2 0
-4.248 -14.271 -26.683 -0 -1.2 0
-4.206 -14.74 -26.453 -0 -1.2 0
-4.162 -15.203 -26.215 -0 -1.2 0
-4.117 -15.664 -25.969 -0 -1.2 0
-4.07 -16.119 -25.715 -0 -1.2 0
-4.022 -16.571 -25.453 -0 -1.2 0
-3.973 -17.017 -25.184 -0 -1.2 0
-3.924 -17.458 -24.907 -0 -1.2 0
-3.872 -17.895 -24.623 -0 -1.2 0
-3.819 -18.325 -24.33 -0 -1.2 0
-3.765 -18.752 -24.031 -0 -1.2 0
-3.71 -19.172 -23.724 -0 -1.2 0
-3.654 -19.588 -23.409 -0 -1.2 0
-3.597 -19.997 -23.088 -0 -1.2 0
-3.539 -20.401 -22.76 -0 -1.2 0
-3.479 -20.799 -22.425 -0 -1.2 0
-3.419 -21.19 -22.083 -0 -1.2 0
-3.358 -21.576 -21.735 -0 -1.2 0
-3.295 -21.956 -21.38 -0 -1.2 0
-3.232 -22.329 -21.018 -0 -1.2 0
-3.167 -22.696 -20.65 -0 -1.2 0
-5.719 -6.341 -29.043 -0 -1.2 0
-5.552 -9.4 -28.354 -0 -1.2 0
-5.519 -9.902 -28.209 -0 -1.2 0
-5.483 -10.401 -28.055 -0 -1.2 0
-5.446 -10.897 -27.893 -0 -1.2 0
-5.406 -11.391 -27.722 -0 -1.2 0
-5.366 -11.881 -27.542 -0 -1.2 0
-5.325 -12.368 -27.354 -0 -1.2 0
-5.28 -12.852 -27.158 -0 -1.2 0
-5.235 -13.331 -26.954 -0 -1.2 0
-5.188 -13.808 -26.742 -0 -1.2 0
-5.139 -14.28 -26.521 -0 -1.2 0
-5.089 -14.749 -26.292 -0 -1.2 0
-5.038 -15.212 -26.056 -0 -1.2 0
-4.984 -15.673 -25.811 -0 -1.2 0
-4.93 -16.128 -25.559 -0 -1.2 0
-4.873 -16.579 -25.299 -0 -1.2 0
-4.816 -17.025 -25.031 -0 -1.2 0
-4.756 -17.466 -24.755 -0 -1.2 0
-4.696 -17.903 -24.472 -0 -1.2 0
-4.634 -18.333 -24.181 -0 -1.2 0
-4.57 -18.76 -23.883 -0 -1.2 0
-4.506 -19.18 -23.579 -0 -1.2 0
-4.439 -19.595 -23.267 -0 -1.2 0
-4.372 -20.005 -22.947 -0 -1.2 0
-4.303 -20.408 -22.621 -0 -1.2 0
-4.232 -20.806 -22.288 -0 -1.2 0
-4.161 -21.198 -21.948 -0 -1.2 0
-4.088 -21.583 -21.602 -0 -1.2 0
-4.014 -21.963 -21.249 -0 -1.2 0
-3.939 -22.336 -20.889 -0 -1.2 0
-3.863 -22.703 -20.524 -0 -1.2 0
-6.531 -9.912 -27.988 -0 -1.2 0
-6.49 -10.411 -27.835 -0 -1.2 0
-6.448 -10.907 -27.674 -0 -1.2 0
-6.403 -11.401 -27.504 -0 -1.2 0
-6.356 -11.891 -27.326 -0 -1.2 0
-6.307 -12.378 -27.14 -0 -1.2 0
-6.257 -12.861 -26.946 -0 -1.2 0
-6.205 -13.341 -26.743 -0 -1.2 0
-6.151 -13.817 -26.531 -0 -1.2 0
-6.094 -14.289 -26.313 -0 -1.2 0
-6.036 -14.758 -26.086 -0 -1.2 0
-5.976 -15.222 -25.851 -0 -1.2 0
-5.915 -15.682 -25.608 -0 -1.2 0
-5.851 -16.137 -25.358 -0 -1.2 0
-5.786 -16.588 -25.099 -0 -1.2 0
-5.719 -17.034 -24.834 -0 -1.2 0
-5.65 -17.475 -24.56 -0 -1.2 0
-5.58 -17.912 -24.279 -0 -1.2 0
-5.508 -18.342 -23.991 -0 -1.2 0
-5.434 -18.769 -23.696 -0 -1.2 0
-5.359 -19.189 -23.393 -0 -1.2 0
-5.281 -19.604 -23.084 -0 -1.2 0
-5.203 -20.013 -22.766 -0 -1.2 0
-5.123 -20.417 -22.442 -0 -1.2 0
-5.04 -20.814 -22.112 -0 -1.2 0
-4.957 -21.206 -21.775 -0 -1.2 0
-4.872 -21.591 -21.431 -0 -1.2 0
-4.786 -21.971 -21.08 -0 -1.2 0
-4.698 -22.344 -20.724 -0 -1.2 0
-4.608 -22.711 -20.36 -0 -1.2 0
-7.659 -7.389 -28.381 -0 -1.2 0
-7.625 -7.9 -28.272 -0 -1.2 0
-7.589 -8.409 -28.154 -0 -1.2 0
-7.55 -8.915 -28.028 -0 -1.2 0
-7.509 -9.419 -27.893 -0 -1.2 0
-7.466 -9.922 -27.75 -0 -1.2 0
-7.42 -10.421 -27.599 -0 -1.2 0
-7.373 -10.917 -27.439 -0 -1.2 0
-7.322 -11.41 -27.27 -0 -1.2 0
-7.27 -11.9 -27.094 -0 -1.2 0
-7.215 -12.387 -26.909 -0 -1.2 0
-7.159 -12.871 -26.716 -0 -1.2 0
-7.1 -13.35 -26.514 -0 -1.2 0
-7.039 -13.827 -26.305 -0 -1.2 0
-6.976 -14.298 -26.088 -0 -1.2 0
-6.91 -14.767 -25.863 -0 -1.2 0
-6.843 -15.23 -25.63 -0 -1.2 0
-6.774 -15.691 -25.389 -0 -1.2 0
-6.702 -16.146 -25.141 -0 -1.2 0
-6.629 -16.597 -24.885 -0 -1.2 0
-6.553 -17.043 -24.621 -0 -1.2 0
-6.475 -17.483 -24.35 -0 -1.2 0
-6.396 -17.92 -24.071 -0 -1.2 0
-6.314 -18.35 -23.785 -0 -1.2 0
-6.231 -18.777 -23.492 -0 -1.2 0
-6.146 -19.197 -23.192 -0 -1.2 0
-6.058 -19.612 -22.885 -0 -1.2 0
-5.97 -20.021 -22.571 -0 -1.2 0
-5.878 -20.424 -22.249 -0 -1.2 0
-5.786 -20.822 -21.922 -0 -1.2 0
-5.691 -21.213 -21.587 -0 -1.2 0
-5.595 -21.599 -21.246 -0 -1.2 0
-5.498 -21.978 -20.898 -0 -1.2 0
-5.398 -22.351 -20.545 -0 -1.2 0
-5.297 -22.718 -20.185 -0 -1.2 0
-8.639 -6.885 -28.206 -0 -1.2 0
-8.605 -7.398 -28.105 -0 -1.2 0
-8.568 -7.909 -27.998 -0 -1.2 0
-8.527 -8.418 -27.881 -0 -1.2 0
-8.485 -8.924 -27.756 -0 -1.2 0
-8.44 -9.429 -27.622 -0 -1.2 0
-8.392 -9.931 -27.481 -0 -1.2 0
-8.342 -10.43 -27.33 -0 -1.2 0
-8.289 -10.926 -27.172 -0 -1.2 0
-8.233 -11.419 -27.005 -0 -1.2 0
-8.115 -12.396 -26.647 -0 -1.2 0
-8.053 -12.879 -26.456 -0 -1.2 0
-7.988 -13.358 -26.256 -0 -1.2 0
-7.919 -13.835 -26.05 -0 -1.2 0
-7.849 -14.307 -25.834 -0 -1.2 0
-7.777 -14.775 -25.611 -0 -1.2 0
-7.702 -15.239 -25.38 -0 -1.2 0
-7.625 -15.699 -25.141 -0 -1.2 0
-7.545 -16.154 -24.895 -0 -1.2 0
-7.463 -16.605 -24.642 -0 -1.2 0
-7.379 -17.051 -24.38 -0 -1.2 0
-7.204 -17.928 -23.836 -0 -1.2 0
-7.021 -18.784 -23.262 -0 -1.2 0
-6.828 -19.619 -22.66 -0 -1.2 0
-6.73 -20.028 -22.349 -0 -1.2 0
-6.628 -20.432 -22.031 -0 -1.2 0
-6.525 -20.829 -21.707 -0 -1.2 0
-6.419 -21.221 -21.375 -0 -1.2 0
-6.312 -21.606 -21.037 -0 -1.2 0
-6.203 -21.985 -20.693 -0 -1.2 0
-6.092 -22.358 -20.342 -0 -1.2 0
-5.979 -22.725 -19.986 -0 -1.2 0
-9.876 -0.125 -28.375 -0 -1.2 0
-9.876 -0.649 -28.388 -0 -1.2 0
-9.874 -1.172 -28.392 -0 -1.2 0
-9.868 -1.695 -28.389 -0 -1.2 0
-9.86 -2.218 -28.375 -0 -1.2 0
-9.849 -2.741 -28.354 -0 -1.2 0
-9.835 -3.264 -28.324 -0 -1.2 0
-9.817 -3.785 -28.286 -0 -1.2 0
-9.797 -4.306 -28.238 -0 -1.2 0
-9.773 -4.826 -28.182 -0 -1.2 0
-9.748 -5.346 -28.117 -0 -1.2 0
-9.718 -5.864 -28.045 -0 -1.2 0
-9.686 -6.38 -27.964 -0 -1.2 0
-9.651 -6.894 -27.873 -0 -1.2 0
-9.613 -7.407 -27.775 -0 -1.2 0
-9.572 -7.918 -27.668 -0 -1.2 0
-9.528 -8.427 -27.552 -0 -1.2 0
-9.482 -8.933 -27.429 -0 -1.2 0
-9.432 -9.437 -27.297 -0 -1.2 0
-9.38 -9.94 -27.157 -0 -1.2 0
-9.324 -10.439 -27.008 -0 -1.2 0
-9.265 -10.934 -26.851 -0 -1.2 0
-9.204 -11.428 -26.686 -0 -1.2 0
-9.141 -11.917 -26.513 -0 -1.2 0
-9.074 -12.405 -26.332 -0 -1.2 0
-9.005 -12.888 -26.142 -0 -1.2 0
-8.857 -13.844 -25.741 -0 -1.2 0
-8.78 -14.315 -25.528 -0 -1.2 0
-8.7 -14.784 -25.308 -0 -1.2 0
-8.617 -15.247 -25.079 -0 -1.2 0
-8.444 -16.162 -24.6 -0 -1.2 0
-7.426 -20.439 -21.768 -0 -1.2 0
-7.312 -20.836 -21.447 -0 -1.2 0
-7.195 -21.227 -21.119 -0 -1.2 0
-7.076 -21.613 -20.786 -0 -1.2 0
-6.955 -21.992 -20.446 -0 -1.2 0
-6.832 -22.364 -20.099 -0 -1.2 0
-6.706 -22.731 -19.746 -0 -1.2 0
-10.805 0.389 -28.012 -0 -1.2 0
-10.809 -0.133 -28.033 -0 -1.2 0
-10.81 -0.657 -28.046 -0 -1.2 0
-10.808 -1.18 -28.05 -0 -1.2 0
-10.803 -1.703 -28.045 -0 -1.2 0
-10.794 -2.226 -28.033 -0 -1.2 0
-10.783 -2.748 -28.011 -0 -1.2 0
-10.768 -3.272 -27.982 -0 -1.2 0
-10.75 -3.793 -27.943 -0 -1.2 0
-10.728 -4.314 -27.897 -0 -1.2 0
-10.703 -4.834 -27.841 -0 -1.2 0
-10.676 -5.354 -27.778 -0 -1.2 0
-10.644 -5.871 -27.706 -0 -1.2 0
-10.609 -6.388 -27.625 -0 -1.2 0
-10.571 -6.902 -27.536 -0 -1.2 0
-10.531 -7.415 -27.438 -0 -1.2 0
-10.486 -7.926 -27.332 -0 -1.2 0
-10.439 -8.434 -27.219 -0 -1.2 0
-10.389 -8.941 -27.096 -0 -1.2 0
-10.334 -9.445 -26.965 -0 -1.2 0
-10.277 -9.947 -26.827 -0 -1.2 0
-10.218 -10.446 -26.68 -0 -1.2 0
-10.154 -10.942 -26.525 -0 -1.2 0
-10.088 -11.435 -26.362 -0 -1.2 0
-10.02 -11.925 -26.191 -0 -1.2 0
-9.872 -12.895 -25.825 -0 -1.2 0
-9.45 -15.254 -24.773 -0 -1.2 0
-9.357 -15.714 -24.54 -0 -1.2 0
-9.262 -16.169 -24.299 -0 -1.2 0
-9.061 -17.065 -23.797 -0 -1.2 0
-7.901 -21.233 -20.86 -0 -1.2 0
-7.772 -21.618 -20.53 -0 -1.2 0
-7.639 -21.997 -20.194 -0 -1.2 0
-7.505 -22.37 -19.851 -0 -1.2 0
-7.368 -22.737 -19.502 -0 -1.2 0
-11.722 0.382 -27.64 -0 -1.2 0
-11.729 -0.14 -27.661 -0 -1.2 0
-11.724 -1.71 -27.673 -0 -1.2 0
-11.715 -2.233 -27.661 -0 -1.2 0
-11.704 -2.756 -27.639 -0 -1.2 0
-11.688 -3.279 -27.61 -0 -1.2 0
-11.668 -3.8 -27.572 -0 -1.2 0
-11.645 -4.322 -27.526 -0 -1.2 0
-11.619 -4.841 -27.471 -0 -1.2 0
-11.588 -5.361 -27.408 -0 -1.2 0
-11.556 -5.879 -27.336 -0 -1.2 0
-11.519 -6.395 -27.257 -0 -1.2 0
-11.478 -6.909 -27.168 -0 -1.2 0
-11.435 -7.422 -27.072 -0 -1.2 0
-11.387 -7.933 -26.967 -0 -1.2 0
-11.336 -8.441 -26.855 -0 -1.2 0
-11.282 -8.948 -26.734 -0 -1.2 0
-11.224 -9.452 -26.606 -0 -1.2 0
-10.959 -11.442 -26.009 -0 -1.2 0
-10.067 -16.175 -23.973 -0 -1.2 0
-8.734 -20.848 -20.896 -0 -1.2 0
-8.597 -21.239 -20.577 -0 -1.2 0
-8.313 -22.003 -19.919 -0 -1.2 0
-8.168 -22.375 -19.581 -0 -1.2 0
-8.02 -22.742 -19.237 -0 -1.2 0
-12.704 -0.147 -27.227 -0 -1.2 0
-12.707 -0.671 -27.239 -0 -1.2 0
-12.706 -1.194 -27.243 -0 -1.2 0
-12.701 -1.717 -27.238 -0 -1.2 0
-12.692 -2.24 -27.225 -0 -1.2 0
-12.679 -2.763 -27.205 -0 -1.2 0
-12.663 -3.286 -27.175 -0 -1.2 0
-12.643 -3.807 -27.138 -0 -1.2 0
-12.619 -4.328 -27.092 -0 -1.2 0
-12.59 -4.848 -27.038 -0 -1.2 0
-12.558 -5.368 -26.976 -0 -1.2 0
-12.523 -5.885 -26.906 -0 -1.2 0
-12.484 -6.402 -26.827 -0 -1.2 0
-12.44 -6.916 -26.74 -0 -1.2 0
-12.393 -7.429 -26.645 -0 -1.2 0
-12.343 -7.94 -26.542 -0 -1.2 0
-11.883 -11.449 -25.597 -0 -1.2 0
-8.711 -22.747 -18.929 -0 -1.2 0
-13.594 -1.723 -26.804 -0 -1.2 0
-13.585 -2.246 -26.791 -0 -1.2 0
-13.572 -2.768 -26.771 -0 -1.2 0
-13.555 -3.292 -26.741 -0 -1.2 0
-13.534 -3.813 -26.704 -0 -1.2 0
-13.508 -4.334 -26.659 -0 -1.2 0
-13.478 -4.854 -26.605 -0 -1.2 0
-13.445 -5.374 -26.544 -0 -1.2 0
-13.408 -5.891 -26.474 -0 -1.2 0
-13.366 -6.407 -26.397 -0 -1.2 0
-13.32 -6.921 -26.311 -0 -1.2 0
-13.27 -7.434 -26.218 -0 -1.2 0
-13.216 -7.945 -26.116 -0 -1.2 0
-13.158 -8.454 -26.007 -0 -1.2 0
-10.324 -20.46 -20.532 -0 -1.2 0
-14.479 -2.251 -26.318 -0 -1.2 0
-14.465 -2.774 -26.297 -0 -1.2 0
-14.447 -3.297 -26.269 -0 -1.2 0
-14.426 -3.818 -26.232 -0 -1.2 0
-14.399 -4.339 -26.188 -0 -1.2 0
-14.368 -4.859 -26.135 -0 -1.2 0
-14.332 -5.379 -26.074 -0 -1.2 0
-14.293 -5.896 -26.006 -0 -1.2 0
-14.249 -6.412 -25.93 -0 -1.2 0
-14.2 -6.927 -25.846 -0 -1.2 0
-14.147 -7.439 -25.753 -0 -1.2 0
-14.091 -7.95 -25.654 -0 -1.2 0
-14.029 -8.459 -25.547 -0 -1.2 0
-13.964 -8.965 -25.43 -0 -1.2 0
-13.82 -9.971 -25.177 -0 -1.2 0
-12.084 -17.527 -22.076 -0 -1.2 0
-11.942 -17.963 -21.822 -0 -1.2 0
-15.434 -1.732 -25.787 -0 -1.2 0
-15.425 -2.254 -25.775 -0 -1.2 0
-15.411 -2.777 -25.755 -0 -1.2 0
-15.392 -3.3 -25.727 -0 -1.2 0
-15.37 -3.822 -25.691 -0 -1.2 0
-15.342 -4.343 -25.646 -0 -1.2 0
-15.309 -4.862 -25.595 -0 -1.2 0
-15.271 -5.382 -25.535 -0 -1.2 0
-15.229 -5.9 -25.469 -0 -1.2 0
-15.183 -6.416 -25.393 -0 -1.2 0
-15.132 -6.93 -25.311 -0 -1.2 0
-15.076 -7.443 -25.22 -0 -1.2 0
-15.017 -7.954 -25.123 -0 -1.2 0
-14.882 -8.968 -24.904 -0 -1.2 0
-14.729 -9.975 -24.654 -0 -1.2 0
-14.371 -11.952 -24.067 -0 -1.2 0
-13.704 -14.816 -22.966 -0 -1.2 0
-16.294 -1.734 -25.253 -0 -1.2 0
-16.285 -2.257 -25.241 -0 -1.2 0
-16.271 -2.779 -25.22 -0 -1.2 0
-16.251 -3.303 -25.192 -0 -1.2 0
-16.227 -3.824 -25.157 -0 -1.2 0
-16.199 -4.345 -25.114 -0 -1.2 0
-16.164 -4.865 -25.064 -0 -1.2 0
-16.125 -5.385 -25.005 -0 -1.2 0
-16.081 -5.902 -24.939 -0 -1.2 0
-16.033 -6.418 -24.865 -0 -1.2 0
-15.979 -6.932 -24.785 -0 -1.2 0
-15.921 -7.445 -24.695 -0 -1.2 0
-15.857 -7.956 -24.6 -0 -1.2 0
-16.367 -9.978 -23.598 -0 -1.2 0
-16.078 -11.466 -23.186 -0 -1.2 0
-15.862 -12.443 -22.874 -0 -1.2 0
-15.745 -12.925 -22.709 -0 -1.2 0
-15.625 -13.404 -22.537 -0 -1.2 0
-18.031 -1.737 -24.044 -0 -1.2 0
-17.625 -7.448 -23.509 -0 -1.2 0
-16.447 -13.405 -21.943 -0 -1.2 0
-16.179 -14.353 -21.587 -0 -1.2 0
-13.361 -21.259 -17.833 -0 -1.2 0
-18.838 -1.737 -23.417 -0 -1.2 0
-18.709 -2.253 -23.258 -0 -1.2 0
-18.813 -2.782 -23.386 -0 -1.2 0
-18.792 -3.306 -23.359 -0 -1.2 0
-18.765 -3.827 -23.326 -0 -1.2 0
-18.732 -4.348 -23.285 -0 -1.2 0
-18.694 -4.868 -23.237 -0 -1.2 0
-18.65 -5.387 -23.183 -0 -1.2 0
-18.6 -5.905 -23.121 -0 -1.2 0
-18.545 -6.421 -23.052 -0 -1.2 0
-17.902 -10.478 -22.252 -0 -1.2 0
-17.797 -10.974 -22.121 -0 -1.2 0
-19.623 -1.736 -22.763 -0 -1.2 0
-19.614 -2.259 -22.751 -0 -1.2 0
-19.598 -2.782 -22.732 -0 -1.2 0
-19.576 -3.305 -22.706 -0 -1.2 0
-19.549 -3.826 -22.674 -0 -1.2 0
-19.515 -4.347 -22.634 -0 -1.2 0
-19.476 -4.867 -22.587 -0 -1.2 0
-19.43 -5.387 -22.534 -0 -1.2 0
-19.379 -5.904 -22.473 -0 -1.2 0
-19.321 -6.421 -22.406 -0 -1.2 0
-19.259 -6.935 -22.332 -0 -1.2 0
-19.19 -7.448 -22.252 -0 -1.2 0
-19.114 -7.958 -22.164 -0 -1.2 0
-18.855 -9.477 -21.861 -0 -1.2 0
-17.773 -13.881 -20.597 -0 -1.2 0
-20.438 -1.735 -22.036 -0 -1.2 0
-20.428 -2.258 -22.023 -0 -1.2 0
-20.412 -2.78 -22.005 -0 -1.2 0
-20.39 -3.304 -21.979 -0 -1.2 0
-20.361 -3.825 -21.947 -0 -1.2 0
-20.326 -4.346 -21.909 -0 -1.2 0
-20.286 -4.866 -21.863 -0 -1.2 0
-20.239 -5.385 -21.812 -0 -1.2 0
-20.185 -5.903 -21.753 -0 -1.2 0
-20.125 -6.419 -21.688 -0 -1.2 0
-20.061 -6.933 -21.615 -0 -1.2 0
-19.989 -7.446 -21.537 -0 -1.2 0
-19.911 -7.957 -21.452 -0 -1.2 0
-19.827 -8.465 -21.361 -0 -1.2 0
-19.433 -10.477 -20.93 -0 -1.2 0
-19.32 -10.972 -20.806 -0 -1.2 0
-19.2 -11.466 -20.676 -0 -1.2 0
-18.943 -12.442 -20.397 -0 -1.2 0
-18.038 -15.282 -19.413 -0 -1.2 0
-14.693 -22.021 -15.789 -0 -1.2 0
-14.189 -22.759 -15.243 -0 -1.2 0
-21.152 -2.255 -21.33 -0 -1.2 0
-21.136 -2.778 -21.312 -0 -1.2 0
-21.112 -3.301 -21.287 -0 -1.2 0
-21.083 -3.822 -21.256 -0 -1.2 0
-21.047 -4.343 -21.218 -0 -1.2 0
-21.005 -4.863 -21.173 -0 -1.2 0
-20.957 -5.383 -21.123 -0 -1.2 0
-20.902 -5.9 -21.066 -0 -1.2 0
-20.84 -6.416 -21.003 -0 -1.2 0
-20.773 -6.931 -20.932 -0 -1.2 0
-20.699 -7.443 -20.857 -0 -1.2 0
-20.619 -7.954 -20.773 -0 -1.2 0
-20.532 -8.463 -20.685 -0 -1.2 0
-20.44 -8.969 -20.59 -0 -1.2 0
-20.236 -9.975 -20.38 -0 -1.2 0
-19.884 -11.463 -20.021 -0 -1.2 0
-15.971 -20.865 -16.04 -0 -1.2 0
-15.223 -22.019 -15.282 -0 -1.2 0
-14.965 -22.391 -15.02 -0 -1.2 0
-14.701 -22.757 -14.753 -0 -1.2 0
-21.851 -2.251 -20.613 -0 -1.2 0
-21.835 -2.774 -20.595 -0 -1.2 0
-21.812 -3.297 -20.571 -0 -1.2 0
-21.782 -3.818 -20.541 -0 -1.2 0
-21.745 -4.339 -20.503 -0 -1.2 0
-21.701 -4.859 -20.461 -0 -1.2 0
-21.652 -5.379 -20.411 -0 -1.2 0
-21.595 -5.896 -20.356 -0 -1.2 0
-21.532 -6.413 -20.294 -0 -1.2 0
-21.462 -6.927 -20.227 -0 -1.2 0
-21.387 -7.44 -20.152 -0 -1.2 0
-21.018 -9.469 -19.796 -0 -1.2 0
-20.91 -9.971 -19.692 -0 -1.2 0
-20.795 -10.47 -19.581 -0 -1.2 0
-20.413 -11.949 -19.215 -0 -1.2 0
-20.273 -12.436 -19.081 -0 -1.2 0
-15.998 -21.637 -15.007 -0 -1.2 0
-15.736 -22.016 -14.758 -0 -1.2 0
-15.469 -22.388 -14.504 -0 -1.2 0
-15.197 -22.754 -14.246 -0 -1.2 0
-22.589 -1.724 -19.827 -0 -1.2 0
-22.578 -2.246 -19.815 -0 -1.2 0
-22.562 -2.769 -19.798 -0 -1.2 0
-22.538 -3.293 -19.774 -0 -1.2 0
-22.507 -3.814 -19.744 -0 -1.2 0
-22.469 -4.335 -19.708 -0 -1.2 0
-22.424 -4.855 -19.667 -0 -1.2 0
-22.374 -5.374 -19.619 -0 -1.2 0
-22.315 -5.892 -19.566 -0 -1.2 0
-22.25 -6.408 -19.506 -0 -1.2 0
-22.178 -6.922 -19.441 -0 -1.2 0
-22.101 -7.435 -19.37 -0 -1.2 0
-22.015 -7.946 -19.292 -0 -1.2 0
-21.923 -8.454 -19.209 -0 -1.2 0
-21.825 -8.961 -19.12 -0 -1.2 0
-21.72 -9.465 -19.025 -0 -1.2 0
-21.608 -9.967 -18.925 -0 -1.2 0
-21.49 -10.466 -18.818 -0 -1.2 0
-21.365 -10.961 -18.707 -0 -1.2 0
-21.234 -11.455 -18.589 -0 -1.2 0
-15.993 -22.385 -13.931 -0 -1.2 0
-15.712 -22.751 -13.682 -0 -1.2 0
-23.246 -1.719 -19.053 -0 -1.2 0
-23.235 -2.241 -19.042 -0 -1.2 0
-23.219 -2.764 -19.025 -0 -1.2 0
-23.194 -3.287 -19.001 -0 -1.2 0
-23.162 -3.809 -18.973 -0 -1.2 0
-23.123 -4.33 -18.939 -0 -1.2 0
-23.078 -4.85 -18.898 -0 -1.2 0
-23.026 -5.369 -18.852 -0 -1.2 0
-22.966 -5.887 -18.8 -0 -1.2 0
-22.899 -6.403 -18.743 -0 -1.2 0
-22.825 -6.917 -18.679 -0 -1.2 0
-22.746 -7.43 -18.611 -0 -1.2 0
-22.658 -7.941 -18.536 -0 -1.2 0
-22.563 -8.449 -18.455 -0 -1.2 0
-22.463 -8.956 -18.37 -0 -1.2 0
-22.354 -9.46 -18.279 -0 -1.2 0
-22.239 -9.962 -18.182 -0 -1.2 0
-22.118 -10.461 -18.079 -0 -1.2 0
-19.944 -16.633 -16.261 -0 -1.2 0
-17.569 -20.854 -14.289 -0 -1.2 0
-16.749 -22.009 -13.61 -0 -1.2 0
-16.466 -22.381 -13.375 -0 -1.2 0
-16.177 -22.748 -13.136 -0 -1.2 0
-23.881 -1.713 -18.252 -0 -1.2 0
-23.87 -2.236 -18.241 -0 -1.2 0
-23.852 -2.758 -18.224 -0 -1.2 0
-23.828 -3.282 -18.202 -0 -1.2 0
-23.796 -3.803 -18.173 -0 -1.2 0
-23.756 -4.324 -18.14 -0 -1.2 0
-23.709 -4.844 -18.101 -0 -1.2 0
-23.655 -5.363 -18.057 -0 -1.2 0
-23.595 -5.881 -18.006 -0 -1.2 0
-23.526 -6.397 -17.951 -0 -1.2 0
-23.451 -6.911 -17.891 -0 -1.2 0
-23.369 -7.424 -17.824 -0 -1.2 0
-23.279 -7.935 -17.752 -0 -1.2 0
-23.182 -8.444 -17.676 -0 -1.2 0
-22.968 -9.454 -17.505 -0 -1.2 0
-22.85 -9.957 -17.412 -0 -1.2 0
-22.158 -12.421 -16.867 -0 -1.2 0
-21.834 -13.383 -16.612 -0 -1.2 0
-18.325 -20.453 -13.884 -0 -1.2 0
-17.5 -21.626 -13.245 -0 -1.2 0
-17.214 -22.004 -13.024 -0 -1.2 0
-16.923 -22.377 -12.799 -0 -1.2 0
-16.627 -22.744 -12.57 -0 -1.2 0
-24.534 -1.706 -17.365 -0 -1.2 0
-24.523 -2.229 -17.355 -0 -1.2 0
-24.505 -2.751 -17.338 -0 -1.2 0
-24.48 -3.275 -17.316 -0 -1.2 0
-24.447 -3.796 -17.289 -0 -1.2 0
-24.407 -4.317 -17.257 -0 -1.2 0
-24.359 -4.837 -17.219 -0 -1.2 0
-24.303 -5.357 -17.177 -0 -1.2 0
-24.242 -5.874 -17.129 -0 -1.2 0
-24.172 -6.391 -17.076 -0 -1.2 0
-24.094 -6.905 -17.018 -0 -1.2 0
-24.009 -7.418 -16.954 -0 -1.2 0
-23.918 -7.929 -16.885 -0 -1.2 0
-23.819 -8.437 -16.812 -0 -1.2 0
-23.713 -8.944 -16.733 -0 -1.2 0
-23.599 -9.448 -16.649 -0 -1.2 0
-23.478 -9.95 -16.56 -0 -1.2 0
-23.073 -11.438 -16.263 -0 -1.2 0
-19.37 -19.635 -13.581 -0 -1.2 0
-18.833 -20.447 -13.195 -0 -1.2 0
-18.274 -21.236 -12.793 -0 -1.2 0
-17.986 -21.621 -12.586 -0 -1.2 0
-17.693 -21.999 -12.376 -0 -1.2 0
-17.394 -22.372 -12.161 -0 -1.2 0
-17.089 -22.739 -11.943 -0 -1.2 0
-25.114 -1.176 -16.528 -0 -1.2 0
-25.1 -2.222 -16.511 -0 -1.2 0
-25.082 -2.744 -16.494 -0 -1.2 0
-25.057 -3.268 -16.473 -0 -1.2 0
-25.023 -3.789 -16.448 -0 -1.2 0
-24.982 -4.31 -16.416 -0 -1.2 0
-24.933 -4.83 -16.381 -0 -1.2 0
-24.876 -5.35 -16.339 -0 -1.2 0
-24.813 -5.867 -16.293 -0 -1.2 0
-24.741 -6.384 -16.243 -0 -1.2 0
-24.662 -6.898 -16.186 -0 -1.2 0
-24.576 -7.411 -16.126 -0 -1.2 0
-24.482 -7.922 -16.06 -0 -1.2 0
-24.381 -8.43 -15.99 -0 -1.2 0
-24.272 -8.937 -15.914 -0 -1.2 0
-24.156 -9.441 -15.834 -0 -1.2 0
-23.902 -10.442 -15.659 -0 -1.2 0
-23.619 -11.432 -15.465 -0 -1.2 0
-19.282 -20.442 -12.54 -0 -1.2 0
-18.999 -20.839 -12.35 -0 -1.2 0
-18.71 -21.23 -12.157 -0 -1.2 0
-18.415 -21.615 -11.959 -0 -1.2 0
-18.115 -21.994 -11.759 -0 -1.2 0
-17.809 -22.367 -11.554 -0 -1.2 0
-17.498 -22.734 -11.346 -0 -1.2 0
-25.655 -1.169 -15.675 -0 -1.2 0
-25.652 -1.692 -15.669 -0 -1.2 0
-25.641 -2.214 -15.658 -0 -1.2 0
-25.623 -2.737 -15.642 -0 -1.2 0
-25.597 -3.26 -15.622 -0 -1.2 0
-25.563 -3.782 -15.598 -0 -1.2 0
-25.521 -4.303 -15.567 -0 -1.2 0
-25.471 -4.823 -15.533 -0 -1.2 0
-25.413 -5.342 -15.493 -0 -1.2 0
-25.349 -5.86 -15.449 -0 -1.2 0
-25.276 -6.376 -15.401 -0 -1.2 0
-25.195 -6.891 -15.347 -0 -1.2 0
-25.108 -7.404 -15.289 -0 -1.2 0
-25.012 -7.914 -15.227 -0 -1.2 0
-24.908 -8.423 -15.16 -0 -1.2 0
-24.679 -9.434 -15.01 -0 -1.2 0
-24.554 -9.936 -14.929 -0 -1.2 0
-24.42 -10.435 -14.844 -0 -1.2 0
-24.28 -10.931 -14.754 -0 -1.2 0
-19.704 -20.436 -11.877 -0 -1.2 0
-19.415 -20.833 -11.697 -0 -1.2 0
-19.119 -21.225 -11.513 -0 -1.2 0
-18.818 -21.61 -11.325 -0 -1.2 0
-18.511 -21.989 -11.135 -0 -1.2 0
-18.2 -22.362 -10.941 -0 -1.2 0
-17.882 -22.729 -10.743 -0 -1.2 0
-26.201 -1.683 -14.734 -0 -1.2 0
-26.19 -2.206 -14.723 -0 -1.2 0
-26.172 -2.728 -14.708 -0 -1.2 0
-26.146 -3.252 -14.688 -0 -1.2 0
-26.111 -3.773 -14.664 -0 -1.2 0
-26.068 -4.294 -14.636 -0 -1.2 0
-26.017 -4.814 -14.603 -0 -1.2 0
-25.96 -5.334 -14.565 -0 -1.2 0
-25.893 -5.852 -14.523 -0 -1.2 0
-25.819 -6.368 -14.476 -0 -1.2 0
-25.737 -6.882 -14.426 -0 -1.2 0
-25.647 -7.395 -14.371 -0 -1.2 0
-25.549 -7.906 -14.311 -0 -1.2 0
-25.445 -8.415 -14.247 -0 -1.2 0
-25.331 -8.921 -14.179 -0 -1.2 0
-25.082 -9.928 -14.03 -0 -1.2 0
-22.736 -16.152 -12.653 -0 -1.2 0
-22.024 -17.489 -12.24 -0 -1.2 0
-21.251 -18.782 -11.794 -0 -1.2 0
-20.982 -19.202 -11.637 -0 -1.2 0
-20.705 -19.617 -11.479 -0 -1.2 0
-20.422 -20.026 -11.315 -0 -1.2 0
-20.133 -20.429 -11.148 -0 -1.2 0
-19.837 -20.827 -10.979 -0 -1.2 0
-19.536 -21.218 -10.805 -0 -1.2 0
-19.229 -21.604 -10.629 -0 -1.2 0
-18.916 -21.983 -10.449 -0 -1.2 0
-18.597 -22.356 -10.266 -0 -1.2 0
-18.272 -22.722 -10.08 -0 -1.2 0
-26.681 -1.674 -13.848 -0 -1.2 0
-26.67 -2.197 -13.838 -0 -1.2 0
-26.652 -2.72 -13.822 -0 -1.2 0
-26.625 -3.243 -13.804 -0 -1.2 0
-26.589 -3.764 -13.78 -0 -1.2 0
-26.546 -4.286 -13.753 -0 -1.2 0
-26.495 -4.805 -13.721 -0 -1.2 0
-26.436 -5.325 -13.686 -0 -1.2 0
-26.368 -5.843 -13.645 -0 -1.2 0
-26.293 -6.359 -13.601 -0 -1.2 0
-26.21 -6.874 -13.554 -0 -1.2 0
-26.118 -7.387 -13.501 -0 -1.2 0
-26.019 -7.897 -13.444 -0 -1.2 0
-25.912 -8.406 -13.384 -0 -1.2 0
-25.796 -8.913 -13.32 -0 -1.2 0
-25.674 -9.417 -13.25 -0 -1.2 0
-25.543 -9.919 -13.178 -0 -1.2 0
-23.818 -14.765 -12.234 -0 -1.2 0
-22.68 -17.041 -11.621 -0 -1.2 0
-22.432 -17.482 -11.488 -0 -1.2 0
-22.177 -17.918 -11.351 -0 -1.2 0
-21.915 -18.349 -11.21 -0 -1.2 0
-21.646 -18.775 -11.067 -0 -1.2 0
-21.371 -19.195 -10.919 -0 -1.2 0
-21.09 -19.61 -10.77 -0 -1.2 0
-20.801 -20.019 -10.616 -0 -1.2 0
-20.507 -20.423 -10.458 -0 -1.2 0
-20.206 -20.82 -10.299 -0 -1.2 0
-19.899 -21.212 -10.135 -0 -1.2 0
-19.587 -21.597 -9.969 -0 -1.2 0
-19.268 -21.976 -9.799 -0 -1.2 0
-18.943 -22.349 -9.627 -0 -1.2 0
-18.612 -22.716 -9.452 -0 -1.2 0
-27.131 -1.665 -12.947 -0 -1.2 0
-27.12 -2.187 -12.937 -0 -1.2 0
-27.101 -2.71 -12.922 -0 -1.2 0
-27.074 -3.234 -12.904 -0 -1.2 0
-27.038 -3.755 -12.881 -0 -1.2 0
-26.995 -4.276 -12.855 -0 -1.2 0
-26.942 -4.796 -12.825 -0 -1.2 0
-26.882 -5.316 -12.791 -0 -1.2 0
-26.814 -5.833 -12.753 -0 -1.2 0
-26.738 -6.35 -12.711 -0 -1.2 0
-26.653 -6.864 -12.665 -0 -1.2 0
-26.56 -7.377 -12.616 -0 -1.2 0
-26.459 -7.888 -12.563 -0 -1.2 0
-26.35 -8.397 -12.505 -0 -1.2 0
-26.234 -8.903 -12.444 -0 -1.2 0
-26.109 -9.408 -12.38 -0 -1.2 0
-25.531 -11.399 -12.082 -0 -1.2 0
-24.829 -13.339 -11.728 -0 -1.2 0
-24.006 -15.22 -11.315 -0 -1.2 0
-22.814 -17.473 -10.722 -0 -1.2 0
-22.289 -18.341 -10.462 -0 -1.2 0
-22.015 -18.767 -10.327 -0 -1.2 0
-21.736 -19.187 -10.189 -0 -1.2 0
-21.45 -19.602 -10.047 -0 -1.2 0
-21.156 -20.011 -9.904 -0 -1.2 0
-20.857 -20.415 -9.756 -0 -1.2 0
-20.552 -20.813 -9.607 -0 -1.2 0
-20.24 -21.204 -9.453 -0 -1.2 0
-19.922 -21.59 -9.297 -0 -1.2 0
-19.598 -21.969 -9.139 -0 -1.2 0
-19.268 -22.342 -8.977 -0 -1.2 0
-18.932 -22.709 -8.813 -0 -1.2 0
-27.586 -1.653 -11.949 -0 -1.2 0
-27.574 -2.176 -11.94 -0 -1.2 0
-27.556 -2.699 -11.925 -0 -1.2 0
-27.528 -3.222 -11.907 -0 -1.2 0
-27.491 -3.744 -11.886 -0 -1.2 0
-27.448 -4.265 -11.861 -0 -1.2 0
-27.395 -4.785 -11.833 -0 -1.2 0
-27.333 -5.305 -11.8 -0 -1.2 0
-27.265 -5.822 -11.765 -0 -1.2 0
-27.187 -6.339 -11.725 -0 -1.2 0
-27.101 -6.853 -11.683 -0 -1.2 0
-27.007 -7.366 -11.637 -0 -1.2 0
-26.904 -7.877 -11.586 -0 -1.2 0
-26.794 -8.386 -11.533 -0 -1.2 0
-26.675 -8.893 -11.477 -0 -1.2 0
-26.121 -10.895 -11.214 -0 -1.2 0
-25.961 -11.388 -11.139 -0 -1.2 0
-25.795 -11.878 -11.062 -0 -1.2 0
-25.439 -12.849 -10.896 -0 -1.2 0
-25.248 -13.328 -10.809 -0 -1.2 0
-24.845 -14.277 -10.624 -0 -1.2 0
-24.633 -14.746 -10.526 -0 -1.2 0
-24.184 -15.67 -10.322 -0 -1.2 0
-23.949 -16.126 -10.214 -0 -1.2 0
-23.708 -16.577 -10.105 -0 -1.2 0
-23.201 -17.464 -9.875 -0 -1.2 0
-22.937 -17.901 -9.756 -0 -1.2 0
-22.667 -18.331 -9.634 -0 -1.2 0
-22.389 -18.758 -9.509 -0 -1.2 0
-22.105 -19.178 -9.38 -0 -1.2 0
-21.814 -19.593 -9.249 -0 -1.2 0
-21.516 -20.002 -9.116 -0 -1.2 0
-21.212 -20.406 -8.98 -0 -1.2 0
-20.902 -20.804 -8.841 -0 -1.2 0
-20.585 -21.196 -8.698 -0 -1.2 0
-20.261 -21.581 -8.554 -0 -1.2 0
-19.932 -21.961 -8.407 -0 -1.2 0
-19.596 -22.334 -8.258 -0 -1.2 0
-19.255 -22.702 -8.105 -0 -1.2 0
-27.978 -1.119 -11.017 -0 -1.2 0
-27.965 -2.165 -11 -0 -1.2 0
-27.945 -2.688 -10.985 -0 -1.2 0
-27.917 -3.211 -10.968 -0 -1.2 0
-27.881 -3.732 -10.948 -0 -1.2 0
-27.836 -4.254 -10.924 -0 -1.2 0
-27.782 -4.774 -10.898 -0 -1.2 0
-27.721 -5.293 -10.867 -0 -1.2 0
-27.65 -5.811 -10.834 -0 -1.2 0
-27.571 -6.328 -10.797 -0 -1.2 0
-27.485 -6.842 -10.757 -0 -1.2 0
-27.389 -7.355 -10.713 -0 -1.2 0
-27.286 -7.866 -10.667 -0 -1.2 0
-27.174 -8.375 -10.617 -0 -1.2 0
-27.054 -8.882 -10.563 -0 -1.2 0
-26.925 -9.386 -10.507 -0 -1.2 0
-26.789 -9.889 -10.448 -0 -1.2 0
-26.645 -10.388 -10.385 -0 -1.2 0
-26.491 -10.884 -10.318 -0 -1.2 0
-26.331 -11.378 -10.249 -0 -1.2 0
-26.162 -11.868 -10.177 -0 -1.2 0
-25.985 -12.355 -10.102 -0 -1.2 0
-25.8 -12.839 -10.023 -0 -1.2 0
-25.608 -13.318 -9.942 -0 -1.2 0
-25.199 -14.267 -9.77 -0 -1.2 0
-24.984 -14.736 -9.68 -0 -1.2 0
-24.045 -16.567 -9.289 -0 -1.2 0
-23.793 -17.013 -9.184 -0 -1.2 0
-23.533 -17.454 -9.076 -0 -1.2 0
-23.265 -17.891 -8.966 -0 -1.2 0
-22.991 -18.322 -8.853 -0 -1.2 0
-22.709 -18.748 -8.737 -0 -1.2 0
-22.421 -19.169 -8.618 -0 -1.2 0
-22.127 -19.584 -8.497 -0 -1.2 0
-21.824 -19.994 -8.374 -0 -1.2 0
-21.516 -20.398 -8.247 -0 -1.2 0
-21.201 -20.796 -8.119 -0 -1.2 0
-20.88 -21.187 -7.987 -0 -1.2 0
-20.552 -21.573 -7.854 -0 -1.2 0
-20.218 -21.953 -7.718 -0 -1.2 0
-19.878 -22.326 -7.579 -0 -1.2 0
-19.533 -22.694 -7.438 -0 -1.2 0
-28.335 -1.107 -10.064 -0 -1.2 0
-28.333 -1.63 -10.056 -0 -1.2 0
-28.322 -2.153 -10.046 -0 -1.2 0
-28.302 -2.676 -10.033 -0 -1.2 0
-28.274 -3.199 -10.017 -0 -1.2 0
-28.238 -3.72 -9.998 -0 -1.2 0
-28.192 -4.242 -9.975 -0 -1.2 0
-28.139 -4.762 -9.95 -0 -1.2 0
-28.076 -5.281 -9.921 -0 -1.2 0
-28.004 -5.799 -9.889 -0 -1.2 0
-27.926 -6.316 -9.855 -0 -1.2 0
-27.837 -6.83 -9.817 -0 -1.2 0
-27.741 -7.343 -9.777 -0 -1.2 0
-27.636 -7.854 -9.734 -0 -1.2 0
-27.523 -8.363 -9.687 -0 -1.2 0
-27.401 -8.87 -9.638 -0 -1.2 0
-27.272 -9.375 -9.586 -0 -1.2 0
-27.133 -9.877 -9.531 -0 -1.2 0
-26.987 -10.376 -9.473 -0 -1.2 0
-26.832 -10.872 -9.412 -0 -1.2 0
-26.669 -11.366 -9.348 -0 -1.2 0
-26.498 -11.856 -9.282 -0 -1.2 0
-26.319 -12.344 -9.212 -0 -1.2 0
-26.133 -12.828 -9.14 -0 -1.2 0
-25.938 -13.307 -9.064 -0 -1.2 0
-25.735 -13.784 -8.986 -0 -1.2 0
-25.525 -14.256 -8.906 -0 -1.2 0
-25.306 -14.725 -8.822 -0 -1.2 0
-24.846 -15.65 -8.648 -0 -1.2 0
-24.605 -16.105 -8.557 -0 -1.2 0
-24.356 -16.557 -8.462 -0 -1.2 0
-24.101 -17.003 -8.366 -0 -1.2 0
-23.837 -17.444 -8.267 -0 -1.2 0
-23.566 -17.881 -8.165 -0 -1.2 0
-23.289 -18.312 -8.061 -0 -1.2 0
-23.003 -18.739 -7.955 -0 -1.2 0
-22.712 -19.159 -7.846 -0 -1.2 0
-22.413 -19.575 -7.734 -0 -1.2 0
-22.107 -19.984 -7.621 -0 -1.2 0
-21.795 -20.388 -7.505 -0 -1.2 0
-21.476 -20.786 -7.386 -0 -1.2 0
-21.151 -21.178 -7.266 -0 -1.2 0
-20.819 -21.564 -7.144 -0 -1.2 0
-20.481 -21.944 -7.018 -0 -1.2 0
-20.137 -22.317 -6.891 -0 -1.2 0
-19.787 -22.685 -6.762 -0 -1.2 0
-28.684 -1.094 -9.025 -0 -1.2 0
-28.681 -1.617 -9.017 -0 -1.2 0
-28.651 -2.662 -8.995 -0 -1.2 0
-28.622 -3.186 -8.979 -0 -1.2 0
-28.586 -3.707 -8.961 -0 -1.2 0
-28.539 -4.228 -8.94 -0 -1.2 0
-28.486 -4.748 -8.916 -0 -1.2 0
-28.422 -5.268 -8.89 -0 -1.2 0
-28.35 -5.786 -8.86 -0 -1.2 0
-28.27 -6.302 -8.829 -0 -1.2 0
-28.181 -6.817 -8.794 -0 -1.2 0
-28.084 -7.33 -8.757 -0 -1.2 0
-27.977 -7.841 -8.717 -0 -1.2 0
-27.863 -8.35 -8.675 -0 -1.2 0
-27.74 -8.857 -8.63 -0 -1.2 0
-27.608 -9.362 -8.582 -0 -1.2 0
-27.469 -9.864 -8.532 -0 -1.2 0
-27.32 -10.364 -8.479 -0 -1.2 0
-27.164 -10.86 -8.424 -0 -1.2 0
-27 -11.354 -8.365 -0 -1.2 0
-26.827 -11.844 -8.304 -0 -1.2 0
-26.645 -12.332 -8.241 -0 -1.2 0
-26.456 -12.815 -8.175 -0 -1.2 0
-26.259 -13.295 -8.107 -0 -1.2 0
-26.054 -13.772 -8.037 -0 -1.2 0
-25.841 -14.244 -7.964 -0 -1.2 0
-25.62 -14.713 -7.888 -0 -1.2 0
-25.391 -15.177 -7.81 -0 -1.2 0
-25.154 -15.638 -7.73 -0 -1.2 0
-24.911 -16.094 -7.647 -0 -1.2 0
-24.659 -16.545 -7.562 -0 -1.2 0
-24.4 -16.991 -7.474 -0 -1.2 0
-24.133 -17.433 -7.385 -0 -1.2 0
-23.86 -17.87 -7.293 -0 -1.2 0
-23.578 -18.301 -7.199 -0 -1.2 0
-23.29 -18.728 -7.103 -0 -1.2 0
-22.995 -19.148 -7.004 -0 -1.2 0
-22.692 -19.564 -6.904 -0 -1.2 0
-22.383 -19.974 -6.801 -0 -1.2 0
-22.067 -20.378 -6.696 -0 -1.2 0
-21.745 -20.776 -6.59 -0 -1.2 0
-21.415 -21.168 -6.48 -0 -1.2 0
-21.08 -21.554 -6.37 -0 -1.2 0
-20.737 -21.934 -6.258 -0 -1.2 0
-20.389 -22.308 -6.143 -0 -1.2 0
-20.035 -22.676 -6.026 -0 -1.2 0
-28.94 -2.65 -8.02 -0 -1.2 0
-28.911 -3.173 -8.005 -0 -1.2 0
-28.875 -3.695 -7.988 -0 -1.2 0
-28.828 -4.216 -7.968 -0 -1.2 0
-28.774 -4.736 -7.947 -0 -1.2 0
-28.71 -5.256 -7.922 -0 -1.2 0
-28.637 -5.774 -7.894 -0 -1.2 0
-28.556 -6.29 -7.865 -0 -1.2 0
-28.466 -6.805 -7.833 -0 -1.2 0
-28.368 -7.318 -7.8 -0 -1.2 0
-28.26 -7.829 -7.763 -0 -1.2 0
-28.145 -8.338 -7.724 -0 -1.2 0
-28.021 -8.845 -7.683 -0 -1.2 0
-27.888 -9.35 -7.639 -0 -1.2 0
-27.747 -9.852 -7.594 -0 -1.2 0
-27.597 -10.352 -7.546 -0 -1.2 0
-27.44 -10.848 -7.495 -0 -1.2 0
-27.274 -11.342 -7.443 -0 -1.2 0
-27.099 -11.832 -7.387 -0 -1.2 0
-26.916 -12.32 -7.33 -0 -1.2 0
-26.725 -12.804 -7.27 -0 -1.2 0
