# .PCD v.7 - Point Cloud Data file format
FIELDS x y z vp_x vp_y vp_z
SIZE 4 4 4 4 4 4
TYPE F F F F F F
COUNT 1 1 1 1 1 1
WIDTH 1654
HEIGHT 1
VIEWPOINT 0 -1.20013 0 1 0 0 0
POINTS 1654
DATA ascii
-0.044 -0.025 2.121 -0 -1.2 0
-0.045 -0.024 2.21 -0 -1.2 0
-0.047 -0.026 2.301 -0 -1.2 0
-0.049 -0.023 2.41 -0 -1.2 0
-0.051 -0.028 2.51 -0 -1.2 0
-0.053 -0.031 2.621 -0 -1.2 0
-0.056 -0.027 2.76 -0 -1.2 0
-0.058 -0.03 2.89 -0 -1.2 0
-0.06 -0.036 3.03 -0 -1.2 0
-0.064 -0.035 3.2 -0 -1.2 0
-0.066 -0.04 3.371 -0 -1.2 0
-0.07 -0.046 3.561 -0 -1.2 0
-0.075 -0.038 3.819 -0 -1.2 0
-0.079 -0.042 4.069 -0 -1.2 0
-0.085 -0.044 4.358 -0 -1.2 0
-0.089 -0.061 4.629 -0 -1.2 0
-0.089 -0.126 4.715 -0 -1.2 0
-0.084 -0.222 4.653 -0 -1.2 0
-0.08 -0.309 4.629 -0 -1.2 0
-0.077 -0.398 4.583 -0 -1.2 0
-0.074 -0.475 4.604 -0 -1.2 0
-0.072 -0.553 4.625 -0 -1.2 0
-0.189 -0.073 10.054 -0 -1.2 0
-0.058 -0.748 4.212 -0 -1.2 0
-0.055 -0.822 4.188 -0 -1.2 0
-0.052 -0.894 4.183 -0 -1.2 0
-0.049 -0.965 4.176 -0 -1.2 0
-0.048 -1.036 4.178 -0 -1.2 0
-0.045 -1.107 4.187 -0 -1.2 0
-0.043 -1.178 4.207 -0 -1.2 0
-0.041 -1.251 4.235 -0 -1.2 0
-0.039 -1.324 4.231 -0 -1.2 0
-0.036 -1.398 4.257 -0 -1.2 0
-0.192 -2.398 14.599 -0 -1.2 0
-0.186 -2.672 14.773 -0 -1.2 0
-0.182 -2.971 15.091 -0 -1.2 0
-0.174 -3.248 15.164 -0 -1.2 0
-0.164 -4.373 16.758 -0 -1.2 0
-0.154 -4.676 16.758 -0 -1.2 0
-0.127 -4.61 15.164 -0 -1.2 0
-0.124 -5.066 15.867 -0 -1.2 0
0.014 -5.895 9.877 -0 -1.2 0
0.02 -6.488 10.62 -0 -1.2 0
0.029 -5.95 9.174 -0 -1.2 0
0.058 -6.795 9.169 -0 -1.2 0
0.051 -4.746 5.684 -0 -1.2 0
0.062 -5.774 6.994 -0 -1.2 0
0.063 -5.25 5.996 -0 -1.2 0
0.067 -5.287 5.833 -0 -1.2 0
0.07 -5.182 5.488 -0 -1.2 0
0.102 -7.854 8.705 -0 -1.2 0
0.085 -5.802 5.878 -0 -1.2 0
0.129 -8.617 8.709 -0 -1.2 0
0.136 -8.726 8.533 -0 -1.2 0
0.002 -0.004 1.191 -0 -1.2 0
0.002 -0.003 1.232 -0 -1.2 0
0.002 -0.009 1.266 -0 -1.2 0
0.003 -0.01 1.307 -0 -1.2 0
0.003 -0.011 1.348 -0 -1.2 0
0.003 -0.014 1.39 -0 -1.2 0
0.004 -0.018 1.432 -0 -1.2 0
0.004 -0.017 1.482 -0 -1.2 0
0.004 -0.017 1.533 -0 -1.2 0
0.004 -0.02 1.584 -0 -1.2 0
0.004 -0.017 1.644 -0 -1.2 0
0.005 -0.022 1.695 -0 -1.2 0
0.006 -0.023 1.756 -0 -1.2 0
0.005 -0.026 1.817 -0 -1.2 0
0.006 -0.025 1.887 -0 -1.2 0
0.006 -0.022 1.966 -0 -1.2 0
0.007 -0.025 2.037 -0 -1.2 0
0.007 -0.026 2.117 -0 -1.2 0
0.007 -0.026 2.207 -0 -1.2 0
0.008 -0.023 2.306 -0 -1.2 0
0.008 -0.02 2.416 -0 -1.2 0
0.009 -0.028 2.507 -0 -1.2 0
0.009 -0.027 2.627 -0 -1.2 0
0.009 -0.026 2.756 -0 -1.2 0
0.01 -0.031 2.887 -0 -1.2 0
0.011 -0.039 3.018 -0 -1.2 0
0.012 -0.038 3.187 -0 -1.2 0
0.013 -0.043 3.358 -0 -1.2 0
0.014 -0.041 3.567 -0 -1.2 0
0.015 -0.039 3.806 -0 -1.2 0
0.016 -0.044 4.046 -0 -1.2 0
0.018 -0.046 4.336 -0 -1.2 0
0.019 -0.039 4.704 -0 -1.2 0
0.02 -0.045 5.074 -0 -1.2 0
0.023 -0.046 5.534 -0 -1.2 0
0.025 -0.035 6.162 -0 -1.2 0
0.028 -0.036 6.841 -0 -1.2 0
0.033 -0.474 4.571 -0 -1.2 0
0.036 -0.558 4.532 -0 -1.2 0
0.039 -0.639 4.501 -0 -1.2 0
0.041 -0.733 4.319 -0 -1.2 0
0.043 -0.812 4.244 -0 -1.2 0
0.046 -0.886 4.229 -0 -1.2 0
0.048 -0.957 4.252 -0 -1.2 0
0.051 -1.03 4.254 -0 -1.2 0
0.053 -1.102 4.254 -0 -1.2 0
0.056 -1.174 4.254 -0 -1.2 0
0.059 -1.246 4.232 -0 -1.2 0
0.061 -1.317 4.199 -0 -1.2 0
0.064 -1.389 4.204 -0 -1.2 0
0.066 -1.463 4.229 -0 -1.2 0
0.069 -1.544 4.301 -0 -1.2 0
0.073 -1.626 4.362 -0 -1.2 0
0.237 -4.741 17.179 -0 -1.2 0
0.247 -5.041 17.123 -0 -1.2 0
0.17 -4.128 6.888 -0 -1.2 0
0.158 -3.895 6.083 -0 -1.2 0
0.199 -4.879 7.504 -0 -1.2 0
0.242 -5.954 8.845 -0 -1.2 0
0.227 -5.647 7.962 -0 -1.2 0
0.193 -4.871 6.366 -0 -1.2 0
0.198 -5.027 6.138 -0 -1.2 0
0.224 -5.691 6.897 -0 -1.2 0
0.202 -5.196 5.939 -0 -1.2 0
0.189 -4.891 5.31 -0 -1.2 0
0.203 -5.258 5.609 -0 -1.2 0
0.31 -7.94 8.843 -0 -1.2 0
0.194 -5.077 5.003 -0 -1.2 0
0.328 -8.473 8.875 -0 -1.2 0
0.343 -8.875 9.031 -0 -1.2 0
0.033 -0.011 1.19 -0 -1.2 0
0.033 -0.002 1.238 -0 -1.2 0
0.035 -0.007 1.271 -0 -1.2 0
0.036 -0.001 1.32 -0 -1.2 0
0.038 -0.009 1.354 -0 -1.2 0
0.039 -0.012 1.396 -0 -1.2 0
0.04 -0.016 1.438 -0 -1.2 0
0.041 -0.015 1.488 -0 -1.2 0
0.042 -0.027 1.522 -0 -1.2 0
0.044 -0.017 1.589 -0 -1.2 0
0.045 -0.026 1.633 -0 -1.2 0
0.047 -0.025 1.693 -0 -1.2 0
0.05 -0.026 1.753 -0 -1.2 0
0.051 -0.023 1.822 -0 -1.2 0
0.053 -0.017 1.901 -0 -1.2 0
0.055 -0.024 1.963 -0 -1.2 0
0.057 -0.027 2.034 -0 -1.2 0
0.06 -0.023 2.123 -0 -1.2 0
0.062 -0.027 2.203 -0 -1.2 0
0.064 -0.029 2.294 -0 -1.2 0
0.067 -0.029 2.394 -0 -1.2 0
0.07 -0.029 2.503 -0 -1.2 0
0.074 -0.035 2.604 -0 -1.2 0
0.078 -0.034 2.734 -0 -1.2 0
0.081 -0.037 2.864 -0 -1.2 0
0.085 -0.037 3.013 -0 -1.2 0
0.089 -0.043 3.164 -0 -1.2 0
0.095 -0.047 3.334 -0 -1.2 0
0.101 -0.048 3.533 -0 -1.2 0
0.106 -0.053 3.743 -0 -1.2 0
0.114 -0.046 4.022 -0 -1.2 0
0.122 -0.047 4.311 -0 -1.2 0
0.132 -0.046 4.65 -0 -1.2 0
0.143 -0.051 5.02 -0 -1.2 0
0.155 -0.048 5.489 -0 -1.2 0
0.172 -0.048 6.038 -0 -1.2 0
0.19 -0.048 6.707 -0 -1.2 0
0.212 -0.056 7.486 -0 -1.2 0
0.239 -0.071 8.426 -0 -1.2 0
0.144 -0.651 4.337 -0 -1.2 0
0.143 -0.739 4.184 -0 -1.2 0
0.145 -0.812 4.17 -0 -1.2 0
0.148 -0.882 4.194 -0 -1.2 0
0.151 -0.952 4.227 -0 -1.2 0
0.154 -1.024 4.239 -0 -1.2 0
0.156 -1.096 4.23 -0 -1.2 0
0.158 -1.167 4.209 -0 -1.2 0
0.16 -1.238 4.207 -0 -1.2 0
0.163 -1.31 4.214 -0 -1.2 0
0.166 -1.383 4.22 -0 -1.2 0
0.169 -1.456 4.234 -0 -1.2 0
0.172 -1.531 4.257 -0 -1.2 0
0.174 -1.604 4.249 -0 -1.2 0
0.176 -1.678 4.249 -0 -1.2 0
0.18 -1.755 4.268 -0 -1.2 0
0.661 -4.796 17.564 -0 -1.2 0
0.669 -5.093 17.467 -0 -1.2 0
0.485 -4.916 11.216 -0 -1.2 0
0.308 -3.915 6.153 -0 -1.2 0
0.499 -6.067 10.307 -0 -1.2 0
0.452 -5.674 9.096 -0 -1.2 0
0.378 -4.95 7.356 -0 -1.2 0
0.388 -5.168 7.453 -0 -1.2 0
0.445 -5.959 8.532 -0 -1.2 0
0.361 -5.031 6.655 -0 -1.2 0
0.504 -6.927 9.442 -0 -1.2 0
0.44 -6.22 7.998 -0 -1.2 0
0.338 -5.011 5.91 -0 -1.2 0
0.334 -5.026 5.718 -0 -1.2 0
0.335 -5.13 5.656 -0 -1.2 0
0.331 -5.142 5.473 -0 -1.2 0
0.323 -5.106 5.236 -0 -1.2 0
0.32 -5.144 5.103 -0 -1.2 0
0.558 -8.71 9.182 -0 -1.2 0
0.325 -5.427 4.914 -0 -1.2 0
0.062 -0.009 1.195 -0 -1.2 0
0.065 -0.007 1.236 -0 -1.2 0
0.066 -0.013 1.269 -0 -1.2 0
0.069 -0.007 1.317 -0 -1.2 0
0.07 -0.008 1.359 -0 -1.2 0
0.072 -0.018 1.393 -0 -1.2 0
0.075 -0.02 1.435 -0 -1.2 0
0.078 -0.019 1.485 -0 -1.2 0
0.08 -0.019 1.535 -0 -1.2 0
0.083 -0.021 1.586 -0 -1.2 0
0.085 -0.024 1.637 -0 -1.2 0
0.088 -0.023 1.697 -0 -1.2 0
0.091 -0.029 1.749 -0 -1.2 0
0.095 -0.026 1.818 -0 -1.2 0
0.098 -0.024 1.888 -0 -1.2 0
0.101 -0.026 1.958 -0 -1.2 0
0.106 -0.024 2.038 -0 -1.2 0
0.109 -0.03 2.109 -0 -1.2 0
0.113 -0.029 2.198 -0 -1.2 0
0.118 -0.03 2.288 -0 -1.2 0
0.124 -0.03 2.388 -0 -1.2 0
0.129 -0.033 2.488 -0 -1.2 0
0.135 -0.032 2.609 -0 -1.2 0
0.141 -0.038 2.719 -0 -1.2 0
0.147 -0.036 2.858 -0 -1.2 0
0.154 -0.043 2.989 -0 -1.2 0
0.162 -0.048 3.139 -0 -1.2 0
0.171 -0.048 3.318 -0 -1.2 0
0.181 -0.049 3.517 -0 -1.2 0
0.193 -0.05 3.736 -0 -1.2 0
0.205 -0.048 3.995 -0 -1.2 0
0.219 -0.048 4.284 -0 -1.2 0
0.236 -0.052 4.594 -0 -1.2 0
0.254 -0.056 4.963 -0 -1.2 0
0.276 -0.058 5.402 -0 -1.2 0
0.304 -0.055 5.95 -0 -1.2 0
0.23 -0.441 4.202 -0 -1.2 0
0.23 -0.517 4.183 -0 -1.2 0
0.232 -0.592 4.163 -0 -1.2 0
0.234 -0.666 4.141 -0 -1.2 0
0.237 -0.736 4.158 -0 -1.2 0
0.24 -0.806 4.173 -0 -1.2 0
0.245 -0.874 4.227 -0 -1.2 0
0.249 -0.946 4.25 -0 -1.2 0
0.252 -1.018 4.262 -0 -1.2 0
0.254 -1.09 4.243 -0 -1.2 0
0.256 -1.162 4.242 -0 -1.2 0
0.259 -1.234 4.24 -0 -1.2 0
0.262 -1.306 4.257 -0 -1.2 0
0.264 -1.379 4.263 -0 -1.2 0
0.267 -1.453 4.267 -0 -1.2 0
0.268 -1.524 4.25 -0 -1.2 0
0.268 -1.591 4.192 -0 -1.2 0
0.272 -1.666 4.213 -0 -1.2 0
0.274 -1.739 4.212 -0 -1.2 0
1.078 -4.861 17.987 -0 -1.2 0
0.743 -4.755 11.432 -0 -1.2 0
0.753 -5.522 11.112 -0 -1.2 0
0.504 -4.192 7.089 -0 -1.2 0
0.483 -4.154 6.69 -0 -1.2 0
0.461 -4.103 6.294 -0 -1.2 0
0.729 -6.208 10.175 -0 -1.2 0
0.479 -4.444 6.424 -0 -1.2 0
0.486 -4.602 6.452 -0 -1.2 0
0.548 -5.22 7.271 -0 -1.2 0
0.587 -5.667 7.738 -0 -1.2 0
0.512 -5.141 6.598 -0 -1.2 0
0.489 -5.053 6.216 -0 -1.2 0
0.474 -5.015 5.931 -0 -1.2 0
0.477 -5.15 5.911 -0 -1.2 0
0.503 -5.503 6.186 -0 -1.2 0
0.594 -6.502 7.297 -0 -1.2 0
0.507 -5.755 6.084 -0 -1.2 0
0.513 -5.928 6.087 -0 -1.2 0
0.458 -5.552 5.243 -0 -1.2 0
0.437 -5.435 4.934 -0 -1.2 0
0.465 -5.94 5.132 -0 -1.2 0
0.091 -0.007 1.198 -0 -1.2 0
0.093 -0.012 1.232 -0 -1.2 0
0.096 -0.011 1.272 -0 -1.2 0
0.1 0.001 1.328 -0 -1.2 0
0.103 -0.006 1.362 -0 -1.2 0
0.106 -0.016 1.396 -0 -1.2 0
0.108 -0.019 1.437 -0 -1.2 0
0.112 -0.017 1.488 -0 -1.2 0
0.116 -0.023 1.531 -0 -1.2 0
0.12 -0.025 1.581 -0 -1.2 0
0.123 -0.028 1.632 -0 -1.2 0
0.128 -0.021 1.7 -0 -1.2 0
0.132 -0.026 1.752 -0 -1.2 0
0.137 -0.023 1.821 -0 -1.2 0
0.142 -0.022 1.89 -0 -1.2 0
0.147 -0.024 1.961 -0 -1.2 0
0.152 -0.026 2.031 -0 -1.2 0
0.158 -0.031 2.103 -0 -1.2 0
0.164 -0.03 2.192 -0 -1.2 0
0.17 -0.031 2.282 -0 -1.2 0
0.178 -0.027 2.39 -0 -1.2 0
0.186 -0.03 2.49 -0 -1.2 0
0.194 -0.032 2.6 -0 -1.2 0
0.202 -0.038 2.711 -0 -1.2 0
0.212 -0.036 2.85 -0 -1.2 0
0.222 -0.043 2.98 -0 -1.2 0
0.233 -0.047 3.13 -0 -1.2 0
0.246 -0.047 3.31 -0 -1.2 0
0.26 -0.05 3.499 -0 -1.2 0
0.277 -0.045 3.736 -0 -1.2 0
0.295 -0.045 3.986 -0 -1.2 0
0.314 -0.049 4.254 -0 -1.2 0
0.319 -0.119 4.281 -0 -1.2 0
0.315 -0.22 4.171 -0 -1.2 0
0.315 -0.303 4.127 -0 -1.2 0
0.316 -0.377 4.12 -0 -1.2 0
0.319 -0.449 4.122 -0 -1.2 0
0.323 -0.517 4.142 -0 -1.2 0
0.327 -0.586 4.162 -0 -1.2 0
0.331 -0.654 4.2 -0 -1.2 0
0.797 -0.118 10.853 -0 -1.2 0
0.95 -0.154 12.937 -0 -1.2 0
1.169 -0.211 15.929 -0 -1.2 0
0.354 -1.01 4.341 -0 -1.2 0
0.368 -1.159 4.472 -0 -1.2 0
0.368 -1.234 4.44 -0 -1.2 0
0.373 -1.311 4.457 -0 -1.2 0
0.377 -1.389 4.482 -0 -1.2 0
0.374 -1.459 4.406 -0 -1.2 0
1.512 -4.93 18.42 -0 -1.2 0
1.007 -4.778 11.548 -0 -1.2 0
1.001 -4.943 11.378 -0 -1.2 0
1.031 -5.264 11.656 -0 -1.2 0
1.017 -5.587 11.308 -0 -1.2 0
1.02 -5.795 11.255 -0 -1.2 0
0.656 -4.271 6.96 -0 -1.2 0
0.634 -4.273 6.661 -0 -1.2 0
0.599 -4.189 6.213 -0 -1.2 0
0.639 -4.533 6.608 -0 -1.2 0
0.637 -4.636 6.529 -0 -1.2 0
0.606 -4.56 6.138 -0 -1.2 0
0.687 -5.187 6.949 -0 -1.2 0
0.664 -5.163 6.648 -0 -1.2 0
0.628 -5.044 6.216 -0 -1.2 0
0.635 -5.206 6.229 -0 -1.2 0
0.681 -5.654 6.646 -0 -1.2 0
0.669 -5.692 6.461 -0 -1.2 0
0.665 -5.797 6.372 -0 -1.2 0
0.655 -5.845 6.21 -0 -1.2 0
1.048 -9.132 10.068 -0 -1.2 0
0.595 -5.715 5.44 -0 -1.2 0
0.554 -5.474 4.988 -0 -1.2 0
0.548 -5.539 4.889 -0 -1.2 0
0.578 -5.912 5.112 -0 -1.2 0
0.122 -0.013 1.195 -0 -1.2 0
0.126 -0.011 1.235 -0 -1.2 0
0.13 -0.009 1.275 -0 -1.2 0
0.134 -0.01 1.316 -0 -1.2 0
0.138 -0.011 1.358 -0 -1.2 0
0.141 -0.02 1.392 -0 -1.2 0
0.146 -0.016 1.441 -0 -1.2 0
0.151 -0.021 1.483 -0 -1.2 0
0.155 -0.027 1.525 -0 -1.2 0
0.161 -0.023 1.583 -0 -1.2 0
0.166 -0.019 1.642 -0 -1.2 0
0.171 -0.023 1.694 -0 -1.2 0
0.176 -0.024 1.754 -0 -1.2 0
0.183 -0.021 1.823 -0 -1.2 0
0.191 -0.014 1.901 -0 -1.2 0
0.198 -0.016 1.972 -0 -1.2 0
0.204 -0.023 2.033 -0 -1.2 0
0.211 -0.024 2.113 -0 -1.2 0
0.22 -0.023 2.202 -0 -1.2 0
0.228 -0.028 2.283 -0 -1.2 0
0.238 -0.024 2.391 -0 -1.2 0
0.247 -0.03 2.482 -0 -1.2 0
0.259 -0.028 2.601 -0 -1.2 0
0.27 -0.034 2.711 -0 -1.2 0
0.281 -0.039 2.832 -0 -1.2 0
0.295 -0.042 2.971 -0 -1.2 0
0.31 -0.043 3.13 -0 -1.2 0
0.327 -0.045 3.299 -0 -1.2 0
0.346 -0.045 3.497 -0 -1.2 0
0.369 -0.04 3.735 -0 -1.2 0
0.393 -0.039 3.984 -0 -1.2 0
0.403 -0.09 4.068 -0 -1.2 0
0.408 -0.155 4.104 -0 -1.2 0
0.413 -0.223 4.129 -0 -1.2 0
0.42 -0.285 4.183 -0 -1.2 0
0.58 -0.042 5.921 -0 -1.2 0
0.637 -0.05 6.508 -0 -1.2 0
0.706 -0.061 7.215 -0 -1.2 0
0.797 -0.066 8.16 -0 -1.2 0
0.904 -0.087 9.265 -0 -1.2 0
1.056 -0.103 10.827 -0 -1.2 0
1.256 -0.138 12.877 -0 -1.2 0
1.544 -0.191 15.844 -0 -1.2 0
2.674 -0.479 27.448 -0 -1.2 0
0.473 -1.076 4.44 -0 -1.2 0
0.473 -1.151 4.419 -0 -1.2 0
0.482 -1.229 4.488 -0 -1.2 0
1.99 -4.663 18.886 -0 -1.2 0
1.995 -4.991 18.821 -0 -1.2 0
1.349 -4.54 12.297 -0 -1.2 0
1.29 -4.98 11.525 -0 -1.2 0
1.263 -5.088 11.202 -0 -1.2 0
1.308 -5.441 11.549 -0 -1.2 0
1.34 -5.763 11.776 -0 -1.2 0
1.257 -5.654 10.949 -0 -1.2 0
1.29 -5.98 11.177 -0 -1.2 0
0.994 -4.962 8.472 -0 -1.2 0
1.331 -6.556 11.394 -0 -1.2 0
1.056 -5.545 8.909 -0 -1.2 0
0.764 -4.365 6.304 -0 -1.2 0
0.755 -4.435 6.176 -0 -1.2 0
0.8 -4.774 6.523 -0 -1.2 0
0.793 -4.864 6.424 -0 -1.2 0
0.826 -5.164 6.661 -0 -1.2 0
0.769 -4.98 6.129 -0 -1.2 0
0.841 -5.507 6.689 -0 -1.2 0
0.797 -5.394 6.284 -0 -1.2 0
0.786 -5.455 6.144 -0 -1.2 0
0.918 -6.397 7.181 -0 -1.2 0
0.783 -5.701 6.035 -0 -1.2 0
1.08 -7.76 8.378 -0 -1.2 0
0.749 -5.733 5.665 -0 -1.2 0
1.036 -7.832 7.892 -0 -1.2 0
0.694 -5.606 5.144 -0 -1.2 0
1.009 -8.012 7.558 -0 -1.2 0
0.696 -5.863 5.069 -0 -1.2 0
0.634 -5.52 4.556 -0 -1.2 0
0.151 -0.011 1.199 -0 -1.2 0
0.156 -0.002 1.245 -0 -1.2 0
0.161 -0.008 1.279 -0 -1.2 0
0.165 -0.014 1.313 -0 -1.2 0
0.169 -0.016 1.353 -0 -1.2 0
0.175 -0.012 1.402 -0 -1.2 0
0.181 -0.009 1.452 -0 -1.2 0
0.186 -0.019 1.486 -0 -1.2 0
0.192 -0.019 1.536 -0 -1.2 0
0.198 -0.021 1.586 -0 -1.2 0
0.204 -0.023 1.638 -0 -1.2 0
0.21 -0.021 1.697 -0 -1.2 0
0.218 -0.016 1.765 -0 -1.2 0
0.225 -0.023 1.817 -0 -1.2 0
0.235 -0.012 1.903 -0 -1.2 0
0.242 -0.018 1.964 -0 -1.2 0
0.251 -0.021 2.035 -0 -1.2 0
0.26 -0.021 2.114 -0 -1.2 0
0.271 -0.02 2.204 -0 -1.2 0
0.281 -0.025 2.284 -0 -1.2 0
0.293 -0.024 2.383 -0 -1.2 0
0.305 -0.027 2.483 -0 -1.2 0
0.317 -0.029 2.592 -0 -1.2 0
0.331 -0.03 2.712 -0 -1.2 0
0.346 -0.035 2.831 -0 -1.2 0
0.362 -0.038 2.97 -0 -1.2 0
0.38 -0.042 3.119 -0 -1.2 0
0.402 -0.04 3.297 -0 -1.2 0
0.425 -0.04 3.495 -0 -1.2 0
0.453 -0.035 3.733 -0 -1.2 0
0.481 -0.039 3.961 -0 -1.2 0
0.492 -0.089 4.047 -0 -1.2 0
0.55 -0.042 4.546 -0 -1.2 0
0.593 -0.046 4.903 -0 -1.2 0
0.644 -0.045 5.34 -0 -1.2 0
0.712 -0.035 5.904 -0 -1.2 0
0.775 -0.051 6.441 -0 -1.2 0
0.866 -0.051 7.204 -0 -1.2 0
0.973 -0.062 8.099 -0 -1.2 0
1.106 -0.079 9.21 -0 -1.2 0
1.29 -0.094 10.749 -0 -1.2 0
1.53 -0.126 12.764 -0 -1.2 0
1.928 -0.151 16.1 -0 -1.2 0
2.864 -0.526 23.866 -0 -1.2 0
0.562 -1.071 4.357 -0 -1.2 0
0.566 -1.145 4.367 -0 -1.2 0
2.479 -4.746 19.427 -0 -1.2 0
2.485 -5.088 19.379 -0 -1.2 0
1.407 -4.238 10.562 -0 -1.2 0
1.607 -5.127 11.986 -0 -1.2 0
1.547 -5.379 11.411 -0 -1.2 0
1.425 -5.217 10.431 -0 -1.2 0
1.424 -5.401 10.367 -0 -1.2 0
1.455 -5.697 10.553 -0 -1.2 0
1.157 -4.867 8.282 -0 -1.2 0
1.145 -4.976 8.143 -0 -1.2 0
1.293 -5.681 9.19 -0 -1.2 0
1.251 -5.696 8.836 -0 -1.2 0
0.931 -4.584 6.458 -0 -1.2 0
0.946 -4.775 6.534 -0 -1.2 0
0.94 -4.876 6.452 -0 -1.2 0
0.935 -4.981 6.377 -0 -1.2 0
0.933 -5.102 6.325 -0 -1.2 0
0.931 -5.227 6.279 -0 -1.2 0
0.924 -5.323 6.19 -0 -1.2 0
0.913 -5.4 6.074 -0 -1.2 0
0.893 -5.427 5.895 -0 -1.2 0
0.882 -5.497 5.78 -0 -1.2 0
0.869 -5.559 5.656 -0 -1.2 0
0.888 -5.802 5.752 -0 -1.2 0
0.825 -5.569 5.287 -0 -1.2 0
0.809 -5.599 5.141 -0 -1.2 0
0.809 -5.727 5.107 -0 -1.2 0
0.758 -5.532 4.731 -0 -1.2 0
1.144 -8.175 7.223 -0 -1.2 0
0.18 -0.01 1.201 -0 -1.2 0
0.186 -0.007 1.241 -0 -1.2 0
0.191 -0.006 1.281 -0 -1.2 0
0.196 -0.013 1.314 -0 -1.2 0
0.203 -0.007 1.363 -0 -1.2 0
0.209 -0.01 1.404 -0 -1.2 0
0.215 -0.013 1.445 -0 -1.2 0
0.221 -0.017 1.488 -0 -1.2 0
0.228 -0.017 1.537 -0 -1.2 0
0.235 -0.019 1.587 -0 -1.2 0
0.244 -0.015 1.647 -0 -1.2 0
0.25 -0.019 1.697 -0 -1.2 0
0.259 -0.019 1.758 -0 -1.2 0
0.267 -0.021 1.817 -0 -1.2 0
0.278 -0.014 1.895 -0 -1.2 0
0.289 -0.016 1.965 -0 -1.2 0
0.298 -0.023 2.026 -0 -1.2 0
0.309 -0.018 2.115 -0 -1.2 0
0.321 -0.017 2.203 -0 -1.2 0
0.332 -0.026 2.274 -0 -1.2 0
0.348 -0.021 2.382 -0 -1.2 0
0.362 -0.023 2.482 -0 -1.2 0
0.376 -0.029 2.582 -0 -1.2 0
0.393 -0.031 2.701 -0 -1.2 0
0.411 -0.032 2.829 -0 -1.2 0
0.43 -0.034 2.968 -0 -1.2 0
0.454 -0.03 3.136 -0 -1.2 0
0.477 -0.036 3.294 -0 -1.2 0
0.505 -0.035 3.492 -0 -1.2 0
0.534 -0.038 3.7 -0 -1.2 0
0.572 -0.032 3.965 -0 -1.2 0
0.609 -0.034 4.232 -0 -1.2 0
0.651 -0.039 4.53 -0 -1.2 0
0.702 -0.041 4.886 -0 -1.2 0
0.76 -0.045 5.291 -0 -1.2 0
0.837 -0.037 5.844 -0 -1.2 0
0.918 -0.044 6.419 -0 -1.2 0
1.022 -0.047 7.151 -0 -1.2 0
1.151 -0.053 8.061 -0 -1.2 0
1.313 -0.064 9.21 -0 -1.2 0
1.52 -0.085 10.665 -0 -1.2 0
1.799 -0.117 12.635 -0 -1.2 0
2.236 -0.151 15.714 -0 -1.2 0
0.654 -0.992 4.321 -0 -1.2 0
0.658 -1.065 4.331 -0 -1.2 0
3.359 -1.322 23.39 -0 -1.2 0
3.361 -1.73 23.301 -0 -1.2 0
3.362 -2.135 23.216 -0 -1.2 0
3.001 -4.84 20.023 -0 -1.2 0
1.683 -4.497 10.767 -0 -1.2 0
1.659 -4.637 10.565 -0 -1.2 0
1.931 -5.465 12.299 -0 -1.2 0
1.809 -5.388 11.452 -0 -1.2 0
1.825 -5.638 11.505 -0 -1.2 0
1.824 -5.851 11.451 -0 -1.2 0
1.923 -6.341 12.027 -0 -1.2 0
1.726 -5.99 10.72 -0 -1.2 0
1.346 -5.025 8.253 -0 -1.2 0
1.101 -4.404 6.673 -0 -1.2 0
1.097 -4.519 6.613 -0 -1.2 0
1.218 -5.214 7.307 -0 -1.2 0
1.518 -6.473 9.13 -0 -1.2 0
1.521 -6.672 9.102 -0 -1.2 0
1.271 -5.878 7.531 -0 -1.2 0
1.477 -6.881 8.746 -0 -1.2 0
1.476 -7.066 8.693 -0 -1.2 0
1.556 -7.606 9.126 -0 -1.2 0
1.479 -7.466 8.615 -0 -1.2 0
1.336 -7.006 7.721 -0 -1.2 0
1.273 -6.884 7.301 -0 -1.2 0
1.266 -7.023 7.213 -0 -1.2 0
1.347 -7.615 7.649 -0 -1.2 0
1.451 -8.356 8.214 -0 -1.2 0
0.938 -5.802 5.188 -0 -1.2 0
0.904 -5.746 4.956 -0 -1.2 0
0.903 -5.88 4.923 -0 -1.2 0
0.216 -0.001 1.21 -0 -1.2 0
0.222 0 1.249 -0 -1.2 0
0.229 -0.005 1.282 -0 -1.2 0
0.236 -0.005 1.323 -0 -1.2 0
0.242 -0.006 1.363 -0 -1.2 0
0.25 -0.008 1.405 -0 -1.2 0
0.256 -0.018 1.438 -0 -1.2 0
0.264 -0.016 1.488 -0 -1.2 0
0.273 -0.015 1.537 -0 -1.2 0
0.281 -0.017 1.587 -0 -1.2 0
0.29 -0.019 1.637 -0 -1.2 0
0.3 -0.017 1.697 -0 -1.2 0
0.311 -0.012 1.765 -0 -1.2 0
0.323 -0.008 1.833 -0 -1.2 0
0.335 -0.007 1.901 -0 -1.2 0
0.345 -0.013 1.963 -0 -1.2 0
0.358 -0.016 2.033 -0 -1.2 0
0.371 -0.016 2.112 -0 -1.2 0
0.386 -0.014 2.2 -0 -1.2 0
0.4 -0.019 2.28 -0 -1.2 0
0.417 -0.018 2.379 -0 -1.2 0
0.436 -0.016 2.486 -0 -1.2 0
0.451 -0.025 2.577 -0 -1.2 0
0.471 -0.027 2.695 -0 -1.2 0
0.495 -0.024 2.833 -0 -1.2 0
0.517 -0.03 2.961 -0 -1.2 0
0.544 -0.03 3.118 -0 -1.2 0
0.574 -0.029 3.295 -0 -1.2 0
0.606 -0.031 3.482 -0 -1.2 0
0.642 -0.033 3.689 -0 -1.2 0
0.687 -0.027 3.954 -0 -1.2 0
0.732 -0.028 4.22 -0 -1.2 0
0.78 -0.038 4.496 -0 -1.2 0
0.841 -0.039 4.851 -0 -1.2 0
0.913 -0.038 5.274 -0 -1.2 0
1.005 -0.031 5.815 -0 -1.2 0
1.1 -0.04 6.367 -0 -1.2 0
1.228 -0.039 7.115 -0 -1.2 0
1.381 -0.047 8.002 -0 -1.2 0
1.574 -0.057 9.135 -0 -1.2 0
1.823 -0.075 10.584 -0 -1.2 0
2.17 -0.099 12.604 -0 -1.2 0
2.716 -0.122 15.788 -0 -1.2 0
4.386 -0.416 25.485 -0 -1.2 0
4.045 -2.108 23.167 -0 -1.2 0
4.033 -2.507 23.016 -0 -1.2 0
3.984 -2.886 22.662 -0 -1.2 0
3.99 -3.284 22.615 -0 -1.2 0
3.699 -4.937 20.599 -0 -1.2 0
1.551 -4.004 8.227 -0 -1.2 0
1.463 -3.976 7.724 -0 -1.2 0
2.164 -5.636 11.488 -0 -1.2 0
2.161 -5.847 11.434 -0 -1.2 0
2.162 -6.067 11.395 -0 -1.2 0
2.175 -6.32 11.423 -0 -1.2 0
2.134 -6.437 11.161 -0 -1.2 0
1.555 -5.099 8.04 -0 -1.2 0
1.268 -4.455 6.487 -0 -1.2 0
1.28 -4.619 6.522 -0 -1.2 0
1.462 -5.303 7.453 -0 -1.2 0
1.628 -5.979 8.293 -0 -1.2 0
1.802 -6.719 9.162 -0 -1.2 0
1.392 -5.541 7 -0 -1.2 0
1.191 -4.996 5.931 -0 -1.2 0
1.372 -5.777 6.834 -0 -1.2 0
1.833 -7.647 9.165 -0 -1.2 0
1.554 -6.79 7.701 -0 -1.2 0
1.658 -7.385 8.193 -0 -1.2 0
1.536 -7.087 7.537 -0 -1.2 0
1.501 -7.128 7.326 -0 -1.2 0
1.622 -7.839 7.893 -0 -1.2 0
1.664 -8.234 8.061 -0 -1.2 0
1.517 -7.772 7.293 -0 -1.2 0
1.483 -7.809 7.084 -0 -1.2 0
1.021 -5.755 4.791 -0 -1.2 0
0.249 -0.007 1.201 -0 -1.2 0
0.257 -0.012 1.233 -0 -1.2 0
0.266 -0.003 1.28 -0 -1.2 0
0.272 -0.01 1.313 -0 -1.2 0
0.281 -0.011 1.354 -0 -1.2 0
0.289 -0.013 1.394 -0 -1.2 0
0.298 -0.017 1.435 -0 -1.2 0
0.308 -0.014 1.485 -0 -1.2 0
0.317 -0.014 1.534 -0 -1.2 0
0.329 -0.009 1.592 -0 -1.2 0
0.34 -0.005 1.65 -0 -1.2 0
0.349 -0.015 1.692 -0 -1.2 0
0.362 -0.015 1.752 -0 -1.2 0
0.375 -0.012 1.82 -0 -1.2 0
0.388 -0.015 1.88 -0 -1.2 0
0.403 -0.011 1.957 -0 -1.2 0
0.417 -0.013 2.027 -0 -1.2 0
0.432 -0.018 2.097 -0 -1.2 0
0.451 -0.012 2.193 -0 -1.2 0
0.467 -0.017 2.273 -0 -1.2 0
0.487 -0.016 2.37 -0 -1.2 0
0.508 -0.014 2.477 -0 -1.2 0
0.527 -0.023 2.568 -0 -1.2 0
0.551 -0.025 2.685 -0 -1.2 0
0.577 -0.025 2.813 -0 -1.2 0
0.604 -0.027 2.95 -0 -1.2 0
0.632 -0.033 3.088 -0 -1.2 0
0.671 -0.025 3.282 -0 -1.2 0
0.709 -0.027 3.468 -0 -1.2 0
0.753 -0.026 3.683 -0 -1.2 0
0.802 -0.025 3.928 -0 -1.2 0
0.86 -0.022 4.211 -0 -1.2 0
0.913 -0.033 4.477 -0 -1.2 0
0.988 -0.03 4.848 -0 -1.2 0
1.074 -0.029 5.269 -0 -1.2 0
1.169 -0.034 5.739 -0 -1.2 0
1.285 -0.039 6.308 -0 -1.2 0
1.433 -0.038 7.041 -0 -1.2 0
1.621 -0.036 7.973 -0 -1.2 0
1.844 -0.049 9.07 -0 -1.2 0
2.139 -0.064 10.53 -0 -1.2 0
2.547 -0.086 12.539 -0 -1.2 0
3.139 -0.12 15.46 -0 -1.2 0
5.051 -0.401 24.858 -0 -1.2 0
4.674 -3.262 22.524 -0 -1.2 0
4.646 -3.643 22.325 -0 -1.2 0
4.597 -4.004 22.023 -0 -1.2 0
4.434 -4.273 21.173 -0 -1.2 0
4.452 -4.662 21.2 -0 -1.2 0
4.457 -5.042 21.163 -0 -1.2 0
2.787 -5.421 12.847 -0 -1.2 0
1.917 -4.198 8.749 -0 -1.2 0
1.814 -4.179 8.245 -0 -1.2 0
2.46 -5.536 11.211 -0 -1.2 0
2.403 -5.641 10.916 -0 -1.2 0
2.54 -6.13 11.507 -0 -1.2 0
2.475 -6.221 11.178 -0 -1.2 0
2.489 -6.472 11.202 -0 -1.2 0
1.499 -4.406 6.654 -0 -1.2 0
1.482 -4.499 6.552 -0 -1.2 0
1.523 -4.736 6.716 -0 -1.2 0
2.093 -6.36 9.263 -0 -1.2 0
2.134 -6.669 9.415 -0 -1.2 0
1.567 -5.286 6.842 -0 -1.2 0
2.286 -7.522 10.024 -0 -1.2 0
1.662 -5.875 7.215 -0 -1.2 0
1.33 -5.007 5.714 -0 -1.2 0
1.447 -5.517 6.211 -0 -1.2 0
1.964 -7.381 8.457 -0 -1.2 0
1.975 -7.626 8.471 -0 -1.2 0
1.637 -6.643 6.967 -0 -1.2 0
1.639 -6.828 6.945 -0 -1.2 0
1.941 -8.147 8.218 -0 -1.2 0
1.83 -7.941 7.708 -0 -1.2 0
1.648 -7.422 6.891 -0 -1.2 0
1.907 -8.688 7.963 -0 -1.2 0
1.174 -5.798 4.818 -0 -1.2 0
0.285 0 1.207 -0 -1.2 0
0.294 -0.003 1.239 -0 -1.2 0
0.302 -0.002 1.279 -0 -1.2 0
0.311 -0.008 1.311 -0 -1.2 0
0.322 -0.003 1.359 -0 -1.2 0
0.329 -0.012 1.392 -0 -1.2 0
0.343 -0.002 1.448 -0 -1.2 0
0.35 -0.013 1.482 -0 -1.2 0
0.362 -0.012 1.531 -0 -1.2 0
0.375 -0.007 1.587 -0 -1.2 0
0.387 -0.01 1.638 -0 -1.2 0
0.399 -0.013 1.688 -0 -1.2 0
0.413 -0.013 1.747 -0 -1.2 0
0.428 -0.01 1.815 -0 -1.2 0
0.443 -0.013 1.874 -0 -1.2 0
0.46 -0.009 1.951 -0 -1.2 0
0.476 -0.011 2.02 -0 -1.2 0
0.495 -0.011 2.098 -0 -1.2 0
0.513 -0.013 2.176 -0 -1.2 0
0.533 -0.014 2.265 -0 -1.2 0
0.557 -0.013 2.361 -0 -1.2 0
0.579 -0.015 2.46 -0 -1.2 0
0.604 -0.017 2.566 -0 -1.2 0
0.63 -0.022 2.674 -0 -1.2 0
0.661 -0.018 2.81 -0 -1.2 0
0.694 -0.021 2.946 -0 -1.2 0
0.726 -0.027 3.083 -0 -1.2 0
0.768 -0.022 3.267 -0 -1.2 0
0.812 -0.024 3.452 -0 -1.2 0
0.859 -0.025 3.657 -0 -1.2 0
0.921 -0.018 3.918 -0 -1.2 0
0.982 -0.019 4.181 -0 -1.2 0
1.047 -0.028 4.454 -0 -1.2 0
1.133 -0.025 4.822 -0 -1.2 0
1.235 -0.02 5.26 -0 -1.2 0
1.344 -0.024 5.727 -0 -1.2 0
1.467 -0.035 6.253 -0 -1.2 0
1.64 -0.032 6.992 -0 -1.2 0
1.855 -0.031 7.907 -0 -1.2 0
2.121 -0.036 9.047 -0 -1.2 0
2.461 -0.05 10.497 -0 -1.2 0
2.936 -0.068 12.522 -0 -1.2 0
3.609 -0.102 15.394 -0 -1.2 0
5.139 -0.458 21.889 -0 -1.2 0
5.152 -0.847 21.884 -0 -1.2 0
5.164 -1.235 21.882 -0 -1.2 0
5.175 -1.624 21.874 -0 -1.2 0
5.184 -2.014 21.858 -0 -1.2 0
5.199 -2.405 21.866 -0 -1.2 0
5.21 -2.795 21.857 -0 -1.2 0
5.217 -3.185 21.832 -0 -1.2 0
5.228 -3.578 21.828 -0 -1.2 0
5.164 -3.928 21.5 -0 -1.2 0
5.177 -4.32 21.504 -0 -1.2 0
5.185 -4.709 21.481 -0 -1.2 0
5.138 -5.057 21.232 -0 -1.2 0
2.193 -3.883 8.81 -0 -1.2 0
2.189 -4.041 8.77 -0 -1.2 0
3.069 -5.5 12.327 -0 -1.2 0
2.739 -5.224 10.956 -0 -1.2 0
2.016 -4.257 7.999 -0 -1.2 0
2.132 -4.61 8.445 -0 -1.2 0
2.882 -6.118 11.44 -0 -1.2 0
1.764 -4.255 6.921 -0 -1.2 0
1.744 -4.355 6.822 -0 -1.2 0
1.688 -4.381 6.583 -0 -1.2 0
2.052 -5.286 8.007 -0 -1.2 0
1.75 -4.79 6.789 -0 -1.2 0
2.014 -5.537 7.807 -0 -1.2 0
2.352 -6.513 9.118 -0 -1.2 0
2.989 -8.285 11.589 -0 -1.2 0
2.611 -7.581 10.072 -0 -1.2 0
2.571 -7.709 9.886 -0 -1.2 0
2.699 -8.289 10.347 -0 -1.2 0
1.948 -6.406 7.402 -0 -1.2 0
2.047 -6.88 7.762 -0 -1.2 0
2.378 -8.078 9.008 -0 -1.2 0
1.863 -6.692 6.996 -0 -1.2 0
1.838 -6.795 6.877 -0 -1.2 0
2.023 -7.602 7.56 -0 -1.2 0
1.901 -7.385 7.062 -0 -1.2 0
1.788 -7.185 6.61 -0 -1.2 0
2.162 -8.748 7.988 -0 -1.2 0
1.716 -7.303 6.287 -0 -1.2 0
0.321 -0.004 1.196 -0 -1.2 0
0.333 0.004 1.243 -0 -1.2 0
0.342 0 1.275 -0 -1.2 0
0.352 -0.001 1.314 -0 -1.2 0
0.363 -0.001 1.355 -0 -1.2 0
0.372 -0.01 1.388 -0 -1.2 0
0.386 -0.006 1.436 -0 -1.2 0
0.399 -0.005 1.483 -0 -1.2 0
0.409 -0.01 1.525 -0 -1.2 0
0.425 -0.006 1.582 -0 -1.2 0
0.438 -0.008 1.631 -0 -1.2 0
0.454 -0.006 1.689 -0 -1.2 0
0.469 -0.006 1.748 -0 -1.2 0
0.487 -0.003 1.814 -0 -1.2 0
0.503 -0.006 1.874 -0 -1.2 0
0.521 -0.007 1.942 -0 -1.2 0
0.539 -0.009 2.011 -0 -1.2 0
0.558 -0.013 2.079 -0 -1.2 0
0.579 -0.016 2.157 -0 -1.2 0
0.605 -0.012 2.253 -0 -1.2 0
0.628 -0.015 2.34 -0 -1.2 0
0.655 -0.017 2.437 -0 -1.2 0
0.685 -0.014 2.552 -0 -1.2 0
0.711 -0.022 2.651 -0 -1.2 0
0.75 -0.015 2.794 -0 -1.2 0
0.784 -0.02 2.921 -0 -1.2 0
0.826 -0.02 3.074 -0 -1.2 0
0.872 -0.018 3.247 -0 -1.2 0
0.923 -0.017 3.441 -0 -1.2 0
0.983 -0.013 3.662 -0 -1.2 0
1.043 -0.016 3.883 -0 -1.2 0
1.113 -0.018 4.144 -0 -1.2 0
1.189 -0.023 4.425 -0 -1.2 0
1.291 -0.014 4.81 -0 -1.2 0
1.392 -0.021 5.186 -0 -1.2 0
1.522 -0.021 5.669 -0 -1.2 0
1.667 -0.028 6.21 -0 -1.2 0
1.867 -0.023 6.952 -0 -1.2 0
2.11 -0.021 7.86 -0 -1.2 0
2.426 -0.019 9.038 -0 -1.2 0
2.802 -0.036 10.438 -0 -1.2 0
3.329 -0.056 12.399 -0 -1.2 0
4.098 -0.086 15.258 -0 -1.2 0
6.346 -0.374 23.602 -0 -1.2 0
6.294 -0.8 23.356 -0 -1.2 0
5.726 -3.093 20.961 -0 -1.2 0
5.747 -3.476 20.988 -0 -1.2 0
5.809 -3.883 21.171 -0 -1.2 0
5.849 -4.285 21.27 -0 -1.2 0
5.801 -4.639 21.049 -0 -1.2 0
5.77 -4.999 20.887 -0 -1.2 0
3.129 -4.213 11.142 -0 -1.2 0
3.113 -4.403 11.059 -0 -1.2 0
3.093 -4.588 10.963 -0 -1.2 0
3.106 -4.811 10.983 -0 -1.2 0
2.275 -3.944 7.991 -0 -1.2 0
3.075 -5.191 10.821 -0 -1.2 0
3.125 -5.474 10.973 -0 -1.2 0
2.429 -4.642 8.482 -0 -1.2 0
2.293 -4.595 7.978 -0 -1.2 0
2.284 -4.74 7.926 -0 -1.2 0
1.855 -4.163 6.401 -0 -1.2 0
1.857 -4.298 6.39 -0 -1.2 0
2.33 -5.318 8.026 -0 -1.2 0
2.316 -5.465 7.961 -0 -1.2 0
2.06 -5.118 7.047 -0 -1.2 0
2.133 -5.428 7.284 -0 -1.2 0
2.802 -7.052 9.574 -0 -1.2 0
3.138 -8.033 10.704 -0 -1.2 0
2.292 -6.299 7.766 -0 -1.2 0
2.649 -7.354 8.969 -0 -1.2 0
2.499 -7.196 8.43 -0 -1.2 0
2.858 -8.339 9.624 -0 -1.2 0
2.922 -8.758 9.813 -0 -1.2 0
1.962 -6.344 6.533 -0 -1.2 0
2.114 -6.952 7.022 -0 -1.2 0
2.52 -8.349 8.362 -0 -1.2 0
2.164 -7.495 7.143 -0 -1.2 0
2.003 -7.19 6.579 -0 -1.2 0
2.002 -7.383 6.551 -0 -1.2 0
1.927 -7.33 6.278 -0 -1.2 0
0.354 -0.003 1.193 -0 -1.2 0
0.368 0.005 1.238 -0 -1.2 0
0.376 -0.006 1.263 -0 -1.2 0
0.389 0 1.309 -0 -1.2 0
0.399 -0.007 1.342 -0 -1.2 0
0.411 -0.009 1.381 -0 -1.2 0
0.425 -0.005 1.429 -0 -1.2 0
0.439 -0.003 1.477 -0 -1.2 0
0.454 -0.003 1.525 -0 -1.2 0
0.466 -0.01 1.567 -0 -1.2 0
0.483 -0.006 1.623 -0 -1.2 0
0.499 -0.01 1.673 -0 -1.2 0
0.515 -0.01 1.731 -0 -1.2 0
0.535 -0.006 1.798 -0 -1.2 0
0.553 -0.009 1.856 -0 -1.2 0
0.573 -0.01 1.923 -0 -1.2 0
0.594 -0.012 1.991 -0 -1.2 0
0.616 -0.011 2.068 -0 -1.2 0
0.64 -0.014 2.145 -0 -1.2 0
0.666 -0.014 2.231 -0 -1.2 0
0.694 -0.012 2.327 -0 -1.2 0
0.724 -0.014 2.423 -0 -1.2 0
0.758 -0.011 2.537 -0 -1.2 0
0.79 -0.016 2.643 -0 -1.2 0
0.824 -0.02 2.759 -0 -1.2 0
0.87 -0.014 2.911 -0 -1.2 0
0.912 -0.017 3.054 -0 -1.2 0
0.967 -0.012 3.236 -0 -1.2 0
1.019 -0.016 3.408 -0 -1.2 0
1.079 -0.017 3.609 -0 -1.2 0
1.156 -0.01 3.866 -0 -1.2 0
1.231 -0.013 4.116 -0 -1.2 0
1.315 -0.018 4.394 -0 -1.2 0
1.425 -0.012 4.766 -0 -1.2 0
1.538 -0.018 5.141 -0 -1.2 0
1.67 -0.025 5.581 -0 -1.2 0
1.834 -0.028 6.127 -0 -1.2 0
2.057 -0.02 6.873 -0 -1.2 0
2.335 -0.013 7.801 -0 -1.2 0
2.674 -0.014 8.931 -0 -1.2 0
3.11 -0.022 10.387 -0 -1.2 0
3.677 -0.045 12.274 -0 -1.2 0
4.613 -0.053 15.396 -0 -1.2 0
6.875 -0.366 22.906 -0 -1.2 0
6.185 -1.922 20.435 -0 -1.2 0
6.22 -2.298 20.511 -0 -1.2 0
6.231 -2.67 20.503 -0 -1.2 0
6.339 -3.074 20.823 -0 -1.2 0
3.489 -4.875 11.116 -0 -1.2 0
3.855 -5.519 12.267 -0 -1.2 0
3.225 -4.983 10.227 -0 -1.2 0
3.47 -5.502 10.986 -0 -1.2 0
2.7 -4.843 8.489 -0 -1.2 0
2.04 -4.161 6.363 -0 -1.2 0
3.595 -7.315 11.202 -0 -1.2 0
3.556 -7.741 11.024 -0 -1.2 0
2.567 -6.031 7.914 -0 -1.2 0
3.224 -7.569 9.938 -0 -1.2 0
3.261 -7.885 10.026 -0 -1.2 0
2.672 -6.827 8.179 -0 -1.2 0
2.784 -7.284 8.5 -0 -1.2 0
3.104 -8.257 9.46 -0 -1.2 0
3.249 -8.863 9.883 -0 -1.2 0
2.166 -6.38 6.538 -0 -1.2 0
3.145 -9.119 9.504 -0 -1.2 0
3.111 -9.296 9.374 -0 -1.2 0
2.174 -6.947 6.504 -0 -1.2 0
2.192 -7.191 6.538 -0 -1.2 0
2.216 -7.458 6.587 -0 -1.2 0
2.135 -7.415 6.321 -0 -1.2 0
0.386 -0.002 1.188 -0 -1.2 0
0.399 0 1.227 -0 -1.2 0
0.412 0.001 1.265 -0 -1.2 0
0.423 -0.005 1.298 -0 -1.2 0
0.438 0 1.344 -0 -1.2 0
0.449 -0.007 1.376 -0 -1.2 0
0.464 -0.004 1.424 -0 -1.2 0
0.478 -0.008 1.464 -0 -1.2 0
0.496 -0.001 1.519 -0 -1.2 0
0.514 0.003 1.575 -0 -1.2 0
0.528 -0.005 1.616 -0 -1.2 0
0.547 -0.003 1.673 -0 -1.2 0
0.566 -0.003 1.73 -0 -1.2 0
0.586 -0.004 1.788 -0 -1.2 0
0.605 -0.007 1.846 -0 -1.2 0
0.627 -0.008 1.912 -0 -1.2 0
0.649 -0.01 1.98 -0 -1.2 0
0.675 -0.009 2.056 -0 -1.2 0
0.705 -0.003 2.15 -0 -1.2 0
0.728 -0.012 2.218 -0 -1.2 0
0.763 -0.006 2.321 -0 -1.2 0
0.792 -0.012 2.407 -0 -1.2 0
0.829 -0.009 2.521 -0 -1.2 0
0.864 -0.013 2.626 -0 -1.2 0
0.904 -0.014 2.75 -0 -1.2 0
0.952 -0.011 2.891 -0 -1.2 0
0.999 -0.014 3.034 -0 -1.2 0
1.055 -0.012 3.204 -0 -1.2 0
1.115 -0.013 3.385 -0 -1.2 0
1.181 -0.014 3.583 -0 -1.2 0
1.26 -0.011 3.82 -0 -1.2 0
1.345 -0.011 4.076 -0 -1.2 0
1.442 -0.012 4.37 -0 -1.2 0
1.562 -0.007 4.73 -0 -1.2 0
1.687 -0.011 5.11 -0 -1.2 0
1.836 -0.016 5.556 -0 -1.2 0
2.009 -0.022 6.078 -0 -1.2 0
2.26 -0.01 6.836 -0 -1.2 0
2.549 -0.008 7.709 -0 -1.2 0
2.94 -0.001 8.885 -0 -1.2 0
3.437 -0.002 10.384 -0 -1.2 0
4.064 -0.023 12.273 -0 -1.2 0
5.066 -0.034 15.291 -0 -1.2 0
6.665 -1.161 20.003 -0 -1.2 0
6.665 -1.526 19.966 -0 -1.2 0
6.79 -1.903 20.303 -0 -1.2 0
4.189 -4.779 12.181 -0 -1.2 0
4.104 -4.932 11.908 -0 -1.2 0
4.094 -5.154 11.859 -0 -1.2 0
3.39 -4.633 9.786 -0 -1.2 0
3.387 -4.824 9.76 -0 -1.2 0
3.752 -5.452 10.798 -0 -1.2 0
3.675 -5.575 10.555 -0 -1.2 0
2.992 -5.076 8.544 -0 -1.2 0
2.222 -4.154 6.312 -0 -1.2 0
3.552 -6.94 10.046 -0 -1.2 0
3.572 -7.207 10.084 -0 -1.2 0
3.515 -7.337 9.899 -0 -1.2 0
3.505 -7.554 9.848 -0 -1.2 0
3.511 -7.803 9.841 -0 -1.2 0
4.177 -9.396 11.691 -0 -1.2 0
3.021 -7.265 8.415 -0 -1.2 0
3.702 -8.962 10.302 -0 -1.2 0
3.699 -9.227 10.266 -0 -1.2 0
2.398 -6.66 6.594 -0 -1.2 0
2.284 -6.566 6.262 -0 -1.2 0
2.285 -6.75 6.248 -0 -1.2 0
2.267 -6.889 6.18 -0 -1.2 0
2.426 -7.512 6.596 -0 -1.2 0
2.181 -7.032 5.908 -0 -1.2 0
0.421 -0.001 1.183 -0 -1.2 0
0.435 0.001 1.22 -0 -1.2 0
0.449 0.002 1.259 -0 -1.2 0
0.461 -0.003 1.29 -0 -1.2 0
0.475 -0.005 1.329 -0 -1.2 0
0.492 0 1.375 -0 -1.2 0
0.506 -0.002 1.415 -0 -1.2 0
0.524 0 1.462 -0 -1.2 0
0.541 0 1.509 -0 -1.2 0
0.558 -0.001 1.558 -0 -1.2 0
0.574 -0.009 1.598 -0 -1.2 0
0.597 -0.001 1.661 -0 -1.2 0
0.615 -0.006 1.71 -0 -1.2 0
0.639 -0.002 1.776 -0 -1.2 0
0.663 0 1.842 -0 -1.2 0
0.681 -0.011 1.891 -0 -1.2 0
0.709 -0.008 1.966 -0 -1.2 0
0.736 -0.007 2.041 -0 -1.2 0
0.767 -0.004 2.125 -0 -1.2 0
0.798 -0.005 2.21 -0 -1.2 0
0.832 -0.004 2.303 -0 -1.2 0
0.864 -0.009 2.389 -0 -1.2 0
0.902 -0.009 2.492 -0 -1.2 0
0.943 -0.011 2.604 -0 -1.2 0
0.991 -0.006 2.736 -0 -1.2 0
1.037 -0.011 2.859 -0 -1.2 0
1.091 -0.011 3.008 -0 -1.2 0
1.153 -0.008 3.177 -0 -1.2 0
1.212 -0.015 3.336 -0 -1.2 0
1.287 -0.013 3.543 -0 -1.2 0
1.376 -0.007 3.785 -0 -1.2 0
1.472 -0.005 4.048 -0 -1.2 0
1.569 -0.012 4.311 -0 -1.2 0
1.699 -0.007 4.667 -0 -1.2 0
1.841 -0.007 5.053 -0 -1.2 0
2.002 -0.011 5.493 -0 -1.2 0
2.192 -0.018 6.01 -0 -1.2 0
2.457 -0.009 6.732 -0 -1.2 0
2.784 -0.002 7.623 -0 -1.2 0
3.194 0 8.739 -0 -1.2 0
3.724 -0.001 10.185 -0 -1.2 0
4.423 -0.016 12.091 -0 -1.2 0
5.627 -0.001 15.375 -0 -1.2 0
7.087 -0.07 19.347 -0 -1.2 0
7.147 -0.423 19.48 -0 -1.2 0
7.266 -0.776 19.776 -0 -1.2 0
4.45 -5.131 11.711 -0 -1.2 0
3.524 -4.459 9.246 -0 -1.2 0
3.462 -4.58 9.065 -0 -1.2 0
3.451 -4.753 9.023 -0 -1.2 0
4.156 -5.741 10.856 -0 -1.2 0
4.465 -6.336 11.643 -0 -1.2 0
4.272 -6.341 11.118 -0 -1.2 0
2.441 -4.181 6.319 -0 -1.2 0
3.956 -6.615 10.233 -0 -1.2 0
3.977 -7.346 10.224 -0 -1.2 0
4.024 -7.668 10.326 -0 -1.2 0
3.848 -7.612 9.852 -0 -1.2 0
4.115 -8.333 10.514 -0 -1.2 0
4.257 -8.862 10.855 -0 -1.2 0
3.739 -8.141 9.505 -0 -1.2 0
3.258 -7.431 8.258 -0 -1.2 0
3.583 -8.323 9.065 -0 -1.2 0
3.824 -9.087 9.653 -0 -1.2 0
3.751 -9.2 9.446 -0 -1.2 0
3.727 -9.419 9.36 -0 -1.2 0
2.587 -7.006 6.468 -0 -1.2 0
3.434 -9.269 8.575 -0 -1.2 0
2.549 -7.307 6.336 -0 -1.2 0
2.605 -7.659 6.459 -0 -1.2 0
0.452 0 1.177 -0 -1.2 0
0.464 -0.004 1.208 -0 -1.2 0
0.481 0.003 1.252 -0 -1.2 0
0.494 -0.002 1.283 -0 -1.2 0
0.512 0.003 1.329 -0 -1.2 0
0.525 -0.005 1.36 -0 -1.2 0
0.543 -0.001 1.407 -0 -1.2 0
0.561 0 1.453 -0 -1.2 0
0.58 0.001 1.5 -0 -1.2 0
0.594 -0.012 1.532 -0 -1.2 0
0.619 -0.002 1.595 -0 -1.2 0
0.641 0 1.651 -0 -1.2 0
0.662 0 1.707 -0 -1.2 0
0.683 -0.006 1.755 -0 -1.2 0
0.708 -0.004 1.82 -0 -1.2 0
0.734 -0.004 1.886 -0 -1.2 0
0.758 -0.011 1.944 -0 -1.2 0
0.791 -0.005 2.026 -0 -1.2 0
0.82 -0.008 2.101 -0 -1.2 0
0.854 -0.007 2.184 -0 -1.2 0
0.891 -0.006 2.277 -0 -1.2 0
0.925 -0.011 2.361 -0 -1.2 0
0.965 -0.011 2.464 -0 -1.2 0
1.013 -0.008 2.583 -0 -1.2 0
1.061 -0.008 2.705 -0 -1.2 0
1.113 -0.009 2.834 -0 -1.2 0
1.166 -0.014 2.965 -0 -1.2 0
1.232 -0.012 3.132 -0 -1.2 0
1.298 -0.015 3.299 -0 -1.2 0
1.376 -0.015 3.494 -0 -1.2 0
1.469 -0.012 3.725 -0 -1.2 0
1.561 -0.016 3.957 -0 -1.2 0
1.683 -0.011 4.263 -0 -1.2 0
1.816 -0.009 4.597 -0 -1.2 0
1.972 -0.007 4.987 -0 -1.2 0
2.135 -0.016 5.396 -0 -1.2 0
2.339 -0.021 5.907 -0 -1.2 0
2.613 -0.015 6.593 -0 -1.2 0
2.96 -0.007 7.466 -0 -1.2 0
3.382 -0.008 8.524 -0 -1.2 0
3.931 -0.011 9.898 -0 -1.2 0
4.69 -0.019 11.802 -0 -1.2 0
5.956 -0.003 14.978 -0 -1.2 0
7.602 -0.054 19.102 -0 -1.2 0
8.467 -0.332 21.249 -0 -1.2 0
4.781 -4.668 11.661 -0 -1.2 0
4.971 -5.294 12.088 -0 -1.2 0
4.773 -5.358 11.587 -0 -1.2 0
4.676 -5.5 11.332 -0 -1.2 0
3.671 -4.719 8.874 -0 -1.2 0
3.623 -4.852 8.744 -0 -1.2 0
4.324 -5.816 10.423 -0 -1.2 0
4.336 -6.054 10.436 -0 -1.2 0
2.653 -4.227 6.361 -0 -1.2 0
3.452 -5.383 8.274 -0 -1.2 0
4.2 -7.022 10.018 -0 -1.2 0
4.082 -7.081 9.718 -0 -1.2 0
4.061 -7.281 9.65 -0 -1.2 0
4.048 -7.497 9.6 -0 -1.2 0
4.121 -7.859 9.756 -0 -1.2 0
4.388 -8.572 10.368 -0 -1.2 0
4.708 -9.419 11.103 -0 -1.2 0
3.473 -7.411 8.165 -0 -1.2 0
4.425 -9.471 10.388 -0 -1.2 0
3.838 -8.591 8.988 -0 -1.2 0
3.715 -8.594 8.677 -0 -1.2 0
4.067 -9.603 9.482 -0 -1.2 0
2.783 -7.053 6.465 -0 -1.2 0
2.695 -7.05 6.242 -0 -1.2 0
2.523 -6.845 5.828 -0 -1.2 0
2.748 -7.583 6.333 -0 -1.2 0
0.482 0 1.171 -0 -1.2 0
0.498 0.002 1.208 -0 -1.2 0
0.512 -0.002 1.239 -0 -1.2 0
0.531 0.004 1.284 -0 -1.2 0
0.544 -0.003 1.315 -0 -1.2 0
0.56 -0.004 1.353 -0 -1.2 0
0.577 -0.007 1.391 -0 -1.2 0
0.6 0.001 1.444 -0 -1.2 0
0.62 0.002 1.49 -0 -1.2 0
0.634 -0.011 1.522 -0 -1.2 0
0.657 -0.007 1.577 -0 -1.2 0
0.678 -0.01 1.624 -0 -1.2 0
0.705 -0.004 1.687 -0 -1.2 0
0.729 -0.005 1.743 -0 -1.2 0
0.75 -0.014 1.792 -0 -1.2 0
0.781 -0.008 1.864 -0 -1.2 0
0.809 -0.01 1.929 -0 -1.2 0
0.841 -0.009 2.003 -0 -1.2 0
0.873 -0.01 2.076 -0 -1.2 0
0.908 -0.01 2.159 -0 -1.2 0
0.947 -0.008 2.25 -0 -1.2 0
0.99 -0.005 2.351 -0 -1.2 0
1.031 -0.009 2.444 -0 -1.2 0
1.082 -0.006 2.562 -0 -1.2 0
1.133 -0.006 2.681 -0 -1.2 0
1.185 -0.011 2.801 -0 -1.2 0
1.245 -0.012 2.939 -0 -1.2 0
1.308 -0.015 3.086 -0 -1.2 0
1.384 -0.015 3.261 -0 -1.2 0
1.462 -0.019 3.444 -0 -1.2 0
1.564 -0.011 3.682 -0 -1.2 0
1.664 -0.016 3.911 -0 -1.2 0
1.783 -0.017 4.187 -0 -1.2 0
1.924 -0.014 4.517 -0 -1.2 0
2.087 -0.014 4.893 -0 -1.2 0
2.264 -0.019 5.307 -0 -1.2 0
2.475 -0.026 5.793 -0 -1.2 0
2.771 -0.017 6.481 -0 -1.2 0
3.135 -0.01 7.325 -0 -1.2 0
3.57 -0.013 8.335 -0 -1.2 0
4.116 -0.026 9.602 -0 -1.2 0
4.999 -0.011 11.649 -0 -1.2 0
6.071 -0.042 14.138 -0 -1.2 0
7.869 -0.071 18.307 -0 -1.2 0
5.539 -4.729 12.579 -0 -1.2 0
5.131 -4.921 11.619 -0 -1.2 0
5.045 -5.086 11.405 -0 -1.2 0
5.05 -5.56 11.387 -0 -1.2 0
4.88 -5.636 10.987 -0 -1.2 0
3.837 -4.83 8.622 -0 -1.2 0
4.664 -5.878 10.468 -0 -1.2 0
4.672 -6.114 10.472 -0 -1.2 0
2.852 -4.26 6.373 -0 -1.2 0
4.409 -6.263 9.849 -0 -1.2 0
4.41 -6.487 9.836 -0 -1.2 0
3.618 -5.874 8.042 -0 -1.2 0
4.213 -7.362 9.319 -0 -1.2 0
4.312 -7.754 9.521 -0 -1.2 0
4.831 -8.848 10.649 -0 -1.2 0
3.672 -7.387 8.063 -0 -1.2 0
2.682 -5.81 5.874 -0 -1.2 0
4.382 -9.175 9.588 -0 -1.2 0
4.337 -9.367 9.469 -0 -1.2 0
3.869 -8.708 8.428 -0 -1.2 0
4.731 -10.761 10.285 -0 -1.2 0
4.021 -9.562 8.722 -0 -1.2 0
2.943 -7.447 6.365 -0 -1.2 0
2.946 -7.669 6.359 -0 -1.2 0
0.515 0 1.163 -0 -1.2 0
0.532 0.003 1.201 -0 -1.2 0
0.55 0.005 1.237 -0 -1.2 0
0.564 0 1.267 -0 -1.2 0
0.581 -0.002 1.304 -0 -1.2 0
0.602 0.002 1.349 -0 -1.2 0
0.62 0 1.387 -0 -1.2 0
0.641 0.002 1.433 -0 -1.2 0
0.659 -0.002 1.472 -0 -1.2 0
0.677 -0.01 1.51 -0 -1.2 0
0.703 -0.006 1.564 -0 -1.2 0
0.724 -0.009 1.611 -0 -1.2 0
0.749 -0.008 1.666 -0 -1.2 0
0.779 -0.003 1.728 -0 -1.2 0
0.805 -0.007 1.783 -0 -1.2 0
0.831 -0.012 1.839 -0 -1.2 0
0.864 -0.009 1.912 -0 -1.2 0
0.898 -0.007 1.983 -0 -1.2 0
0.928 -0.014 2.049 -0 -1.2 0
0.966 -0.013 2.13 -0 -1.2 0
1.012 -0.006 2.228 -0 -1.2 0
1.055 -0.008 2.32 -0 -1.2 0
1.105 -0.004 2.428 -0 -1.2 0
1.148 -0.012 2.519 -0 -1.2 0
1.211 -0.004 2.654 -0 -1.2 0
1.262 -0.012 2.764 -0 -1.2 0
1.325 -0.013 2.9 -0 -1.2 0
1.393 -0.017 3.045 -0 -1.2 0
1.473 -0.016 3.217 -0 -1.2 0
1.562 -0.016 3.407 -0 -1.2 0
1.663 -0.014 3.624 -0 -1.2 0
1.773 -0.015 3.859 -0 -1.2 0
1.9 -0.016 4.131 -0 -1.2 0
2.039 -0.02 4.43 -0 -1.2 0
2.212 -0.018 4.801 -0 -1.2 0
2.41 -0.018 5.226 -0 -1.2 0
2.631 -0.027 5.698 -0 -1.2 0
2.926 -0.024 6.332 -0 -1.2 0
3.323 -0.013 7.182 -0 -1.2 0
3.77 -0.02 8.142 -0 -1.2 0
4.337 -0.033 9.357 -0 -1.2 0
5.254 -0.02 11.323 -0 -1.2 0
6.395 -0.045 13.77 -0 -1.2 0
8.244 -0.076 17.73 -0 -1.2 0
5.888 -4.963 12.389 -0 -1.2 0
5.083 -4.644 10.683 -0 -1.2 0
5.316 -5.503 11.13 -0 -1.2 0
5.235 -5.667 10.947 -0 -1.2 0
4.068 -4.812 8.495 -0 -1.2 0
4.031 -4.961 8.409 -0 -1.2 0
5.861 -7.025 12.208 -0 -1.2 0
3.057 -4.284 6.358 -0 -1.2 0
4.693 -6.265 9.748 -0 -1.2 0
4.731 -6.534 9.815 -0 -1.2 0
5.049 -7.151 10.458 -0 -1.2 0
5.262 -7.675 10.886 -0 -1.2 0
4.021 -6.297 8.306 -0 -1.2 0
4.52 -7.424 9.309 -0 -1.2 0
4.847 -8.411 9.949 -0 -1.2 0
3.933 -7.224 8.062 -0 -1.2 0
3.891 -7.375 7.963 -0 -1.2 0
4.649 -8.897 9.497 -0 -1.2 0
4.643 -9.162 9.47 -0 -1.2 0
5.081 -10.246 10.343 -0 -1.2 0
4.617 -9.685 9.383 -0 -1.2 0
4.584 -9.914 9.298 -0 -1.2 0
3.115 -7.235 6.309 -0 -1.2 0
3.949 -9.193 7.98 -0 -1.2 0
3.509 -8.511 7.076 -0 -1.2 0
0.547 0.008 1.162 -0 -1.2 0
0.562 0.004 1.191 -0 -1.2 0
0.58 0.005 1.228 -0 -1.2 0
0.595 0 1.258 -0 -1.2 0
0.615 -0.001 1.294 -0 -1.2 0
0.636 0.003 1.339 -0 -1.2 0
0.651 -0.006 1.37 -0 -1.2 0
0.674 -0.003 1.414 -0 -1.2 0
0.696 -0.002 1.459 -0 -1.2 0
0.719 -0.003 1.505 -0 -1.2 0
0.742 -0.005 1.55 -0 -1.2 0
0.765 -0.008 1.597 -0 -1.2 0
0.792 -0.007 1.65 -0 -1.2 0
0.819 -0.009 1.705 -0 -1.2 0
0.847 -0.012 1.76 -0 -1.2 0
0.878 -0.011 1.822 -0 -1.2 0
0.909 -0.012 1.885 -0 -1.2 0
0.945 -0.011 1.957 -0 -1.2 0
0.977 -0.017 2.021 -0 -1.2 0
1.022 -0.012 2.109 -0 -1.2 0
1.066 -0.009 2.198 -0 -1.2 0
1.111 -0.011 2.288 -0 -1.2 0
1.168 -0.002 2.403 -0 -1.2 0
1.218 -0.006 2.502 -0 -1.2 0
1.268 -0.014 2.601 -0 -1.2 0
1.334 -0.01 2.734 -0 -1.2 0
1.397 -0.016 2.861 -0 -1.2 0
1.469 -0.019 3.004 -0 -1.2 0
1.546 -0.024 3.156 -0 -1.2 0
1.635 -0.026 3.334 -0 -1.2 0
1.747 -0.02 3.558 -0 -1.2 0
1.875 -0.013 3.815 -0 -1.2 0
1.996 -0.021 4.057 -0 -1.2 0
2.144 -0.024 4.353 -0 -1.2 0
2.314 -0.028 4.693 -0 -1.2 0
2.537 -0.022 5.138 -0 -1.2 0
2.774 -0.027 5.612 -0 -1.2 0
3.065 -0.032 6.193 -0 -1.2 0
3.481 -0.02 7.024 -0 -1.2 0
3.959 -0.023 7.981 -0 -1.2 0
4.532 -0.04 9.125 -0 -1.2 0
5.488 -0.027 11.039 -0 -1.2 0
6.692 -0.049 13.444 -0 -1.2 0
8.638 -0.075 17.335 -0 -1.2 0
9.134 -0.371 18.31 -0 -1.2 0
9.159 -0.723 18.342 -0 -1.2 0
9.612 -1.447 19.211 -0 -1.2 0
9.384 -2.162 18.717 -0 -1.2 0
9.453 -2.535 18.837 -0 -1.2 0
9.443 -2.897 18.799 -0 -1.2 0
9.444 -3.263 18.782 -0 -1.2 0
9.479 -3.637 18.83 -0 -1.2 0
9.549 -4.027 18.952 -0 -1.2 0
9.563 -4.405 18.961 -0 -1.2 0
9.539 -4.769 18.894 -0 -1.2 0
9.562 -5.153 18.918 -0 -1.2 0
9.589 -5.543 18.953 -0 -1.2 0
6.503 -4.355 12.844 -0 -1.2 0
6.367 -4.54 12.563 -0 -1.2 0
6.336 -4.776 12.487 -0 -1.2 0
9.531 -7.045 18.76 -0 -1.2 0
6.262 -5.241 12.318 -0 -1.2 0
5.641 -5.524 11.061 -0 -1.2 0
5.568 -5.7 10.906 -0 -1.2 0
4.23 -4.936 8.268 -0 -1.2 0
3.292 -4.21 6.432 -0 -1.2 0
3.241 -4.302 6.324 -0 -1.2 0
4.567 -5.856 8.895 -0 -1.2 0
4.753 -6.271 9.246 -0 -1.2 0
5.655 -7.534 10.984 -0 -1.2 0
4.477 -6.381 8.687 -0 -1.2 0
4.39 -6.487 8.509 -0 -1.2 0
4.272 -6.547 8.269 -0 -1.2 0
5.401 -8.562 10.423 -0 -1.2 0
5.296 -8.689 10.207 -0 -1.2 0
4.105 -7.167 7.903 -0 -1.2 0
5.066 -8.897 9.737 -0 -1.2 0
5.63 -10.092 10.803 -0 -1.2 0
3.243 -6.396 6.219 -0 -1.2 0
4.961 -9.575 9.491 -0 -1.2 0
5.375 -10.616 10.266 -0 -1.2 0
3.312 -7.099 6.321 -0 -1.2 0
3.243 -7.172 6.179 -0 -1.2 0
4.051 -8.992 7.701 -0 -1.2 0
4.83 -10.866 9.161 -0 -1.2 0
0.572 -0.005 1.141 -0 -1.2 0
0.593 0.004 1.183 -0 -1.2 0
0.609 0 1.212 -0 -1.2 0
0.625 -0.007 1.241 -0 -1.2 0
0.648 -0.001 1.284 -0 -1.2 0
0.672 0.003 1.328 -0 -1.2 0
0.688 -0.005 1.358 -0 -1.2 0
0.711 -0.002 1.402 -0 -1.2 0
0.735 -0.001 1.446 -0 -1.2 0
0.759 -0.002 1.491 -0 -1.2 0
0.783 -0.004 1.536 -0 -1.2 0
0.808 -0.007 1.581 -0 -1.2 0
0.832 -0.012 1.628 -0 -1.2 0
0.864 -0.008 1.688 -0 -1.2 0
0.898 -0.006 1.749 -0 -1.2 0
0.923 -0.016 1.797 -0 -1.2 0
0.96 -0.011 1.867 -0 -1.2 0
0.994 -0.016 1.929 -0 -1.2 0
1.032 -0.016 2 -0 -1.2 0
1.075 -0.016 2.079 -0 -1.2 0
1.125 -0.009 2.174 -0 -1.2 0
1.177 -0.005 2.271 -0 -1.2 0
1.224 -0.01 2.36 -0 -1.2 0
1.277 -0.013 2.458 -0 -1.2 0
1.343 -0.009 2.58 -0 -1.2 0
1.408 -0.009 2.703 -0 -1.2 0
1.47 -0.018 2.819 -0 -1.2 0
1.55 -0.017 2.969 -0 -1.2 0
1.622 -0.029 3.102 -0 -1.2 0
1.73 -0.021 3.303 -0 -1.2 0
1.839 -0.022 3.506 -0 -1.2 0
1.97 -0.017 3.752 -0 -1.2 0
2.098 -0.023 3.991 -0 -1.2 0
2.267 -0.02 4.306 -0 -1.2 0
2.437 -0.028 4.624 -0 -1.2 0
2.654 -0.028 5.029 -0 -1.2 0
2.905 -0.033 5.496 -0 -1.2 0
3.221 -0.033 6.087 -0 -1.2 0
3.65 -0.023 6.887 -0 -1.2 0
4.062 -0.05 7.656 -0 -1.2 0
4.759 -0.041 8.959 -0 -1.2 0
5.797 -0.021 10.897 -0 -1.2 0
7.063 -0.042 13.259 -0 -1.2 0
9.136 -0.065 17.129 -0 -1.2 0
9.408 -0.379 17.623 -0 -1.2 0
10.094 -0.697 18.89 -0 -1.2 0
10.093 -1.066 18.871 -0 -1.2 0
10.108 -1.436 18.883 -0 -1.2 0
10.092 -1.804 18.836 -0 -1.2 0
10.134 -2.178 18.898 -0 -1.2 0
10.041 -2.535 18.708 -0 -1.2 0
10.128 -2.919 18.854 -0 -1.2 0
10.137 -3.292 18.855 -0 -1.2 0
10.135 -3.664 18.832 -0 -1.2 0
10.161 -4.045 18.864 -0 -1.2 0
10.165 -4.422 18.856 -0 -1.2 0
10.162 -4.799 18.834 -0 -1.2 0
10.155 -5.175 18.805 -0 -1.2 0
10.16 -5.558 18.796 -0 -1.2 0
10.152 -5.938 18.763 -0 -1.2 0
6.934 -4.651 12.811 -0 -1.2 0
6.844 -4.865 12.633 -0 -1.2 0
6.949 -5.191 12.816 -0 -1.2 0
6.63 -5.257 12.219 -0 -1.2 0
7.419 -6.049 13.656 -0 -1.2 0
10.207 -8.337 18.758 -0 -1.2 0
5.853 -5.453 10.758 -0 -1.2 0
7.046 -6.64 12.934 -0 -1.2 0
4.423 -4.728 8.122 -0 -1.2 0
4.422 -4.908 8.111 -0 -1.2 0
3.519 -4.259 6.455 -0 -1.2 0
5.06 -5.896 9.259 -0 -1.2 0
4.933 -5.983 9.017 -0 -1.2 0
4.985 -6.253 9.103 -0 -1.2 0
4.932 -6.415 8.997 -0 -1.2 0
5.077 -6.802 9.249 -0 -1.2 0
10.276 -13.228 18.67 -0 -1.2 0
4.439 -6.481 8.073 -0 -1.2 0
5.083 -7.52 9.228 -0 -1.2 0
3.126 -5.151 5.681 -0 -1.2 0
3.202 -5.41 5.813 -0 -1.2 0
5.512 -8.891 9.968 -0 -1.2 0
5.458 -9.097 9.859 -0 -1.2 0
5.345 -9.21 9.642 -0 -1.2 0
3.242 -6.136 5.853 -0 -1.2 0
5.533 -10.11 9.953 -0 -1.2 0
3.348 -6.679 6.027 -0 -1.2 0
3.518 -7.174 6.322 -0 -1.2 0
3.033 -6.494 5.447 -0 -1.2 0
2.851 -6.333 5.113 -0 -1.2 0
2.802 -6.417 5.018 -0 -1.2 0
0.607 0.002 1.136 -0 -1.2 0
0.624 -0.002 1.165 -0 -1.2 0
0.647 0.006 1.206 -0 -1.2 0
0.668 0.006 1.242 -0 -1.2 0
0.685 0 1.271 -0 -1.2 0
0.709 0.004 1.313 -0 -1.2 0
0.731 0.001 1.349 -0 -1.2 0
0.752 -0.002 1.386 -0 -1.2 0
0.777 -0.001 1.43 -0 -1.2 0
0.802 -0.002 1.474 -0 -1.2 0
0.824 -0.009 1.511 -0 -1.2 0
0.854 -0.007 1.563 -0 -1.2 0
0.879 -0.012 1.608 -0 -1.2 0
0.91 -0.013 1.661 -0 -1.2 0
0.945 -0.01 1.721 -0 -1.2 0
0.98 -0.01 1.782 -0 -1.2 0
1.015 -0.011 1.843 -0 -1.2 0
1.051 -0.015 1.905 -0 -1.2 0
1.091 -0.016 1.975 -0 -1.2 0
1.131 -0.02 2.045 -0 -1.2 0
1.189 -0.008 2.146 -0 -1.2 0
1.239 -0.009 2.232 -0 -1.2 0
1.29 -0.013 2.32 -0 -1.2 0
1.355 -0.008 2.432 -0 -1.2 0
1.414 -0.012 2.537 -0 -1.2 0
1.484 -0.012 2.658 -0 -1.2 0
1.559 -0.013 2.788 -0 -1.2 0
1.634 -0.019 2.918 -0 -1.2 0
1.715 -0.027 3.057 -0 -1.2 0
1.824 -0.023 3.248 -0 -1.2 0
1.953 -0.015 3.471 -0 -1.2 0
2.082 -0.015 3.696 -0 -1.2 0
2.222 -0.02 3.939 -0 -1.2 0
2.382 -0.024 4.217 -0 -1.2 0
2.553 -0.036 4.512 -0 -1.2 0
2.811 -0.025 4.961 -0 -1.2 0
3.061 -0.034 5.395 -0 -1.2 0
3.376 -0.04 5.94 -0 -1.2 0
3.814 -0.033 6.702 -0 -1.2 0
4.239 -0.059 7.439 -0 -1.2 0
5.001 -0.044 8.763 -0 -1.2 0
6.088 -0.023 10.651 -0 -1.2 0
7.665 -0.007 13.389 -0 -1.2 0
9.746 -0.046 17.002 -0 -1.2 0
10.393 -0.339 18.113 -0 -1.2 0
10.424 -0.698 18.153 -0 -1.2 0
10.566 -1.058 18.387 -0 -1.2 0
10.575 -1.424 18.39 -0 -1.2 0
10.562 -1.789 18.353 -0 -1.2 0
10.61 -2.16 18.422 -0 -1.2 0
10.601 -2.526 18.391 -0 -1.2 0
10.608 -2.895 18.39 -0 -1.2 0
10.607 -3.263 18.374 -0 -1.2 0
10.622 -3.636 18.386 -0 -1.2 0
10.614 -4.005 18.359 -0 -1.2 0
10.617 -4.378 18.351 -0 -1.2 0
10.624 -4.754 18.347 -0 -1.2 0
10.63 -5.132 18.344 -0 -1.2 0
10.629 -5.511 18.328 -0 -1.2 0
10.605 -5.88 18.271 -0 -1.2 0
10.621 -6.271 18.286 -0 -1.2 0
7.924 -5.233 13.642 -0 -1.2 0
7.135 -5.076 12.279 -0 -1.2 0
6.897 -5.194 11.859 -0 -1.2 0
7.665 -5.942 13.165 -0 -1.2 0
7.664 -6.229 13.153 -0 -1.2 0
6.112 -5.408 10.49 -0 -1.2 0
4.605 -4.503 7.906 -0 -1.2 0
4.614 -4.688 7.915 -0 -1.2 0
3.867 -4.245 6.635 -0 -1.2 0
3.804 -4.342 6.522 -0 -1.2 0
6.015 -6.519 10.28 -0 -1.2 0
6.198 -6.94 10.582 -0 -1.2 0
10.681 -11.675 18.184 -0 -1.2 0
10.65 -12.098 18.117 -0 -1.2 0
6.066 -7.581 10.327 -0 -1.2 0
5.408 -7.103 9.203 -0 -1.2 0
4.576 -6.364 7.786 -0 -1.2 0
6.015 -8.33 10.211 -0 -1.2 0
3.404 -5.295 5.792 -0 -1.2 0
3.394 -5.442 5.768 -0 -1.2 0
5.121 -7.961 8.672 -0 -1.2 0
5.051 -8.114 8.544 -0 -1.2 0
3.629 -6.284 6.145 -0 -1.2 0
3.197 -5.814 5.414 -0 -1.2 0
3.513 -6.478 5.936 -0 -1.2 0
3.531 -6.696 5.958 -0 -1.2 0
3.161 -6.269 5.333 -0 -1.2 0
3.599 -7.214 6.057 -0 -1.2 0
3.295 -6.875 5.543 -0 -1.2 0
3.334 -7.15 5.602 -0 -1.2 0
0.637 0.002 1.125 -0 -1.2 0
0.655 -0.002 1.154 -0 -1.2 0
0.68 0.006 1.194 -0 -1.2 0
0.698 0 1.223 -0 -1.2 0
0.718 0 1.258 -0 -1.2 0
0.745 0.004 1.299 -0 -1.2 0
0.767 0.002 1.335 -0 -1.2 0
0.784 -0.008 1.365 -0 -1.2 0
0.815 -0.001 1.414 -0 -1.2 0
0.838 -0.008 1.451 -0 -1.2 0
0.865 -0.009 1.495 -0 -1.2 0
0.896 -0.007 1.545 -0 -1.2 0
0.923 -0.012 1.59 -0 -1.2 0
0.96 -0.007 1.648 -0 -1.2 0
0.991 -0.01 1.7 -0 -1.2 0
1.024 -0.015 1.753 -0 -1.2 0
1.065 -0.01 1.82 -0 -1.2 0
1.103 -0.015 1.881 -0 -1.2 0
1.145 -0.015 1.949 -0 -1.2 0
1.192 -0.014 2.026 -0 -1.2 0
1.239 -0.017 2.103 -0 -1.2 0
1.3 -0.008 2.204 -0 -1.2 0
1.363 -0.004 2.305 -0 -1.2 0
1.421 -0.008 2.4 -0 -1.2 0
1.484 -0.011 2.502 -0 -1.2 0
1.553 -0.015 2.614 -0 -1.2 0
1.636 -0.013 2.75 -0 -1.2 0
1.71 -0.022 2.87 -0 -1.2 0
1.799 -0.027 3.014 -0 -1.2 0
1.914 -0.022 3.202 -0 -1.2 0
2.049 -0.014 3.422 -0 -1.2 0
2.181 -0.017 3.634 -0 -1.2 0
2.327 -0.021 3.874 -0 -1.2 0
2.489 -0.028 4.137 -0 -1.2 0
2.684 -0.032 4.452 -0 -1.2 0
2.939 -0.027 4.869 -0 -1.2 0
3.206 -0.035 5.304 -0 -1.2 0
3.521 -0.045 5.815 -0 -1.2 0
3.966 -0.041 6.538 -0 -1.2 0
4.318 -0.089 7.11 -0 -1.2 0
4.859 -0.121 7.988 -0 -1.2 0
6.394 -0.018 10.489 -0 -1.2 0
7.948 -0.016 13.018 -0 -1.2 0
10.972 -0.328 17.926 -0 -1.2 0
10.988 -0.69 17.941 -0 -1.2 0
10.979 -1.053 17.915 -0 -1.2 0
10.978 -1.415 17.901 -0 -1.2 0
10.968 -1.777 17.874 -0 -1.2 0
11.028 -2.145 17.96 -0 -1.2 0
11.033 -2.51 17.955 -0 -1.2 0
11.034 -2.875 17.945 -0 -1.2 0
11.042 -3.243 17.947 -0 -1.2 0
11.046 -3.611 17.943 -0 -1.2 0
11.042 -3.978 17.924 -0 -1.2 0
11.046 -4.348 17.918 -0 -1.2 0
11.051 -4.721 17.914 -0 -1.2 0
11.058 -5.097 17.913 -0 -1.2 0
11.066 -5.476 17.914 -0 -1.2 0
11.055 -5.851 17.885 -0 -1.2 0
11.066 -6.237 17.89 -0 -1.2 0
11.073 -6.625 17.89 -0 -1.2 0
7.748 -5.221 12.525 -0 -1.2 0
7.015 -5.072 11.337 -0 -1.2 0
11.073 -7.798 17.853 -0 -1.2 0
5.454 -4.563 8.815 -0 -1.2 0
4.783 -4.3 7.731 -0 -1.2 0
4.765 -4.462 7.697 -0 -1.2 0
11.084 -9.428 17.816 -0 -1.2 0
11.089 -9.851 17.812 -0 -1.2 0
4.106 -4.446 6.625 -0 -1.2 0
6.612 -6.793 10.627 -0 -1.2 0
4.595 -5.209 7.397 -0 -1.2 0
6.59 -7.295 10.575 -0 -1.2 0
4.639 -5.619 7.454 -0 -1.2 0
