# .PCD v.7 - Point Cloud Data file format
FIELDS x y z vp_x vp_y vp_z
SIZE 4 4 4 4 4 4
TYPE F F F F F F
COUNT 1 1 1 1 1 1
WIDTH 1685
HEIGHT 1
VIEWPOINT 0 -1.20013 0 1 0 0 0
POINTS 1685
DATA ascii
1.413 0.03 1.735 -0 -1.2 0
1.464 0.024 1.799 -0 -1.2 0
1.534 0.031 1.883 -0 -1.2 0
1.608 0.037 1.975 -0 -1.2 0
1.679 0.035 2.061 -0 -1.2 0
1.761 0.038 2.161 -0 -1.2 0
1.838 0.033 2.255 -0 -1.2 0
1.933 0.035 2.371 -0 -1.2 0
2.035 0.035 2.495 -0 -1.2 0
2.149 0.037 2.634 -0 -1.2 0
2.275 0.039 2.789 -0 -1.2 0
2.433 0.048 2.982 -0 -1.2 0
2.591 0.05 3.175 -0 -1.2 0
2.762 0.049 3.384 -0 -1.2 0
2.977 0.056 3.647 -0 -1.2 0
3.224 0.062 3.949 -0 -1.2 0
3.527 0.074 4.319 -0 -1.2 0
3.907 0.094 4.783 -0 -1.2 0
4.361 0.113 5.338 -0 -1.2 0
4.899 0.129 5.996 -0 -1.2 0
5.564 0.144 6.808 -0 -1.2 0
6.469 0.171 7.914 -0 -1.2 0
7.623 0.188 9.323 -0 -1.2 0
9.32 0.222 11.396 -0 -1.2 0
13.524 0.08 16.532 -0 -1.2 0
13.535 -0.29 16.545 -0 -1.2 0
11.667 -0.722 14.264 -0 -1.2 0
11.555 -1.042 14.129 -0 -1.2 0
11.535 -1.358 14.104 -0 -1.2 0
11.498 -1.672 14.06 -0 -1.2 0
11.105 -1.957 13.579 -0 -1.2 0
11.182 -2.27 13.674 -0 -1.2 0
11.148 -2.573 13.633 -0 -1.2 0
11.042 -2.864 13.503 -0 -1.2 0
0.794 0.029 0.911 -0 -1.2 0
0.816 0.024 0.936 -0 -1.2 0
0.838 0.019 0.962 -0 -1.2 0
0.875 0.032 1.004 -0 -1.2 0
0.903 0.031 1.035 -0 -1.2 0
0.931 0.029 1.067 -0 -1.2 0
0.959 0.026 1.099 -0 -1.2 0
0.987 0.02 1.131 -0 -1.2 0
1.021 0.021 1.169 -0 -1.2 0
1.056 0.021 1.207 -0 -1.2 0
1.094 0.024 1.252 -0 -1.2 0
1.134 0.026 1.298 -0 -1.2 0
1.174 0.025 1.343 -0 -1.2 0
1.22 0.029 1.395 -0 -1.2 0
1.262 0.025 1.442 -0 -1.2 0
1.309 0.024 1.495 -0 -1.2 0
1.362 0.027 1.555 -0 -1.2 0
1.415 0.028 1.615 -0 -1.2 0
1.469 0.025 1.676 -0 -1.2 0
1.523 0.02 1.737 -0 -1.2 0
1.601 0.031 1.826 -0 -1.2 0
1.678 0.037 1.915 -0 -1.2 0
1.753 0.035 1.998 -0 -1.2 0
1.832 0.034 2.089 -0 -1.2 0
1.925 0.037 2.194 -0 -1.2 0
2.018 0.035 2.299 -0 -1.2 0
2.124 0.035 2.419 -0 -1.2 0
2.249 0.04 2.562 -0 -1.2 0
2.375 0.039 2.704 -0 -1.2 0
2.539 0.048 2.891 -0 -1.2 0
2.698 0.047 3.072 -0 -1.2 0
2.896 0.054 3.296 -0 -1.2 0
3.108 0.056 3.536 -0 -1.2 0
3.398 0.073 3.865 -0 -1.2 0
3.708 0.083 4.218 -0 -1.2 0
4.096 0.099 4.659 -0 -1.2 0
4.539 0.11 5.161 -0 -1.2 0
5.14 0.135 5.843 -0 -1.2 0
5.827 0.148 6.624 -0 -1.2 0
6.74 0.168 7.659 -0 -1.2 0
8.009 0.197 9.098 -0 -1.2 0
9.663 0.213 10.974 -0 -1.2 0
14.123 0.079 16.037 -0 -1.2 0
14.147 -0.29 16.065 -0 -1.2 0
11.516 -2.559 13.084 -0 -1.2 0
11.412 -2.848 12.967 -0 -1.2 0
11.357 -3.141 12.905 -0 -1.2 0
11.083 -3.387 12.594 -0 -1.2 0
10.995 -3.663 12.496 -0 -1.2 0
11.081 -3.982 12.594 -0 -1.2 0
11.072 -4.28 12.584 -0 -1.2 0
11.04 -4.571 12.548 -0 -1.2 0
3.869 -4.665 4.41 -0 -1.2 0
0.819 0.022 0.879 -0 -1.2 0
0.852 0.031 0.914 -0 -1.2 0
0.87 0.019 0.933 -0 -1.2 0
0.904 0.026 0.968 -0 -1.2 0
0.932 0.025 0.999 -0 -1.2 0
0.966 0.029 1.035 -0 -1.2 0
0.99 0.019 1.06 -0 -1.2 0
1.025 0.02 1.097 -0 -1.2 0
1.059 0.021 1.134 -0 -1.2 0
1.1 0.027 1.177 -0 -1.2 0
1.141 0.03 1.22 -0 -1.2 0
1.183 0.031 1.264 -0 -1.2 0
1.219 0.025 1.303 -0 -1.2 0
1.262 0.023 1.347 -0 -1.2 0
1.31 0.025 1.398 -0 -1.2 0
1.358 0.024 1.45 -0 -1.2 0
1.407 0.022 1.502 -0 -1.2 0
1.469 0.028 1.567 -0 -1.2 0
1.518 0.02 1.619 -0 -1.2 0
1.592 0.029 1.698 -0 -1.2 0
1.661 0.03 1.771 -0 -1.2 0
1.737 0.032 1.851 -0 -1.2 0
1.819 0.035 1.938 -0 -1.2 0
1.908 0.038 2.032 -0 -1.2 0
2.004 0.04 2.134 -0 -1.2 0
2.107 0.042 2.243 -0 -1.2 0
2.21 0.038 2.353 -0 -1.2 0
2.334 0.04 2.484 -0 -1.2 0
2.471 0.042 2.63 -0 -1.2 0
2.635 0.048 2.804 -0 -1.2 0
2.807 0.05 2.986 -0 -1.2 0
3.012 0.056 3.204 -0 -1.2 0
3.238 0.06 3.444 -0 -1.2 0
3.539 0.077 3.763 -0 -1.2 0
3.855 0.085 4.097 -0 -1.2 0
4.285 0.109 4.553 -0 -1.2 0
4.751 0.12 5.048 -0 -1.2 0
5.327 0.133 5.659 -0 -1.2 0
6.068 0.151 6.445 -0 -1.2 0
7.035 0.174 7.47 -0 -1.2 0
8.352 0.203 8.866 -0 -1.2 0
10.069 0.217 10.685 -0 -1.2 0
11.389 -2.491 12.095 -0 -1.2 0
11.445 -2.79 12.155 -0 -1.2 0
10.913 -2.99 11.59 -0 -1.2 0
10.955 -3.279 11.637 -0 -1.2 0
10.921 -3.554 11.601 -0 -1.2 0
10.93 -3.84 11.611 -0 -1.2 0
10.969 -4.136 11.654 -0 -1.2 0
10.965 -4.423 11.65 -0 -1.2 0
6.78 -6.262 7.219 -0 -1.2 0
4.102 -4.606 4.374 -0 -1.2 0
0.853 0.029 0.855 -0 -1.2 0
0.882 0.031 0.884 -0 -1.2 0
0.911 0.032 0.913 -0 -1.2 0
0.936 0.026 0.937 -0 -1.2 0
0.965 0.024 0.966 -0 -1.2 0
1.001 0.028 1.001 -0 -1.2 0
1.031 0.025 1.031 -0 -1.2 0
1.067 0.027 1.067 -0 -1.2 0
1.103 0.027 1.103 -0 -1.2 0
1.139 0.026 1.139 -0 -1.2 0
1.176 0.024 1.175 -0 -1.2 0
1.219 0.026 1.218 -0 -1.2 0
1.257 0.02 1.255 -0 -1.2 0
1.307 0.023 1.304 -0 -1.2 0
1.356 0.025 1.353 -0 -1.2 0
1.407 0.024 1.403 -0 -1.2 0
1.457 0.022 1.453 -0 -1.2 0
1.521 0.027 1.516 -0 -1.2 0
1.578 0.025 1.573 -0 -1.2 0
1.643 0.024 1.637 -0 -1.2 0
1.726 0.034 1.72 -0 -1.2 0
1.798 0.032 1.791 -0 -1.2 0
1.877 0.031 1.869 -0 -1.2 0
1.969 0.033 1.96 -0 -1.2 0
2.075 0.04 2.065 -0 -1.2 0
2.175 0.037 2.164 -0 -1.2 0
2.289 0.038 2.277 -0 -1.2 0
2.417 0.039 2.403 -0 -1.2 0
2.565 0.044 2.551 -0 -1.2 0
2.735 0.051 2.719 -0 -1.2 0
2.906 0.05 2.889 -0 -1.2 0
3.112 0.054 3.093 -0 -1.2 0
3.367 0.065 3.345 -0 -1.2 0
3.665 0.077 3.64 -0 -1.2 0
3.984 0.082 3.957 -0 -1.2 0
4.423 0.104 4.391 -0 -1.2 0
4.962 0.129 4.925 -0 -1.2 0
5.544 0.139 5.503 -0 -1.2 0
6.297 0.154 6.249 -0 -1.2 0
7.306 0.177 7.248 -0 -1.2 0
8.606 0.195 8.535 -0 -1.2 0
10.341 0.205 10.253 -0 -1.2 0
16.112 0.15 15.971 -0 -1.2 0
16.287 -0.234 16.147 -0 -1.2 0
10.721 -1.578 10.638 -0 -1.2 0
10.82 -1.847 10.736 -0 -1.2 0
10.823 -2.112 10.741 -0 -1.2 0
10.787 -2.373 10.706 -0 -1.2 0
11.101 -2.684 11.018 -0 -1.2 0
11.164 -2.968 11.082 -0 -1.2 0
11.272 -3.266 11.19 -0 -1.2 0
12.162 -3.743 12.074 -0 -1.2 0
12.211 -4.059 12.123 -0 -1.2 0
12.207 -4.366 12.12 -0 -1.2 0
11.198 -4.38 11.121 -0 -1.2 0
11.141 -4.647 11.066 -0 -1.2 0
7.401 -5.658 7.364 -0 -1.2 0
6.912 -5.762 6.88 -0 -1.2 0
7.182 -6.612 7.151 -0 -1.2 0
4.448 -4.632 4.434 -0 -1.2 0
6.478 -6.702 6.455 -0 -1.2 0
4.596 -5.21 4.584 -0 -1.2 0
6.777 -7.92 6.755 -0 -1.2 0
6.481 -7.862 6.461 -0 -1.2 0
6.232 -8.085 6.215 -0 -1.2 0
0.879 0.022 0.818 -0 -1.2 0
0.914 0.031 0.851 -0 -1.2 0
0.933 0.018 0.869 -0 -1.2 0
0.969 0.025 0.902 -0 -1.2 0
0.994 0.017 0.925 -0 -1.2 0
1.037 0.028 0.964 -0 -1.2 0
1.062 0.019 0.987 -0 -1.2 0
1.099 0.02 1.021 -0 -1.2 0
1.142 0.027 1.061 -0 -1.2 0
1.18 0.026 1.096 -0 -1.2 0
1.224 0.029 1.136 -0 -1.2 0
1.263 0.026 1.172 -0 -1.2 0
1.307 0.025 1.213 -0 -1.2 0
1.353 0.023 1.254 -0 -1.2 0
1.399 0.019 1.296 -0 -1.2 0
1.457 0.024 1.35 -0 -1.2 0
1.516 0.027 1.404 -0 -1.2 0
1.575 0.027 1.459 -0 -1.2 0
1.642 0.029 1.519 -0 -1.2 0
1.708 0.029 1.581 -0 -1.2 0
1.788 0.034 1.655 -0 -1.2 0
1.863 0.031 1.723 -0 -1.2 0
1.957 0.039 1.81 -0 -1.2 0
2.052 0.042 1.898 -0 -1.2 0
2.143 0.036 1.981 -0 -1.2 0
2.253 0.037 2.082 -0 -1.2 0
2.371 0.037 2.191 -0 -1.2 0
2.496 0.036 2.306 -0 -1.2 0
2.651 0.041 2.448 -0 -1.2 0
2.834 0.05 2.616 -0 -1.2 0
3.018 0.052 2.786 -0 -1.2 0
3.245 0.061 2.995 -0 -1.2 0
3.495 0.067 3.225 -0 -1.2 0
3.803 0.079 3.509 -0 -1.2 0
4.155 0.089 3.834 -0 -1.2 0
4.596 0.107 4.238 -0 -1.2 0
5.125 0.125 4.725 -0 -1.2 0
5.751 0.139 5.301 -0 -1.2 0
6.502 0.148 5.992 -0 -1.2 0
7.605 0.182 7.006 -0 -1.2 0
8.937 0.197 8.232 -0 -1.2 0
10.661 0.197 9.818 -0 -1.2 0
10.62 -0.309 9.783 -0 -1.2 0
10.723 -0.554 9.879 -0 -1.2 0
10.744 -0.806 9.898 -0 -1.2 0
10.657 -1.058 9.819 -0 -1.2 0
10.934 -1.315 10.077 -0 -1.2 0
11.061 -1.578 10.195 -0 -1.2 0
11.142 -1.844 10.269 -0 -1.2 0
12.973 -4.138 11.966 -0 -1.2 0
13.004 -4.462 11.997 -0 -1.2 0
4.871 -3.712 4.509 -0 -1.2 0
5.957 -4.632 5.513 -0 -1.2 0
7.09 -5.515 6.56 -0 -1.2 0
5.143 -4.586 4.764 -0 -1.2 0
5.117 -4.72 4.74 -0 -1.2 0
4.676 -4.688 4.334 -0 -1.2 0
5.524 -5.525 5.119 -0 -1.2 0
4.805 -5.094 4.455 -0 -1.2 0
5.851 -6.171 5.423 -0 -1.2 0
4.913 -5.511 4.556 -0 -1.2 0
4.812 -5.585 4.465 -0 -1.2 0
6.933 -7.839 6.427 -0 -1.2 0
7.285 -8.451 6.754 -0 -1.2 0
6.917 -8.332 6.415 -0 -1.2 0
6.76 -8.425 6.27 -0 -1.2 0
0.906 0.022 0.788 -0 -1.2 0
0.948 0.038 0.824 -0 -1.2 0
0.968 0.024 0.841 -0 -1.2 0
0.999 0.025 0.868 -0 -1.2 0
1.037 0.03 0.9 -0 -1.2 0
1.069 0.028 0.928 -0 -1.2 0
1.101 0.025 0.955 -0 -1.2 0
1.133 0.02 0.983 -0 -1.2 0
1.178 0.027 1.021 -0 -1.2 0
1.223 0.032 1.06 -0 -1.2 0
1.262 0.029 1.094 -0 -1.2 0
1.302 0.025 1.128 -0 -1.2 0
1.348 0.025 1.167 -0 -1.2 0
1.395 0.023 1.207 -0 -1.2 0
1.448 0.024 1.253 -0 -1.2 0
1.502 0.024 1.299 -0 -1.2 0
1.563 0.026 1.351 -0 -1.2 0
1.63 0.031 1.409 -0 -1.2 0
1.692 0.029 1.462 -0 -1.2 0
1.774 0.037 1.533 -0 -1.2 0
1.85 0.038 1.598 -0 -1.2 0
1.926 0.036 1.664 -0 -1.2 0
2.011 0.034 1.736 -0 -1.2 0
2.116 0.041 1.827 -0 -1.2 0
2.216 0.039 1.912 -0 -1.2 0
2.33 0.041 2.01 -0 -1.2 0
2.444 0.037 2.108 -0 -1.2 0
2.581 0.039 2.225 -0 -1.2 0
2.733 0.041 2.356 -0 -1.2 0
2.929 0.053 2.524 -0 -1.2 0
3.119 0.054 2.687 -0 -1.2 0
3.353 0.062 2.888 -0 -1.2 0
3.617 0.07 3.116 -0 -1.2 0
3.943 0.085 3.396 -0 -1.2 0
4.269 0.085 3.676 -0 -1.2 0
4.768 0.114 4.104 -0 -1.2 0
5.299 0.128 4.56 -0 -1.2 0
5.929 0.138 5.1 -0 -1.2 0
6.741 0.154 5.797 -0 -1.2 0
7.818 0.177 6.721 -0 -1.2 0
9.206 0.194 7.914 -0 -1.2 0
10.521 0.14 9.043 -0 -1.2 0
10.74 -0.081 9.233 -0 -1.2 0
10.948 -0.311 9.413 -0 -1.2 0
10.987 -0.56 9.447 -0 -1.2 0
11.129 -0.806 9.57 -0 -1.2 0
13.822 -4.243 11.902 -0 -1.2 0
13.785 -4.561 11.872 -0 -1.2 0
9.14 -4.491 7.883 -0 -1.2 0
8.955 -4.644 7.725 -0 -1.2 0
9.112 -5.167 7.864 -0 -1.2 0
5.161 -3.788 4.463 -0 -1.2 0
8.35 -5.922 7.212 -0 -1.2 0
6.009 -4.722 5.196 -0 -1.2 0
6.075 -4.932 5.255 -0 -1.2 0
6.712 -5.53 5.804 -0 -1.2 0
5.454 -4.847 4.72 -0 -1.2 0
7.22 -6.292 6.245 -0 -1.2 0
8.214 -7.261 7.104 -0 -1.2 0
5.062 -5.028 4.385 -0 -1.2 0
4.675 -4.868 4.051 -0 -1.2 0
4.714 -5.049 4.085 -0 -1.2 0
4.44 -4.96 3.85 -0 -1.2 0
4.301 -4.981 3.731 -0 -1.2 0
4.261 -5.089 3.697 -0 -1.2 0
7.375 -8.32 6.389 -0 -1.2 0
0.932 0.022 0.756 -0 -1.2 0
0.969 0.03 0.786 -0 -1.2 0
0.996 0.024 0.807 -0 -1.2 0
1.028 0.025 0.833 -0 -1.2 0
1.067 0.03 0.864 -0 -1.2 0
1.1 0.028 0.89 -0 -1.2 0
1.133 0.025 0.917 -0 -1.2 0
1.172 0.027 0.948 -0 -1.2 0
1.206 0.021 0.975 -0 -1.2 0
1.252 0.026 1.012 -0 -1.2 0
1.299 0.029 1.05 -0 -1.2 0
1.339 0.025 1.082 -0 -1.2 0
1.387 0.024 1.12 -0 -1.2 0
1.435 0.023 1.159 -0 -1.2 0
1.489 0.024 1.203 -0 -1.2 0
1.546 0.023 1.247 -0 -1.2 0
1.607 0.026 1.297 -0 -1.2 0
1.677 0.031 1.353 -0 -1.2 0
1.74 0.028 1.403 -0 -1.2 0
1.832 0.042 1.477 -0 -1.2 0
1.903 0.038 1.534 -0 -1.2 0
1.989 0.04 1.603 -0 -1.2 0
2.076 0.038 1.672 -0 -1.2 0
2.177 0.041 1.753 -0 -1.2 0
2.286 0.043 1.841 -0 -1.2 0
2.397 0.04 1.929 -0 -1.2 0
2.515 0.036 2.023 -0 -1.2 0
2.67 0.044 2.147 -0 -1.2 0
2.826 0.045 2.272 -0 -1.2 0
3.006 0.049 2.416 -0 -1.2 0
3.223 0.059 2.591 -0 -1.2 0
3.464 0.067 2.784 -0 -1.2 0
3.722 0.07 2.99 -0 -1.2 0
4.057 0.084 3.258 -0 -1.2 0
4.408 0.087 3.539 -0 -1.2 0
4.898 0.111 3.932 -0 -1.2 0
5.445 0.125 4.369 -0 -1.2 0
6.1 0.137 4.894 -0 -1.2 0
6.943 0.154 5.569 -0 -1.2 0
8.067 0.179 6.468 -0 -1.2 0
9.433 0.187 7.562 -0 -1.2 0
11.433 0.207 9.163 -0 -1.2 0
19.419 0.262 15.558 -0 -1.2 0
14.726 -4.358 11.83 -0 -1.2 0
9.514 -3.858 7.653 -0 -1.2 0
9.364 -4.479 7.536 -0 -1.2 0
9.502 -4.758 7.649 -0 -1.2 0
9.24 -5.11 7.442 -0 -1.2 0
9.023 -5.24 7.268 -0 -1.2 0
8.994 -5.454 7.246 -0 -1.2 0
5.873 -4.078 4.738 -0 -1.2 0
5.249 -3.893 4.238 -0 -1.2 0
5.232 -4.021 4.224 -0 -1.2 0
5.523 -4.333 4.46 -0 -1.2 0
5.631 -4.55 4.548 -0 -1.2 0
5.972 -4.927 4.823 -0 -1.2 0
6.477 -5.437 5.231 -0 -1.2 0
5.277 -4.774 4.266 -0 -1.2 0
7.422 -6.506 5.995 -0 -1.2 0
6.758 -6.219 5.461 -0 -1.2 0
5.47 -5.397 4.424 -0 -1.2 0
5.777 -5.82 4.672 -0 -1.2 0
7.612 -7.585 6.153 -0 -1.2 0
5.197 -5.673 4.207 -0 -1.2 0
4.564 -5.413 3.698 -0 -1.2 0
4.32 -5.329 3.503 -0 -1.2 0
4.476 -5.812 3.631 -0 -1.2 0
0.965 0.028 0.725 -0 -1.2 0
0.998 0.03 0.75 -0 -1.2 0
1.031 0.031 0.774 -0 -1.2 0
1.052 0.018 0.79 -0 -1.2 0
1.098 0.03 0.824 -0 -1.2 0
1.131 0.028 0.849 -0 -1.2 0
1.166 0.024 0.874 -0 -1.2 0
1.206 0.026 0.904 -0 -1.2 0
1.247 0.026 0.935 -0 -1.2 0
1.288 0.025 0.965 -0 -1.2 0
1.33 0.023 0.996 -0 -1.2 0
1.378 0.025 1.032 -0 -1.2 0
1.427 0.024 1.068 -0 -1.2 0
1.476 0.022 1.105 -0 -1.2 0
1.533 0.024 1.147 -0 -1.2 0
1.591 0.023 1.189 -0 -1.2 0
1.661 0.031 1.242 -0 -1.2 0
1.726 0.03 1.29 -0 -1.2 0
1.791 0.028 1.338 -0 -1.2 0
1.885 0.041 1.408 -0 -1.2 0
1.966 0.041 1.468 -0 -1.2 0
2.047 0.039 1.528 -0 -1.2 0
2.143 0.042 1.599 -0 -1.2 0
2.24 0.04 1.671 -0 -1.2 0
2.353 0.042 1.755 -0 -1.2 0
2.467 0.04 1.839 -0 -1.2 0
2.588 0.036 1.928 -0 -1.2 0
2.74 0.041 2.041 -0 -1.2 0
2.908 0.045 2.166 -0 -1.2 0
3.107 0.055 2.315 -0 -1.2 0
3.332 0.064 2.481 -0 -1.2 0
3.572 0.069 2.659 -0 -1.2 0
3.83 0.069 2.85 -0 -1.2 0
4.166 0.081 3.1 -0 -1.2 0
4.551 0.091 3.385 -0 -1.2 0
5.072 0.118 3.771 -0 -1.2 0
5.602 0.124 4.164 -0 -1.2 0
6.293 0.139 4.676 -0 -1.2 0
7.184 0.16 5.337 -0 -1.2 0
8.292 0.176 6.159 -0 -1.2 0
9.746 0.19 7.237 -0 -1.2 0
11.875 0.217 8.816 -0 -1.2 0
18.225 0.137 13.526 -0 -1.2 0
18.302 -0.254 13.587 -0 -1.2 0
18.061 -0.655 13.41 -0 -1.2 0
18.087 -1.046 13.433 -0 -1.2 0
18.197 -1.438 13.516 -0 -1.2 0
15.744 -4.14 11.716 -0 -1.2 0
15.666 -4.473 11.661 -0 -1.2 0
10.324 -4.248 7.697 -0 -1.2 0
10.161 -4.432 7.578 -0 -1.2 0
9.953 -4.827 7.426 -0 -1.2 0
9.791 -4.998 7.307 -0 -1.2 0
9.757 -5.219 7.284 -0 -1.2 0
9.297 -5.249 6.943 -0 -1.2 0
9.582 -5.613 7.157 -0 -1.2 0
7.284 -4.702 5.446 -0 -1.2 0
9.648 -6.128 7.209 -0 -1.2 0
7.58 -5.235 5.67 -0 -1.2 0
5.565 -4.267 4.167 -0 -1.2 0
5.476 -4.36 4.102 -0 -1.2 0
5.837 -4.734 4.372 -0 -1.2 0
5.883 -4.924 4.408 -0 -1.2 0
5.562 -4.867 4.169 -0 -1.2 0
5.862 -5.238 4.395 -0 -1.2 0
7.344 -6.513 5.503 -0 -1.2 0
5.531 -5.324 4.15 -0 -1.2 0
5.982 -5.854 4.489 -0 -1.2 0
5.342 -5.503 4.011 -0 -1.2 0
7.362 -7.428 5.523 -0 -1.2 0
5.071 -5.6 3.811 -0 -1.2 0
5.385 -6.062 4.047 -0 -1.2 0
4.613 -5.495 3.471 -0 -1.2 0
6.57 -7.626 4.937 -0 -1.2 0
4.561 -5.768 3.433 -0 -1.2 0
4.1 -5.439 3.09 -0 -1.2 0
0.983 0.021 0.688 -0 -1.2 0
1.017 0.023 0.711 -0 -1.2 0
1.056 0.031 0.738 -0 -1.2 0
1.084 0.024 0.757 -0 -1.2 0
1.125 0.029 0.785 -0 -1.2 0
1.166 0.034 0.814 -0 -1.2 0
1.201 0.03 0.838 -0 -1.2 0
1.236 0.026 0.862 -0 -1.2 0
1.278 0.026 0.891 -0 -1.2 0
1.32 0.025 0.92 -0 -1.2 0
1.37 0.028 0.954 -0 -1.2 0
1.413 0.024 0.984 -0 -1.2 0
1.463 0.024 1.018 -0 -1.2 0
1.52 0.027 1.058 -0 -1.2 0
1.578 0.029 1.098 -0 -1.2 0
1.636 0.028 1.138 -0 -1.2 0
1.702 0.03 1.184 -0 -1.2 0
1.769 0.03 1.229 -0 -1.2 0
1.835 0.027 1.275 -0 -1.2 0
1.925 0.036 1.337 -0 -1.2 0
2.015 0.041 1.399 -0 -1.2 0
2.106 0.043 1.462 -0 -1.2 0
2.197 0.041 1.525 -0 -1.2 0
2.296 0.04 1.593 -0 -1.2 0
2.411 0.041 1.673 -0 -1.2 0
2.528 0.039 1.752 -0 -1.2 0
2.66 0.038 1.843 -0 -1.2 0
2.823 0.046 1.957 -0 -1.2 0
2.989 0.047 2.07 -0 -1.2 0
3.201 0.059 2.217 -0 -1.2 0
3.415 0.063 2.365 -0 -1.2 0
3.669 0.071 2.54 -0 -1.2 0
3.949 0.075 2.733 -0 -1.2 0
4.27 0.08 2.955 -0 -1.2 0
4.689 0.096 3.242 -0 -1.2 0
5.199 0.116 3.594 -0 -1.2 0
5.75 0.124 3.974 -0 -1.2 0
6.458 0.139 4.462 -0 -1.2 0
7.347 0.155 5.075 -0 -1.2 0
8.557 0.182 5.909 -0 -1.2 0
10.105 0.202 6.976 -0 -1.2 0
12.385 0.237 8.549 -0 -1.2 0
20.25 0.236 13.972 -0 -1.2 0
19.984 -0.204 13.793 -0 -1.2 0
19.96 -0.625 13.779 -0 -1.2 0
19.864 -1.047 13.716 -0 -1.2 0
16.72 -4.255 11.573 -0 -1.2 0
16.662 -4.607 11.536 -0 -1.2 0
9.388 -4.103 6.515 -0 -1.2 0
10.544 -4.717 7.318 -0 -1.2 0
9.138 -4.439 6.345 -0 -1.2 0
9.882 -5.174 6.865 -0 -1.2 0
8.941 -4.993 6.214 -0 -1.2 0
9.474 -5.455 6.585 -0 -1.2 0
7.305 -4.626 5.082 -0 -1.2 0
7.563 -4.937 5.263 -0 -1.2 0
6.003 -4.287 4.183 -0 -1.2 0
5.94 -4.403 4.141 -0 -1.2 0
5.892 -4.526 4.108 -0 -1.2 0
7.967 -5.96 5.549 -0 -1.2 0
6.261 -5.075 4.367 -0 -1.2 0
5.98 -5.056 4.172 -0 -1.2 0
6.727 -5.744 4.693 -0 -1.2 0
7.616 -6.581 5.313 -0 -1.2 0
7.529 -6.735 5.254 -0 -1.2 0
7.363 -6.827 5.141 -0 -1.2 0
5.31 -5.371 3.713 -0 -1.2 0
5.315 -5.538 3.718 -0 -1.2 0
5.31 -5.702 3.716 -0 -1.2 0
5.571 -6.111 3.899 -0 -1.2 0
4.72 -5.491 3.307 -0 -1.2 0
4.606 -5.538 3.228 -0 -1.2 0
4.351 -5.442 3.053 -0 -1.2 0
6.552 -7.92 4.59 -0 -1.2 0
6.837 -8.477 4.79 -0 -1.2 0
7.516 -9.51 5.267 -0 -1.2 0
1.012 0.028 0.657 -0 -1.2 0
1.046 0.03 0.679 -0 -1.2 0
1.075 0.023 0.697 -0 -1.2 0
1.116 0.03 0.724 -0 -1.2 0
1.151 0.029 0.746 -0 -1.2 0
1.193 0.034 0.773 -0 -1.2 0
1.222 0.024 0.792 -0 -1.2 0
1.265 0.026 0.819 -0 -1.2 0
1.301 0.02 0.842 -0 -1.2 0
1.358 0.031 0.878 -0 -1.2 0
1.402 0.028 0.906 -0 -1.2 0
1.445 0.024 0.935 -0 -1.2 0
1.504 0.029 0.972 -0 -1.2 0
1.555 0.026 1.005 -0 -1.2 0
1.615 0.029 1.043 -0 -1.2 0
1.682 0.032 1.086 -0 -1.2 0
1.749 0.035 1.129 -0 -1.2 0
1.817 0.035 1.172 -0 -1.2 0
1.893 0.036 1.221 -0 -1.2 0
1.977 0.04 1.275 -0 -1.2 0
2.062 0.04 1.329 -0 -1.2 0
2.154 0.042 1.388 -0 -1.2 0
2.255 0.044 1.453 -0 -1.2 0
2.349 0.039 1.513 -0 -1.2 0
2.467 0.041 1.588 -0 -1.2 0
2.586 0.038 1.664 -0 -1.2 0
2.722 0.037 1.751 -0 -1.2 0
2.889 0.045 1.858 -0 -1.2 0
3.057 0.046 1.966 -0 -1.2 0
3.299 0.068 2.121 -0 -1.2 0
3.502 0.065 2.251 -0 -1.2 0
3.746 0.067 2.407 -0 -1.2 0
4.041 0.074 2.595 -0 -1.2 0
4.394 0.085 2.82 -0 -1.2 0
4.806 0.097 3.084 -0 -1.2 0
5.303 0.11 3.402 -0 -1.2 0
5.867 0.118 3.763 -0 -1.2 0
6.624 0.14 4.248 -0 -1.2 0
7.542 0.157 4.835 -0 -1.2 0
8.755 0.179 5.61 -0 -1.2 0
10.381 0.205 6.651 -0 -1.2 0
12.689 0.235 8.128 -0 -1.2 0
22.132 0.321 14.17 -0 -1.2 0
20.176 -1.469 12.933 -0 -1.2 0
19.855 -1.873 12.731 -0 -1.2 0
19.839 -2.282 12.724 -0 -1.2 0
17.838 -4.397 11.461 -0 -1.2 0
9.809 -4.389 6.323 -0 -1.2 0
9.541 -4.511 6.152 -0 -1.2 0
7.135 -3.805 4.608 -0 -1.2 0
10.373 -5.283 6.691 -0 -1.2 0
10.238 -5.465 6.606 -0 -1.2 0
6.518 -4.018 4.214 -0 -1.2 0
6.442 -4.136 4.167 -0 -1.2 0
6.365 -4.251 4.118 -0 -1.2 0
6.079 -4.256 3.935 -0 -1.2 0
7.838 -5.376 5.07 -0 -1.2 0
6.087 -4.564 3.943 -0 -1.2 0
6.785 -5.14 4.394 -0 -1.2 0
7.184 -5.568 4.654 -0 -1.2 0
8.287 -6.483 5.367 -0 -1.2 0
6.48 -5.471 4.202 -0 -1.2 0
6.421 -5.608 4.165 -0 -1.2 0
7.83 -6.833 5.077 -0 -1.2 0
8.287 -7.41 5.374 -0 -1.2 0
7.795 -7.263 5.058 -0 -1.2 0
6.911 -6.764 4.488 -0 -1.2 0
6.553 -6.67 4.259 -0 -1.2 0
7.417 -7.649 4.82 -0 -1.2 0
7.597 -8.059 4.939 -0 -1.2 0
7.186 -7.919 4.674 -0 -1.2 0
5.256 -6.244 3.424 -0 -1.2 0
6.479 -7.693 4.219 -0 -1.2 0
6.687 -8.151 4.357 -0 -1.2 0
7.221 -8.996 4.706 -0 -1.2 0
7.012 -9.039 4.573 -0 -1.2 0
1.029 0.02 0.615 -0 -1.2 0
1.077 0.036 0.643 -0 -1.2 0
1.106 0.03 0.661 -0 -1.2 0
1.142 0.03 0.682 -0 -1.2 0
1.178 0.029 0.703 -0 -1.2 0
1.221 0.034 0.728 -0 -1.2 0
1.257 0.029 0.75 -0 -1.2 0
1.294 0.025 0.771 -0 -1.2 0
1.338 0.025 0.797 -0 -1.2 0
1.382 0.024 0.823 -0 -1.2 0
1.434 0.027 0.854 -0 -1.2 0
1.479 0.023 0.88 -0 -1.2 0
1.538 0.029 0.915 -0 -1.2 0
1.591 0.026 0.946 -0 -1.2 0
1.659 0.033 0.986 -0 -1.2 0
1.72 0.032 1.022 -0 -1.2 0
1.789 0.034 1.063 -0 -1.2 0
1.867 0.039 1.109 -0 -1.2 0
1.937 0.036 1.15 -0 -1.2 0
2.03 0.044 1.205 -0 -1.2 0
2.117 0.045 1.256 -0 -1.2 0
2.204 0.042 1.307 -0 -1.2 0
2.3 0.04 1.364 -0 -1.2 0
2.42 0.045 1.434 -0 -1.2 0
2.524 0.04 1.496 -0 -1.2 0
2.654 0.041 1.572 -0 -1.2 0
2.792 0.041 1.653 -0 -1.2 0
2.948 0.041 1.745 -0 -1.2 0
3.128 0.045 1.851 -0 -1.2 0
3.375 0.067 1.997 -0 -1.2 0
3.574 0.061 2.114 -0 -1.2 0
3.849 0.071 2.276 -0 -1.2 0
4.117 0.068 2.434 -0 -1.2 0
4.495 0.084 2.655 -0 -1.2 0
4.925 0.097 2.909 -0 -1.2 0
5.416 0.107 3.198 -0 -1.2 0
5.977 0.112 3.528 -0 -1.2 0
6.726 0.128 3.969 -0 -1.2 0
7.742 0.158 4.566 -0 -1.2 0
8.974 0.18 5.292 -0 -1.2 0
10.654 0.205 6.281 -0 -1.2 0
13.033 0.236 7.682 -0 -1.2 0
22.057 0.276 12.995 -0 -1.2 0
16.981 -0.726 10.015 -0 -1.2 0
20.09 -3.092 11.867 -0 -1.2 0
19.345 -3.412 11.43 -0 -1.2 0
19.125 -3.775 11.305 -0 -1.2 0
19.141 -4.171 11.317 -0 -1.2 0
19.133 -4.564 11.316 -0 -1.2 0
8.232 -3.267 4.886 -0 -1.2 0
11.598 -4.909 6.883 -0 -1.2 0
8.105 -3.93 4.816 -0 -1.2 0
7.544 -3.899 4.487 -0 -1.2 0
10.447 -5.222 6.208 -0 -1.2 0
10.512 -5.486 6.248 -0 -1.2 0
10.677 -5.8 6.348 -0 -1.2 0
10.324 -5.884 6.142 -0 -1.2 0
10.361 -6.145 6.165 -0 -1.2 0
6.281 -4.291 3.746 -0 -1.2 0
9.772 -6.327 5.82 -0 -1.2 0
6.358 -4.64 3.795 -0 -1.2 0
8.734 -6.2 5.208 -0 -1.2 0
8.777 -6.45 5.235 -0 -1.2 0
6.926 -5.491 4.137 -0 -1.2 0
5.498 -4.866 3.291 -0 -1.2 0
5.965 -5.356 3.57 -0 -1.2 0
8.238 -7.234 4.925 -0 -1.2 0
8.843 -7.945 5.287 -0 -1.2 0
7.758 -7.327 4.643 -0 -1.2 0
6.515 -6.514 3.904 -0 -1.2 0
7.84 -7.874 4.696 -0 -1.2 0
7.316 -7.65 4.385 -0 -1.2 0
6.568 -7.187 3.941 -0 -1.2 0
6.969 -7.799 4.183 -0 -1.2 0
4.718 -5.77 2.839 -0 -1.2 0
6.398 -7.693 3.845 -0 -1.2 0
6.721 -8.535 4.043 -0 -1.2 0
1.055 0.027 0.584 -0 -1.2 0
1.091 0.029 0.603 -0 -1.2 0
1.127 0.03 0.623 -0 -1.2 0
1.164 0.03 0.643 -0 -1.2 0
1.2 0.028 0.663 -0 -1.2 0
1.244 0.033 0.687 -0 -1.2 0
1.281 0.029 0.707 -0 -1.2 0
1.326 0.031 0.731 -0 -1.2 0
1.364 0.025 0.752 -0 -1.2 0
1.409 0.024 0.776 -0 -1.2 0
1.461 0.027 0.805 -0 -1.2 0
1.515 0.028 0.834 -0 -1.2 0
1.575 0.033 0.867 -0 -1.2 0
1.622 0.025 0.892 -0 -1.2 0
1.684 0.028 0.926 -0 -1.2 0
1.753 0.031 0.964 -0 -1.2 0
1.824 0.034 1.002 -0 -1.2 0
1.902 0.038 1.045 -0 -1.2 0
1.974 0.035 1.084 -0 -1.2 0
2.061 0.039 1.132 -0 -1.2 0
2.15 0.039 1.18 -0 -1.2 0
2.238 0.037 1.228 -0 -1.2 0
2.344 0.039 1.286 -0 -1.2 0
2.458 0.04 1.348 -0 -1.2 0
2.573 0.039 1.41 -0 -1.2 0
2.705 0.04 1.482 -0 -1.2 0
2.845 0.04 1.559 -0 -1.2 0
3.02 0.047 1.654 -0 -1.2 0
3.204 0.05 1.754 -0 -1.2 0
3.44 0.066 1.883 -0 -1.2 0
3.66 0.065 2.002 -0 -1.2 0
3.923 0.07 2.146 -0 -1.2 0
4.205 0.069 2.299 -0 -1.2 0
4.599 0.087 2.512 -0 -1.2 0
5.011 0.093 2.737 -0 -1.2 0
5.503 0.101 3.005 -0 -1.2 0
6.091 0.11 3.325 -0 -1.2 0
6.89 0.132 3.76 -0 -1.2 0
7.891 0.155 4.304 -0 -1.2 0
9.19 0.182 5.012 -0 -1.2 0
10.903 0.207 5.944 -0 -1.2 0
13.414 0.244 7.311 -0 -1.2 0
17.165 0.283 9.353 -0 -1.2 0
17.155 -0.057 9.352 -0 -1.2 0
17.168 -0.396 9.361 -0 -1.2 0
17.21 -0.734 9.388 -0 -1.2 0
17.141 -1.073 9.353 -0 -1.2 0
19.688 -3.415 10.762 -0 -1.2 0
19.657 -3.805 10.749 -0 -1.2 0
19.68 -4.205 10.766 -0 -1.2 0
19.69 -4.605 10.774 -0 -1.2 0
10.707 -3.876 5.875 -0 -1.2 0
7.756 -3.759 4.267 -0 -1.2 0
8.289 -4.123 4.561 -0 -1.2 0
8.216 -4.276 4.523 -0 -1.2 0
8.099 -4.409 4.461 -0 -1.2 0
7.62 -4.383 4.201 -0 -1.2 0
7.61 -4.551 4.196 -0 -1.2 0
6.287 -4.088 3.472 -0 -1.2 0
7.907 -5.055 4.363 -0 -1.2 0
10.499 -6.617 5.788 -0 -1.2 0
6.62 -4.721 3.659 -0 -1.2 0
7.603 -5.452 4.201 -0 -1.2 0
7.566 -5.62 4.182 -0 -1.2 0
6.904 -5.396 3.82 -0 -1.2 0
7.155 -5.74 3.96 -0 -1.2 0
9.623 -7.617 5.32 -0 -1.2 0
9.967 -8.122 5.513 -0 -1.2 0
8.093 -7.015 4.483 -0 -1.2 0
8.661 -7.68 4.798 -0 -1.2 0
6.512 -6.219 3.614 -0 -1.2 0
6.958 -6.78 3.862 -0 -1.2 0
7.191 -7.192 3.992 -0 -1.2 0
6.951 -7.204 3.862 -0 -1.2 0
6.617 -7.119 3.68 -0 -1.2 0
7.241 -7.936 4.028 -0 -1.2 0
6.183 -7.134 3.443 -0 -1.2 0
6.974 -8.163 3.884 -0 -1.2 0
6.608 -8.027 3.684 -0 -1.2 0
6.551 -8.211 3.654 -0 -1.2 0
1.074 0.027 0.548 -0 -1.2 0
1.11 0.029 0.566 -0 -1.2 0
1.147 0.029 0.585 -0 -1.2 0
1.191 0.036 0.607 -0 -1.2 0
1.222 0.028 0.622 -0 -1.2 0
1.266 0.033 0.645 -0 -1.2 0
1.304 0.029 0.664 -0 -1.2 0
1.349 0.031 0.686 -0 -1.2 0
1.395 0.031 0.709 -0 -1.2 0
1.441 0.029 0.732 -0 -1.2 0
1.502 0.038 0.763 -0 -1.2 0
1.541 0.028 0.783 -0 -1.2 0
1.596 0.028 0.81 -0 -1.2 0
1.658 0.031 0.841 -0 -1.2 0
1.721 0.032 0.873 -0 -1.2 0
1.784 0.031 0.905 -0 -1.2 0
1.856 0.033 0.941 -0 -1.2 0
1.936 0.038 0.981 -0 -1.2 0
2.009 0.034 1.017 -0 -1.2 0
2.106 0.042 1.066 -0 -1.2 0
2.188 0.038 1.107 -0 -1.2 0
2.278 0.036 1.153 -0 -1.2 0
2.385 0.038 1.206 -0 -1.2 0
2.501 0.04 1.265 -0 -1.2 0
2.626 0.042 1.327 -0 -1.2 0
2.752 0.039 1.391 -0 -1.2 0
2.904 0.042 1.467 -0 -1.2 0
3.074 0.045 1.552 -0 -1.2 0
3.27 0.053 1.65 -0 -1.2 0
3.492 0.061 1.762 -0 -1.2 0
3.716 0.061 1.874 -0 -1.2 0
3.967 0.06 2 -0 -1.2 0
4.305 0.075 2.17 -0 -1.2 0
4.68 0.085 2.357 -0 -1.2 0
5.109 0.094 2.572 -0 -1.2 0
5.583 0.096 2.81 -0 -1.2 0
6.181 0.103 3.111 -0 -1.2 0
6.994 0.126 3.518 -0 -1.2 0
8.048 0.156 4.046 -0 -1.2 0
9.388 0.184 4.719 -0 -1.2 0
11.14 0.208 5.598 -0 -1.2 0
13.687 0.243 6.876 -0 -1.2 0
18.182 0.334 9.131 -0 -1.2 0
21.788 0.196 10.943 -0 -1.2 0
21.732 -0.23 10.919 -0 -1.2 0
18.132 -1.079 9.12 -0 -1.2 0
19.557 -1.837 9.843 -0 -1.2 0
19.577 -2.219 9.857 -0 -1.2 0
19.831 -2.621 9.988 -0 -1.2 0
19.947 -4.199 10.062 -0 -1.2 0
19.965 -4.599 10.076 -0 -1.2 0
11.853 -5.113 6.009 -0 -1.2 0
10.031 -4.705 5.091 -0 -1.2 0
10.917 -5.262 5.541 -0 -1.2 0
8.371 -4.65 4.257 -0 -1.2 0
6.373 -4.079 3.248 -0 -1.2 0
11.004 -7.05 5.602 -0 -1.2 0
7.895 -5.739 4.028 -0 -1.2 0
9.967 -7.222 5.083 -0 -1.2 0
9.776 -7.354 4.989 -0 -1.2 0
9.852 -7.661 5.03 -0 -1.2 0
8.659 -7.09 4.425 -0 -1.2 0
8.346 -7.098 4.268 -0 -1.2 0
9.464 -8.175 4.84 -0 -1.2 0
6.663 -6.25 3.416 -0 -1.2 0
9.474 -8.731 4.85 -0 -1.2 0
6.483 -6.492 3.328 -0 -1.2 0
6.488 -6.696 3.333 -0 -1.2 0
6.643 -7.041 3.412 -0 -1.2 0
7.19 -7.771 3.695 -0 -1.2 0
6.149 -6.999 3.165 -0 -1.2 0
5.831 -6.89 3.004 -0 -1.2 0
6.136 -7.416 3.163 -0 -1.2 0
6.742 -8.297 3.475 -0 -1.2 0
1.093 0.026 0.509 -0 -1.2 0
1.13 0.028 0.526 -0 -1.2 0
1.167 0.029 0.543 -0 -1.2 0
1.205 0.029 0.56 -0 -1.2 0
1.25 0.035 0.581 -0 -1.2 0
1.288 0.032 0.599 -0 -1.2 0
1.334 0.034 0.62 -0 -1.2 0
1.38 0.036 0.641 -0 -1.2 0
1.419 0.03 0.659 -0 -1.2 0
1.466 0.029 0.68 -0 -1.2 0
1.521 0.032 0.705 -0 -1.2 0
1.568 0.027 0.727 -0 -1.2 0
1.624 0.027 0.752 -0 -1.2 0
1.695 0.036 0.785 -0 -1.2 0
1.759 0.037 0.814 -0 -1.2 0
1.816 0.03 0.84 -0 -1.2 0
1.896 0.038 0.877 -0 -1.2 0
1.962 0.032 0.907 -0 -1.2 0
2.036 0.029 0.941 -0 -1.2 0
2.126 0.032 0.982 -0 -1.2 0
2.226 0.037 1.028 -0 -1.2 0
2.318 0.035 1.07 -0 -1.2 0
2.427 0.037 1.12 -0 -1.2 0
2.545 0.039 1.174 -0 -1.2 0
2.672 0.041 1.232 -0 -1.2 0
2.8 0.038 1.291 -0 -1.2 0
2.963 0.044 1.365 -0 -1.2 0
3.127 0.044 1.44 -0 -1.2 0
3.318 0.048 1.527 -0 -1.2 0
3.545 0.057 1.631 -0 -1.2 0
3.781 0.059 1.739 -0 -1.2 0
4.036 0.059 1.856 -0 -1.2 0
4.363 0.068 2.005 -0 -1.2 0
4.771 0.085 2.191 -0 -1.2 0
5.207 0.094 2.391 -0 -1.2 0
5.689 0.096 2.611 -0 -1.2 0
6.316 0.106 2.898 -0 -1.2 0
7.143 0.129 3.276 -0 -1.2 0
8.215 0.157 3.766 -0 -1.2 0
9.579 0.184 4.39 -0 -1.2 0
11.379 0.209 5.214 -0 -1.2 0
14.035 0.248 6.428 -0 -1.2 0
19.439 -0.343 8.907 -0 -1.2 0
19.492 -0.713 8.935 -0 -1.2 0
19.531 -1.085 8.956 -0 -1.2 0
19.835 -1.463 9.1 -0 -1.2 0
12.014 -4.607 5.555 -0 -1.2 0
11.79 -4.782 5.454 -0 -1.2 0
12.355 -5.217 5.717 -0 -1.2 0
9.651 -4.511 4.472 -0 -1.2 0
10.918 -5.195 5.058 -0 -1.2 0
10.731 -5.354 4.975 -0 -1.2 0
11.534 -5.926 5.348 -0 -1.2 0
6.589 -3.984 3.065 -0 -1.2 0
6.524 -4.101 3.037 -0 -1.2 0
11.013 -6.445 5.116 -0 -1.2 0
10.215 -6.529 4.751 -0 -1.2 0
10.086 -6.699 4.694 -0 -1.2 0
10.235 -7.031 4.766 -0 -1.2 0
9.893 -7.076 4.61 -0 -1.2 0
9.937 -7.353 4.632 -0 -1.2 0
9.936 -7.608 4.635 -0 -1.2 0
9.9 -7.844 4.621 -0 -1.2 0
8.543 -7.14 3.993 -0 -1.2 0
9.679 -8.218 4.523 -0 -1.2 0
9.401 -8.275 4.397 -0 -1.2 0
10.106 -9.11 4.729 -0 -1.2 0
6.667 -6.555 3.128 -0 -1.2 0
6.722 -6.803 3.156 -0 -1.2 0
6.989 -7.251 3.282 -0 -1.2 0
6.758 -7.26 3.178 -0 -1.2 0
7.104 -7.813 3.341 -0 -1.2 0
7.063 -8.014 3.325 -0 -1.2 0
6.03 -7.201 2.844 -0 -1.2 0
5.822 -7.196 2.747 -0 -1.2 0
1.109 0.026 0.472 -0 -1.2 0
1.153 0.035 0.491 -0 -1.2 0
1.178 0.021 0.501 -0 -1.2 0
1.223 0.028 0.52 -0 -1.2 0
1.268 0.034 0.539 -0 -1.2 0
1.307 0.032 0.555 -0 -1.2 0
1.346 0.028 0.571 -0 -1.2 0
1.393 0.03 0.591 -0 -1.2 0
1.44 0.029 0.611 -0 -1.2 0
1.488 0.028 0.63 -0 -1.2 0
1.543 0.031 0.654 -0 -1.2 0
1.599 0.033 0.677 -0 -1.2 0
1.655 0.032 0.7 -0 -1.2 0
1.72 0.035 0.727 -0 -1.2 0
1.777 0.031 0.751 -0 -1.2 0
1.85 0.034 0.782 -0 -1.2 0
1.916 0.032 0.809 -0 -1.2 0
1.991 0.031 0.841 -0 -1.2 0
2.066 0.029 0.872 -0 -1.2 0
2.166 0.037 0.914 -0 -1.2 0
2.259 0.036 0.952 -0 -1.2 0
2.352 0.034 0.991 -0 -1.2 0
2.463 0.036 1.038 -0 -1.2 0
2.574 0.034 1.084 -0 -1.2 0
2.712 0.04 1.142 -0 -1.2 0
2.85 0.041 1.199 -0 -1.2 0
3.016 0.046 1.269 -0 -1.2 0
3.182 0.046 1.338 -0 -1.2 0
3.376 0.05 1.419 -0 -1.2 0
3.615 0.062 1.519 -0 -1.2 0
3.846 0.061 1.615 -0 -1.2 0
4.104 0.06 1.723 -0 -1.2 0
4.436 0.069 1.862 -0 -1.2 0
4.832 0.081 2.026 -0 -1.2 0
5.284 0.092 2.215 -0 -1.2 0
5.764 0.091 2.415 -0 -1.2 0
6.419 0.106 2.689 -0 -1.2 0
7.248 0.126 3.035 -0 -1.2 0
8.327 0.152 3.485 -0 -1.2 0
9.702 0.178 4.059 -0 -1.2 0
11.575 0.208 4.841 -0 -1.2 0
14.214 0.24 5.942 -0 -1.2 0
19.122 0.347 7.991 -0 -1.2 0
19.684 0.017 8.229 -0 -1.2 0
13.522 -5.271 5.713 -0 -1.2 0
12.042 -5.058 5.093 -0 -1.2 0
11.819 -5.227 5.002 -0 -1.2 0
9.239 -4.512 3.917 -0 -1.2 0
9.191 -4.688 3.899 -0 -1.2 0
11.067 -5.666 4.693 -0 -1.2 0
6.822 -4.047 2.902 -0 -1.2 0
6.747 -4.162 2.872 -0 -1.2 0
8.674 -5.242 3.689 -0 -1.2 0
10.617 -6.422 4.513 -0 -1.2 0
10.438 -6.572 4.44 -0 -1.2 0
10.175 -7.162 4.336 -0 -1.2 0
10.329 -7.511 4.404 -0 -1.2 0
10.184 -7.679 4.346 -0 -1.2 0
10.131 -7.906 4.326 -0 -1.2 0
8.715 -7.176 3.727 -0 -1.2 0
9.744 -8.166 4.167 -0 -1.2 0
9.447 -8.21 4.044 -0 -1.2 0
9.272 -8.339 3.972 -0 -1.2 0
10.953 -9.985 4.691 -0 -1.2 0
6.9 -6.874 2.965 -0 -1.2 0
6.712 -6.92 2.888 -0 -1.2 0
6.35 -6.801 2.735 -0 -1.2 0
6.825 -7.455 2.94 -0 -1.2 0
6.379 -7.248 2.752 -0 -1.2 0
6.373 -7.462 2.752 -0 -1.2 0
6.904 -8.247 2.982 -0 -1.2 0
1.124 0.026 0.434 -0 -1.2 0
1.169 0.034 0.451 -0 -1.2 0
1.201 0.028 0.463 -0 -1.2 0
1.246 0.035 0.48 -0 -1.2 0
1.279 0.026 0.492 -0 -1.2 0
1.325 0.031 0.51 -0 -1.2 0
1.365 0.027 0.525 -0 -1.2 0
1.42 0.035 0.546 -0 -1.2 0
1.46 0.029 0.561 -0 -1.2 0
1.516 0.033 0.582 -0 -1.2 0
1.564 0.031 0.6 -0 -1.2 0
1.621 0.032 0.622 -0 -1.2 0
1.678 0.031 0.643 -0 -1.2 0
1.743 0.034 0.668 -0 -1.2 0
1.801 0.03 0.69 -0 -1.2 0
1.876 0.034 0.718 -0 -1.2 0
1.943 0.031 0.743 -0 -1.2 0
2.018 0.03 0.772 -0 -1.2 0
2.102 0.032 0.804 -0 -1.2 0
2.196 0.036 0.839 -0 -1.2 0
2.281 0.031 0.871 -0 -1.2 0
2.384 0.033 0.91 -0 -1.2 0
2.496 0.035 0.953 -0 -1.2 0
2.618 0.037 0.999 -0 -1.2 0
2.758 0.042 1.052 -0 -1.2 0
2.907 0.046 1.108 -0 -1.2 0
3.057 0.045 1.165 -0 -1.2 0
3.235 0.048 1.232 -0 -1.2 0
3.422 0.049 1.303 -0 -1.2 0
3.646 0.054 1.388 -0 -1.2 0
3.889 0.056 1.479 -0 -1.2 0
4.17 0.061 1.585 -0 -1.2 0
4.488 0.065 1.706 -0 -1.2 0
4.88 0.075 1.853 -0 -1.2 0
5.338 0.086 2.026 -0 -1.2 0
5.852 0.091 2.221 -0 -1.2 0
6.497 0.101 2.464 -0 -1.2 0
7.357 0.124 2.789 -0 -1.2 0
8.45 0.151 3.202 -0 -1.2 0
9.788 0.168 3.708 -0 -1.2 0
11.891 0.221 4.502 -0 -1.2 0
14.549 0.248 5.506 -0 -1.2 0
18.665 0.284 7.063 -0 -1.2 0
26.392 -5.052 10.044 -0 -1.2 0
13.304 -4.362 5.088 -0 -1.2 0
12.339 -4.61 4.726 -0 -1.2 0
12.072 -4.775 4.627 -0 -1.2 0
12.501 -5.159 4.794 -0 -1.2 0
12.077 -5.266 4.635 -0 -1.2 0
11.714 -5.382 4.499 -0 -1.2 0
9.228 -4.659 3.551 -0 -1.2 0
11.121 -5.631 4.278 -0 -1.2 0
6.992 -4.084 2.7 -0 -1.2 0
6.968 -4.223 2.692 -0 -1.2 0
10.532 -6.075 4.06 -0 -1.2 0
10.398 -6.244 4.012 -0 -1.2 0
10.294 -6.909 3.979 -0 -1.2 0
10.108 -7.045 3.91 -0 -1.2 0
10.041 -7.25 3.888 -0 -1.2 0
11.058 -8.156 4.282 -0 -1.2 0
11.471 -8.716 4.444 -0 -1.2 0
6.578 -5.611 2.56 -0 -1.2 0
8.724 -7.336 3.39 -0 -1.2 0
10.354 -8.799 4.024 -0 -1.2 0
10.317 -9.059 4.012 -0 -1.2 0
10.192 -9.256 3.967 -0 -1.2 0
10.123 -9.498 3.944 -0 -1.2 0
7.092 -7.174 2.772 -0 -1.2 0
7.228 -7.516 2.827 -0 -1.2 0
6.573 -7.137 2.575 -0 -1.2 0
6.964 -7.732 2.729 -0 -1.2 0
6.731 -7.738 2.642 -0 -1.2 0
6.106 -7.325 2.401 -0 -1.2 0
1.145 0.032 0.395 -0 -1.2 0
1.184 0.034 0.408 -0 -1.2 0
1.21 0.02 0.416 -0 -1.2 0
1.263 0.034 0.434 -0 -1.2 0
1.303 0.033 0.447 -0 -1.2 0
1.335 0.024 0.458 -0 -1.2 0
1.383 0.027 0.475 -0 -1.2 0
1.431 0.028 0.491 -0 -1.2 0
1.479 0.028 0.507 -0 -1.2 0
1.536 0.032 0.526 -0 -1.2 0
1.593 0.035 0.545 -0 -1.2 0
1.65 0.036 0.564 -0 -1.2 0
1.7 0.03 0.581 -0 -1.2 0
1.766 0.033 0.604 -0 -1.2 0
1.833 0.035 0.626 -0 -1.2 0
1.901 0.033 0.649 -0 -1.2 0
1.985 0.04 0.677 -0 -1.2 0
2.053 0.035 0.7 -0 -1.2 0
2.13 0.031 0.726 -0 -1.2 0
2.225 0.035 0.758 -0 -1.2 0
2.32 0.034 0.79 -0 -1.2 0
2.416 0.032 0.822 -0 -1.2 0
2.529 0.034 0.86 -0 -1.2 0
2.644 0.032 0.899 -0 -1.2 0
2.794 0.041 0.95 -0 -1.2 0
2.937 0.042 0.997 -0 -1.2 0
3.098 0.044 1.052 -0 -1.2 0
3.277 0.047 1.112 -0 -1.2 0
3.476 0.05 1.179 -0 -1.2 0
3.685 0.049 1.249 -0 -1.2 0
3.941 0.055 1.335 -0 -1.2 0
4.216 0.057 1.428 -0 -1.2 0
4.556 0.065 1.543 -0 -1.2 0
4.935 0.071 1.67 -0 -1.2 0
5.399 0.081 1.825 -0 -1.2 0
5.939 0.09 2.007 -0 -1.2 0
6.574 0.097 2.221 -0 -1.2 0
7.454 0.121 2.517 -0 -1.2 0
8.562 0.147 2.889 -0 -1.2 0
9.889 0.16 3.336 -0 -1.2 0
12.002 0.211 4.047 -0 -1.2 0
14.75 0.242 4.971 -0 -1.2 0
18.94 0.279 6.381 -0 -1.2 0
26.803 -4.572 9.086 -0 -1.2 0
13.352 -4.856 4.562 -0 -1.2 0
11.676 -4.611 3.995 -0 -1.2 0
11.579 -4.813 3.964 -0 -1.2 0
12.1 -5.225 4.144 -0 -1.2 0
9.318 -4.458 3.199 -0 -1.2 0
9.305 -4.645 3.197 -0 -1.2 0
9.253 -4.817 3.181 -0 -1.2 0
7.164 -4.12 2.469 -0 -1.2 0
11.901 -6.4 4.091 -0 -1.2 0
10.705 -6.096 3.685 -0 -1.2 0
10.689 -6.324 3.682 -0 -1.2 0
10.022 -6.221 3.456 -0 -1.2 0
11.756 -7.384 4.054 -0 -1.2 0
9.219 -6.232 3.187 -0 -1.2 0
10.281 -7.074 3.554 -0 -1.2 0
9.04 -7.013 3.135 -0 -1.2 0
6.752 -5.673 2.349 -0 -1.2 0
10.545 -8.559 3.661 -0 -1.2 0
10.59 -8.877 3.679 -0 -1.2 0
10.391 -9.017 3.614 -0 -1.2 0
10.379 -9.302 3.613 -0 -1.2 0
9.198 -8.628 3.208 -0 -1.2 0
7.001 -7.02 2.449 -0 -1.2 0
8.979 -8.991 3.138 -0 -1.2 0
8.013 -8.387 2.806 -0 -1.2 0
6.333 -7.046 2.225 -0 -1.2 0
6.267 -7.194 2.204 -0 -1.2 0
5.934 -7.071 2.091 -0 -1.2 0
1.158 0.032 0.355 -0 -1.2 0
1.197 0.033 0.367 -0 -1.2 0
1.23 0.027 0.377 -0 -1.2 0
1.277 0.034 0.391 -0 -1.2 0
1.31 0.025 0.401 -0 -1.2 0
1.357 0.03 0.415 -0 -1.2 0
1.398 0.026 0.427 -0 -1.2 0
1.454 0.034 0.444 -0 -1.2 0
1.503 0.034 0.458 -0 -1.2 0
1.56 0.038 0.475 -0 -1.2 0
1.602 0.03 0.488 -0 -1.2 0
1.668 0.036 0.508 -0 -1.2 0
1.727 0.036 0.525 -0 -1.2 0
1.786 0.033 0.543 -0 -1.2 0
1.853 0.034 0.563 -0 -1.2 0
1.93 0.037 0.586 -0 -1.2 0
1.998 0.034 0.606 -0 -1.2 0
2.067 0.029 0.627 -0 -1.2 0
2.153 0.03 0.653 -0 -1.2 0
2.24 0.029 0.679 -0 -1.2 0
2.345 0.034 0.71 -0 -1.2 0
2.442 0.031 0.739 -0 -1.2 0
2.548 0.029 0.771 -0 -1.2 0
2.682 0.034 0.811 -0 -1.2 0
2.825 0.04 0.854 -0 -1.2 0
2.978 0.044 0.899 -0 -1.2 0
3.131 0.042 0.945 -0 -1.2 0
3.313 0.045 1 -0 -1.2 0
3.505 0.046 1.057 -0 -1.2 0
3.725 0.048 1.123 -0 -1.2 0
3.965 0.048 1.195 -0 -1.2 0
4.29 0.063 1.292 -0 -1.2 0
4.615 0.066 1.389 -0 -1.2 0
4.998 0.071 1.502 -0 -1.2 0
5.448 0.077 1.637 -0 -1.2 0
6.013 0.09 1.806 -0 -1.2 0
6.598 0.086 1.981 -0 -1.2 0
7.507 0.114 2.253 -0 -1.2 0
8.484 0.119 2.545 -0 -1.2 0
9.959 0.151 2.985 -0 -1.2 0
12.179 0.212 3.648 -0 -1.2 0
14.977 0.243 4.485 -0 -1.2 0
19.166 0.273 5.737 -0 -1.2 0
19.175 -0.074 5.743 -0 -1.2 0
20.776 -0.741 6.23 -0 -1.2 0
20.73 -1.117 6.221 -0 -1.2 0
20.725 -1.493 6.224 -0 -1.2 0
20.551 -1.862 6.177 -0 -1.2 0
20.496 -2.233 6.165 -0 -1.2 0
20.558 -2.611 6.189 -0 -1.2 0
20.596 -2.989 6.205 -0 -1.2 0
20.626 -3.37 6.219 -0 -1.2 0
20.727 -3.762 6.253 -0 -1.2 0
20.744 -4.146 6.264 -0 -1.2 0
20.784 -4.538 6.28 -0 -1.2 0
20.76 -4.921 6.278 -0 -1.2 0
14.31 -3.997 4.338 -0 -1.2 0
14.193 -4.241 4.306 -0 -1.2 0
15.173 -4.748 4.605 -0 -1.2 0
20.588 -6.453 6.245 -0 -1.2 0
13.792 -4.945 4.195 -0 -1.2 0
20.633 -7.268 6.269 -0 -1.2 0
12.268 -5.242 3.743 -0 -1.2 0
12.621 -5.617 3.853 -0 -1.2 0
9.334 -4.621 2.858 -0 -1.2 0
7.46 -4.06 2.291 -0 -1.2 0
7.365 -4.176 2.263 -0 -1.2 0
13.571 -7.09 4.155 -0 -1.2 0
10.698 -6.043 3.284 -0 -1.2 0
10.276 -6.071 3.157 -0 -1.2 0
10.208 -6.264 3.139 -0 -1.2 0
20.826 -12.162 6.388 -0 -1.2 0
9.411 -6.287 2.902 -0 -1.2 0
6.748 -4.961 2.089 -0 -1.2 0
8.999 -6.927 2.786 -0 -1.2 0
11.128 -8.604 3.443 -0 -1.2 0
6.993 -5.972 2.175 -0 -1.2 0
11.104 -9.174 3.444 -0 -1.2 0
7.103 -6.432 2.213 -0 -1.2 0
7.081 -6.614 2.209 -0 -1.2 0
7.213 -6.925 2.252 -0 -1.2 0
6.127 -6.216 1.919 -0 -1.2 0
6.208 -6.474 1.946 -0 -1.2 0
10.706 -10.766 3.344 -0 -1.2 0
6.656 -7.289 2.09 -0 -1.2 0
6.481 -7.34 2.039 -0 -1.2 0
4.618 -5.676 1.461 -0 -1.2 0
1.162 0.024 0.315 -0 -1.2 0
1.202 0.026 0.324 -0 -1.2 0
1.234 0.019 0.333 -0 -1.2 0
1.289 0.033 0.347 -0 -1.2 0
1.322 0.025 0.356 -0 -1.2 0
1.37 0.03 0.368 -0 -1.2 0
1.419 0.031 0.381 -0 -1.2 0
1.468 0.033 0.394 -0 -1.2 0
1.518 0.033 0.407 -0 -1.2 0
1.567 0.031 0.42 -0 -1.2 0
1.618 0.029 0.433 -0 -1.2 0
1.684 0.035 0.451 -0 -1.2 0
1.743 0.035 0.466 -0 -1.2 0
1.803 0.032 0.482 -0 -1.2 0
1.871 0.033 0.5 -0 -1.2 0
1.94 0.031 0.518 -0 -1.2 0
2.017 0.034 0.538 -0 -1.2 0
2.095 0.033 0.559 -0 -1.2 0
2.174 0.029 0.579 -0 -1.2 0
2.271 0.033 0.605 -0 -1.2 0
2.359 0.028 0.628 -0 -1.2 0
2.465 0.03 0.656 -0 -1.2 0
2.581 0.032 0.686 -0 -1.2 0
2.707 0.033 0.719 -0 -1.2 0
2.852 0.039 0.757 -0 -1.2 0
3.015 0.046 0.8 -0 -1.2 0
3.161 0.041 0.838 -0 -1.2 0
3.345 0.044 0.887 -0 -1.2 0
3.539 0.044 0.937 -0 -1.2 0
3.761 0.046 0.996 -0 -1.2 0
4.013 0.049 1.062 -0 -1.2 0
4.34 0.063 1.148 -0 -1.2 0
4.659 0.064 1.232 -0 -1.2 0
5.018 0.062 1.326 -0 -1.2 0
5.482 0.07 1.446 -0 -1.2 0
6.032 0.08 1.591 -0 -1.2 0
6.671 0.084 1.758 -0 -1.2 0
7.521 0.101 1.981 -0 -1.2 0
8.489 0.104 2.235 -0 -1.2 0
10.025 0.143 2.638 -0 -1.2 0
12.296 0.207 3.234 -0 -1.2 0
15.42 0.263 4.052 -0 -1.2 0
19.86 0.302 5.216 -0 -1.2 0
20.006 -0.048 5.259 -0 -1.2 0
21.005 -0.372 5.526 -0 -1.2 0
20.994 -0.749 5.527 -0 -1.2 0
21.006 -1.126 5.536 -0 -1.2 0
20.932 -1.501 5.522 -0 -1.2 0
21.028 -1.882 5.551 -0 -1.2 0
21.02 -2.259 5.554 -0 -1.2 0
21.035 -2.64 5.563 -0 -1.2 0
21.033 -3.02 5.567 -0 -1.2 0
21.044 -3.402 5.576 -0 -1.2 0
21.03 -3.784 5.577 -0 -1.2 0
21.057 -4.172 5.589 -0 -1.2 0
21.039 -4.557 5.589 -0 -1.2 0
21.034 -4.944 5.593 -0 -1.2 0
21.021 -5.333 5.594 -0 -1.2 0
21.031 -5.729 5.601 -0 -1.2 0
21.042 -6.128 5.61 -0 -1.2 0
14.325 -4.788 3.83 -0 -1.2 0
14.035 -4.982 3.757 -0 -1.2 0
15.305 -5.632 4.098 -0 -1.2 0
15.206 -5.899 4.076 -0 -1.2 0
12.118 -5.157 3.256 -0 -1.2 0
9.289 -4.387 2.503 -0 -1.2 0
9.296 -4.577 2.507 -0 -1.2 0
7.712 -4.135 2.086 -0 -1.2 0
11.052 -5.696 2.983 -0 -1.2 0
10.803 -5.819 2.919 -0 -1.2 0
10.756 -6.028 2.91 -0 -1.2 0
21.082 -11.26 5.686 -0 -1.2 0
21.027 -11.699 5.679 -0 -1.2 0
20.895 -12.102 5.649 -0 -1.2 0
9.219 -6.136 2.508 -0 -1.2 0
6.82 -4.969 1.864 -0 -1.2 0
7.005 -5.24 1.915 -0 -1.2 0
7.016 -5.416 1.921 -0 -1.2 0
11.563 -8.539 3.154 -0 -1.2 0
6.817 -5.63 1.871 -0 -1.2 0
6.452 -5.549 1.774 -0 -1.2 0
6.991 -6.111 1.923 -0 -1.2 0
7.084 -6.371 1.95 -0 -1.2 0
7.125 -6.598 1.964 -0 -1.2 0
7.418 -7.039 2.047 -0 -1.2 0
7.233 -7.101 1.999 -0 -1.2 0
6.755 -6.901 1.871 -0 -1.2 0
6.808 -7.158 1.888 -0 -1.2 0
5.1 -5.778 1.423 -0 -1.2 0
5.006 -5.854 1.399 -0 -1.2 0
9.803 -10.838 2.722 -0 -1.2 0
1.186 0.038 0.276 -0 -1.2 0
1.219 0.032 0.283 -0 -1.2 0
1.252 0.026 0.291 -0 -1.2 0
1.3 0.033 0.301 -0 -1.2 0
1.334 0.024 0.309 -0 -1.2 0
1.382 0.029 0.32 -0 -1.2 0
1.431 0.031 0.33 -0 -1.2 0
1.473 0.026 0.339 -0 -1.2 0
1.531 0.032 0.352 -0 -1.2 0
1.581 0.03 0.363 -0 -1.2 0
1.64 0.033 0.377 -0 -1.2 0
1.691 0.029 0.388 -0 -1.2 0
1.759 0.034 0.403 -0 -1.2 0
1.819 0.031 0.417 -0 -1.2 0
1.888 0.032 0.432 -0 -1.2 0
1.957 0.03 0.448 -0 -1.2 0
2.035 0.033 0.465 -0 -1.2 0
2.114 0.032 0.483 -0 -1.2 0
2.202 0.033 0.503 -0 -1.2 0
2.291 0.032 0.522 -0 -1.2 0
2.389 0.031 0.544 -0 -1.2 0
2.487 0.029 0.566 -0 -1.2 0
2.604 0.031 0.593 -0 -1.2 0
2.731 0.032 0.621 -0 -1.2 0
2.877 0.037 0.654 -0 -1.2 0
3.033 0.041 0.689 -0 -1.2 0
3.198 0.044 0.726 -0 -1.2 0
3.365 0.039 0.763 -0 -1.2 0
3.57 0.043 0.809 -0 -1.2 0
3.804 0.048 0.862 -0 -1.2 0
4.067 0.053 0.921 -0 -1.2 0
4.359 0.057 0.986 -0 -1.2 0
4.681 0.057 1.058 -0 -1.2 0
5.062 0.06 1.144 -0 -1.2 0
5.501 0.062 1.242 -0 -1.2 0
6.057 0.071 1.366 -0 -1.2 0
6.691 0.075 1.508 -0 -1.2 0
7.53 0.088 1.696 -0 -1.2 0
8.371 0.072 1.886 -0 -1.2 0
9.406 0.051 2.118 -0 -1.2 0
12.482 0.209 2.805 -0 -1.2 0
16.13 0.307 3.622 -0 -1.2 0
20.551 0.329 4.613 -0 -1.2 0
20.903 -0.02 4.696 -0 -1.2 0
20.937 -0.391 4.708 -0 -1.2 0
20.935 -0.763 4.714 -0 -1.2 0
20.936 -1.135 4.719 -0 -1.2 0
20.873 -1.507 4.71 -0 -1.2 0
21.018 -1.884 4.747 -0 -1.2 0
21.01 -2.258 4.751 -0 -1.2 0
21.015 -2.634 4.757 -0 -1.2 0
21.024 -3.012 4.763 -0 -1.2 0
21.016 -3.389 4.767 -0 -1.2 0
21.021 -3.769 4.774 -0 -1.2 0
21.04 -4.152 4.783 -0 -1.2 0
21.041 -4.536 4.788 -0 -1.2 0
21.035 -4.92 4.792 -0 -1.2 0
21.043 -5.31 4.799 -0 -1.2 0
21.015 -5.695 4.798 -0 -1.2 0
21.036 -6.092 4.809 -0 -1.2 0
14.933 -4.919 3.423 -0 -1.2 0
13.782 -4.885 3.166 -0 -1.2 0
14.905 -5.48 3.425 -0 -1.2 0
10.503 -4.381 2.423 -0 -1.2 0
9.231 -4.16 2.135 -0 -1.2 0
9.261 -4.352 2.144 -0 -1.2 0
12.05 -5.584 2.786 -0 -1.2 0
8.116 -4.272 1.886 -0 -1.2 0
8.077 -4.423 1.88 -0 -1.2 0
8.934 -4.965 2.08 -0 -1.2 0
12.621 -6.845 2.932 -0 -1.2 0
9 -5.376 2.099 -0 -1.2 0
8.96 -5.552 2.093 -0 -1.2 0
8.96 -5.751 2.096 -0 -1.2 0
6.722 -4.728 1.58 -0 -1.2 0
9.008 -6.188 2.113 -0 -1.2 0
9.03 -6.411 2.12 -0 -1.2 0
9.121 -6.684 2.145 -0 -1.2 0
6.754 -5.383 1.597 -0 -1.2 0
6.672 -5.497 1.579 -0 -1.2 0
6.669 -5.664 1.581 -0 -1.2 0
6.502 -5.717 1.544 -0 -1.2 0
6.351 -5.779 1.511 -0 -1.2 0
6.806 -6.306 1.621 -0 -1.2 0
6.578 -6.314 1.57 -0 -1.2 0
6.443 -6.391 1.54 -0 -1.2 0
7.26 -7.29 1.736 -0 -1.2 0
5.216 -5.682 1.255 -0 -1.2 0
5.203 -5.834 1.255 -0 -1.2 0
6.642 -7.386 1.598 -0 -1.2 0
6.813 -7.781 1.642 -0 -1.2 0
1.188 0.03 0.235 -0 -1.2 0
1.221 0.025 0.241 -0 -1.2 0
1.261 0.025 0.249 -0 -1.2 0
1.309 0.032 0.258 -0 -1.2 0
1.35 0.031 0.265 -0 -1.2 0
1.392 0.028 0.273 -0 -1.2 0
1.441 0.03 0.283 -0 -1.2 0
1.491 0.032 0.292 -0 -1.2 0
1.542 0.032 0.302 -0 -1.2 0
1.6 0.036 0.313 -0 -1.2 0
1.651 0.032 0.321 -0 -1.2 0
1.711 0.033 0.333 -0 -1.2 0
1.763 0.027 0.342 -0 -1.2 0
1.84 0.035 0.357 -0 -1.2 0
1.901 0.031 0.369 -0 -1.2 0
1.987 0.04 0.385 -0 -1.2 0
2.049 0.032 0.397 -0 -1.2 0
2.12 0.026 0.41 -0 -1.2 0
2.217 0.032 0.429 -0 -1.2 0
2.306 0.031 0.445 -0 -1.2 0
2.405 0.03 0.464 -0 -1.2 0
2.504 0.028 0.483 -0 -1.2 0
2.622 0.03 0.505 -0 -1.2 0
2.75 0.031 0.529 -0 -1.2 0
2.897 0.036 0.557 -0 -1.2 0
3.054 0.04 0.587 -0 -1.2 0
3.221 0.042 0.618 -0 -1.2 0
3.407 0.045 0.654 -0 -1.2 0
3.595 0.041 0.689 -0 -1.2 0
3.839 0.049 0.736 -0 -1.2 0
4.095 0.051 0.784 -0 -1.2 0
4.39 0.055 0.84 -0 -1.2 0
4.714 0.055 0.901 -0 -1.2 0
5.107 0.06 0.976 -0 -1.2 0
5.501 0.051 1.05 -0 -1.2 0
6.108 0.071 1.164 -0 -1.2 0
6.728 0.07 1.281 -0 -1.2 0
7.553 0.08 1.438 -0 -1.2 0
8.293 0.049 1.578 -0 -1.2 0
9.072 -0.002 1.727 -0 -1.2 0
12.686 0.215 2.408 -0 -1.2 0
16.095 0.287 3.052 -0 -1.2 0
20.468 0.304 3.88 -0 -1.2 0
20.518 -0.056 3.894 -0 -1.2 0
20.817 -0.409 3.956 -0 -1.2 0
20.854 -0.776 3.968 -0 -1.2 0
20.855 -1.144 3.974 -0 -1.2 0
20.792 -1.511 3.967 -0 -1.2 0
20.918 -1.884 3.996 -0 -1.2 0
20.93 -2.255 4.003 -0 -1.2 0
20.935 -2.627 4.009 -0 -1.2 0
20.945 -3.001 4.016 -0 -1.2 0
20.947 -3.375 4.022 -0 -1.2 0
20.952 -3.75 4.028 -0 -1.2 0
20.951 -4.127 4.034 -0 -1.2 0
9.016 -2.557 1.752 -0 -1.2 0
20.959 -4.889 4.045 -0 -1.2 0
20.958 -5.273 4.05 -0 -1.2 0
15.476 -4.462 3.001 -0 -1.2 0
15.109 -4.661 2.935 -0 -1.2 0
9.541 -3.518 1.864 -0 -1.2 0
9.584 -3.71 1.875 -0 -1.2 0
9.47 -3.858 1.856 -0 -1.2 0
9.112 -3.927 1.789 -0 -1.2 0
9.155 -4.118 1.8 -0 -1.2 0
8.944 -4.223 1.762 -0 -1.2 0
8.759 -4.332 1.728 -0 -1.2 0
8.84 -4.538 1.746 -0 -1.2 0
8.852 -4.723 1.751 -0 -1.2 0
8.843 -4.902 1.752 -0 -1.2 0
8.874 -5.102 1.76 -0 -1.2 0
8.874 -5.291 1.763 -0 -1.2 0
8.986 -5.539 1.787 -0 -1.2 0
20.926 -11.967 4.138 -0 -1.2 0
20.554 -12.237 4.071 -0 -1.2 0
12.576 -8.181 2.505 -0 -1.2 0
12.274 -8.296 2.449 -0 -1.2 0
11.897 -8.357 2.379 -0 -1.2 0
6.9 -5.451 1.392 -0 -1.2 0
7.465 -5.997 1.506 -0 -1.2 0
6.674 -5.639 1.351 -0 -1.2 0
6.739 -5.858 1.367 -0 -1.2 0
7.424 -6.548 1.506 -0 -1.2 0
7.127 -6.52 1.449 -0 -1.2 0
7.811 -7.267 1.59 -0 -1.2 0
7.529 -7.259 1.537 -0 -1.2 0
4.813 -5.149 0.992 -0 -1.2 0
6.869 -7.125 1.409 -0 -1.2 0
5.209 -5.809 1.077 -0 -1.2 0
4.219 -5.032 0.878 -0 -1.2 0
4.186 -5.14 0.874 -0 -1.2 0
1.194 0.03 0.195 -0 -1.2 0
1.235 0.031 0.201 -0 -1.2 0
1.268 0.025 0.206 -0 -1.2 0
1.317 0.031 0.214 -0 -1.2 0
1.358 0.03 0.22 -0 -1.2 0
1.4 0.028 0.227 -0 -1.2 0
1.45 0.029 0.234 -0 -1.2 0
1.5 0.031 0.242 -0 -1.2 0
1.55 0.031 0.25 -0 -1.2 0
1.601 0.029 0.258 -0 -1.2 0
1.661 0.032 0.267 -0 -1.2 0
1.721 0.033 0.276 -0 -1.2 0
1.781 0.032 0.286 -0 -1.2 0
1.842 0.029 0.295 -0 -1.2 0
1.92 0.036 0.307 -0 -1.2 0
1.99 0.034 0.318 -0 -1.2 0
2.07 0.036 0.329 -0 -1.2 0
2.15 0.034 0.342 -0 -1.2 0
2.221 0.026 0.353 -0 -1.2 0
2.32 0.03 0.368 -0 -1.2 0
2.428 0.034 0.385 -0 -1.2 0
2.519 0.027 0.399 -0 -1.2 0
2.637 0.028 0.417 -0 -1.2 0
2.757 0.026 0.436 -0 -1.2 0
2.914 0.035 0.46 -0 -1.2 0
3.081 0.042 0.486 -0 -1.2 0
3.239 0.041 0.51 -0 -1.2 0
3.436 0.047 0.541 -0 -1.2 0
3.625 0.043 0.57 -0 -1.2 0
3.871 0.05 0.608 -0 -1.2 0
4.128 0.051 0.648 -0 -1.2 0
4.415 0.053 0.692 -0 -1.2 0
4.76 0.058 0.746 -0 -1.2 0
5.136 0.057 0.804 -0 -1.2 0
5.542 0.051 0.867 -0 -1.2 0
6.124 0.063 0.957 -0 -1.2 0
6.835 0.078 1.066 -0 -1.2 0
7.596 0.077 1.184 -0 -1.2 0
8.252 0.033 1.286 -0 -1.2 0
8.928 -0.03 1.392 -0 -1.2 0
9.288 -0.149 1.45 -0 -1.2 0
9.303 -0.312 1.454 -0 -1.2 0
9.266 -0.478 1.451 -0 -1.2 0
9.275 -0.64 1.454 -0 -1.2 0
9.252 -0.803 1.454 -0 -1.2 0
9.255 -0.964 1.456 -0 -1.2 0
9.236 -1.125 1.455 -0 -1.2 0
9.234 -1.286 1.458 -0 -1.2 0
9.16 -1.444 1.448 -0 -1.2 0
9.182 -1.606 1.454 -0 -1.2 0
9.191 -1.768 1.458 -0 -1.2 0
9.089 -1.92 1.444 -0 -1.2 0
9.074 -2.079 1.444 -0 -1.2 0
9.084 -2.24 1.448 -0 -1.2 0
9.063 -2.399 1.447 -0 -1.2 0
9.107 -2.568 1.457 -0 -1.2 0
9.1 -2.73 1.458 -0 -1.2 0
9.079 -2.892 1.457 -0 -1.2 0
9.047 -3.05 1.454 -0 -1.2 0
9.059 -3.219 1.459 -0 -1.2 0
9.031 -3.379 1.456 -0 -1.2 0
8.98 -3.534 1.451 -0 -1.2 0
8.993 -3.707 1.456 -0 -1.2 0
8.966 -3.869 1.453 -0 -1.2 0
8.973 -4.044 1.457 -0 -1.2 0
8.958 -4.213 1.457 -0 -1.2 0
8.958 -4.39 1.46 -0 -1.2 0
8.973 -4.575 1.465 -0 -1.2 0
8.976 -4.758 1.468 -0 -1.2 0
8.856 -4.89 1.451 -0 -1.2 0
11.781 -6.402 1.926 -0 -1.2 0
11.062 -6.31 1.813 -0 -1.2 0
11.031 -6.534 1.812 -0 -1.2 0
11.428 -6.982 1.879 -0 -1.2 0
11.333 -7.186 1.868 -0 -1.2 0
11.278 -7.413 1.862 -0 -1.2 0
11.38 -7.734 1.883 -0 -1.2 0
11.17 -7.876 1.853 -0 -1.2 0
20.987 -14.395 3.467 -0 -1.2 0
10.863 -8.219 1.81 -0 -1.2 0
7.505 -6.186 1.26 -0 -1.2 0
10.796 -8.728 1.807 -0 -1.2 0
8.878 -7.595 1.493 -0 -1.2 0
11.226 -9.639 1.887 -0 -1.2 0
6.575 -6.253 1.118 -0 -1.2 0
4.932 -5.085 0.846 -0 -1.2 0
10.918 -10.345 1.85 -0 -1.2 0
4.584 -5.069 0.792 -0 -1.2 0
4.478 -5.114 0.777 -0 -1.2 0
5.063 -5.814 0.877 -0 -1.2 0
3.792 -4.731 0.664 -0 -1.2 0
1.2 0.029 0.151 -0 -1.2 0
1.241 0.031 0.156 -0 -1.2 0
1.282 0.031 0.161 -0 -1.2 0
1.323 0.031 0.166 -0 -1.2 0
1.365 0.029 0.171 -0 -1.2 0
1.407 0.027 0.176 -0 -1.2 0
1.457 0.029 0.182 -0 -1.2 0
1.507 0.03 0.188 -0 -1.2 0
1.558 0.03 0.194 -0 -1.2 0
1.609 0.028 0.2 -0 -1.2 0
1.669 0.031 0.207 -0 -1.2 0
1.729 0.032 0.214 -0 -1.2 0
1.79 0.032 0.221 -0 -1.2 0
1.859 0.034 0.229 -0 -1.2 0
1.921 0.029 0.236 -0 -1.2 0
2 0.033 0.246 -0 -1.2 0
2.08 0.035 0.255 -0 -1.2 0
2.143 0.024 0.263 -0 -1.2 0
2.232 0.025 0.273 -0 -1.2 0
2.34 0.033 0.286 -0 -1.2 0
2.431 0.028 0.297 -0 -1.2 0
2.54 0.029 0.31 -0 -1.2 0
2.66 0.03 0.323 -0 -1.2 0
2.78 0.028 0.337 -0 -1.2 0
2.928 0.033 0.354 -0 -1.2 0
3.096 0.041 0.374 -0 -1.2 0
3.255 0.039 0.393 -0 -1.2 0
3.444 0.042 0.415 -0 -1.2 0
3.643 0.041 0.439 -0 -1.2 0
3.9 0.05 0.469 -0 -1.2 0
4.149 0.049 0.498 -0 -1.2 0
4.446 0.052 0.533 -0 -1.2 0
4.784 0.055 0.573 -0 -1.2 0
5.171 0.057 0.619 -0 -1.2 0
5.609 0.055 0.671 -0 -1.2 0
6.184 0.066 0.738 -0 -1.2 0
6.918 0.083 0.824 -0 -1.2 0
7.634 0.073 0.909 -0 -1.2 0
8.244 0.022 0.981 -0 -1.2 0
8.952 -0.037 1.066 -0 -1.2 0
9.167 -0.172 1.093 -0 -1.2 0
9.172 -0.333 1.096 -0 -1.2 0
9.163 -0.493 1.098 -0 -1.2 0
9.152 -0.653 1.099 -0 -1.2 0
9.149 -0.813 1.101 -0 -1.2 0
9.152 -0.971 1.104 -0 -1.2 0
9.133 -1.129 1.104 -0 -1.2 0
9.141 -1.288 1.107 -0 -1.2 0
9.136 -1.447 1.109 -0 -1.2 0
9.128 -1.605 1.11 -0 -1.2 0
9.118 -1.764 1.112 -0 -1.2 0
9.134 -1.925 1.116 -0 -1.2 0
9.138 -2.086 1.119 -0 -1.2 0
9.159 -2.25 1.124 -0 -1.2 0
9.157 -2.411 1.126 -0 -1.2 0
9.191 -2.579 1.132 -0 -1.2 0
9.193 -2.744 1.135 -0 -1.2 0
9.182 -2.907 1.137 -0 -1.2 0
9.169 -3.072 1.137 -0 -1.2 0
9.133 -3.23 1.136 -0 -1.2 0
9.133 -3.398 1.138 -0 -1.2 0
9.14 -3.57 1.141 -0 -1.2 0
9.153 -3.745 1.145 -0 -1.2 0
9.19 -3.93 1.152 -0 -1.2 0
9.205 -4.111 1.157 -0 -1.2 0
9.921 -4.54 1.248 -0 -1.2 0
14.265 -6.343 1.788 -0 -1.2 0
9.23 -4.663 1.168 -0 -1.2 0
10.683 -5.445 1.351 -0 -1.2 0
10.397 -5.54 1.319 -0 -1.2 0
12.826 -6.854 1.626 -0 -1.2 0
12.049 -6.758 1.533 -0 -1.2 0
12.003 -6.994 1.531 -0 -1.2 0
11.872 -7.189 1.518 -0 -1.2 0
11.712 -7.366 1.502 -0 -1.2 0
11.801 -7.682 1.517 -0 -1.2 0
11.573 -7.821 1.493 -0 -1.2 0
11.938 -8.317 1.543 -0 -1.2 0
20.896 -14.284 2.689 -0 -1.2 0
20.922 -14.817 2.7 -0 -1.2 0
11.619 -8.982 1.515 -0 -1.2 0
