# .PCD v.7 - Point Cloud Data file format
FIELDS x y z vp_x vp_y vp_z
SIZE 4 4 4 4 4 4
TYPE F F F F F F
COUNT 1 1 1 1 1 1
WIDTH 1685
HEIGHT 1
VIEWPOINT 0 -1.2001 0 1 0 0 0
POINTS 1685
DATA ascii
5.507 -3.18 6.082 -0 -1.2 0
5.514 -3.329 6.09 -0 -1.2 0
5.52 -3.479 6.095 -0 -1.2 0
5.523 -3.63 6.099 -0 -1.2 0
5.531 -3.785 6.107 -0 -1.2 0
5.537 -3.941 6.113 -0 -1.2 0
5.541 -4.098 6.116 -0 -1.2 0
5.549 -4.26 6.125 -0 -1.2 0
5.555 -4.424 6.13 -0 -1.2 0
5.558 -4.589 6.134 -0 -1.2 0
5.559 -4.754 6.135 -0 -1.2 0
5.564 -4.926 6.14 -0 -1.2 0
5.566 -5.099 6.142 -0 -1.2 0
5.578 -5.282 6.154 -0 -1.2 0
5.588 -5.467 6.164 -0 -1.2 0
5.594 -5.653 6.171 -0 -1.2 0
5.604 -5.847 6.18 -0 -1.2 0
5.598 -6.032 6.174 -0 -1.2 0
5.596 -6.224 6.172 -0 -1.2 0
5.608 -6.433 6.184 -0 -1.2 0
5.617 -6.645 6.193 -0 -1.2 0
5.628 -6.865 6.204 -0 -1.2 0
5.835 -7.303 6.417 -0 -1.2 0
5.89 -7.594 6.474 -0 -1.2 0
5.225 -7.059 5.79 -0 -1.2 0
5.216 -7.263 5.78 -0 -1.2 0
5.277 -7.561 5.843 -0 -1.2 0
5.239 -7.744 5.804 -0 -1.2 0
5.245 -7.987 5.809 -0 -1.2 0
5.642 -8.782 6.217 -0 -1.2 0
0.873 0.013 1.274 -0 -1.2 0
0.902 0.015 1.302 -0 -1.2 0
0.931 0.017 1.33 -0 -1.2 0
0.955 0.009 1.353 -0 -1.2 0
0.991 0.015 1.387 -0 -1.2 0
1.016 0.007 1.411 -0 -1.2 0
1.051 0.01 1.445 -0 -1.2 0
1.093 0.018 1.486 -0 -1.2 0
1.125 0.012 1.515 -0 -1.2 0
1.161 0.011 1.551 -0 -1.2 0
1.199 0.009 1.586 -0 -1.2 0
1.249 0.017 1.634 -0 -1.2 0
1.286 0.01 1.67 -0 -1.2 0
1.336 0.015 1.718 -0 -1.2 0
1.381 0.011 1.761 -0 -1.2 0
1.426 0.005 1.803 -0 -1.2 0
1.477 0.003 1.853 -0 -1.2 0
1.535 0.004 1.908 -0 -1.2 0
1.593 0.001 1.964 -0 -1.2 0
1.664 0.006 2.032 -0 -1.2 0
1.73 0.002 2.095 -0 -1.2 0
1.796 -0.002 2.158 -0 -1.2 0
1.882 0 2.241 -0 -1.2 0
1.969 0 2.324 -0 -1.2 0
2.049 -0.007 2.402 -0 -1.2 0
2.15 -0.007 2.498 -0 -1.2 0
2.272 -0.002 2.615 -0 -1.2 0
2.382 -0.009 2.72 -0 -1.2 0
2.505 -0.015 2.837 -0 -1.2 0
2.657 -0.016 2.983 -0 -1.2 0
2.837 -0.011 3.155 -0 -1.2 0
2.996 -0.023 3.308 -0 -1.2 0
3.219 -0.021 3.522 -0 -1.2 0
3.471 -0.02 3.765 -0 -1.2 0
3.76 -0.02 4.041 -0 -1.2 0
4.099 -0.021 4.365 -0 -1.2 0
4.475 -0.03 4.726 -0 -1.2 0
4.823 -0.062 5.059 -0 -1.2 0
5.364 -0.073 5.578 -0 -1.2 0
5.34 -0.206 5.555 -0 -1.2 0
5.358 -0.333 5.572 -0 -1.2 0
5.345 -0.462 5.561 -0 -1.2 0
5.352 -0.589 5.567 -0 -1.2 0
5.358 -0.717 5.573 -0 -1.2 0
5.362 -0.844 5.577 -0 -1.2 0
5.371 -0.97 5.586 -0 -1.2 0
5.38 -1.097 5.594 -0 -1.2 0
5.378 -1.225 5.593 -0 -1.2 0
5.384 -1.353 5.598 -0 -1.2 0
5.393 -1.482 5.607 -0 -1.2 0
5.395 -1.611 5.609 -0 -1.2 0
5.402 -1.741 5.616 -0 -1.2 0
5.408 -1.871 5.621 -0 -1.2 0
5.412 -2.002 5.625 -0 -1.2 0
5.428 -2.136 5.642 -0 -1.2 0
5.4 -2.261 5.614 -0 -1.2 0
5.391 -2.391 5.607 -0 -1.2 0
5.403 -2.527 5.617 -0 -1.2 0
5.406 -2.661 5.619 -0 -1.2 0
5.413 -2.798 5.627 -0 -1.2 0
5.412 -2.934 5.626 -0 -1.2 0
5.415 -3.073 5.63 -0 -1.2 0
5.432 -3.217 5.645 -0 -1.2 0
5.438 -3.36 5.652 -0 -1.2 0
5.45 -3.508 5.664 -0 -1.2 0
5.446 -3.65 5.66 -0 -1.2 0
5.454 -3.8 5.667 -0 -1.2 0
5.453 -3.947 5.666 -0 -1.2 0
5.463 -4.102 5.676 -0 -1.2 0
5.464 -4.255 5.678 -0 -1.2 0
5.47 -4.413 5.683 -0 -1.2 0
5.48 -4.575 5.692 -0 -1.2 0
5.486 -4.74 5.7 -0 -1.2 0
5.491 -4.906 5.704 -0 -1.2 0
5.487 -5.069 5.7 -0 -1.2 0
5.506 -5.253 5.719 -0 -1.2 0
5.497 -5.417 5.709 -0 -1.2 0
5.509 -5.604 5.722 -0 -1.2 0
5.512 -5.788 5.725 -0 -1.2 0
5.526 -5.982 5.738 -0 -1.2 0
5.535 -6.18 5.747 -0 -1.2 0
5.523 -6.363 5.736 -0 -1.2 0
5.532 -6.569 5.744 -0 -1.2 0
5.549 -6.791 5.761 -0 -1.2 0
5.544 -6.995 5.757 -0 -1.2 0
5.817 -7.516 6.018 -0 -1.2 0
5.321 -7.172 5.542 -0 -1.2 0
5.178 -7.218 5.406 -0 -1.2 0
5.148 -7.401 5.377 -0 -1.2 0
5.168 -7.652 5.397 -0 -1.2 0
5.178 -7.898 5.407 -0 -1.2 0
0.893 0.005 1.256 -0 -1.2 0
0.928 0.015 1.289 -0 -1.2 0
0.959 0.017 1.316 -0 -1.2 0
0.989 0.016 1.343 -0 -1.2 0
1.02 0.015 1.371 -0 -1.2 0
1.051 0.013 1.398 -0 -1.2 0
1.089 0.017 1.432 -0 -1.2 0
1.12 0.012 1.461 -0 -1.2 0
1.152 0.006 1.489 -0 -1.2 0
1.19 0.005 1.523 -0 -1.2 0
1.241 0.015 1.568 -0 -1.2 0
1.28 0.01 1.603 -0 -1.2 0
1.324 0.011 1.644 -0 -1.2 0
1.383 0.02 1.696 -0 -1.2 0
1.422 0.011 1.731 -0 -1.2 0
1.48 0.015 1.784 -0 -1.2 0
1.528 0.008 1.825 -0 -1.2 0
1.58 0.004 1.873 -0 -1.2 0
1.648 0.006 1.933 -0 -1.2 0
1.708 0.002 1.988 -0 -1.2 0
1.782 0.003 2.054 -0 -1.2 0
1.85 -0.002 2.115 -0 -1.2 0
1.939 0 2.195 -0 -1.2 0
2.022 -0.003 2.269 -0 -1.2 0
2.119 -0.002 2.356 -0 -1.2 0
2.223 -0.004 2.45 -0 -1.2 0
2.334 -0.006 2.55 -0 -1.2 0
2.447 -0.012 2.651 -0 -1.2 0
2.588 -0.012 2.777 -0 -1.2 0
2.745 -0.012 2.917 -0 -1.2 0
2.923 -0.011 3.077 -0 -1.2 0
3.102 -0.017 3.238 -0 -1.2 0
3.317 -0.02 3.432 -0 -1.2 0
3.577 -0.02 3.665 -0 -1.2 0
3.875 -0.02 3.932 -0 -1.2 0
4.247 -0.015 4.265 -0 -1.2 0
4.619 -0.027 4.599 -0 -1.2 0
4.956 -0.065 4.901 -0 -1.2 0
5.271 -0.121 5.184 -0 -1.2 0
5.268 -0.245 5.182 -0 -1.2 0
5.27 -0.367 5.185 -0 -1.2 0
5.279 -0.489 5.192 -0 -1.2 0
5.279 -0.611 5.192 -0 -1.2 0
5.277 -0.733 5.191 -0 -1.2 0
5.296 -0.854 5.208 -0 -1.2 0
5.284 -0.976 5.197 -0 -1.2 0
5.299 -1.096 5.211 -0 -1.2 0
5.306 -1.219 5.218 -0 -1.2 0
5.303 -1.341 5.216 -0 -1.2 0
5.306 -1.463 5.218 -0 -1.2 0
5.309 -1.586 5.22 -0 -1.2 0
5.323 -1.711 5.234 -0 -1.2 0
5.322 -1.835 5.234 -0 -1.2 0
5.319 -1.958 5.231 -0 -1.2 0
5.343 -2.087 5.253 -0 -1.2 0
5.308 -2.206 5.222 -0 -1.2 0
5.307 -2.331 5.221 -0 -1.2 0
5.312 -2.459 5.226 -0 -1.2 0
5.315 -2.587 5.229 -0 -1.2 0
5.317 -2.716 5.231 -0 -1.2 0
5.331 -2.851 5.244 -0 -1.2 0
5.336 -2.984 5.249 -0 -1.2 0
5.34 -3.118 5.252 -0 -1.2 0
5.34 -3.252 5.253 -0 -1.2 0
5.354 -3.392 5.266 -0 -1.2 0
5.358 -3.532 5.27 -0 -1.2 0
5.361 -3.672 5.273 -0 -1.2 0
5.355 -3.809 5.267 -0 -1.2 0
5.36 -3.955 5.272 -0 -1.2 0
5.37 -4.105 5.281 -0 -1.2 0
5.378 -4.257 5.288 -0 -1.2 0
5.383 -4.41 5.294 -0 -1.2 0
5.392 -4.569 5.303 -0 -1.2 0
5.399 -4.728 5.309 -0 -1.2 0
5.404 -4.89 5.314 -0 -1.2 0
5.406 -5.053 5.316 -0 -1.2 0
5.412 -5.222 5.32 -0 -1.2 0
5.415 -5.392 5.324 -0 -1.2 0
5.421 -5.569 5.329 -0 -1.2 0
5.425 -5.748 5.333 -0 -1.2 0
5.425 -5.928 5.334 -0 -1.2 0
5.452 -6.138 5.36 -0 -1.2 0
5.434 -6.311 5.344 -0 -1.2 0
5.442 -6.513 5.352 -0 -1.2 0
5.453 -6.723 5.362 -0 -1.2 0
5.46 -6.937 5.368 -0 -1.2 0
5.777 -7.505 5.654 -0 -1.2 0
5.743 -7.697 5.624 -0 -1.2 0
5.037 -7.08 4.989 -0 -1.2 0
5.165 -7.454 5.105 -0 -1.2 0
5.066 -7.551 5.016 -0 -1.2 0
0.921 0.013 1.248 -0 -1.2 0
0.957 0.022 1.279 -0 -1.2 0
0.978 0.01 1.296 -0 -1.2 0
1.009 0.009 1.323 -0 -1.2 0
1.053 0.022 1.359 -0 -1.2 0
1.079 0.013 1.381 -0 -1.2 0
1.118 0.017 1.413 -0 -1.2 0
1.15 0.012 1.44 -0 -1.2 0
1.183 0.006 1.468 -0 -1.2 0
1.228 0.011 1.506 -0 -1.2 0
1.274 0.015 1.544 -0 -1.2 0
1.32 0.017 1.583 -0 -1.2 0
1.367 0.017 1.622 -0 -1.2 0
1.413 0.015 1.661 -0 -1.2 0
1.467 0.016 1.707 -0 -1.2 0
1.514 0.01 1.746 -0 -1.2 0
1.575 0.014 1.797 -0 -1.2 0
1.638 0.013 1.849 -0 -1.2 0
1.692 0.006 1.896 -0 -1.2 0
1.755 0.002 1.948 -0 -1.2 0
1.839 0.008 2.018 -0 -1.2 0
1.902 -0.002 2.071 -0 -1.2 0
1.993 0 2.147 -0 -1.2 0
2.085 0.001 2.225 -0 -1.2 0
2.178 -0.002 2.303 -0 -1.2 0
2.284 -0.004 2.392 -0 -1.2 0
2.393 -0.009 2.483 -0 -1.2 0
2.515 -0.012 2.586 -0 -1.2 0
2.661 -0.012 2.708 -0 -1.2 0
2.829 -0.009 2.849 -0 -1.2 0
2.998 -0.014 2.99 -0 -1.2 0
3.205 -0.012 3.164 -0 -1.2 0
3.426 -0.016 3.35 -0 -1.2 0
3.702 -0.012 3.581 -0 -1.2 0
4.03 -0.007 3.857 -0 -1.2 0
4.383 -0.011 4.153 -0 -1.2 0
4.789 -0.017 4.494 -0 -1.2 0
5.091 -0.065 4.746 -0 -1.2 0
5.148 -0.171 4.796 -0 -1.2 0
5.16 -0.286 4.805 -0 -1.2 0
5.17 -0.401 4.815 -0 -1.2 0
5.178 -0.517 4.822 -0 -1.2 0
5.185 -0.633 4.828 -0 -1.2 0
5.183 -0.749 4.827 -0 -1.2 0
5.194 -0.865 4.836 -0 -1.2 0
5.196 -0.981 4.839 -0 -1.2 0
5.189 -1.097 4.833 -0 -1.2 0
5.204 -1.213 4.845 -0 -1.2 0
5.201 -1.33 4.844 -0 -1.2 0
5.205 -1.446 4.847 -0 -1.2 0
5.214 -1.564 4.856 -0 -1.2 0
5.215 -1.682 4.856 -0 -1.2 0
5.222 -1.8 4.863 -0 -1.2 0
5.226 -1.919 4.867 -0 -1.2 0
5.229 -2.039 4.87 -0 -1.2 0
5.232 -2.159 4.872 -0 -1.2 0
5.239 -2.281 4.878 -0 -1.2 0
5.245 -2.404 4.884 -0 -1.2 0
5.248 -2.527 4.887 -0 -1.2 0
5.251 -2.651 4.89 -0 -1.2 0
5.259 -2.778 4.898 -0 -1.2 0
5.265 -2.906 4.903 -0 -1.2 0
5.269 -3.034 4.907 -0 -1.2 0
5.272 -3.163 4.91 -0 -1.2 0
5.28 -3.297 4.916 -0 -1.2 0
5.285 -3.431 4.922 -0 -1.2 0
5.282 -3.562 4.92 -0 -1.2 0
5.284 -3.698 4.922 -0 -1.2 0
5.291 -3.839 4.928 -0 -1.2 0
5.303 -3.984 4.938 -0 -1.2 0
5.305 -4.127 4.941 -0 -1.2 0
5.312 -4.275 4.948 -0 -1.2 0
5.317 -4.423 4.952 -0 -1.2 0
5.34 -4.588 4.971 -0 -1.2 0
5.339 -4.74 4.971 -0 -1.2 0
5.344 -4.898 4.976 -0 -1.2 0
5.345 -5.057 4.977 -0 -1.2 0
5.356 -5.227 4.987 -0 -1.2 0
5.352 -5.389 4.985 -0 -1.2 0
5.359 -5.563 4.99 -0 -1.2 0
5.361 -5.738 4.993 -0 -1.2 0
5.361 -5.915 4.993 -0 -1.2 0
5.382 -6.116 5.012 -0 -1.2 0
5.356 -6.278 4.991 -0 -1.2 0
5.358 -6.471 4.994 -0 -1.2 0
5.363 -6.673 4.998 -0 -1.2 0
5.376 -6.888 5.01 -0 -1.2 0
5.696 -7.46 5.279 -0 -1.2 0
5.092 -6.978 4.772 -0 -1.2 0
4.979 -7.051 4.677 -0 -1.2 0
4.971 -7.251 4.67 -0 -1.2 0
0.951 0.021 1.24 -0 -1.2 0
0.977 0.016 1.26 -0 -1.2 0
1.016 0.024 1.289 -0 -1.2 0
1.036 0.01 1.306 -0 -1.2 0
1.081 0.023 1.34 -0 -1.2 0
1.108 0.014 1.362 -0 -1.2 0
1.148 0.018 1.393 -0 -1.2 0
1.187 0.018 1.424 -0 -1.2 0
1.227 0.019 1.455 -0 -1.2 0
1.268 0.018 1.487 -0 -1.2 0
1.308 0.015 1.519 -0 -1.2 0
1.349 0.011 1.551 -0 -1.2 0
1.404 0.017 1.594 -0 -1.2 0
1.458 0.021 1.637 -0 -1.2 0
1.507 0.017 1.675 -0 -1.2 0
1.563 0.016 1.718 -0 -1.2 0
1.619 0.014 1.762 -0 -1.2 0
1.682 0.014 1.812 -0 -1.2 0
1.745 0.011 1.861 -0 -1.2 0
1.809 0.007 1.911 -0 -1.2 0
1.881 0.003 1.968 -0 -1.2 0
1.953 -0.001 2.024 -0 -1.2 0
2.054 0.005 2.103 -0 -1.2 0
2.142 0.001 2.172 -0 -1.2 0
2.251 0.005 2.258 -0 -1.2 0
2.355 0 2.339 -0 -1.2 0
2.465 -0.005 2.426 -0 -1.2 0
2.599 -0.005 2.53 -0 -1.2 0
2.741 -0.008 2.641 -0 -1.2 0
2.906 -0.008 2.771 -0 -1.2 0
3.087 -0.01 2.913 -0 -1.2 0
3.299 -0.009 3.079 -0 -1.2 0
3.528 -0.012 3.258 -0 -1.2 0
3.811 -0.009 3.479 -0 -1.2 0
4.148 -0.005 3.744 -0 -1.2 0
4.51 -0.008 4.028 -0 -1.2 0
4.912 -0.019 4.343 -0 -1.2 0
5.152 -0.081 4.53 -0 -1.2 0
5.157 -0.194 4.535 -0 -1.2 0
5.153 -0.309 4.532 -0 -1.2 0
5.154 -0.422 4.534 -0 -1.2 0
5.155 -0.536 4.536 -0 -1.2 0
5.154 -0.648 4.535 -0 -1.2 0
5.152 -0.761 4.533 -0 -1.2 0
5.148 -0.873 4.531 -0 -1.2 0
5.149 -0.985 4.533 -0 -1.2 0
5.15 -1.097 4.534 -0 -1.2 0
5.149 -1.209 4.534 -0 -1.2 0
5.146 -1.32 4.532 -0 -1.2 0
5.15 -1.433 4.536 -0 -1.2 0
5.153 -1.546 4.539 -0 -1.2 0
5.153 -1.659 4.539 -0 -1.2 0
5.152 -1.772 4.539 -0 -1.2 0
5.158 -1.886 4.545 -0 -1.2 0
5.161 -2.001 4.547 -0 -1.2 0
5.156 -2.115 4.543 -0 -1.2 0
5.163 -2.232 4.551 -0 -1.2 0
5.163 -2.348 4.55 -0 -1.2 0
5.167 -2.466 4.555 -0 -1.2 0
5.17 -2.585 4.558 -0 -1.2 0
5.179 -2.707 4.566 -0 -1.2 0
5.18 -2.828 4.566 -0 -1.2 0
5.185 -2.951 4.571 -0 -1.2 0
5.196 -3.079 4.58 -0 -1.2 0
5.197 -3.204 4.582 -0 -1.2 0
5.198 -3.33 4.583 -0 -1.2 0
5.203 -3.46 4.588 -0 -1.2 0
5.22 -3.597 4.603 -0 -1.2 0
5.214 -3.726 4.599 -0 -1.2 0
5.221 -3.862 4.604 -0 -1.2 0
5.225 -4 4.607 -0 -1.2 0
5.233 -4.143 4.615 -0 -1.2 0
5.233 -4.283 4.616 -0 -1.2 0
5.238 -4.428 4.62 -0 -1.2 0
5.239 -4.575 4.622 -0 -1.2 0
5.252 -4.733 4.633 -0 -1.2 0
5.256 -4.886 4.636 -0 -1.2 0
5.257 -5.042 4.638 -0 -1.2 0
5.262 -5.203 4.643 -0 -1.2 0
5.27 -5.371 4.65 -0 -1.2 0
5.269 -5.536 4.65 -0 -1.2 0
5.284 -5.719 4.663 -0 -1.2 0
5.289 -5.898 4.668 -0 -1.2 0
5.291 -6.079 4.671 -0 -1.2 0
5.29 -6.261 4.671 -0 -1.2 0
5.291 -6.452 4.672 -0 -1.2 0
5.295 -6.65 4.677 -0 -1.2 0
5.3 -6.856 4.682 -0 -1.2 0
5.343 -7.112 4.717 -0 -1.2 0
5.345 -7.33 4.72 -0 -1.2 0
4.937 -7.049 4.397 -0 -1.2 0
0.966 0.013 1.225 -0 -1.2 0
1.004 0.022 1.253 -0 -1.2 0
1.032 0.017 1.273 -0 -1.2 0
1.059 0.009 1.293 -0 -1.2 0
1.104 0.022 1.326 -0 -1.2 0
1.139 0.02 1.352 -0 -1.2 0
1.172 0.017 1.376 -0 -1.2 0
1.219 0.025 1.411 -0 -1.2 0
1.26 0.025 1.441 -0 -1.2 0
1.295 0.017 1.467 -0 -1.2 0
1.336 0.014 1.498 -0 -1.2 0
1.385 0.016 1.533 -0 -1.2 0
1.427 0.01 1.565 -0 -1.2 0
1.484 0.015 1.606 -0 -1.2 0
1.546 0.021 1.653 -0 -1.2 0
1.597 0.015 1.689 -0 -1.2 0
1.661 0.017 1.737 -0 -1.2 0
1.719 0.013 1.78 -0 -1.2 0
1.79 0.015 1.833 -0 -1.2 0
1.849 0.006 1.876 -0 -1.2 0
1.929 0.007 1.935 -0 -1.2 0
2.011 0.005 1.995 -0 -1.2 0
2.107 0.008 2.066 -0 -1.2 0
2.196 0.004 2.132 -0 -1.2 0
2.293 0 2.204 -0 -1.2 0
2.413 0.002 2.292 -0 -1.2 0
2.535 0 2.381 -0 -1.2 0
2.664 -0.003 2.477 -0 -1.2 0
2.809 -0.007 2.584 -0 -1.2 0
2.97 -0.01 2.703 -0 -1.2 0
3.171 -0.006 2.851 -0 -1.2 0
3.372 -0.011 2.999 -0 -1.2 0
3.621 -0.009 3.184 -0 -1.2 0
3.895 -0.011 3.385 -0 -1.2 0
4.256 -0.002 3.652 -0 -1.2 0
4.626 -0.006 3.925 -0 -1.2 0
5.029 -0.019 4.223 -0 -1.2 0
5.361 -0.064 4.468 -0 -1.2 0
5.375 -0.179 4.478 -0 -1.2 0
5.379 -0.295 4.482 -0 -1.2 0
5.372 -0.411 4.478 -0 -1.2 0
5.373 -0.527 4.48 -0 -1.2 0
5.364 -0.642 4.473 -0 -1.2 0
5.368 -0.757 4.479 -0 -1.2 0
5.364 -0.871 4.476 -0 -1.2 0
5.366 -0.985 4.479 -0 -1.2 0
5.367 -1.099 4.479 -0 -1.2 0
5.366 -1.213 4.48 -0 -1.2 0
5.362 -1.327 4.478 -0 -1.2 0
5.358 -1.441 4.476 -0 -1.2 0
5.36 -1.556 4.478 -0 -1.2 0
5.369 -1.672 4.486 -0 -1.2 0
5.36 -1.786 4.479 -0 -1.2 0
5.365 -1.903 4.484 -0 -1.2 0
5.361 -2.019 4.482 -0 -1.2 0
5.354 -2.134 4.478 -0 -1.2 0
5.354 -2.251 4.479 -0 -1.2 0
5.361 -2.371 4.485 -0 -1.2 0
5.349 -2.488 4.477 -0 -1.2 0
5.352 -2.608 4.48 -0 -1.2 0
5.353 -2.729 4.482 -0 -1.2 0
5.344 -2.849 4.477 -0 -1.2 0
5.349 -2.974 4.481 -0 -1.2 0
5.352 -3.098 4.484 -0 -1.2 0
5.346 -3.222 4.48 -0 -1.2 0
5.346 -3.349 4.481 -0 -1.2 0
5.336 -3.473 4.475 -0 -1.2 0
5.346 -3.608 4.484 -0 -1.2 0
5.332 -3.732 4.474 -0 -1.2 0
5.331 -3.865 4.474 -0 -1.2 0
5.328 -3.999 4.472 -0 -1.2 0
5.329 -4.137 4.475 -0 -1.2 0
5.329 -4.277 4.475 -0 -1.2 0
5.333 -4.422 4.48 -0 -1.2 0
5.328 -4.563 4.477 -0 -1.2 0
5.327 -4.711 4.477 -0 -1.2 0
5.331 -4.864 4.482 -0 -1.2 0
5.325 -5.013 4.478 -0 -1.2 0
5.33 -5.174 4.483 -0 -1.2 0
5.333 -5.336 4.486 -0 -1.2 0
5.325 -5.494 4.482 -0 -1.2 0
5.321 -5.658 4.48 -0 -1.2 0
5.321 -5.83 4.481 -0 -1.2 0
5.317 -6.003 4.48 -0 -1.2 0
5.316 -6.184 4.481 -0 -1.2 0
5.318 -6.372 4.484 -0 -1.2 0
5.311 -6.556 4.48 -0 -1.2 0
5.312 -6.754 4.482 -0 -1.2 0
5.291 -6.934 4.468 -0 -1.2 0
5.431 -7.305 4.574 -0 -1.2 0
5.065 -7.087 4.302 -0 -1.2 0
0.986 0.012 1.213 -0 -1.2 0
1.025 0.021 1.24 -0 -1.2 0
1.06 0.022 1.263 -0 -1.2 0
1.087 0.015 1.282 -0 -1.2 0
1.128 0.021 1.311 -0 -1.2 0
1.163 0.019 1.335 -0 -1.2 0
1.204 0.022 1.363 -0 -1.2 0
1.251 0.03 1.396 -0 -1.2 0
1.287 0.023 1.42 -0 -1.2 0
1.322 0.016 1.446 -0 -1.2 0
1.372 0.019 1.479 -0 -1.2 0
1.421 0.021 1.514 -0 -1.2 0
1.464 0.015 1.544 -0 -1.2 0
1.515 0.013 1.579 -0 -1.2 0
1.579 0.019 1.623 -0 -1.2 0
1.638 0.019 1.664 -0 -1.2 0
1.703 0.021 1.71 -0 -1.2 0
1.762 0.016 1.75 -0 -1.2 0
1.83 0.014 1.796 -0 -1.2 0
1.889 0.004 1.837 -0 -1.2 0
1.986 0.014 1.904 -0 -1.2 0
2.069 0.012 1.962 -0 -1.2 0
2.152 0.006 2.02 -0 -1.2 0
2.251 0.005 2.088 -0 -1.2 0
2.35 0.001 2.157 -0 -1.2 0
2.466 0 2.237 -0 -1.2 0
2.597 0 2.327 -0 -1.2 0
2.729 -0.003 2.419 -0 -1.2 0
2.877 -0.007 2.521 -0 -1.2 0
3.058 -0.004 2.646 -0 -1.2 0
3.247 -0.006 2.777 -0 -1.2 0
3.453 -0.012 2.92 -0 -1.2 0
3.7 -0.013 3.091 -0 -1.2 0
4.019 -0.004 3.311 -0 -1.2 0
4.348 -0.007 3.539 -0 -1.2 0
4.775 0 3.835 -0 -1.2 0
5.13 -0.026 4.08 -0 -1.2 0
5.591 -0.048 4.399 -0 -1.2 0
5.581 -0.168 4.393 -0 -1.2 0
5.585 -0.286 4.397 -0 -1.2 0
5.579 -0.405 4.394 -0 -1.2 0
5.587 -0.521 4.401 -0 -1.2 0
5.578 -0.639 4.395 -0 -1.2 0
5.583 -0.755 4.401 -0 -1.2 0
5.587 -0.872 4.404 -0 -1.2 0
5.581 -0.988 4.401 -0 -1.2 0
5.581 -1.104 4.401 -0 -1.2 0
5.58 -1.22 4.402 -0 -1.2 0
5.585 -1.337 4.406 -0 -1.2 0
5.581 -1.453 4.404 -0 -1.2 0
5.575 -1.57 4.4 -0 -1.2 0
5.575 -1.687 4.402 -0 -1.2 0
5.573 -1.804 4.401 -0 -1.2 0
5.57 -1.922 4.4 -0 -1.2 0
5.573 -2.04 4.403 -0 -1.2 0
5.567 -2.159 4.399 -0 -1.2 0
5.566 -2.278 4.401 -0 -1.2 0
5.572 -2.4 4.405 -0 -1.2 0
5.56 -2.518 4.399 -0 -1.2 0
5.562 -2.641 4.401 -0 -1.2 0
5.563 -2.764 4.402 -0 -1.2 0
5.562 -2.888 4.403 -0 -1.2 0
5.566 -3.015 4.406 -0 -1.2 0
5.553 -3.136 4.398 -0 -1.2 0
5.554 -3.264 4.4 -0 -1.2 0
5.553 -3.393 4.4 -0 -1.2 0
5.557 -3.526 4.404 -0 -1.2 0
5.552 -3.656 4.402 -0 -1.2 0
5.544 -3.786 4.398 -0 -1.2 0
5.55 -3.925 4.403 -0 -1.2 0
5.545 -4.061 4.401 -0 -1.2 0
5.553 -4.206 4.408 -0 -1.2 0
5.552 -4.348 4.407 -0 -1.2 0
5.555 -4.495 4.412 -0 -1.2 0
5.556 -4.644 4.413 -0 -1.2 0
5.554 -4.794 4.413 -0 -1.2 0
5.556 -4.949 4.416 -0 -1.2 0
5.556 -5.106 4.418 -0 -1.2 0
5.559 -5.269 4.421 -0 -1.2 0
5.56 -5.434 4.423 -0 -1.2 0
5.558 -5.6 4.423 -0 -1.2 0
5.566 -5.779 4.429 -0 -1.2 0
5.558 -5.947 4.425 -0 -1.2 0
5.539 -6.111 4.414 -0 -1.2 0
5.537 -6.294 4.414 -0 -1.2 0
5.53 -6.479 4.411 -0 -1.2 0
5.54 -6.683 4.419 -0 -1.2 0
5.52 -6.864 4.407 -0 -1.2 0
5.564 -7.12 4.44 -0 -1.2 0
5.387 -7.133 4.316 -0 -1.2 0
5.264 -7.203 4.232 -0 -1.2 0
1.005 0.011 1.202 -0 -1.2 0
1.045 0.02 1.228 -0 -1.2 0
1.08 0.021 1.25 -0 -1.2 0
1.121 0.028 1.277 -0 -1.2 0
1.149 0.02 1.296 -0 -1.2 0
1.185 0.018 1.319 -0 -1.2 0
1.227 0.021 1.346 -0 -1.2 0
1.275 0.029 1.378 -0 -1.2 0
1.312 0.022 1.401 -0 -1.2 0
1.355 0.021 1.429 -0 -1.2 0
1.398 0.018 1.457 -0 -1.2 0
1.455 0.025 1.495 -0 -1.2 0
1.499 0.019 1.524 -0 -1.2 0
1.551 0.017 1.557 -0 -1.2 0
1.61 0.018 1.595 -0 -1.2 0
1.676 0.022 1.639 -0 -1.2 0
1.736 0.019 1.678 -0 -1.2 0
1.803 0.02 1.721 -0 -1.2 0
1.864 0.012 1.76 -0 -1.2 0
1.94 0.011 1.811 -0 -1.2 0
2.032 0.016 1.87 -0 -1.2 0
2.116 0.014 1.925 -0 -1.2 0
2.209 0.013 1.985 -0 -1.2 0
2.31 0.012 2.051 -0 -1.2 0
2.411 0.006 2.117 -0 -1.2 0
2.52 0.001 2.188 -0 -1.2 0
2.654 0.001 2.275 -0 -1.2 0
2.789 -0.002 2.363 -0 -1.2 0
2.957 0 2.472 -0 -1.2 0
3.133 -0.002 2.587 -0 -1.2 0
3.334 -0.002 2.717 -0 -1.2 0
3.552 -0.005 2.859 -0 -1.2 0
3.803 -0.007 3.023 -0 -1.2 0
4.121 -0.002 3.229 -0 -1.2 0
4.481 0 3.464 -0 -1.2 0
4.858 -0.006 3.71 -0 -1.2 0
5.287 -0.019 3.989 -0 -1.2 0
5.847 -0.025 4.354 -0 -1.2 0
5.82 -0.152 4.337 -0 -1.2 0
5.817 -0.273 4.336 -0 -1.2 0
5.819 -0.394 4.339 -0 -1.2 0
5.828 -0.513 4.345 -0 -1.2 0
5.819 -0.634 4.34 -0 -1.2 0
5.816 -0.753 4.339 -0 -1.2 0
5.819 -0.872 4.342 -0 -1.2 0
5.813 -0.991 4.339 -0 -1.2 0
5.814 -1.11 4.341 -0 -1.2 0
5.812 -1.229 4.341 -0 -1.2 0
5.817 -1.348 4.346 -0 -1.2 0
5.812 -1.467 4.344 -0 -1.2 0
5.813 -1.587 4.346 -0 -1.2 0
5.814 -1.707 4.346 -0 -1.2 0
5.811 -1.827 4.347 -0 -1.2 0
5.808 -1.947 4.345 -0 -1.2 0
5.811 -2.068 4.348 -0 -1.2 0
5.803 -2.189 4.344 -0 -1.2 0
5.811 -2.313 4.35 -0 -1.2 0
5.8 -2.433 4.344 -0 -1.2 0
5.804 -2.558 4.348 -0 -1.2 0
5.798 -2.682 4.345 -0 -1.2 0
5.797 -2.807 4.346 -0 -1.2 0
5.795 -2.934 4.345 -0 -1.2 0
5.791 -3.06 4.344 -0 -1.2 0
5.793 -3.191 4.346 -0 -1.2 0
5.777 -3.316 4.337 -0 -1.2 0
5.791 -3.453 4.347 -0 -1.2 0
5.787 -3.586 4.345 -0 -1.2 0
5.788 -3.722 4.347 -0 -1.2 0
5.787 -3.859 4.348 -0 -1.2 0
5.784 -3.997 4.348 -0 -1.2 0
5.778 -4.136 4.345 -0 -1.2 0
5.778 -4.279 4.346 -0 -1.2 0
5.782 -4.428 4.35 -0 -1.2 0
5.777 -4.574 4.349 -0 -1.2 0
5.784 -4.729 4.354 -0 -1.2 0
5.788 -4.887 4.358 -0 -1.2 0
5.782 -5.04 4.356 -0 -1.2 0
5.78 -5.199 4.356 -0 -1.2 0
5.783 -5.365 4.358 -0 -1.2 0
5.775 -5.527 4.356 -0 -1.2 0
5.771 -5.695 4.355 -0 -1.2 0
5.771 -5.87 4.356 -0 -1.2 0
5.768 -6.047 4.355 -0 -1.2 0
5.76 -6.225 4.352 -0 -1.2 0
5.763 -6.416 4.356 -0 -1.2 0
5.769 -6.616 4.36 -0 -1.2 0
5.769 -6.817 4.363 -0 -1.2 0
5.76 -7.014 4.359 -0 -1.2 0
5.529 -6.978 4.209 -0 -1.2 0
5.454 -7.104 4.16 -0 -1.2 0
5.479 -7.347 4.179 -0 -1.2 0
1.03 0.018 1.194 -0 -1.2 0
1.07 0.026 1.219 -0 -1.2 0
1.106 0.027 1.24 -0 -1.2 0
1.14 0.027 1.261 -0 -1.2 0
1.17 0.019 1.279 -0 -1.2 0
1.213 0.023 1.305 -0 -1.2 0
1.256 0.026 1.332 -0 -1.2 0
1.291 0.021 1.353 -0 -1.2 0
1.342 0.027 1.384 -0 -1.2 0
1.372 0.014 1.403 -0 -1.2 0
1.43 0.023 1.439 -0 -1.2 0
1.474 0.019 1.465 -0 -1.2 0
1.541 0.029 1.506 -0 -1.2 0
1.586 0.021 1.534 -0 -1.2 0
1.646 0.023 1.57 -0 -1.2 0
1.707 0.021 1.607 -0 -1.2 0
1.776 0.023 1.648 -0 -1.2 0
1.844 0.022 1.691 -0 -1.2 0
1.913 0.02 1.734 -0 -1.2 0
1.983 0.014 1.775 -0 -1.2 0
2.076 0.019 1.833 -0 -1.2 0
2.162 0.016 1.886 -0 -1.2 0
2.257 0.015 1.943 -0 -1.2 0
2.359 0.014 2.005 -0 -1.2 0
2.455 0.004 2.064 -0 -1.2 0
2.574 0.002 2.137 -0 -1.2 0
2.711 0.003 2.22 -0 -1.2 0
2.856 0 2.309 -0 -1.2 0
3.019 0 2.409 -0 -1.2 0
3.198 -0.001 2.518 -0 -1.2 0
3.411 0 2.648 -0 -1.2 0
3.625 -0.005 2.779 -0 -1.2 0
3.905 -0.001 2.95 -0 -1.2 0
4.221 0.001 3.142 -0 -1.2 0
4.604 0.007 3.377 -0 -1.2 0
4.905 -0.02 3.561 -0 -1.2 0
5.433 -0.014 3.883 -0 -1.2 0
6.089 -0.005 4.284 -0 -1.2 0
6.071 -0.134 4.273 -0 -1.2 0
6.075 -0.258 4.277 -0 -1.2 0
6.069 -0.382 4.274 -0 -1.2 0
6.069 -0.505 4.276 -0 -1.2 0
6.069 -0.628 4.277 -0 -1.2 0
6.066 -0.75 4.276 -0 -1.2 0
6.07 -0.872 4.28 -0 -1.2 0
6.072 -0.994 4.282 -0 -1.2 0
6.064 -1.115 4.279 -0 -1.2 0
6.062 -1.237 4.278 -0 -1.2 0
6.067 -1.36 4.283 -0 -1.2 0
6.061 -1.482 4.281 -0 -1.2 0
6.063 -1.604 4.283 -0 -1.2 0
6.063 -1.727 4.283 -0 -1.2 0
6.06 -1.85 4.284 -0 -1.2 0
6.056 -1.973 4.282 -0 -1.2 0
6.058 -2.098 4.285 -0 -1.2 0
6.059 -2.223 4.287 -0 -1.2 0
6.049 -2.346 4.281 -0 -1.2 0
6.054 -2.474 4.285 -0 -1.2 0
6.05 -2.6 4.284 -0 -1.2 0
6.042 -2.726 4.28 -0 -1.2 0
6.05 -2.857 4.286 -0 -1.2 0
6.047 -2.986 4.286 -0 -1.2 0
6.042 -3.116 4.284 -0 -1.2 0
6.035 -3.246 4.281 -0 -1.2 0
6.042 -3.383 4.286 -0 -1.2 0
6.039 -3.518 4.286 -0 -1.2 0
6.041 -3.656 4.289 -0 -1.2 0
6.042 -3.796 4.29 -0 -1.2 0
6.031 -3.932 4.286 -0 -1.2 0
6.027 -4.072 4.284 -0 -1.2 0
6.028 -4.218 4.286 -0 -1.2 0
6.035 -4.369 4.291 -0 -1.2 0
6.038 -4.521 4.295 -0 -1.2 0
6.038 -4.674 4.297 -0 -1.2 0
6.036 -4.828 4.297 -0 -1.2 0
6.032 -4.984 4.295 -0 -1.2 0
6.031 -5.145 4.296 -0 -1.2 0
6.034 -5.312 4.3 -0 -1.2 0
6.028 -5.476 4.299 -0 -1.2 0
6.033 -5.652 4.302 -0 -1.2 0
6.02 -5.818 4.296 -0 -1.2 0
6.018 -5.997 4.296 -0 -1.2 0
6.02 -6.182 4.299 -0 -1.2 0
6.017 -6.369 4.299 -0 -1.2 0
6.018 -6.564 4.301 -0 -1.2 0
6.027 -6.773 4.309 -0 -1.2 0
6.051 -7.003 4.326 -0 -1.2 0
6.378 -7.552 4.532 -0 -1.2 0
5.682 -7.043 4.101 -0 -1.2 0
5.704 -7.279 4.117 -0 -1.2 0
5.805 -7.617 4.182 -0 -1.2 0
1.053 0.024 1.183 -0 -1.2 0
1.083 0.018 1.2 -0 -1.2 0
1.125 0.026 1.224 -0 -1.2 0
1.155 0.019 1.241 -0 -1.2 0
1.197 0.024 1.265 -0 -1.2 0
1.24 0.029 1.29 -0 -1.2 0
1.271 0.018 1.307 -0 -1.2 0
1.321 0.026 1.335 -0 -1.2 0
1.359 0.02 1.357 -0 -1.2 0
1.403 0.019 1.382 -0 -1.2 0
1.456 0.021 1.412 -0 -1.2 0
1.509 0.022 1.442 -0 -1.2 0
1.561 0.022 1.472 -0 -1.2 0
1.622 0.025 1.506 -0 -1.2 0
1.676 0.021 1.537 -0 -1.2 0
1.745 0.024 1.576 -0 -1.2 0
1.807 0.021 1.612 -0 -1.2 0
1.876 0.02 1.651 -0 -1.2 0
1.94 0.013 1.687 -0 -1.2 0
2.034 0.021 1.741 -0 -1.2 0
2.105 0.012 1.782 -0 -1.2 0
2.201 0.014 1.836 -0 -1.2 0
2.29 0.008 1.887 -0 -1.2 0
2.394 0.007 1.946 -0 -1.2 0
2.507 0.005 2.01 -0 -1.2 0
2.629 0.003 2.08 -0 -1.2 0
2.76 0 2.155 -0 -1.2 0
2.908 -0.001 2.239 -0 -1.2 0
3.065 -0.006 2.328 -0 -1.2 0
3.247 -0.008 2.432 -0 -1.2 0
3.456 -0.008 2.551 -0 -1.2 0
3.699 -0.006 2.688 -0 -1.2 0
3.976 -0.005 2.847 -0 -1.2 0
4.315 0.001 3.039 -0 -1.2 0
4.705 0.007 3.261 -0 -1.2 0
5.028 -0.018 3.445 -0 -1.2 0
5.566 -0.012 3.752 -0 -1.2 0
6.2 -0.012 4.112 -0 -1.2 0
6.345 -0.114 4.196 -0 -1.2 0
6.341 -0.242 4.194 -0 -1.2 0
6.344 -0.368 4.197 -0 -1.2 0
6.337 -0.495 4.194 -0 -1.2 0
6.344 -0.621 4.2 -0 -1.2 0
6.341 -0.747 4.2 -0 -1.2 0
6.336 -0.872 4.198 -0 -1.2 0
6.338 -0.997 4.2 -0 -1.2 0
6.338 -1.122 4.202 -0 -1.2 0
6.336 -1.247 4.202 -0 -1.2 0
6.333 -1.372 4.201 -0 -1.2 0
6.336 -1.498 4.204 -0 -1.2 0
6.328 -1.623 4.201 -0 -1.2 0
6.327 -1.749 4.202 -0 -1.2 0
6.325 -1.875 4.201 -0 -1.2 0
6.329 -2.003 4.205 -0 -1.2 0
6.331 -2.131 4.207 -0 -1.2 0
6.322 -2.257 4.204 -0 -1.2 0
6.32 -2.387 4.204 -0 -1.2 0
6.317 -2.515 4.203 -0 -1.2 0
6.319 -2.646 4.206 -0 -1.2 0
6.311 -2.776 4.203 -0 -1.2 0
6.318 -2.91 4.207 -0 -1.2 0
6.314 -3.043 4.206 -0 -1.2 0
6.308 -3.176 4.205 -0 -1.2 0
6.317 -3.315 4.211 -0 -1.2 0
6.307 -3.449 4.206 -0 -1.2 0
6.302 -3.587 4.205 -0 -1.2 0
6.303 -3.728 4.207 -0 -1.2 0
6.311 -3.874 4.213 -0 -1.2 0
6.308 -4.018 4.213 -0 -1.2 0
6.31 -4.166 4.215 -0 -1.2 0
6.301 -4.311 4.212 -0 -1.2 0
6.306 -4.465 4.216 -0 -1.2 0
6.308 -4.62 4.219 -0 -1.2 0
6.299 -4.772 4.215 -0 -1.2 0
6.296 -4.929 4.215 -0 -1.2 0
6.297 -5.093 4.217 -0 -1.2 0
6.294 -5.257 4.218 -0 -1.2 0
6.289 -5.422 4.217 -0 -1.2 0
6.295 -5.6 4.222 -0 -1.2 0
6.284 -5.767 4.217 -0 -1.2 0
6.283 -5.947 4.218 -0 -1.2 0
6.279 -6.129 4.218 -0 -1.2 0
6.278 -6.318 4.219 -0 -1.2 0
6.274 -6.508 4.219 -0 -1.2 0
6.285 -6.718 4.227 -0 -1.2 0
6.253 -6.893 4.21 -0 -1.2 0
6.599 -7.442 4.413 -0 -1.2 0
6.027 -7.091 4.083 -0 -1.2 0
6.01 -7.291 4.076 -0 -1.2 0
6.016 -7.518 4.082 -0 -1.2 0
6.024 -7.754 4.088 -0 -1.2 0
1.07 0.023 1.17 -0 -1.2 0
1.106 0.024 1.189 -0 -1.2 0
1.136 0.018 1.204 -0 -1.2 0
1.173 0.018 1.224 -0 -1.2 0
1.217 0.023 1.247 -0 -1.2 0
1.26 0.028 1.271 -0 -1.2 0
1.291 0.017 1.287 -0 -1.2 0
1.335 0.019 1.311 -0 -1.2 0
1.381 0.019 1.335 -0 -1.2 0
1.426 0.017 1.359 -0 -1.2 0
1.471 0.014 1.383 -0 -1.2 0
1.525 0.016 1.411 -0 -1.2 0
1.586 0.021 1.444 -0 -1.2 0
1.64 0.018 1.473 -0 -1.2 0
1.702 0.02 1.506 -0 -1.2 0
1.772 0.023 1.543 -0 -1.2 0
1.843 0.025 1.581 -0 -1.2 0
1.907 0.019 1.614 -0 -1.2 0
1.979 0.016 1.653 -0 -1.2 0
2.058 0.015 1.695 -0 -1.2 0
2.139 0.01 1.738 -0 -1.2 0
2.228 0.008 1.786 -0 -1.2 0
2.326 0.006 1.838 -0 -1.2 0
2.44 0.009 1.898 -0 -1.2 0
2.547 0.003 1.955 -0 -1.2 0
2.663 -0.002 2.017 -0 -1.2 0
2.812 0.001 2.096 -0 -1.2 0
2.954 -0.004 2.172 -0 -1.2 0
3.122 -0.006 2.26 -0 -1.2 0
3.315 -0.005 2.364 -0 -1.2 0
3.528 -0.005 2.477 -0 -1.2 0
3.783 -0.002 2.613 -0 -1.2 0
4.065 -0.001 2.762 -0 -1.2 0
4.392 0 2.936 -0 -1.2 0
4.797 0.006 3.151 -0 -1.2 0
5.134 -0.016 3.33 -0 -1.2 0
5.681 -0.013 3.622 -0 -1.2 0
6.247 -0.027 3.922 -0 -1.2 0
6.63 -0.091 4.126 -0 -1.2 0
6.626 -0.223 4.126 -0 -1.2 0
6.629 -0.353 4.129 -0 -1.2 0
6.621 -0.484 4.126 -0 -1.2 0
6.62 -0.613 4.127 -0 -1.2 0
6.618 -0.744 4.127 -0 -1.2 0
6.622 -0.872 4.13 -0 -1.2 0
6.615 -1.001 4.128 -0 -1.2 0
6.623 -1.128 4.134 -0 -1.2 0
6.622 -1.257 4.134 -0 -1.2 0
6.609 -1.387 4.129 -0 -1.2 0
6.612 -1.516 4.131 -0 -1.2 0
6.604 -1.645 4.129 -0 -1.2 0
6.611 -1.775 4.135 -0 -1.2 0
6.609 -1.905 4.134 -0 -1.2 0
6.603 -2.035 4.132 -0 -1.2 0
6.596 -2.164 4.13 -0 -1.2 0
6.604 -2.298 4.136 -0 -1.2 0
6.601 -2.43 4.136 -0 -1.2 0
6.588 -2.56 4.13 -0 -1.2 0
6.59 -2.694 4.132 -0 -1.2 0
6.598 -2.832 4.138 -0 -1.2 0
6.587 -2.965 4.133 -0 -1.2 0
6.591 -3.104 4.137 -0 -1.2 0
6.593 -3.243 4.139 -0 -1.2 0
6.592 -3.383 4.141 -0 -1.2 0
6.597 -3.527 4.144 -0 -1.2 0
6.591 -3.668 4.143 -0 -1.2 0
6.583 -3.81 4.14 -0 -1.2 0
6.589 -3.96 4.145 -0 -1.2 0
6.576 -4.103 4.139 -0 -1.2 0
6.577 -4.254 4.141 -0 -1.2 0
6.575 -4.407 4.142 -0 -1.2 0
6.578 -4.564 4.146 -0 -1.2 0
6.571 -4.719 4.143 -0 -1.2 0
6.569 -4.878 4.144 -0 -1.2 0
6.563 -5.039 4.142 -0 -1.2 0
6.554 -5.201 4.139 -0 -1.2 0
6.558 -5.373 4.143 -0 -1.2 0
6.559 -5.547 4.145 -0 -1.2 0
6.548 -5.718 4.141 -0 -1.2 0
6.549 -5.899 4.144 -0 -1.2 0
6.553 -6.088 4.148 -0 -1.2 0
6.54 -6.268 4.143 -0 -1.2 0
6.544 -6.466 4.147 -0 -1.2 0
6.544 -6.666 4.148 -0 -1.2 0
6.532 -6.86 4.144 -0 -1.2 0
6.844 -7.36 4.316 -0 -1.2 0
6.377 -7.138 4.065 -0 -1.2 0
6.209 -7.189 3.977 -0 -1.2 0
6.173 -7.37 3.959 -0 -1.2 0
6.26 -7.688 4.009 -0 -1.2 0
6.234 -7.893 3.996 -0 -1.2 0
1.086 0.022 1.156 -0 -1.2 0
1.129 0.03 1.177 -0 -1.2 0
1.153 0.017 1.19 -0 -1.2 0
1.196 0.023 1.211 -0 -1.2 0
1.221 0.009 1.223 -0 -1.2 0
1.279 0.027 1.252 -0 -1.2 0
1.316 0.022 1.27 -0 -1.2 0
1.362 0.024 1.293 -0 -1.2 0
1.408 0.023 1.316 -0 -1.2 0
1.447 0.016 1.335 -0 -1.2 0
1.507 0.025 1.366 -0 -1.2 0
1.555 0.019 1.388 -0 -1.2 0
1.609 0.019 1.416 -0 -1.2 0
1.665 0.016 1.443 -0 -1.2 0
1.727 0.018 1.474 -0 -1.2 0
1.798 0.021 1.51 -0 -1.2 0
1.862 0.018 1.541 -0 -1.2 0
1.943 0.022 1.581 -0 -1.2 0
2.007 0.014 1.613 -0 -1.2 0
2.097 0.017 1.657 -0 -1.2 0
2.178 0.013 1.697 -0 -1.2 0
2.261 0.006 1.739 -0 -1.2 0
2.367 0.008 1.792 -0 -1.2 0
2.468 0.003 1.841 -0 -1.2 0
2.593 0.004 1.903 -0 -1.2 0
2.702 -0.004 1.957 -0 -1.2 0
2.854 -0.001 2.033 -0 -1.2 0
2.989 -0.01 2.1 -0 -1.2 0
3.168 -0.008 2.188 -0 -1.2 0
3.382 -0.002 2.294 -0 -1.2 0
3.596 -0.003 2.4 -0 -1.2 0
3.856 -0.001 2.529 -0 -1.2 0
4.142 -0.001 2.671 -0 -1.2 0
4.5 0.006 2.848 -0 -1.2 0
4.886 0.005 3.039 -0 -1.2 0
5.28 -0.006 3.235 -0 -1.2 0
5.809 -0.01 3.497 -0 -1.2 0
6.357 -0.03 3.769 -0 -1.2 0
6.931 -0.067 4.054 -0 -1.2 0
6.928 -0.203 4.054 -0 -1.2 0
6.923 -0.338 4.052 -0 -1.2 0
6.915 -0.472 4.05 -0 -1.2 0
6.914 -0.606 4.052 -0 -1.2 0
6.903 -0.739 4.047 -0 -1.2 0
6.907 -0.872 4.05 -0 -1.2 0
6.908 -1.004 4.053 -0 -1.2 0
6.909 -1.136 4.054 -0 -1.2 0
6.907 -1.269 4.054 -0 -1.2 0
6.902 -1.401 4.054 -0 -1.2 0
6.905 -1.534 4.057 -0 -1.2 0
6.906 -1.668 4.059 -0 -1.2 0
6.904 -1.801 4.059 -0 -1.2 0
6.892 -1.933 4.054 -0 -1.2 0
6.903 -2.07 4.062 -0 -1.2 0
6.904 -2.205 4.064 -0 -1.2 0
6.903 -2.341 4.064 -0 -1.2 0
6.909 -2.478 4.069 -0 -1.2 0
6.903 -2.615 4.067 -0 -1.2 0
6.896 -2.751 4.065 -0 -1.2 0
6.894 -2.89 4.066 -0 -1.2 0
6.89 -3.03 4.066 -0 -1.2 0
6.893 -3.173 4.069 -0 -1.2 0
6.893 -3.316 4.07 -0 -1.2 0
6.891 -3.46 4.07 -0 -1.2 0
6.887 -3.605 4.07 -0 -1.2 0
6.889 -3.753 4.072 -0 -1.2 0
6.887 -3.903 4.074 -0 -1.2 0
6.883 -4.053 4.073 -0 -1.2 0
6.877 -4.204 4.071 -0 -1.2 0
6.876 -4.359 4.072 -0 -1.2 0
6.872 -4.515 4.073 -0 -1.2 0
6.866 -4.674 4.071 -0 -1.2 0
6.864 -4.836 4.072 -0 -1.2 0
6.868 -5.004 4.076 -0 -1.2 0
6.852 -5.164 4.07 -0 -1.2 0
6.857 -5.34 4.074 -0 -1.2 0
6.852 -5.511 4.073 -0 -1.2 0
6.857 -5.694 4.078 -0 -1.2 0
6.859 -5.879 4.081 -0 -1.2 0
6.866 -6.071 4.086 -0 -1.2 0
6.845 -6.247 4.078 -0 -1.2 0
6.85 -6.447 4.083 -0 -1.2 0
6.852 -6.65 4.085 -0 -1.2 0
6.842 -6.847 4.083 -0 -1.2 0
6.954 -7.157 4.141 -0 -1.2 0
6.705 -7.152 4.018 -0 -1.2 0
6.521 -7.195 3.927 -0 -1.2 0
6.551 -7.446 3.945 -0 -1.2 0
6.523 -7.644 3.933 -0 -1.2 0
6.51 -7.866 3.928 -0 -1.2 0
6.505 -8.102 3.929 -0 -1.2 0
1.101 0.021 1.142 -0 -1.2 0
1.125 0.008 1.152 -0 -1.2 0
1.169 0.016 1.173 -0 -1.2 0
1.213 0.022 1.193 -0 -1.2 0
1.251 0.021 1.21 -0 -1.2 0
1.29 0.018 1.228 -0 -1.2 0
1.335 0.021 1.248 -0 -1.2 0
1.374 0.016 1.267 -0 -1.2 0
1.413 0.01 1.285 -0 -1.2 0
1.475 0.021 1.312 -0 -1.2 0
1.514 0.011 1.331 -0 -1.2 0
1.576 0.018 1.36 -0 -1.2 0
1.632 0.018 1.385 -0 -1.2 0
1.695 0.02 1.414 -0 -1.2 0
1.752 0.016 1.44 -0 -1.2 0
1.824 0.019 1.473 -0 -1.2 0
1.889 0.016 1.502 -0 -1.2 0
1.954 0.011 1.533 -0 -1.2 0
2.028 0.008 1.566 -0 -1.2 0
2.127 0.015 1.611 -0 -1.2 0
2.201 0.006 1.645 -0 -1.2 0
2.293 0.003 1.687 -0 -1.2 0
2.394 0.002 1.734 -0 -1.2 0
2.503 0 1.784 -0 -1.2 0
2.613 -0.005 1.834 -0 -1.2 0
2.74 -0.007 1.893 -0 -1.2 0
2.877 -0.011 1.956 -0 -1.2 0
3.014 -0.019 2.019 -0 -1.2 0
3.204 -0.015 2.106 -0 -1.2 0
3.421 -0.008 2.205 -0 -1.2 0
3.623 -0.015 2.297 -0 -1.2 0
3.894 -0.01 2.421 -0 -1.2 0
4.211 -0.002 2.566 -0 -1.2 0
4.53 -0.007 2.713 -0 -1.2 0
4.938 -0.002 2.9 -0 -1.2 0
5.419 0 3.12 -0 -1.2 0
5.884 -0.017 3.334 -0 -1.2 0
6.466 -0.033 3.601 -0 -1.2 0
7.266 -0.04 3.967 -0 -1.2 0
7.254 -0.181 3.963 -0 -1.2 0
7.249 -0.32 3.962 -0 -1.2 0
7.251 -0.458 3.965 -0 -1.2 0
7.259 -0.596 3.971 -0 -1.2 0
7.247 -0.734 3.967 -0 -1.2 0
7.242 -0.871 3.966 -0 -1.2 0
7.244 -1.008 3.968 -0 -1.2 0
7.244 -1.145 3.97 -0 -1.2 0
7.242 -1.282 3.97 -0 -1.2 0
7.237 -1.419 3.969 -0 -1.2 0
7.24 -1.556 3.971 -0 -1.2 0
7.23 -1.693 3.969 -0 -1.2 0
7.229 -1.831 3.969 -0 -1.2 0
7.225 -1.969 3.97 -0 -1.2 0
7.228 -2.108 3.972 -0 -1.2 0
7.227 -2.248 3.974 -0 -1.2 0
7.226 -2.388 3.974 -0 -1.2 0
7.222 -2.528 3.975 -0 -1.2 0
7.215 -2.669 3.973 -0 -1.2 0
7.215 -2.812 3.974 -0 -1.2 0
7.212 -2.955 3.975 -0 -1.2 0
7.217 -3.101 3.978 -0 -1.2 0
7.209 -3.246 3.976 -0 -1.2 0
7.208 -3.393 3.978 -0 -1.2 0
7.206 -3.541 3.979 -0 -1.2 0
7.209 -3.693 3.981 -0 -1.2 0
7.191 -3.84 3.974 -0 -1.2 0
7.197 -3.997 3.979 -0 -1.2 0
7.192 -4.151 3.979 -0 -1.2 0
7.192 -4.31 3.981 -0 -1.2 0
7.189 -4.47 3.981 -0 -1.2 0
7.192 -4.635 3.984 -0 -1.2 0
7.183 -4.796 3.982 -0 -1.2 0
7.18 -4.963 3.983 -0 -1.2 0
7.182 -5.135 3.985 -0 -1.2 0
7.172 -5.304 3.982 -0 -1.2 0
7.182 -5.489 3.989 -0 -1.2 0
7.174 -5.664 3.987 -0 -1.2 0
7.177 -5.852 3.991 -0 -1.2 0
7.177 -6.041 3.992 -0 -1.2 0
7.165 -6.226 3.989 -0 -1.2 0
7.165 -6.423 3.992 -0 -1.2 0
7.159 -6.622 3.992 -0 -1.2 0
7.15 -6.822 3.989 -0 -1.2 0
7.346 -7.2 4.083 -0 -1.2 0
7.184 -7.283 4.01 -0 -1.2 0
6.769 -7.133 3.818 -0 -1.2 0
6.762 -7.344 3.817 -0 -1.2 0
6.838 -7.644 3.855 -0 -1.2 0
6.813 -7.853 3.846 -0 -1.2 0
6.816 -8.098 3.85 -0 -1.2 0
7.066 -8.618 3.971 -0 -1.2 0
1.107 0.014 1.124 -0 -1.2 0
1.144 0.016 1.14 -0 -1.2 0
1.189 0.023 1.159 -0 -1.2 0
1.227 0.023 1.175 -0 -1.2 0
1.266 0.021 1.191 -0 -1.2 0
1.304 0.019 1.208 -0 -1.2 0
1.351 0.021 1.227 -0 -1.2 0
1.39 0.017 1.244 -0 -1.2 0
1.437 0.017 1.264 -0 -1.2 0
1.484 0.015 1.284 -0 -1.2 0
1.532 0.012 1.305 -0 -1.2 0
1.596 0.019 1.331 -0 -1.2 0
1.651 0.018 1.355 -0 -1.2 0
1.708 0.015 1.378 -0 -1.2 0
1.764 0.011 1.403 -0 -1.2 0
1.838 0.015 1.433 -0 -1.2 0
1.912 0.016 1.465 -0 -1.2 0
1.978 0.011 1.493 -0 -1.2 0
2.044 0.003 1.522 -0 -1.2 0
2.127 0.002 1.557 -0 -1.2 0
2.22 0.002 1.596 -0 -1.2 0
2.303 -0.004 1.632 -0 -1.2 0
2.414 -0.001 1.678 -0 -1.2 0
2.524 -0.003 1.725 -0 -1.2 0
2.636 -0.008 1.773 -0 -1.2 0
2.757 -0.014 1.824 -0 -1.2 0
2.886 -0.02 1.879 -0 -1.2 0
3.043 -0.022 1.945 -0 -1.2 0
3.235 -0.018 2.027 -0 -1.2 0
3.438 -0.017 2.112 -0 -1.2 0
3.658 -0.019 2.206 -0 -1.2 0
3.916 -0.017 2.315 -0 -1.2 0
4.219 -0.015 2.443 -0 -1.2 0
4.559 -0.013 2.588 -0 -1.2 0
4.963 -0.011 2.759 -0 -1.2 0
5.469 -0.004 2.973 -0 -1.2 0
5.922 -0.025 3.165 -0 -1.2 0
6.648 -0.018 3.473 -0 -1.2 0
7.595 -0.006 3.874 -0 -1.2 0
7.583 -0.151 3.871 -0 -1.2 0
7.597 -0.294 3.878 -0 -1.2 0
7.59 -0.437 3.877 -0 -1.2 0
7.59 -0.58 3.878 -0 -1.2 0
7.597 -0.722 3.883 -0 -1.2 0
7.592 -0.864 3.882 -0 -1.2 0
7.594 -1.006 3.884 -0 -1.2 0
7.594 -1.148 3.886 -0 -1.2 0
7.591 -1.29 3.887 -0 -1.2 0
7.586 -1.432 3.886 -0 -1.2 0
7.588 -1.574 3.889 -0 -1.2 0
7.578 -1.716 3.886 -0 -1.2 0
7.577 -1.858 3.887 -0 -1.2 0
7.572 -2.002 3.886 -0 -1.2 0
7.574 -2.145 3.889 -0 -1.2 0
7.564 -2.289 3.886 -0 -1.2 0
7.571 -2.436 3.89 -0 -1.2 0
7.557 -2.579 3.886 -0 -1.2 0
7.549 -2.724 3.885 -0 -1.2 0
7.548 -2.871 3.885 -0 -1.2 0
7.554 -3.022 3.89 -0 -1.2 0
7.548 -3.17 3.889 -0 -1.2 0
7.54 -3.319 3.887 -0 -1.2 0
7.547 -3.474 3.892 -0 -1.2 0
7.533 -3.624 3.888 -0 -1.2 0
7.534 -3.78 3.89 -0 -1.2 0
7.542 -3.941 3.894 -0 -1.2 0
7.529 -4.096 3.891 -0 -1.2 0
7.531 -4.258 3.893 -0 -1.2 0
7.521 -4.418 3.891 -0 -1.2 0
7.525 -4.586 3.893 -0 -1.2 0
7.517 -4.751 3.892 -0 -1.2 0
7.523 -4.926 3.896 -0 -1.2 0
7.526 -5.101 3.9 -0 -1.2 0
7.526 -5.279 3.901 -0 -1.2 0
7.521 -5.457 3.902 -0 -1.2 0
7.521 -5.642 3.904 -0 -1.2 0
7.51 -5.822 3.901 -0 -1.2 0
7.511 -6.014 3.904 -0 -1.2 0
7.485 -6.191 3.894 -0 -1.2 0
7.494 -6.397 3.9 -0 -1.2 0
7.483 -6.594 3.898 -0 -1.2 0
7.49 -6.808 3.903 -0 -1.2 0
7.596 -7.108 3.952 -0 -1.2 0
7.834 -7.529 4.057 -0 -1.2 0
7.073 -7.111 3.73 -0 -1.2 0
7.075 -7.331 3.733 -0 -1.2 0
7.043 -7.527 3.721 -0 -1.2 0
7.124 -7.837 3.759 -0 -1.2 0
7.048 -8.003 3.729 -0 -1.2 0
7.382 -8.594 3.877 -0 -1.2 0
7.366 -8.843 3.872 -0 -1.2 0
1.106 0 1.104 -0 -1.2 0
1.143 0.002 1.118 -0 -1.2 0
1.202 0.023 1.141 -0 -1.2 0
1.233 0.017 1.153 -0 -1.2 0
1.272 0.015 1.169 -0 -1.2 0
1.312 0.013 1.183 -0 -1.2 0
1.358 0.015 1.201 -0 -1.2 0
1.405 0.017 1.22 -0 -1.2 0
1.445 0.01 1.236 -0 -1.2 0
1.493 0.009 1.255 -0 -1.2 0
1.541 0.005 1.273 -0 -1.2 0
1.613 0.018 1.301 -0 -1.2 0
1.661 0.012 1.32 -0 -1.2 0
1.719 0.01 1.343 -0 -1.2 0
1.784 0.01 1.367 -0 -1.2 0
1.858 0.014 1.397 -0 -1.2 0
1.924 0.011 1.423 -0 -1.2 0
1.991 0.006 1.449 -0 -1.2 0
2.058 -0.001 1.475 -0 -1.2 0
2.135 -0.006 1.505 -0 -1.2 0
2.236 -0.001 1.545 -0 -1.2 0
2.321 -0.008 1.578 -0 -1.2 0
2.424 -0.01 1.618 -0 -1.2 0
2.536 -0.011 1.662 -0 -1.2 0
2.639 -0.019 1.703 -0 -1.2 0
2.762 -0.025 1.75 -0 -1.2 0
2.884 -0.034 1.798 -0 -1.2 0
3.06 -0.029 1.866 -0 -1.2 0
3.245 -0.028 1.939 -0 -1.2 0
3.459 -0.023 2.022 -0 -1.2 0
3.673 -0.027 2.106 -0 -1.2 0
3.934 -0.026 2.207 -0 -1.2 0
4.239 -0.022 2.327 -0 -1.2 0
4.575 -0.024 2.458 -0 -1.2 0
4.948 -0.028 2.603 -0 -1.2 0
5.44 -0.023 2.796 -0 -1.2 0
6.008 -0.024 3.017 -0 -1.2 0
6.669 -0.029 3.276 -0 -1.2 0
7.6 -0.02 3.639 -0 -1.2 0
7.958 -0.118 3.78 -0 -1.2 0
7.954 -0.267 3.779 -0 -1.2 0
7.956 -0.415 3.782 -0 -1.2 0
7.956 -0.563 3.784 -0 -1.2 0
7.955 -0.711 3.784 -0 -1.2 0
7.959 -0.858 3.788 -0 -1.2 0
7.942 -1.005 3.782 -0 -1.2 0
7.952 -1.152 3.787 -0 -1.2 0
7.959 -1.299 3.792 -0 -1.2 0
7.953 -1.446 3.791 -0 -1.2 0
7.947 -1.593 3.79 -0 -1.2 0
7.936 -1.74 3.788 -0 -1.2 0
7.943 -1.889 3.792 -0 -1.2 0
7.929 -2.036 3.787 -0 -1.2 0
7.93 -2.185 3.789 -0 -1.2 0
7.929 -2.334 3.791 -0 -1.2 0
7.925 -2.484 3.791 -0 -1.2 0
7.919 -2.634 3.79 -0 -1.2 0
7.92 -2.786 3.792 -0 -1.2 0
7.919 -2.939 3.793 -0 -1.2 0
7.923 -3.095 3.796 -0 -1.2 0
7.916 -3.248 3.795 -0 -1.2 0
7.915 -3.405 3.797 -0 -1.2 0
7.911 -3.563 3.797 -0 -1.2 0
7.905 -3.721 3.796 -0 -1.2 0
7.905 -3.883 3.798 -0 -1.2 0
7.902 -4.045 3.799 -0 -1.2 0
7.905 -4.212 3.801 -0 -1.2 0
7.905 -4.38 3.803 -0 -1.2 0
7.91 -4.552 3.807 -0 -1.2 0
7.895 -4.719 3.803 -0 -1.2 0
7.893 -4.894 3.803 -0 -1.2 0
7.897 -5.074 3.807 -0 -1.2 0
7.881 -5.246 3.802 -0 -1.2 0
7.878 -5.428 3.803 -0 -1.2 0
7.879 -5.616 3.806 -0 -1.2 0
7.877 -5.806 3.807 -0 -1.2 0
7.871 -5.996 3.806 -0 -1.2 0
7.853 -6.183 3.801 -0 -1.2 0
7.847 -6.381 3.801 -0 -1.2 0
7.846 -6.586 3.803 -0 -1.2 0
7.846 -6.799 3.805 -0 -1.2 0
7.942 -7.088 3.845 -0 -1.2 0
8.254 -7.56 3.972 -0 -1.2 0
7.409 -7.106 3.637 -0 -1.2 0
7.411 -7.329 3.64 -0 -1.2 0
7.395 -7.542 3.636 -0 -1.2 0
7.466 -7.84 3.667 -0 -1.2 0
7.383 -8.004 3.636 -0 -1.2 0
7.748 -8.611 3.785 -0 -1.2 0
7.712 -8.843 3.774 -0 -1.2 0
1.124 0.007 1.09 -0 -1.2 0
1.162 0.009 1.104 -0 -1.2 0
1.201 0.01 1.117 -0 -1.2 0
1.247 0.017 1.134 -0 -1.2 0
1.286 0.015 1.147 -0 -1.2 0
1.318 0.005 1.159 -0 -1.2 0
1.373 0.015 1.178 -0 -1.2 0
1.413 0.009 1.193 -0 -1.2 0
1.461 0.01 1.21 -0 -1.2 0
1.509 0.009 1.226 -0 -1.2 0
1.566 0.011 1.247 -0 -1.2 0
1.622 0.013 1.267 -0 -1.2 0
1.672 0.007 1.285 -0 -1.2 0
1.737 0.009 1.308 -0 -1.2 0
1.796 0.005 1.329 -0 -1.2 0
1.862 0.004 1.352 -0 -1.2 0
1.929 0.002 1.376 -0 -1.2 0
2.005 0 1.403 -0 -1.2 0
2.081 -0.002 1.43 -0 -1.2 0
2.166 -0.002 1.461 -0 -1.2 0
2.252 -0.006 1.491 -0 -1.2 0
2.338 -0.013 1.522 -0 -1.2 0
2.442 -0.014 1.559 -0 -1.2 0
2.538 -0.023 1.593 -0 -1.2 0
2.651 -0.028 1.633 -0 -1.2 0
2.774 -0.033 1.677 -0 -1.2 0
2.907 -0.039 1.724 -0 -1.2 0
3.085 -0.033 1.787 -0 -1.2 0
3.264 -0.034 1.851 -0 -1.2 0
3.461 -0.036 1.921 -0 -1.2 0
3.705 -0.031 2.008 -0 -1.2 0
3.95 -0.035 2.095 -0 -1.2 0
4.251 -0.032 2.202 -0 -1.2 0
4.598 -0.031 2.326 -0 -1.2 0
4.966 -0.038 2.457 -0 -1.2 0
5.474 -0.03 2.637 -0 -1.2 0
6.057 -0.028 2.844 -0 -1.2 0
6.661 -0.044 3.059 -0 -1.2 0
7.573 -0.038 3.383 -0 -1.2 0
8.376 -0.079 3.67 -0 -1.2 0
8.382 -0.234 3.673 -0 -1.2 0
8.375 -0.389 3.672 -0 -1.2 0
8.367 -0.543 3.671 -0 -1.2 0
8.374 -0.697 3.674 -0 -1.2 0
8.361 -0.85 3.671 -0 -1.2 0
8.353 -1.003 3.671 -0 -1.2 0
8.353 -1.155 3.671 -0 -1.2 0
8.35 -1.308 3.673 -0 -1.2 0
8.354 -1.461 3.675 -0 -1.2 0
8.347 -1.614 3.674 -0 -1.2 0
8.346 -1.768 3.675 -0 -1.2 0
8.342 -1.921 3.676 -0 -1.2 0
8.337 -2.075 3.675 -0 -1.2 0
8.328 -2.229 3.674 -0 -1.2 0
8.336 -2.385 3.678 -0 -1.2 0
8.332 -2.541 3.678 -0 -1.2 0
8.325 -2.697 3.677 -0 -1.2 0
8.324 -2.855 3.678 -0 -1.2 0
8.33 -3.016 3.682 -0 -1.2 0
8.334 -3.177 3.686 -0 -1.2 0
8.326 -3.337 3.684 -0 -1.2 0
8.323 -3.5 3.685 -0 -1.2 0
8.317 -3.664 3.685 -0 -1.2 0
8.319 -3.831 3.687 -0 -1.2 0
8.308 -3.995 3.684 -0 -1.2 0
8.312 -4.167 3.688 -0 -1.2 0
8.304 -4.336 3.686 -0 -1.2 0
8.302 -4.51 3.687 -0 -1.2 0
8.296 -4.684 3.687 -0 -1.2 0
8.287 -4.859 3.686 -0 -1.2 0
8.292 -5.044 3.689 -0 -1.2 0
8.276 -5.221 3.685 -0 -1.2 0
8.266 -5.403 3.684 -0 -1.2 0
8.268 -5.595 3.686 -0 -1.2 0
8.268 -5.789 3.687 -0 -1.2 0
8.262 -5.984 3.688 -0 -1.2 0
8.229 -6.165 3.678 -0 -1.2 0
8.24 -6.377 3.684 -0 -1.2 0
8.231 -6.581 3.683 -0 -1.2 0
8.234 -6.797 3.686 -0 -1.2 0
8.239 -7.02 3.69 -0 -1.2 0
8.423 -7.385 3.76 -0 -1.2 0
7.834 -7.159 3.547 -0 -1.2 0
7.838 -7.387 3.551 -0 -1.2 0
7.858 -7.635 3.56 -0 -1.2 0
7.829 -7.848 3.552 -0 -1.2 0
7.738 -8.01 3.522 -0 -1.2 0
8.115 -8.614 3.662 -0 -1.2 0
8.087 -8.855 3.655 -0 -1.2 0
1.141 0.014 1.076 -0 -1.2 0
1.179 0.016 1.089 -0 -1.2 0
1.204 0.003 1.097 -0 -1.2 0
1.257 0.016 1.114 -0 -1.2 0
1.297 0.015 1.127 -0 -1.2 0
1.329 0.005 1.138 -0 -1.2 0
1.378 0.009 1.154 -0 -1.2 0
1.418 0.003 1.167 -0 -1.2 0
1.466 0.004 1.183 -0 -1.2 0
1.514 0.002 1.198 -0 -1.2 0
1.564 0 1.214 -0 -1.2 0
1.613 -0.003 1.23 -0 -1.2 0
1.678 0 1.251 -0 -1.2 0
1.745 0.004 1.273 -0 -1.2 0
1.803 0 1.292 -0 -1.2 0
1.87 -0.001 1.314 -0 -1.2 0
1.93 -0.008 1.333 -0 -1.2 0
2.006 -0.008 1.357 -0 -1.2 0
2.092 -0.006 1.385 -0 -1.2 0
2.177 -0.007 1.413 -0 -1.2 0
2.264 -0.011 1.441 -0 -1.2 0
2.359 -0.013 1.472 -0 -1.2 0
2.455 -0.019 1.503 -0 -1.2 0
2.552 -0.027 1.535 -0 -1.2 0
2.667 -0.031 1.572 -0 -1.2 0
2.791 -0.037 1.613 -0 -1.2 0
2.924 -0.043 1.656 -0 -1.2 0
3.086 -0.044 1.708 -0 -1.2 0
3.275 -0.041 1.769 -0 -1.2 0
3.466 -0.044 1.831 -0 -1.2 0
3.711 -0.04 1.91 -0 -1.2 0
3.949 -0.045 1.988 -0 -1.2 0
4.225 -0.05 2.077 -0 -1.2 0
4.557 -0.052 2.185 -0 -1.2 0
4.966 -0.048 2.317 -0 -1.2 0
5.431 -0.05 2.468 -0 -1.2 0
6.02 -0.045 2.659 -0 -1.2 0
6.658 -0.055 2.866 -0 -1.2 0
7.476 -0.063 3.13 -0 -1.2 0
8.615 -0.062 3.501 -0 -1.2 0
8.84 -0.196 3.574 -0 -1.2 0
8.834 -0.358 3.574 -0 -1.2 0
8.825 -0.52 3.573 -0 -1.2 0
8.824 -0.68 3.574 -0 -1.2 0
8.82 -0.84 3.574 -0 -1.2 0
8.822 -1 3.576 -0 -1.2 0
8.812 -1.159 3.575 -0 -1.2 0
8.81 -1.319 3.575 -0 -1.2 0
8.804 -1.479 3.575 -0 -1.2 0
8.805 -1.639 3.577 -0 -1.2 0
8.795 -1.8 3.575 -0 -1.2 0
8.791 -1.96 3.575 -0 -1.2 0
8.784 -2.12 3.575 -0 -1.2 0
8.794 -2.284 3.58 -0 -1.2 0
8.782 -2.444 3.577 -0 -1.2 0
8.776 -2.607 3.577 -0 -1.2 0
8.777 -2.771 3.579 -0 -1.2 0
8.767 -2.934 3.577 -0 -1.2 0
8.762 -3.099 3.577 -0 -1.2 0
8.755 -3.265 3.576 -0 -1.2 0
8.754 -3.433 3.578 -0 -1.2 0
8.751 -3.603 3.578 -0 -1.2 0
8.753 -3.775 3.581 -0 -1.2 0
8.743 -3.945 3.579 -0 -1.2 0
8.739 -4.119 3.579 -0 -1.2 0
8.732 -4.294 3.579 -0 -1.2 0
8.73 -4.473 3.58 -0 -1.2 0
8.726 -4.653 3.58 -0 -1.2 0
8.718 -4.834 3.58 -0 -1.2 0
8.706 -5.016 3.578 -0 -1.2 0
8.709 -5.207 3.58 -0 -1.2 0
8.699 -5.394 3.579 -0 -1.2 0
8.693 -5.587 3.579 -0 -1.2 0
8.685 -5.781 3.578 -0 -1.2 0
8.672 -5.976 3.576 -0 -1.2 0
8.673 -6.182 3.578 -0 -1.2 0
8.652 -6.378 3.573 -0 -1.2 0
8.652 -6.592 3.575 -0 -1.2 0
8.647 -6.807 3.576 -0 -1.2 0
8.725 -7.085 3.603 -0 -1.2 0
9.094 -7.581 3.728 -0 -1.2 0
8.117 -7.097 3.406 -0 -1.2 0
8.138 -7.339 3.415 -0 -1.2 0
8.131 -7.564 3.416 -0 -1.2 0
8.223 -7.879 3.449 -0 -1.2 0
8.131 -8.046 3.42 -0 -1.2 0
8.534 -8.659 3.557 -0 -1.2 0
8.486 -8.886 3.543 -0 -1.2 0
1.143 0.007 1.06 -0 -1.2 0
1.188 0.016 1.073 -0 -1.2 0
1.221 0.01 1.082 -0 -1.2 0
1.261 0.009 1.094 -0 -1.2 0
1.301 0.008 1.105 -0 -1.2 0
1.341 0.005 1.118 -0 -1.2 0
1.389 0.009 1.131 -0 -1.2 0
1.43 0.003 1.143 -0 -1.2 0
1.479 0.004 1.158 -0 -1.2 0
1.527 0.002 1.172 -0 -1.2 0
1.577 0 1.187 -0 -1.2 0
1.635 0 1.203 -0 -1.2 0
1.693 0 1.221 -0 -1.2 0
1.752 0 1.238 -0 -1.2 0
1.818 0 1.257 -0 -1.2 0
1.878 -0.006 1.275 -0 -1.2 0
1.946 -0.008 1.295 -0 -1.2 0
2.024 -0.008 1.317 -0 -1.2 0
2.11 -0.006 1.343 -0 -1.2 0
2.187 -0.011 1.366 -0 -1.2 0
2.274 -0.015 1.391 -0 -1.2 0
2.371 -0.017 1.419 -0 -1.2 0
2.459 -0.026 1.446 -0 -1.2 0
2.574 -0.027 1.479 -0 -1.2 0
2.672 -0.039 1.508 -0 -1.2 0
2.797 -0.044 1.545 -0 -1.2 0
2.941 -0.046 1.587 -0 -1.2 0
3.113 -0.044 1.638 -0 -1.2 0
3.285 -0.047 1.688 -0 -1.2 0
3.459 -0.056 1.739 -0 -1.2 0
3.725 -0.045 1.817 -0 -1.2 0
3.975 -0.048 1.89 -0 -1.2 0
4.243 -0.055 1.969 -0 -1.2 0
4.569 -0.059 2.064 -0 -1.2 0
4.99 -0.053 2.188 -0 -1.2 0
5.46 -0.054 2.326 -0 -1.2 0
6.035 -0.054 2.494 -0 -1.2 0
6.734 -0.054 2.7 -0 -1.2 0
7.465 -0.075 2.914 -0 -1.2 0
8.566 -0.077 3.237 -0 -1.2 0
9.308 -0.157 3.456 -0 -1.2 0
9.303 -0.326 3.456 -0 -1.2 0
9.305 -0.495 3.458 -0 -1.2 0
9.303 -0.662 3.458 -0 -1.2 0
9.3 -0.83 3.46 -0 -1.2 0
9.292 -0.997 3.459 -0 -1.2 0
9.283 -1.164 3.457 -0 -1.2 0
9.279 -1.33 3.458 -0 -1.2 0
9.274 -1.497 3.458 -0 -1.2 0
9.266 -1.665 3.457 -0 -1.2 0
9.274 -1.832 3.461 -0 -1.2 0
9.279 -2.001 3.464 -0 -1.2 0
9.271 -2.17 3.464 -0 -1.2 0
9.251 -2.336 3.459 -0 -1.2 0
9.248 -2.506 3.46 -0 -1.2 0
9.241 -2.675 3.459 -0 -1.2 0
9.242 -2.846 3.461 -0 -1.2 0
9.238 -3.018 3.462 -0 -1.2 0
9.233 -3.191 3.462 -0 -1.2 0
9.233 -3.366 3.463 -0 -1.2 0
9.221 -3.539 3.462 -0 -1.2 0
9.225 -3.718 3.464 -0 -1.2 0
9.216 -3.895 3.464 -0 -1.2 0
9.213 -4.075 3.464 -0 -1.2 0
9.207 -4.256 3.464 -0 -1.2 0
9.197 -4.438 3.463 -0 -1.2 0
9.185 -4.621 3.461 -0 -1.2 0
9.186 -4.811 3.463 -0 -1.2 0
9.166 -4.996 3.459 -0 -1.2 0
9.152 -5.184 3.457 -0 -1.2 0
9.152 -5.381 3.459 -0 -1.2 0
9.148 -5.579 3.459 -0 -1.2 0
9.14 -5.779 3.459 -0 -1.2 0
9.136 -5.984 3.459 -0 -1.2 0
9.12 -6.186 3.457 -0 -1.2 0
9.1 -6.389 3.453 -0 -1.2 0
9.101 -6.607 3.455 -0 -1.2 0
9.104 -6.833 3.458 -0 -1.2 0
9.168 -7.104 3.479 -0 -1.2 0
9.562 -7.609 3.599 -0 -1.2 0
8.534 -7.126 3.294 -0 -1.2 0
8.541 -7.359 3.297 -0 -1.2 0
8.535 -7.589 3.298 -0 -1.2 0
8.531 -7.827 3.298 -0 -1.2 0
8.641 -8.165 3.335 -0 -1.2 0
8.98 -8.714 3.439 -0 -1.2 0
8.916 -8.932 3.422 -0 -1.2 0
1.158 0.014 1.043 -0 -1.2 0
1.197 0.016 1.054 -0 -1.2 0
1.23 0.01 1.062 -0 -1.2 0
1.27 0.009 1.073 -0 -1.2 0
1.31 0.008 1.083 -0 -1.2 0
1.35 0.005 1.094 -0 -1.2 0
1.391 0.002 1.105 -0 -1.2 0
1.44 0.003 1.117 -0 -1.2 0
1.489 0.004 1.13 -0 -1.2 0
1.538 0.002 1.143 -0 -1.2 0
1.589 0 1.156 -0 -1.2 0
1.638 -0.004 1.169 -0 -1.2 0
1.705 0 1.186 -0 -1.2 0
1.764 0 1.202 -0 -1.2 0
1.832 0 1.22 -0 -1.2 0
1.901 -0.001 1.237 -0 -1.2 0
1.969 -0.003 1.256 -0 -1.2 0
2.039 -0.008 1.273 -0 -1.2 0
2.125 -0.006 1.296 -0 -1.2 0
2.212 -0.007 1.319 -0 -1.2 0
2.3 -0.011 1.342 -0 -1.2 0
2.389 -0.018 1.364 -0 -1.2 0
2.478 -0.027 1.388 -0 -1.2 0
2.585 -0.031 1.416 -0 -1.2 0
2.702 -0.036 1.446 -0 -1.2 0
2.818 -0.044 1.477 -0 -1.2 0
2.973 -0.043 1.517 -0 -1.2 0
3.146 -0.041 1.562 -0 -1.2 0
3.311 -0.047 1.605 -0 -1.2 0
3.476 -0.06 1.649 -0 -1.2 0
3.727 -0.054 1.713 -0 -1.2 0
4.006 -0.049 1.787 -0 -1.2 0
4.295 -0.051 1.863 -0 -1.2 0
4.615 -0.057 1.946 -0 -1.2 0
5.03 -0.054 2.053 -0 -1.2 0
5.533 -0.049 2.185 -0 -1.2 0
6.084 -0.054 2.328 -0 -1.2 0
6.78 -0.056 2.509 -0 -1.2 0
7.525 -0.076 2.704 -0 -1.2 0
8.608 -0.082 2.986 -0 -1.2 0
9.837 -0.112 3.307 -0 -1.2 0
9.852 -0.288 3.312 -0 -1.2 0
9.835 -0.466 3.309 -0 -1.2 0
9.824 -0.643 3.308 -0 -1.2 0
9.83 -0.819 3.312 -0 -1.2 0
9.814 -0.994 3.309 -0 -1.2 0
9.814 -1.169 3.311 -0 -1.2 0
9.811 -1.344 3.311 -0 -1.2 0
9.805 -1.519 3.312 -0 -1.2 0
9.796 -1.694 3.311 -0 -1.2 0
9.793 -1.869 3.311 -0 -1.2 0
9.789 -2.045 3.312 -0 -1.2 0
9.78 -2.221 3.311 -0 -1.2 0
9.779 -2.398 3.313 -0 -1.2 0
9.774 -2.575 3.313 -0 -1.2 0
9.766 -2.753 3.312 -0 -1.2 0
9.765 -2.932 3.314 -0 -1.2 0
9.76 -3.112 3.314 -0 -1.2 0
9.743 -3.29 3.312 -0 -1.2 0
9.733 -3.472 3.31 -0 -1.2 0
9.737 -3.658 3.313 -0 -1.2 0
9.712 -3.836 3.308 -0 -1.2 0
9.719 -4.026 3.312 -0 -1.2 0
9.714 -4.214 3.312 -0 -1.2 0
9.706 -4.403 3.311 -0 -1.2 0
9.702 -4.596 3.312 -0 -1.2 0
9.696 -4.79 3.312 -0 -1.2 0
9.704 -4.992 3.316 -0 -1.2 0
9.689 -5.187 3.314 -0 -1.2 0
9.673 -5.383 3.311 -0 -1.2 0
9.668 -5.588 3.313 -0 -1.2 0
9.669 -5.799 3.315 -0 -1.2 0
9.657 -6.007 3.313 -0 -1.2 0
9.633 -6.211 3.309 -0 -1.2 0
9.621 -6.425 3.307 -0 -1.2 0
9.614 -6.646 3.308 -0 -1.2 0
9.61 -6.872 3.308 -0 -1.2 0
9.701 -7.163 3.334 -0 -1.2 0
9.392 -7.201 3.254 -0 -1.2 0
9.045 -7.203 3.164 -0 -1.2 0
9.004 -7.408 3.155 -0 -1.2 0
8.998 -7.644 3.155 -0 -1.2 0
9.042 -7.922 3.169 -0 -1.2 0
9.132 -8.247 3.196 -0 -1.2 0
9.471 -8.787 3.289 -0 -1.2 0
9.377 -8.987 3.266 -0 -1.2 0
1.158 0.007 1.024 -0 -1.2 0
1.198 0.008 1.034 -0 -1.2 0
1.238 0.01 1.043 -0 -1.2 0
1.285 0.016 1.054 -0 -1.2 0
1.319 0.008 1.062 -0 -1.2 0
1.359 0.005 1.071 -0 -1.2 0
1.408 0.009 1.082 -0 -1.2 0
1.443 -0.002 1.09 -0 -1.2 0
1.499 0.004 1.103 -0 -1.2 0
1.541 -0.003 1.112 -0 -1.2 0
1.6 0 1.126 -0 -1.2 0
1.65 -0.004 1.138 -0 -1.2 0
1.717 0 1.153 -0 -1.2 0
1.776 0 1.167 -0 -1.2 0
1.845 0 1.183 -0 -1.2 0
1.914 -0.001 1.198 -0 -1.2 0
1.975 -0.008 1.213 -0 -1.2 0
2.061 -0.003 1.232 -0 -1.2 0
2.132 -0.012 1.248 -0 -1.2 0
2.22 -0.012 1.268 -0 -1.2 0
2.316 -0.012 1.291 -0 -1.2 0
2.397 -0.022 1.309 -0 -1.2 0
2.495 -0.027 1.332 -0 -1.2 0
2.594 -0.036 1.355 -0 -1.2 0
2.721 -0.036 1.384 -0 -1.2 0
2.839 -0.044 1.411 -0 -1.2 0
2.994 -0.043 1.447 -0 -1.2 0
3.159 -0.045 1.485 -0 -1.2 0
3.335 -0.048 1.525 -0 -1.2 0
3.501 -0.06 1.564 -0 -1.2 0
3.734 -0.059 1.617 -0 -1.2 0
4.025 -0.051 1.683 -0 -1.2 0
