# .PCD v.7 - Point Cloud Data file format
FIELDS x y z vp_x vp_y vp_z
SIZE 4 4 4 4 4 4
TYPE F F F F F F
COUNT 1 1 1 1 1 1
WIDTH 1608
HEIGHT 1
VIEWPOINT 0 -1.20013 0 1 0 0 0
POINTS 1608
DATA ascii
-1.54 -0.059 0.036 -0 -1.2 0
-1.589 -0.066 0.055 -0 -1.2 0
-1.653 -0.065 0.08 -0 -1.2 0
-1.71 -0.071 0.102 -0 -1.2 0
-1.776 -0.073 0.128 -0 -1.2 0
-1.842 -0.079 0.154 -0 -1.2 0
-1.916 -0.081 0.183 -0 -1.2 0
-1.991 -0.086 0.213 -0 -1.2 0
-2.066 -0.093 0.241 -0 -1.2 0
-2.151 -0.099 0.275 -0 -1.2 0
-2.261 -0.096 0.318 -0 -1.2 0
-2.355 -0.104 0.354 -0 -1.2 0
-2.379 -0.144 0.363 -0 -1.2 0
-2.359 -0.202 0.356 -0 -1.2 0
-2.505 -0.197 0.413 -0 -1.2 0
-2.529 -0.24 0.422 -0 -1.2 0
-2.497 -0.302 0.41 -0 -1.2 0
-2.556 -0.335 0.433 -0 -1.2 0
-2.486 -0.405 0.407 -0 -1.2 0
-2.497 -0.451 0.411 -0 -1.2 0
-2.588 -0.477 0.447 -0 -1.2 0
-2.643 -0.515 0.469 -0 -1.2 0
-2.753 -0.543 0.512 -0 -1.2 0
-2.735 -0.599 0.505 -0 -1.2 0
-2.751 -0.649 0.511 -0 -1.2 0
-2.832 -0.688 0.543 -0 -1.2 0
-2.921 -0.73 0.579 -0 -1.2 0
-3.159 -0.759 0.671 -0 -1.2 0
-3.368 -0.8 0.754 -0 -1.2 0
-3.214 -0.874 0.693 -0 -1.2 0
-3.32 -0.928 0.735 -0 -1.2 0
-3.387 -0.987 0.762 -0 -1.2 0
-3.416 -1.05 0.773 -0 -1.2 0
-3.434 -1.113 0.782 -0 -1.2 0
-3.397 -1.175 0.767 -0 -1.2 0
-3.394 -1.238 0.766 -0 -1.2 0
-3.531 -1.309 0.82 -0 -1.2 0
-4.168 -1.426 1.07 -0 -1.2 0
-11.053 -2.179 3.761 -0 -1.2 0
-10.996 -2.381 3.74 -0 -1.2 0
-11.103 -2.604 3.784 -0 -1.2 0
-11.104 -2.816 3.786 -0 -1.2 0
-8.298 -2.539 2.688 -0 -1.2 0
-11.095 -3.24 3.785 -0 -1.2 0
-11.076 -3.451 3.778 -0 -1.2 0
-11.064 -3.664 3.774 -0 -1.2 0
-11.047 -3.877 3.77 -0 -1.2 0
-11.044 -4.095 3.77 -0 -1.2 0
-4.858 -2.507 1.345 -0 -1.2 0
-5.818 -2.906 1.723 -0 -1.2 0
-4.347 -2.534 1.146 -0 -1.2 0
-4.19 -2.568 1.085 -0 -1.2 0
-10.986 -5.2 3.754 -0 -1.2 0
-10.978 -5.428 3.752 -0 -1.2 0
-5.474 -3.368 1.591 -0 -1.2 0
-10.96 -5.893 3.748 -0 -1.2 0
-10.939 -6.125 3.741 -0 -1.2 0
-4.388 -3.202 1.167 -0 -1.2 0
-10.902 -6.599 3.731 -0 -1.2 0
-10.903 -6.851 3.732 -0 -1.2 0
-4.163 -3.38 1.08 -0 -1.2 0
-4.732 -3.807 1.304 -0 -1.2 0
-3.989 -3.475 1.012 -0 -1.2 0
-4.037 -3.604 1.032 -0 -1.2 0
-3.917 -3.627 0.985 -0 -1.2 0
-5.158 -4.569 1.475 -0 -1.2 0
-5.163 -4.709 1.478 -0 -1.2 0
-3.995 -3.995 1.018 -0 -1.2 0
-3.985 -4.097 1.015 -0 -1.2 0
-4.131 -4.325 1.073 -0 -1.2 0
-4.085 -4.407 1.055 -0 -1.2 0
-2.743 -3.475 0.526 -0 -1.2 0
-4.301 -4.979 1.143 -0 -1.2 0
-4.265 -5.085 1.13 -0 -1.2 0
-5.639 -6.568 1.676 -0 -1.2 0
-2.514 -3.605 0.437 -0 -1.2 0
-4.217 -5.478 1.114 -0 -1.2 0
-4.25 -5.67 1.128 -0 -1.2 0
-4.336 -5.928 1.163 -0 -1.2 0
-4.13 -5.862 1.082 -0 -1.2 0
-1.088 -0.039 -0.079 -0 -1.2 0
-1.125 -0.039 -0.063 -0 -1.2 0
-1.17 -0.034 -0.043 -0 -1.2 0
-1.202 -0.042 -0.03 -0 -1.2 0
-1.24 -0.046 -0.014 -0 -1.2 0
-1.285 -0.045 0.006 -0 -1.2 0
-1.324 -0.05 0.023 -0 -1.2 0
-1.371 -0.051 0.042 -0 -1.2 0
-1.41 -0.06 0.06 -0 -1.2 0
-1.464 -0.058 0.083 -0 -1.2 0
-1.511 -0.064 0.104 -0 -1.2 0
-1.567 -0.066 0.127 -0 -1.2 0
-1.623 -0.07 0.151 -0 -1.2 0
-1.679 -0.075 0.175 -0 -1.2 0
-1.751 -0.072 0.207 -0 -1.2 0
-1.816 -0.078 0.235 -0 -1.2 0
-1.881 -0.085 0.263 -0 -1.2 0
-1.955 -0.089 0.295 -0 -1.2 0
-2.029 -0.096 0.325 -0 -1.2 0
-2.113 -0.102 0.361 -0 -1.2 0
-2.222 -0.099 0.408 -0 -1.2 0
-2.271 -0.126 0.43 -0 -1.2 0
-2.286 -0.169 0.437 -0 -1.2 0
-2.344 -0.194 0.461 -0 -1.2 0
-2.401 -0.222 0.486 -0 -1.2 0
-2.476 -0.246 0.519 -0 -1.2 0
-2.402 -0.322 0.487 -0 -1.2 0
-2.44 -0.358 0.504 -0 -1.2 0
-2.443 -0.406 0.506 -0 -1.2 0
-2.507 -0.438 0.534 -0 -1.2 0
-2.525 -0.483 0.542 -0 -1.2 0
-2.616 -0.512 0.581 -0 -1.2 0
-2.625 -0.561 0.586 -0 -1.2 0
-2.742 -0.59 0.635 -0 -1.2 0
-2.758 -0.64 0.644 -0 -1.2 0
-2.729 -0.698 0.632 -0 -1.2 0
-2.872 -0.731 0.693 -0 -1.2 0
-3.051 -0.765 0.77 -0 -1.2 0
-3.064 -0.822 0.776 -0 -1.2 0
-3.407 -0.855 0.924 -0 -1.2 0
-3.493 -0.915 0.962 -0 -1.2 0
-3.551 -0.978 0.987 -0 -1.2 0
-3.662 -1.044 1.036 -0 -1.2 0
-3.396 -1.112 0.921 -0 -1.2 0
-3.79 -1.184 1.091 -0 -1.2 0
-3.493 -1.243 0.965 -0 -1.2 0
-3.069 -1.282 0.782 -0 -1.2 0
-7.892 -1.726 2.861 -0 -1.2 0
-8.466 -1.933 3.11 -0 -1.2 0
-7.958 -2.035 2.892 -0 -1.2 0
-8.196 -2.22 2.996 -0 -1.2 0
-8.159 -2.373 2.981 -0 -1.2 0
-9.088 -2.695 3.384 -0 -1.2 0
-7.876 -2.635 2.862 -0 -1.2 0
-8.805 -2.989 3.264 -0 -1.2 0
-10.774 -3.627 4.117 -0 -1.2 0
-10.767 -3.84 4.115 -0 -1.2 0
-4.759 -2.401 1.518 -0 -1.2 0
-4.87 -2.529 1.567 -0 -1.2 0
-5.595 -2.858 1.881 -0 -1.2 0
-6.258 -3.197 2.17 -0 -1.2 0
-4.157 -2.575 1.261 -0 -1.2 0
-10.701 -5.146 4.097 -0 -1.2 0
-5.493 -3.287 1.841 -0 -1.2 0
-5.346 -3.343 1.779 -0 -1.2 0
-10.669 -5.828 4.088 -0 -1.2 0
-10.666 -6.065 4.089 -0 -1.2 0
-4.318 -3.196 1.335 -0 -1.2 0
-10.648 -6.543 4.086 -0 -1.2 0
-4.156 -3.309 1.266 -0 -1.2 0
-4.112 -3.384 1.248 -0 -1.2 0
-4.083 -3.465 1.236 -0 -1.2 0
-4.821 -4.015 1.558 -0 -1.2 0
-5.145 -4.342 1.7 -0 -1.2 0
-4.3 -3.916 1.333 -0 -1.2 0
-4.199 -3.96 1.291 -0 -1.2 0
-4.014 -3.94 1.211 -0 -1.2 0
-3.105 -3.374 0.814 -0 -1.2 0
-3.95 -4.112 1.184 -0 -1.2 0
-4.087 -4.334 1.244 -0 -1.2 0
-4.034 -4.411 1.222 -0 -1.2 0
-3.908 -4.425 1.168 -0 -1.2 0
-2.739 -3.505 0.658 -0 -1.2 0
-4.309 -5.041 1.346 -0 -1.2 0
-2.632 -3.581 0.613 -0 -1.2 0
-2.578 -3.617 0.59 -0 -1.2 0
-2.525 -3.651 0.567 -0 -1.2 0
-2.463 -3.677 0.541 -0 -1.2 0
-2.434 -3.738 0.529 -0 -1.2 0
-4.412 -6.085 1.399 -0 -1.2 0
-4.364 -6.204 1.379 -0 -1.2 0
-1.08 -0.031 -0.024 -0 -1.2 0
-1.11 -0.039 -0.011 -0 -1.2 0
-1.147 -0.04 0.007 -0 -1.2 0
-1.191 -0.036 0.028 -0 -1.2 0
-1.214 -0.052 0.039 -0 -1.2 0
-1.274 -0.037 0.067 -0 -1.2 0
-1.305 -0.05 0.081 -0 -1.2 0
-1.351 -0.051 0.103 -0 -1.2 0
-1.39 -0.059 0.121 -0 -1.2 0
-1.443 -0.058 0.146 -0 -1.2 0
-1.498 -0.058 0.172 -0 -1.2 0
-1.552 -0.06 0.197 -0 -1.2 0
-1.6 -0.069 0.219 -0 -1.2 0
-1.662 -0.07 0.249 -0 -1.2 0
-1.726 -0.071 0.279 -0 -1.2 0
-1.79 -0.077 0.309 -0 -1.2 0
-1.855 -0.084 0.338 -0 -1.2 0
-1.928 -0.088 0.373 -0 -1.2 0
-2 -0.095 0.407 -0 -1.2 0
-2.083 -0.101 0.445 -0 -1.2 0
-2.19 -0.098 0.496 -0 -1.2 0
-2.272 -0.11 0.534 -0 -1.2 0
-2.228 -0.179 0.514 -0 -1.2 0
-2.182 -0.244 0.494 -0 -1.2 0
-2.307 -0.244 0.552 -0 -1.2 0
-2.139 -0.352 0.474 -0 -1.2 0
-2.185 -0.381 0.496 -0 -1.2 0
-2.318 -0.384 0.558 -0 -1.2 0
-2.372 -0.416 0.584 -0 -1.2 0
-2.462 -0.44 0.626 -0 -1.2 0
-2.481 -0.484 0.636 -0 -1.2 0
-2.445 -0.541 0.62 -0 -1.2 0
-2.498 -0.578 0.645 -0 -1.2 0
-2.604 -0.608 0.695 -0 -1.2 0
-2.693 -0.643 0.736 -0 -1.2 0
-2.6 -0.71 0.694 -0 -1.2 0
-2.768 -0.738 0.772 -0 -1.2 0
-2.808 -0.786 0.792 -0 -1.2 0
-3.192 -0.804 0.972 -0 -1.2 0
-3.413 -0.85 1.076 -0 -1.2 0
-3.262 -0.922 1.007 -0 -1.2 0
-3.843 -0.965 1.279 -0 -1.2 0
-3.7 -1.041 1.213 -0 -1.2 0
-3.718 -1.111 1.222 -0 -1.2 0
-3.753 -1.183 1.239 -0 -1.2 0
-5.045 -1.308 1.845 -0 -1.2 0
-3.595 -1.316 1.166 -0 -1.2 0
-3.427 -1.372 1.088 -0 -1.2 0
-8.127 -1.907 3.297 -0 -1.2 0
-6.826 -1.909 2.687 -0 -1.2 0
-8.087 -2.217 3.28 -0 -1.2 0
-8.131 -2.382 3.302 -0 -1.2 0
-8.457 -2.601 3.457 -0 -1.2 0
-10.898 -3.252 4.608 -0 -1.2 0
-10.782 -3.444 4.555 -0 -1.2 0
-8.823 -3.194 3.635 -0 -1.2 0
-10.709 -3.859 4.525 -0 -1.2 0
-4.681 -2.395 1.685 -0 -1.2 0
-5.262 -2.666 1.96 -0 -1.2 0
-5.28 -2.78 1.97 -0 -1.2 0
-4.275 -2.547 1.496 -0 -1.2 0
-10.446 -4.877 4.412 -0 -1.2 0
-10.443 -5.101 4.413 -0 -1.2 0
-5.023 -3.126 1.853 -0 -1.2 0
-10.418 -5.548 4.406 -0 -1.2 0
-10.413 -5.778 4.406 -0 -1.2 0
-4.529 -3.226 1.622 -0 -1.2 0
-4.263 -3.198 1.497 -0 -1.2 0
-4.155 -3.242 1.447 -0 -1.2 0
-4.566 -3.563 1.643 -0 -1.2 0
-4.663 -3.728 1.69 -0 -1.2 0
-4.66 -3.84 1.69 -0 -1.2 0
-10.556 -7.6 4.489 -0 -1.2 0
-10.544 -7.863 4.487 -0 -1.2 0
-5.01 -4.431 1.859 -0 -1.2 0
-4.024 -3.878 1.392 -0 -1.2 0
-4.009 -3.976 1.386 -0 -1.2 0
-3.067 -3.378 0.938 -0 -1.2 0
-4.07 -4.249 1.417 -0 -1.2 0
-2.897 -3.417 0.859 -0 -1.2 0
-2.816 -3.436 0.822 -0 -1.2 0
-2.765 -3.477 0.798 -0 -1.2 0
-5.259 -5.816 1.989 -0 -1.2 0
-2.674 -3.568 0.756 -0 -1.2 0
-4.095 -5.035 1.435 -0 -1.2 0
-4.265 -5.347 1.519 -0 -1.2 0
-4.407 -5.647 1.589 -0 -1.2 0
-4.315 -5.71 1.546 -0 -1.2 0
-4.184 -5.729 1.485 -0 -1.2 0
-4.228 -5.946 1.507 -0 -1.2 0
-5.028 -7.074 1.893 -0 -1.2 0
-1.063 -0.031 0.027 -0 -1.2 0
-1.099 -0.031 0.045 -0 -1.2 0
-1.129 -0.04 0.061 -0 -1.2 0
-1.173 -0.035 0.082 -0 -1.2 0
-1.204 -0.045 0.097 -0 -1.2 0
-1.254 -0.037 0.124 -0 -1.2 0
-1.292 -0.043 0.143 -0 -1.2 0
-1.331 -0.05 0.162 -0 -1.2 0
-1.383 -0.047 0.19 -0 -1.2 0
-1.414 -0.063 0.205 -0 -1.2 0
-1.482 -0.051 0.24 -0 -1.2 0
-1.536 -0.054 0.267 -0 -1.2 0
-1.582 -0.063 0.291 -0 -1.2 0
-1.638 -0.069 0.318 -0 -1.2 0
-1.7 -0.071 0.349 -0 -1.2 0
-1.771 -0.072 0.385 -0 -1.2 0
-1.834 -0.078 0.418 -0 -1.2 0
-1.906 -0.083 0.454 -0 -1.2 0
-1.97 -0.094 0.487 -0 -1.2 0
-2.043 -0.104 0.524 -0 -1.2 0
-2.123 -0.112 0.566 -0 -1.2 0
-2.188 -0.131 0.598 -0 -1.2 0
-2.194 -0.177 0.602 -0 -1.2 0
-2.166 -0.236 0.588 -0 -1.2 0
-2.22 -0.262 0.617 -0 -1.2 0
-2.259 -0.295 0.636 -0 -1.2 0
-2.288 -0.333 0.651 -0 -1.2 0
-2.3 -0.378 0.658 -0 -1.2 0
-2.31 -0.422 0.664 -0 -1.2 0
-2.337 -0.462 0.678 -0 -1.2 0
-2.304 -0.518 0.661 -0 -1.2 0
-2.408 -0.54 0.715 -0 -1.2 0
-2.494 -0.569 0.759 -0 -1.2 0
-2.634 -0.592 0.831 -0 -1.2 0
-2.738 -0.627 0.884 -0 -1.2 0
-2.71 -0.684 0.87 -0 -1.2 0
-2.946 -0.706 0.99 -0 -1.2 0
-2.729 -0.788 0.881 -0 -1.2 0
-2.991 -0.817 1.014 -0 -1.2 0
-3.422 -0.842 1.234 -0 -1.2 0
-3.603 -0.899 1.327 -0 -1.2 0
-3.267 -0.981 1.157 -0 -1.2 0
-3.785 -1.036 1.421 -0 -1.2 0
-4.293 -1.111 1.68 -0 -1.2 0
-4.64 -1.202 1.856 -0 -1.2 0
-4.093 -1.269 1.58 -0 -1.2 0
-3.743 -1.326 1.402 -0 -1.2 0
-5.098 -1.509 2.094 -0 -1.2 0
-3.422 -1.44 1.241 -0 -1.2 0
-3.336 -1.497 1.198 -0 -1.2 0
-3.285 -1.555 1.172 -0 -1.2 0
-8.506 -2.459 3.837 -0 -1.2 0
-8.333 -2.598 3.751 -0 -1.2 0
-8.255 -2.75 3.713 -0 -1.2 0
-8.184 -2.901 3.678 -0 -1.2 0
-7.066 -2.798 3.108 -0 -1.2 0
-9.491 -3.578 4.35 -0 -1.2 0
-4.633 -2.401 1.867 -0 -1.2 0
-4.956 -2.594 2.034 -0 -1.2 0
-4.539 -2.563 1.82 -0 -1.2 0
-4.174 -2.533 1.635 -0 -1.2 0
-10.18 -4.834 4.715 -0 -1.2 0
-10.179 -5.055 4.717 -0 -1.2 0
-4.751 -3.043 1.935 -0 -1.2 0
-10.155 -5.498 4.71 -0 -1.2 0
-4.382 -3.088 1.747 -0 -1.2 0
-4.236 -3.118 1.673 -0 -1.2 0
-4.22 -3.208 1.667 -0 -1.2 0
-3.558 -2.959 1.327 -0 -1.2 0
-4.75 -3.701 1.941 -0 -1.2 0
-4.573 -3.716 1.852 -0 -1.2 0
-10.285 -7.267 4.797 -0 -1.2 0
-10.272 -7.521 4.793 -0 -1.2 0
-5.281 -4.527 2.221 -0 -1.2 0
-3.744 -3.621 1.429 -0 -1.2 0
-3.621 -3.636 1.366 -0 -1.2 0
-4.183 -4.148 1.658 -0 -1.2 0
-3.003 -3.365 1.049 -0 -1.2 0
-3.351 -3.729 1.231 -0 -1.2 0
-4.378 -4.672 1.764 -0 -1.2 0
-5.128 -5.445 2.154 -0 -1.2 0
-3.831 -4.458 1.483 -0 -1.2 0
-5.506 -6.116 2.353 -0 -1.2 0
-4.544 -5.385 1.856 -0 -1.2 0
-4.396 -5.394 1.78 -0 -1.2 0
-4.269 -5.419 1.716 -0 -1.2 0
-5.081 -6.432 2.141 -0 -1.2 0
-4.062 -5.506 1.612 -0 -1.2 0
-3.642 -5.188 1.395 -0 -1.2 0
-3.306 -4.941 1.222 -0 -1.2 0
-4.235 -6.207 1.708 -0 -1.2 0
-1.037 -0.037 0.077 -0 -1.2 0
-1.08 -0.031 0.1 -0 -1.2 0
-1.109 -0.039 0.117 -0 -1.2 0
-1.159 -0.028 0.144 -0 -1.2 0
-1.189 -0.038 0.161 -0 -1.2 0
-1.232 -0.036 0.185 -0 -1.2 0
-1.269 -0.043 0.205 -0 -1.2 0
-1.314 -0.044 0.23 -0 -1.2 0
-1.358 -0.046 0.254 -0 -1.2 0
-1.403 -0.05 0.279 -0 -1.2 0
-1.456 -0.05 0.309 -0 -1.2 0
-1.508 -0.053 0.337 -0 -1.2 0
-1.554 -0.062 0.362 -0 -1.2 0
-1.616 -0.062 0.396 -0 -1.2 0
-1.677 -0.065 0.43 -0 -1.2 0
-1.739 -0.07 0.464 -0 -1.2 0
-1.801 -0.077 0.499 -0 -1.2 0
-1.88 -0.077 0.542 -0 -1.2 0
-1.958 -0.081 0.586 -0 -1.2 0
-2.038 -0.087 0.629 -0 -1.2 0
-2.069 -0.119 0.647 -0 -1.2 0
-2.124 -0.141 0.678 -0 -1.2 0
-2.138 -0.182 0.686 -0 -1.2 0
-2.267 -0.177 0.757 -0 -1.2 0
-2.223 -0.244 0.733 -0 -1.2 0
-2.176 -0.31 0.71 -0 -1.2 0
-2.163 -0.361 0.702 -0 -1.2 0
-2.308 -0.36 0.783 -0 -1.2 0
-2.285 -0.416 0.771 -0 -1.2 0
-2.295 -0.46 0.777 -0 -1.2 0
-2.33 -0.499 0.797 -0 -1.2 0
-2.407 -0.528 0.839 -0 -1.2 0
-2.45 -0.568 0.863 -0 -1.2 0
-2.63 -0.582 0.963 -0 -1.2 0
-2.68 -0.626 0.991 -0 -1.2 0
-2.66 -0.683 0.981 -0 -1.2 0
-2.779 -0.72 1.048 -0 -1.2 0
-2.732 -0.781 1.022 -0 -1.2 0
-2.884 -0.82 1.108 -0 -1.2 0
-3.071 -0.863 1.211 -0 -1.2 0
-3.432 -0.902 1.412 -0 -1.2 0
-3.549 -0.966 1.476 -0 -1.2 0
-3.585 -1.036 1.497 -0 -1.2 0
-3.374 -1.106 1.382 -0 -1.2 0
-4.03 -1.188 1.745 -0 -1.2 0
-3.913 -1.262 1.681 -0 -1.2 0
-4.565 -1.379 2.044 -0 -1.2 0
-4.543 -1.468 2.032 -0 -1.2 0
-6.592 -1.769 3.169 -0 -1.2 0
-7.719 -2.038 3.796 -0 -1.2 0
-7.78 -2.203 3.831 -0 -1.2 0
-7.026 -2.237 3.414 -0 -1.2 0
-7.068 -2.388 3.44 -0 -1.2 0
-6.968 -2.512 3.386 -0 -1.2 0
-7.185 -2.704 3.509 -0 -1.2 0
-7.732 -2.988 3.815 -0 -1.2 0
-7.853 -3.182 3.884 -0 -1.2 0
-7.896 -3.36 3.91 -0 -1.2 0
-4.561 -2.497 2.055 -0 -1.2 0
-4.958 -2.727 2.279 -0 -1.2 0
-4.172 -2.557 1.842 -0 -1.2 0
-3.601 -2.435 1.525 -0 -1.2 0
-3.563 -2.499 1.505 -0 -1.2 0
-3.458 -2.535 1.447 -0 -1.2 0
-4.03 -2.866 1.767 -0 -1.2 0
-4.374 -3.119 1.961 -0 -1.2 0
-4.471 -3.268 2.016 -0 -1.2 0
-4.484 -3.382 2.025 -0 -1.2 0
-5.642 -4.111 2.674 -0 -1.2 0
-3.525 -3.061 1.491 -0 -1.2 0
-13.567 -9.04 7.12 -0 -1.2 0
-4.301 -3.712 1.928 -0 -1.2 0
-3.803 -3.506 1.651 -0 -1.2 0
-3.66 -3.511 1.572 -0 -1.2 0
-3.54 -3.526 1.505 -0 -1.2 0
-3.147 -3.341 1.286 -0 -1.2 0
-4.332 -4.315 1.953 -0 -1.2 0
-5.147 -5.074 2.413 -0 -1.2 0
-4.201 -4.463 1.883 -0 -1.2 0
-2.846 -3.455 1.121 -0 -1.2 0
-3.706 -4.29 1.607 -0 -1.2 0
-4.588 -5.201 2.107 -0 -1.2 0
-4.2 -4.99 1.889 -0 -1.2 0
-4.599 -5.517 2.117 -0 -1.2 0
-2.812 -3.886 1.107 -0 -1.2 0
-3.453 -4.651 1.472 -0 -1.2 0
-2.521 -3.776 0.946 -0 -1.2 0
-3.236 -4.668 1.352 -0 -1.2 0
-3.358 -4.938 1.424 -0 -1.2 0
-2.443 -3.98 0.904 -0 -1.2 0
-3.611 -5.53 1.571 -0 -1.2 0
-1.025 -0.031 0.131 -0 -1.2 0
-1.06 -0.031 0.151 -0 -1.2 0
-1.089 -0.039 0.169 -0 -1.2 0
-1.131 -0.035 0.194 -0 -1.2 0
-1.16 -0.044 0.212 -0 -1.2 0
-1.203 -0.043 0.237 -0 -1.2 0
-1.246 -0.043 0.263 -0 -1.2 0
-1.289 -0.044 0.288 -0 -1.2 0
-1.327 -0.052 0.31 -0 -1.2 0
-1.377 -0.05 0.34 -0 -1.2 0
-1.43 -0.051 0.371 -0 -1.2 0
-1.481 -0.053 0.402 -0 -1.2 0
-1.533 -0.057 0.433 -0 -1.2 0
-1.586 -0.062 0.464 -0 -1.2 0
-1.639 -0.07 0.496 -0 -1.2 0
-1.708 -0.07 0.537 -0 -1.2 0
-1.776 -0.072 0.578 -0 -1.2 0
-1.837 -0.082 0.615 -0 -1.2 0
-1.922 -0.08 0.665 -0 -1.2 0
-1.984 -0.094 0.702 -0 -1.2 0
-2.078 -0.095 0.758 -0 -1.2 0
-2.069 -0.148 0.753 -0 -1.2 0
-2.091 -0.186 0.767 -0 -1.2 0
-2.168 -0.201 0.814 -0 -1.2 0
-2.174 -0.247 0.816 -0 -1.2 0
-2.129 -0.312 0.79 -0 -1.2 0
-2.164 -0.346 0.813 -0 -1.2 0
-2.216 -0.376 0.845 -0 -1.2 0
-2.293 -0.399 0.89 -0 -1.2 0
-2.294 -0.448 0.892 -0 -1.2 0
-2.379 -0.474 0.942 -0 -1.2 0
-2.346 -0.532 0.923 -0 -1.2 0
-2.455 -0.556 0.989 -0 -1.2 0
-2.479 -0.602 1.004 -0 -1.2 0
-2.571 -0.636 1.059 -0 -1.2 0
-2.74 -0.661 1.16 -0 -1.2 0
-2.6 -0.738 1.078 -0 -1.2 0
-2.964 -0.746 1.295 -0 -1.2 0
-3.028 -0.8 1.334 -0 -1.2 0
-3.332 -0.837 1.516 -0 -1.2 0
-3.326 -0.904 1.513 -0 -1.2 0
-3.715 -0.956 1.746 -0 -1.2 0
-3.768 -1.03 1.778 -0 -1.2 0
-3.768 -1.106 1.779 -0 -1.2 0
-4.196 -1.191 2.035 -0 -1.2 0
-3.61 -1.251 1.687 -0 -1.2 0
-3.692 -1.328 1.737 -0 -1.2 0
-3.379 -1.377 1.552 -0 -1.2 0
-4.178 -1.528 2.03 -0 -1.2 0
-4.171 -1.613 2.027 -0 -1.2 0
-4.179 -1.699 2.033 -0 -1.2 0
-4.177 -1.785 2.034 -0 -1.2 0
-4.157 -1.867 2.022 -0 -1.2 0
-4.161 -1.954 2.026 -0 -1.2 0
-4.156 -2.04 2.024 -0 -1.2 0
-4.149 -2.126 2.021 -0 -1.2 0
-4.149 -2.214 2.023 -0 -1.2 0
-4.131 -2.298 2.013 -0 -1.2 0
-4.12 -2.384 2.009 -0 -1.2 0
-4.041 -2.448 1.962 -0 -1.2 0
-3.775 -2.441 1.803 -0 -1.2 0
-4.063 -2.635 1.979 -0 -1.2 0
-4.015 -2.707 1.951 -0 -1.2 0
-3.997 -2.791 1.941 -0 -1.2 0
-3.979 -2.876 1.932 -0 -1.2 0
-3.975 -2.966 1.931 -0 -1.2 0
-4.072 -3.11 1.991 -0 -1.2 0
-3.884 -3.11 1.878 -0 -1.2 0
-3.721 -3.116 1.782 -0 -1.2 0
-4.012 -3.375 1.959 -0 -1.2 0
-3.688 -3.284 1.765 -0 -1.2 0
-4.062 -3.612 1.992 -0 -1.2 0
-3.709 -3.49 1.78 -0 -1.2 0
-3.428 -3.399 1.612 -0 -1.2 0
-4.11 -3.974 2.026 -0 -1.2 0
-4.138 -4.11 2.046 -0 -1.2 0
-3.211 -3.522 1.484 -0 -1.2 0
-4.108 -4.326 2.03 -0 -1.2 0
-3.065 -3.593 1.399 -0 -1.2 0
-3.179 -3.784 1.469 -0 -1.2 0
-2.988 -3.715 1.354 -0 -1.2 0
-3.882 -4.633 1.9 -0 -1.2 0
-2.868 -3.796 1.284 -0 -1.2 0
-2.656 -3.686 1.156 -0 -1.2 0
-2.662 -3.786 1.161 -0 -1.2 0
-2.557 -3.772 1.099 -0 -1.2 0
-2.585 -3.899 1.117 -0 -1.2 0
-2.524 -3.93 1.081 -0 -1.2 0
-2.481 -3.98 1.056 -0 -1.2 0
-2.431 -4.023 1.028 -0 -1.2 0
-2.491 -4.204 1.065 -0 -1.2 0
-1.006 -0.03 0.181 -0 -1.2 0
-1.046 -0.024 0.207 -0 -1.2 0
-1.074 -0.032 0.225 -0 -1.2 0
-1.116 -0.028 0.251 -0 -1.2 0
-1.145 -0.038 0.27 -0 -1.2 0
-1.186 -0.036 0.297 -0 -1.2 0
-1.222 -0.042 0.32 -0 -1.2 0
-1.258 -0.049 0.342 -0 -1.2 0
-1.301 -0.052 0.37 -0 -1.2 0
-1.351 -0.05 0.402 -0 -1.2 0
-1.395 -0.056 0.429 -0 -1.2 0
-1.438 -0.063 0.458 -0 -1.2 0
-1.504 -0.056 0.5 -0 -1.2 0
-1.555 -0.062 0.533 -0 -1.2 0
-1.615 -0.064 0.571 -0 -1.2 0
-1.674 -0.07 0.609 -0 -1.2 0
-1.734 -0.076 0.647 -0 -1.2 0
-1.809 -0.076 0.696 -0 -1.2 0
-1.877 -0.083 0.739 -0 -1.2 0
-1.954 -0.09 0.788 -0 -1.2 0
-2.007 -0.11 0.823 -0 -1.2 0
-2.013 -0.154 0.828 -0 -1.2 0
-2.066 -0.177 0.862 -0 -1.2 0
-2.158 -0.186 0.921 -0 -1.2 0
-2.114 -0.253 0.895 -0 -1.2 0
-2.111 -0.302 0.892 -0 -1.2 0
-2.081 -0.36 0.875 -0 -1.2 0
-2.205 -0.364 0.954 -0 -1.2 0
-2.248 -0.398 0.983 -0 -1.2 0
-2.282 -0.437 1.005 -0 -1.2 0
-2.25 -0.496 0.986 -0 -1.2 0
-2.349 -0.519 1.049 -0 -1.2 0
-2.448 -0.546 1.113 -0 -1.2 0
-2.497 -0.587 1.145 -0 -1.2 0
-2.445 -0.649 1.113 -0 -1.2 0
-2.476 -0.695 1.134 -0 -1.2 0
-2.649 -0.722 1.245 -0 -1.2 0
-2.62 -0.78 1.228 -0 -1.2 0
-3.085 -0.786 1.526 -0 -1.2 0
-3.198 -0.84 1.599 -0 -1.2 0
-3.663 -0.878 1.898 -0 -1.2 0
-4.104 -0.936 2.18 -0 -1.2 0
-3.262 -1.037 1.644 -0 -1.2 0
-4.164 -1.104 2.222 -0 -1.2 0
-3.986 -1.186 2.109 -0 -1.2 0
-4.673 -1.297 2.552 -0 -1.2 0
-4.358 -1.373 2.351 -0 -1.2 0
-4.395 -1.467 2.376 -0 -1.2 0
-6.876 -1.818 3.973 -0 -1.2 0
-7.056 -1.984 4.091 -0 -1.2 0
-7.049 -2.131 4.089 -0 -1.2 0
-7.132 -2.294 4.145 -0 -1.2 0
-7.145 -2.447 4.155 -0 -1.2 0
-6.949 -2.558 4.032 -0 -1.2 0
-7.206 -2.766 4.2 -0 -1.2 0
-7.163 -2.912 4.176 -0 -1.2 0
-7.527 -3.167 4.413 -0 -1.2 0
-7.576 -3.348 4.448 -0 -1.2 0
-4.288 -2.462 2.326 -0 -1.2 0
-9.415 -4.315 5.642 -0 -1.2 0
-4.131 -2.597 2.228 -0 -1.2 0
-7.109 -3.847 4.157 -0 -1.2 0
-3.441 -2.503 1.783 -0 -1.2 0
-9.386 -5.169 5.64 -0 -1.2 0
-3.702 -2.783 1.955 -0 -1.2 0
-4.095 -3.062 2.213 -0 -1.2 0
-3.394 -2.806 1.759 -0 -1.2 0
-3.606 -3.002 1.898 -0 -1.2 0
-5.095 -3.924 2.868 -0 -1.2 0
-4.735 -3.844 2.637 -0 -1.2 0
-5.835 -4.637 3.356 -0 -1.2 0
-9.301 -6.996 5.617 -0 -1.2 0
-3.273 -3.25 1.689 -0 -1.2 0
-9.278 -7.489 5.611 -0 -1.2 0
-3.214 -3.389 1.654 -0 -1.2 0
-3.385 -3.61 1.768 -0 -1.2 0
-4.519 -4.59 2.51 -0 -1.2 0
-3.218 -3.675 1.662 -0 -1.2 0
-9.198 -8.788 5.582 -0 -1.2 0
-2.984 -3.671 1.511 -0 -1.2 0
-2.939 -3.726 1.483 -0 -1.2 0
-2.873 -3.762 1.442 -0 -1.2 0
-4.455 -5.396 2.484 -0 -1.2 0
-2.811 -3.898 1.405 -0 -1.2 0
-2.731 -3.916 1.354 -0 -1.2 0
-2.676 -3.959 1.319 -0 -1.2 0
-2.634 -4.014 1.293 -0 -1.2 0
-2.596 -4.074 1.269 -0 -1.2 0
-2.534 -4.107 1.231 -0 -1.2 0
-2.483 -4.152 1.198 -0 -1.2 0
-2.557 -4.356 1.25 -0 -1.2 0
-0.977 -0.037 0.23 -0 -1.2 0
-1.017 -0.03 0.257 -0 -1.2 0
-1.05 -0.032 0.281 -0 -1.2 0
-1.09 -0.027 0.308 -0 -1.2 0
-1.118 -0.038 0.327 -0 -1.2 0
-1.152 -0.042 0.351 -0 -1.2 0
-1.188 -0.048 0.375 -0 -1.2 0
-1.236 -0.043 0.408 -0 -1.2 0
-1.278 -0.045 0.437 -0 -1.2 0
-1.327 -0.045 0.472 -0 -1.2 0
-1.377 -0.045 0.505 -0 -1.2 0
-1.419 -0.052 0.536 -0 -1.2 0
-1.477 -0.05 0.575 -0 -1.2 0
-1.527 -0.056 0.61 -0 -1.2 0
-1.577 -0.063 0.645 -0 -1.2 0
-1.643 -0.064 0.69 -0 -1.2 0
-1.701 -0.071 0.731 -0 -1.2 0
-1.768 -0.075 0.777 -0 -1.2 0
-1.834 -0.082 0.823 -0 -1.2 0
-1.871 -0.109 0.849 -0 -1.2 0
-1.861 -0.16 0.844 -0 -1.2 0
-1.889 -0.191 0.863 -0 -1.2 0
-2.003 -0.184 0.942 -0 -1.2 0
-1.999 -0.233 0.941 -0 -1.2 0
-2.058 -0.255 0.982 -0 -1.2 0
-1.998 -0.326 0.942 -0 -1.2 0
-2.128 -0.323 1.031 -0 -1.2 0
-2.09 -0.385 1.006 -0 -1.2 0
-2.124 -0.421 1.031 -0 -1.2 0
-2.173 -0.453 1.065 -0 -1.2 0
-2.246 -0.48 1.115 -0 -1.2 0
-2.246 -0.529 1.116 -0 -1.2 0
-2.342 -0.556 1.184 -0 -1.2 0
-2.406 -0.592 1.229 -0 -1.2 0
-2.445 -0.637 1.257 -0 -1.2 0
-2.606 -0.662 1.368 -0 -1.2 0
-2.578 -0.721 1.35 -0 -1.2 0
-2.747 -0.754 1.468 -0 -1.2 0
-2.743 -0.813 1.466 -0 -1.2 0
-2.959 -0.852 1.616 -0 -1.2 0
-3.102 -0.906 1.716 -0 -1.2 0
-3.4 -0.958 1.923 -0 -1.2 0
-3.293 -1.033 1.851 -0 -1.2 0
-3.433 -1.102 1.949 -0 -1.2 0
-4.262 -1.192 2.525 -0 -1.2 0
-3.298 -1.24 1.858 -0 -1.2 0
-4.017 -1.355 2.358 -0 -1.2 0
-4.176 -1.454 2.47 -0 -1.2 0
-4.096 -1.535 2.416 -0 -1.2 0
-4.039 -1.614 2.379 -0 -1.2 0
-7.038 -2.15 4.464 -0 -1.2 0
-6.996 -2.295 4.437 -0 -1.2 0
-7.633 -2.57 4.884 -0 -1.2 0
-7.61 -2.731 4.87 -0 -1.2 0
-7.052 -2.766 4.485 -0 -1.2 0
-6.938 -2.893 4.409 -0 -1.2 0
-6.885 -3.033 4.376 -0 -1.2 0
-7.158 -3.269 4.568 -0 -1.2 0
-7.622 -3.585 4.896 -0 -1.2 0
-7.663 -3.774 4.928 -0 -1.2 0
-9.142 -4.504 5.966 -0 -1.2 0
-4.048 -2.696 2.407 -0 -1.2 0
-4.101 -2.813 2.447 -0 -1.2 0
-9.116 -5.142 5.961 -0 -1.2 0
-3.49 -2.724 2.021 -0 -1.2 0
-3.481 -2.805 2.017 -0 -1.2 0
-3.862 -3.09 2.286 -0 -1.2 0
-3.272 -2.865 1.873 -0 -1.2 0
-4.031 -3.382 2.409 -0 -1.2 0
-4.026 -3.485 2.408 -0 -1.2 0
-3.349 -3.171 1.933 -0 -1.2 0
-3.282 -3.218 1.888 -0 -1.2 0
-4.702 -4.272 2.891 -0 -1.2 0
-3.19 -3.335 1.826 -0 -1.2 0
-9.015 -7.715 5.943 -0 -1.2 0
-3.081 -3.438 1.753 -0 -1.2 0
-5.093 -5.132 3.178 -0 -1.2 0
-4.769 -5.021 2.952 -0 -1.2 0
-3.823 -4.358 2.285 -0 -1.2 0
-3.755 -4.422 2.239 -0 -1.2 0
-8.654 -9.076 5.72 -0 -1.2 0
-8.684 -9.401 5.748 -0 -1.2 0
-4.801 -5.846 2.991 -0 -1.2 0
-4.432 -5.639 2.732 -0 -1.2 0
-2.823 -4.085 1.588 -0 -1.2 0
-4.623 -6.186 2.875 -0 -1.2 0
-4.775 -6.543 2.987 -0 -1.2 0
-3.304 -5.131 1.941 -0 -1.2 0
-3.572 -5.618 2.136 -0 -1.2 0
-3.511 -5.7 2.097 -0 -1.2 0
-0.96 -0.029 0.283 -0 -1.2 0
-0.992 -0.03 0.307 -0 -1.2 0
-1.026 -0.031 0.331 -0 -1.2 0
-1.065 -0.027 0.36 -0 -1.2 0
-1.092 -0.037 0.381 -0 -1.2 0
-1.133 -0.035 0.41 -0 -1.2 0
-1.167 -0.041 0.436 -0 -1.2 0
-1.207 -0.042 0.465 -0 -1.2 0
-1.247 -0.045 0.496 -0 -1.2 0
-1.302 -0.038 0.536 -0 -1.2 0
-1.344 -0.044 0.567 -0 -1.2 0
-1.393 -0.046 0.604 -0 -1.2 0
-1.441 -0.049 0.64 -0 -1.2 0
-1.491 -0.055 0.676 -0 -1.2 0
-1.548 -0.058 0.719 -0 -1.2 0
-1.604 -0.063 0.761 -0 -1.2 0
-1.669 -0.065 0.808 -0 -1.2 0
-1.741 -0.066 0.862 -0 -1.2 0
-1.799 -0.078 0.904 -0 -1.2 0
-1.886 -0.075 0.969 -0 -1.2 0
-1.885 -0.123 0.97 -0 -1.2 0
-1.906 -0.16 0.985 -0 -1.2 0
-1.91 -0.204 0.99 -0 -1.2 0
-1.922 -0.245 1 -0 -1.2 0
-1.903 -0.299 0.987 -0 -1.2 0
-2.036 -0.29 1.086 -0 -1.2 0
-2.024 -0.342 1.078 -0 -1.2 0
-2.088 -0.367 1.126 -0 -1.2 0
-2.089 -0.414 1.128 -0 -1.2 0
-2.083 -0.464 1.124 -0 -1.2 0
-2.154 -0.49 1.177 -0 -1.2 0
-2.138 -0.543 1.167 -0 -1.2 0
-2.248 -0.563 1.249 -0 -1.2 0
-2.381 -0.584 1.348 -0 -1.2 0
-2.451 -0.623 1.401 -0 -1.2 0
-2.369 -0.691 1.341 -0 -1.2 0
-2.414 -0.736 1.375 -0 -1.2 0
-2.418 -0.787 1.38 -0 -1.2 0
-3.046 -0.771 1.845 -0 -1.2 0
-3.163 -0.827 1.932 -0 -1.2 0
-3.687 -0.861 2.321 -0 -1.2 0
-3.721 -0.939 2.348 -0 -1.2 0
-3.594 -1.022 2.256 -0 -1.2 0
-4.686 -1.099 3.067 -0 -1.2 0
-4.258 -1.192 2.753 -0 -1.2 0
-4.335 -1.286 2.812 -0 -1.2 0
-3.866 -1.349 2.466 -0 -1.2 0
-3.765 -1.424 2.393 -0 -1.2 0
-6.87 -1.843 4.702 -0 -1.2 0
-6.537 -1.951 4.458 -0 -1.2 0
-6.348 -2.066 4.32 -0 -1.2 0
-7.22 -2.359 4.974 -0 -1.2 0
-6.717 -2.419 4.603 -0 -1.2 0
-6.838 -2.596 4.696 -0 -1.2 0
-7.711 -2.961 5.351 -0 -1.2 0
-7.847 -3.172 5.456 -0 -1.2 0
-9.11 -3.715 6.406 -0 -1.2 0
-4.136 -2.378 2.689 -0 -1.2 0
-9.221 -4.174 6.497 -0 -1.2 0
-9.204 -4.385 6.49 -0 -1.2 0
-8.933 -4.5 6.292 -0 -1.2 0
-8.881 -4.693 6.258 -0 -1.2 0
-4.056 -2.833 2.64 -0 -1.2 0
-3.699 -2.771 2.375 -0 -1.2 0
-8.861 -5.339 6.258 -0 -1.2 0
-8.851 -5.558 6.255 -0 -1.2 0
-8.85 -5.785 6.26 -0 -1.2 0
-3.666 -3.128 2.358 -0 -1.2 0
-2.956 -2.81 1.825 -0 -1.2 0
-2.866 -2.834 1.759 -0 -1.2 0
-2.884 -2.923 1.774 -0 -1.2 0
-3.801 -3.614 2.469 -0 -1.2 0
-3.597 -3.58 2.317 -0 -1.2 0
-3.098 -3.324 1.942 -0 -1.2 0
-3.113 -3.426 1.955 -0 -1.2 0
-3.937 -4.167 2.583 -0 -1.2 0
-3.94 -4.29 2.588 -0 -1.2 0
-8.706 -8.449 6.214 -0 -1.2 0
-8.684 -8.713 6.204 -0 -1.2 0
-3.817 -4.56 2.503 -0 -1.2 0
-8.417 -9.045 6.014 -0 -1.2 0
-3.847 -4.853 2.532 -0 -1.2 0
-3.539 -4.679 2.3 -0 -1.2 0
-3.495 -4.762 2.269 -0 -1.2 0
-3.46 -4.858 2.245 -0 -1.2 0
-3.157 -4.651 2.017 -0 -1.2 0
-3.164 -4.788 2.025 -0 -1.2 0
-2.94 -4.648 1.856 -0 -1.2 0
-2.884 -4.705 1.815 -0 -1.2 0
-3.86 -6.29 2.575 -0 -1.2 0
-0.941 -0.022 0.335 -0 -1.2 0
-0.968 -0.029 0.356 -0 -1.2 0
-1.005 -0.024 0.386 -0 -1.2 0
-1.038 -0.026 0.412 -0 -1.2 0
-1.071 -0.029 0.438 -0 -1.2 0
-1.104 -0.034 0.465 -0 -1.2 0
-1.143 -0.035 0.496 -0 -1.2 0
-1.177 -0.041 0.523 -0 -1.2 0
-1.229 -0.032 0.564 -0 -1.2 0
-1.263 -0.043 0.592 -0 -1.2 0
-1.31 -0.043 0.629 -0 -1.2 0
-1.357 -0.045 0.666 -0 -1.2 0
-1.412 -0.043 0.71 -0 -1.2 0
-1.46 -0.049 0.748 -0 -1.2 0
-1.522 -0.047 0.797 -0 -1.2 0
-1.564 -0.062 0.831 -0 -1.2 0
-1.627 -0.064 0.881 -0 -1.2 0
-1.69 -0.068 0.931 -0 -1.2 0
-1.761 -0.071 0.987 -0 -1.2 0
-1.802 -0.094 1.021 -0 -1.2 0
-1.822 -0.129 1.038 -0 -1.2 0
-1.784 -0.196 1.009 -0 -1.2 0
-1.817 -0.224 1.037 -0 -1.2 0
-1.777 -0.288 1.006 -0 -1.2 0
-1.906 -0.275 1.108 -0 -1.2 0
-1.917 -0.317 1.118 -0 -1.2 0
-2.009 -0.327 1.192 -0 -1.2 0
-2.072 -0.351 1.242 -0 -1.2 0
-1.975 -0.433 1.167 -0 -1.2 0
-2.037 -0.46 1.217 -0 -1.2 0
-2.152 -0.473 1.308 -0 -1.2 0
-2.236 -0.5 1.376 -0 -1.2 0
-2.275 -0.541 1.407 -0 -1.2 0
-2.258 -0.597 1.396 -0 -1.2 0
-2.412 -0.616 1.518 -0 -1.2 0
-2.502 -0.654 1.592 -0 -1.2 0
-2.616 -0.692 1.683 -0 -1.2 0
-2.933 -0.707 1.935 -0 -1.2 0
-2.413 -0.832 1.526 -0 -1.2 0
-3.205 -0.813 2.154 -0 -1.2 0
-3.928 -0.835 2.729 -0 -1.2 0
-4.095 -0.915 2.864 -0 -1.2 0
-3.899 -1.009 2.711 -0 -1.2 0
-3.923 -1.096 2.732 -0 -1.2 0
-3.796 -1.18 2.633 -0 -1.2 0
-5.6 -1.342 4.07 -0 -1.2 0
-5.312 -1.448 3.845 -0 -1.2 0
-5.056 -1.544 3.644 -0 -1.2 0
-8.678 -2.058 6.534 -0 -1.2 0
-8.614 -2.244 6.489 -0 -1.2 0
-6.625 -2.129 4.905 -0 -1.2 0
-8.883 -2.682 6.713 -0 -1.2 0
-6.666 -2.439 4.946 -0 -1.2 0
-8.875 -3.087 6.718 -0 -1.2 0
-8.867 -3.291 6.717 -0 -1.2 0
-8.864 -3.496 6.719 -0 -1.2 0
-8.842 -3.698 6.708 -0 -1.2 0
-8.833 -3.905 6.706 -0 -1.2 0
-4.001 -2.461 2.829 -0 -1.2 0
-8.822 -4.325 6.706 -0 -1.2 0
-8.677 -4.483 6.596 -0 -1.2 0
-8.634 -4.679 6.567 -0 -1.2 0
-4.14 -2.914 2.952 -0 -1.2 0
-3.96 -2.935 2.809 -0 -1.2 0
-3.534 -2.826 2.467 -0 -1.2 0
-3.436 -2.867 2.391 -0 -1.2 0
-8.595 -5.766 6.565 -0 -1.2 0
-2.879 -2.731 1.945 -0 -1.2 0
-8.528 -6.19 6.522 -0 -1.2 0
-3.747 -3.431 2.653 -0 -1.2 0
-4.468 -4.009 3.239 -0 -1.2 0
-8.726 -7.045 6.701 -0 -1.2 0
-8.708 -7.289 6.694 -0 -1.2 0
-2.578 -2.996 1.712 -0 -1.2 0
-2.916 -3.336 1.99 -0 -1.2 0
-2.931 -3.438 2.003 -0 -1.2 0
-2.943 -3.541 2.017 -0 -1.2 0
-2.76 -3.478 1.869 -0 -1.2 0
-2.828 -3.631 1.928 -0 -1.2 0
-2.724 -3.63 1.844 -0 -1.2 0
-2.737 -3.738 1.858 -0 -1.2 0
-2.554 -3.651 1.71 -0 -1.2 0
-2.8 -4.003 1.915 -0 -1.2 0
-11.754 -13.817 9.283 -0 -1.2 0
-2.957 -4.395 2.05 -0 -1.2 0
-3.354 -5.118 2.384 -0 -1.2 0
-3.381 -5.298 2.41 -0 -1.2 0
-3.278 -5.316 2.329 -0 -1.2 0
-2.754 -4.764 1.898 -0 -1.2 0
-3.979 -6.601 2.918 -0 -1.2 0
-0.918 -0.014 0.392 -0 -1.2 0
-0.938 -0.028 0.409 -0 -1.2 0
-0.969 -0.029 0.436 -0 -1.2 0
-1.007 -0.025 0.468 -0 -1.2 0
-1.045 -0.023 0.5 -0 -1.2 0
-1.077 -0.027 0.527 -0 -1.2 0
-1.115 -0.027 0.561 -0 -1.2 0
-1.147 -0.034 0.588 -0 -1.2 0
-1.199 -0.026 0.632 -0 -1.2 0
-1.231 -0.036 0.661 -0 -1.2 0
-1.278 -0.036 0.7 -0 -1.2 0
-1.323 -0.038 0.739 -0 -1.2 0
-1.369 -0.042 0.779 -0 -1.2 0
-1.423 -0.042 0.824 -0 -1.2 0
-1.476 -0.046 0.871 -0 -1.2 0
-1.517 -0.06 0.906 -0 -1.2 0
-1.584 -0.057 0.963 -0 -1.2 0
-1.653 -0.058 1.023 -0 -1.2 0
-1.714 -0.066 1.075 -0 -1.2 0
-1.769 -0.08 1.122 -0 -1.2 0
-1.767 -0.127 1.123 -0 -1.2 0
-1.78 -0.168 1.134 -0 -1.2 0
-1.877 -0.165 1.217 -0 -1.2 0
-1.946 -0.18 1.277 -0 -1.2 0
-1.913 -0.244 1.252 -0 -1.2 0
-1.845 -0.321 1.194 -0 -1.2 0
-1.927 -0.334 1.265 -0 -1.2 0
-1.958 -0.369 1.292 -0 -1.2 0
-1.982 -0.408 1.314 -0 -1.2 0
-1.938 -0.47 1.278 -0 -1.2 0
-1.99 -0.501 1.324 -0 -1.2 0
-2.05 -0.53 1.375 -0 -1.2 0
-2.183 -0.544 1.491 -0 -1.2 0
-2.317 -0.564 1.606 -0 -1.2 0
-2.368 -0.607 1.651 -0 -1.2 0
-2.441 -0.648 1.715 -0 -1.2 0
-2.506 -0.694 1.772 -0 -1.2 0
-2.874 -0.7 2.087 -0 -1.2 0
-3.052 -0.745 2.241 -0 -1.2 0
-3.086 -0.812 2.272 -0 -1.2 0
-3.195 -0.875 2.366 -0 -1.2 0
-4.008 -0.908 3.065 -0 -1.2 0
-4.662 -0.984 3.628 -0 -1.2 0
-4.297 -1.091 3.318 -0 -1.2 0
-4.91 -1.202 3.846 -0 -1.2 0
-5.066 -1.321 3.983 -0 -1.2 0
-5.802 -1.486 4.619 -0 -1.2 0
-5.606 -1.602 4.454 -0 -1.2 0
-5.581 -1.729 4.436 -0 -1.2 0
-8.359 -2.236 6.832 -0 -1.2 0
-8.649 -2.477 7.087 -0 -1.2 0
-8.731 -2.695 7.164 -0 -1.2 0
-8.624 -2.879 7.077 -0 -1.2 0
-8.715 -3.104 7.162 -0 -1.2 0
-8.618 -3.287 7.084 -0 -1.2 0
-8.703 -3.518 7.164 -0 -1.2 0
-8.563 -3.687 7.049 -0 -1.2 0
-8.694 -3.939 7.168 -0 -1.2 0
-8.689 -4.152 7.17 -0 -1.2 0
-3.835 -2.538 2.964 -0 -1.2 0
-8.387 -4.466 6.921 -0 -1.2 0
-8.353 -4.664 6.897 -0 -1.2 0
-8.344 -4.876 6.896 -0 -1.2 0
-8.34 -5.091 6.898 -0 -1.2 0
-3.507 -2.865 2.693 -0 -1.2 0
-3.657 -3.039 2.827 -0 -1.2 0
-3.928 -3.29 3.066 -0 -1.2 0
-8.303 -5.972 6.893 -0 -1.2 0
-4.165 -3.655 3.28 -0 -1.2 0
-8.421 -6.519 7.01 -0 -1.2 0
-3.65 -3.547 2.835 -0 -1.2 0
-3.549 -3.584 2.75 -0 -1.2 0
-4.6 -4.462 3.675 -0 -1.2 0
-4.579 -4.588 3.662 -0 -1.2 0
-3.481 -3.857 2.7 -0 -1.2 0
-3.971 -4.376 3.134 -0 -1.2 0
-2.918 -3.598 2.209 -0 -1.2 0
-3.319 -4.055 2.566 -0 -1.2 0
-3.297 -4.148 2.55 -0 -1.2 0
-7.969 -8.78 6.688 -0 -1.2 0
-7.905 -9.006 6.64 -0 -1.2 0
-2.454 -3.63 1.813 -0 -1.2 0
-2.413 -3.68 1.78 -0 -1.2 0
-2.464 -3.831 1.827 -0 -1.2 0
-3.589 -5.237 2.832 -0 -1.2 0
-2.683 -4.297 2.028 -0 -1.2 0
-2.322 -3.965 1.709 -0 -1.2 0
-2.465 -4.254 1.841 -0 -1.2 0
-2.281 -4.12 1.678 -0 -1.2 0
-3.519 -5.945 2.792 -0 -1.2 0
-2.517 -4.683 1.898 -0 -1.2 0
-0.886 -0.02 0.434 -0 -1.2 0
-0.916 -0.02 0.462 -0 -1.2 0
-0.941 -0.029 0.486 -0 -1.2 0
-0.977 -0.024 0.518 -0 -1.2 0
-1.008 -0.027 0.547 -0 -1.2 0
-1.045 -0.026 0.581 -0 -1.2 0
-1.076 -0.032 0.609 -0 -1.2 0
-1.114 -0.033 0.644 -0 -1.2 0
-1.157 -0.03 0.683 -0 -1.2 0
-1.201 -0.029 0.724 -0 -1.2 0
-1.239 -0.035 0.76 -0 -1.2 0
-1.291 -0.032 0.806 -0 -1.2 0
-1.335 -0.036 0.847 -0 -1.2 0
-1.386 -0.036 0.895 -0 -1.2 0
-1.433 -0.044 0.937 -0 -1.2 0
-1.485 -0.049 0.986 -0 -1.2 0
-1.544 -0.051 1.04 -0 -1.2 0
-1.603 -0.057 1.094 -0 -1.2 0
-1.663 -0.064 1.15 -0 -1.2 0
-1.703 -0.086 1.187 -0 -1.2 0
-1.708 -0.13 1.193 -0 -1.2 0
-1.741 -0.159 1.223 -0 -1.2 0
-1.605 -0.275 1.104 -0 -1.2 0
-1.776 -0.232 1.259 -0 -1.2 0
-1.793 -0.271 1.276 -0 -1.2 0
-1.86 -0.288 1.338 -0 -1.2 0
-1.875 -0.329 1.354 -0 -1.2 0
-1.935 -0.352 1.408 -0 -1.2 0
-1.943 -0.398 1.418 -0 -1.2 0
-1.793 -0.497 1.283 -0 -1.2 0
-1.872 -0.516 1.356 -0 -1.2 0
-2.002 -0.525 1.476 -0 -1.2 0
-2.023 -0.568 1.496 -0 -1.2 0
-1.912 -0.643 1.397 -0 -1.2 0
-2.208 -0.624 1.669 -0 -1.2 0
-2.264 -0.665 1.722 -0 -1.2 0
-2.335 -0.707 1.788 -0 -1.2 0
-2.706 -0.709 2.128 -0 -1.2 0
-3.283 -0.702 2.658 -0 -1.2 0
-4.22 -0.688 3.519 -0 -1.2 0
-3.834 -0.816 3.167 -0 -1.2 0
-4.594 -0.868 3.868 -0 -1.2 0
-4.616 -0.976 3.892 -0 -1.2 0
-4.026 -1.087 3.353 -0 -1.2 0
-3.848 -1.178 3.193 -0 -1.2 0
-4.323 -1.289 3.632 -0 -1.2 0
-5.03 -1.439 4.287 -0 -1.2 0
-5.413 -1.593 4.644 -0 -1.2 0
-8.143 -2.038 7.165 -0 -1.2 0
-8.12 -2.229 7.149 -0 -1.2 0
-8.188 -2.436 7.219 -0 -1.2 0
-8.173 -2.63 7.213 -0 -1.2 0
-8.171 -2.829 7.217 -0 -1.2 0
-8.159 -3.026 7.212 -0 -1.2 0
-8.152 -3.225 7.212 -0 -1.2 0
-8.142 -3.424 7.209 -0 -1.2 0
-8.136 -3.626 7.21 -0 -1.2 0
-8.127 -3.829 7.208 -0 -1.2 0
-8.123 -4.034 7.211 -0 -1.2 0
-3.709 -2.53 3.109 -0 -1.2 0
-8.107 -4.447 7.21 -0 -1.2 0
-8.101 -4.658 7.212 -0 -1.2 0
-8.093 -4.869 7.211 -0 -1.2 0
-8.081 -5.082 7.207 -0 -1.2 0
-8.074 -5.299 7.207 -0 -1.2 0
-3.353 -2.93 2.795 -0 -1.2 0
-3.301 -2.994 2.749 -0 -1.2 0
-3.695 -3.328 3.122 -0 -1.2 0
-3.705 -3.44 3.133 -0 -1.2 0
-4.669 -4.19 4.044 -0 -1.2 0
-3.502 -3.52 2.951 -0 -1.2 0
-3.431 -3.575 2.887 -0 -1.2 0
-8.005 -7.144 7.204 -0 -1.2 0
-7.986 -7.385 7.194 -0 -1.2 0
-7.982 -7.642 7.199 -0 -1.2 0
-3.352 -3.949 2.827 -0 -1.2 0
-2.807 -3.578 2.315 -0 -1.2 0
-2.786 -3.656 2.297 -0 -1.2 0
-7.911 -8.675 7.168 -0 -1.2 0
-2.493 -3.565 2.025 -0 -1.2 0
-3.068 -4.254 2.577 -0 -1.2 0
-2.689 -3.964 2.218 -0 -1.2 0
-2.313 -3.652 1.863 -0 -1.2 0
-2.29 -3.72 1.844 -0 -1.2 0
-12.601 -16.153 11.716 -0 -1.2 0
-2.176 -3.774 1.742 -0 -1.2 0
-2.178 -3.873 1.746 -0 -1.2 0
-2.126 -3.904 1.699 -0 -1.2 0
-2.098 -3.969 1.677 -0 -1.2 0
-2.953 -5.296 2.504 -0 -1.2 0
-3.782 -6.68 3.311 -0 -1.2 0
-0.858 -0.019 0.483 -0 -1.2 0
-0.887 -0.019 0.512 -0 -1.2 0
-0.916 -0.021 0.54 -0 -1.2 0
-0.946 -0.023 0.569 -0 -1.2 0
-0.976 -0.026 0.599 -0 -1.2 0
-1.011 -0.025 0.634 -0 -1.2 0
-1.048 -0.025 0.669 -0 -1.2 0
-1.083 -0.026 0.705 -0 -1.2 0
-1.12 -0.029 0.741 -0 -1.2 0
-1.163 -0.028 0.783 -0 -1.2 0
-1.205 -0.027 0.825 -0 -1.2 0
-1.249 -0.03 0.868 -0 -1.2 0
-1.286 -0.039 0.905 -0 -1.2 0
-1.336 -0.039 0.954 -0 -1.2 0
-1.393 -0.038 1.009 -0 -1.2 0
-1.443 -0.043 1.06 -0 -1.2 0
-1.495 -0.049 1.11 -0 -1.2 0
-1.552 -0.055 1.167 -0 -1.2 0
-1.603 -0.066 1.218 -0 -1.2 0
-1.628 -0.096 1.244 -0 -1.2 0
-1.626 -0.144 1.244 -0 -1.2 0
-1.658 -0.172 1.275 -0 -1.2 0
-1.769 -0.157 1.384 -0 -1.2 0
-1.651 -0.265 1.272 -0 -1.2 0
-1.865 -0.207 1.48 -0 -1.2 0
-1.936 -0.223 1.551 -0 -1.2 0
-1.884 -0.297 1.502 -0 -1.2 0
-1.851 -0.359 1.472 -0 -1.2 0
-1.839 -0.412 1.462 -0 -1.2 0
-1.825 -0.463 1.451 -0 -1.2 0
-1.853 -0.5 1.48 -0 -1.2 0
-1.902 -0.533 1.528 -0 -1.2 0
-1.985 -0.557 1.611 -0 -1.2 0
-1.765 -0.662 1.398 -0 -1.2 0
-2.193 -0.609 1.818 -0 -1.2 0
-2.304 -0.64 1.928 -0 -1.2 0
-2.422 -0.676 2.046 -0 -1.2 0
-2.497 -0.724 2.121 -0 -1.2 0
-2.664 -0.763 2.287 -0 -1.2 0
-3.022 -0.791 2.64 -0 -1.2 0
-3.937 -0.794 3.54 -0 -1.2 0
-3.924 -0.89 3.532 -0 -1.2 0
-4.888 -0.958 4.482 -0 -1.2 0
-4.958 -1.077 4.554 -0 -1.2 0
-4.42 -1.187 4.03 -0 -1.2 0
-5.463 -1.34 5.062 -0 -1.2 0
-5.585 -1.482 5.187 -0 -1.2 0
-5.535 -1.615 5.142 -0 -1.2 0
-5.433 -1.738 5.046 -0 -1.2 0
-7.862 -2.22 7.454 -0 -1.2 0
-7.921 -2.425 7.519 -0 -1.2 0
-7.92 -2.623 7.526 -0 -1.2 0
-7.911 -2.82 7.524 -0 -1.2 0
-7.899 -3.017 7.519 -0 -1.2 0
-7.898 -3.218 7.525 -0 -1.2 0
-7.888 -3.418 7.522 -0 -1.2 0
-7.875 -3.618 7.517 -0 -1.2 0
-7.86 -3.818 7.509 -0 -1.2 0
-7.856 -4.023 7.512 -0 -1.2 0
-7.855 -4.232 7.519 -0 -1.2 0
-7.846 -4.439 7.517 -0 -1.2 0
-7.839 -4.65 7.52 -0 -1.2 0
-7.831 -4.862 7.518 -0 -1.2 0
-7.819 -5.075 7.514 -0 -1.2 0
-7.818 -5.296 7.521 -0 -1.2 0
-7.808 -5.513 7.518 -0 -1.2 0
-3.853 -3.385 3.551 -0 -1.2 0
-3.816 -3.476 3.518 -0 -1.2 0
-3.663 -3.49 3.367 -0 -1.2 0
-7.77 -6.421 7.515 -0 -1.2 0
-7.756 -6.652 7.509 -0 -1.2 0
-3.339 -3.589 3.053 -0 -1.2 0
-3.282 -3.652 2.999 -0 -1.2 0
-7.729 -7.384 7.508 -0 -1.2 0
-3.359 -3.935 3.084 -0 -1.2 0
-7.711 -7.895 7.508 -0 -1.2 0
-3.313 -4.127 3.045 -0 -1.2 0
-3.29 -4.225 3.027 -0 -1.2 0
-7.649 -8.67 7.476 -0 -1.2 0
-3.049 -4.223 2.79 -0 -1.2 0
-2.274 -3.513 2.002 -0 -1.2 0
-4.054 -5.578 3.828 -0 -1.2 0
-4.088 -5.785 3.868 -0 -1.2 0
-2.548 -4.12 2.293 -0 -1.2 0
-2.165 -3.758 1.904 -0 -1.2 0
-3.337 -5.515 3.12 -0 -1.2 0
-2.081 -3.944 1.827 -0 -1.2 0
-1.985 -3.911 1.732 -0 -1.2 0
-1.9 -3.888 1.648 -0 -1.2 0
-1.931 -4.036 1.683 -0 -1.2 0
-0.824 -0.018 0.533 -0 -1.2 0
-0.846 -0.025 0.558 -0 -1.2 0
-0.88 -0.02 0.594 -0 -1.2 0
-0.904 -0.029 0.619 -0 -1.2 0
-0.937 -0.026 0.654 -0 -1.2 0
-0.966 -0.03 0.685 -0 -1.2 0
-1.001 -0.03 0.722 -0 -1.2 0
-1.035 -0.031 0.76 -0 -1.2 0
-1.076 -0.028 0.802 -0 -1.2 0
-1.117 -0.027 0.846 -0 -1.2 0
-1.159 -0.027 0.89 -0 -1.2 0
-1.2 -0.029 0.934 -0 -1.2 0
-1.236 -0.038 0.973 -0 -1.2 0
-1.283 -0.038 1.024 -0 -1.2 0
-1.332 -0.041 1.076 -0 -1.2 0
-1.386 -0.042 1.133 -0 -1.2 0
-1.436 -0.048 1.186 -0 -1.2 0
-1.491 -0.054 1.245 -0 -1.2 0
-1.546 -0.061 1.305 -0 -1.2 0
-1.576 -0.087 1.338 -0 -1.2 0
-1.588 -0.127 1.351 -0 -1.2 0
-1.617 -0.155 1.384 -0 -1.2 0
-1.679 -0.166 1.45 -0 -1.2 0
-1.748 -0.177 1.524 -0 -1.2 0
-1.784 -0.208 1.563 -0 -1.2 0
-1.781 -0.259 1.562 -0 -1.2 0
-1.729 -0.331 1.511 -0 -1.2 0
-1.705 -0.389 1.486 -0 -1.2 0
-1.732 -0.423 1.517 -0 -1.2 0
-1.773 -0.455 1.561 -0 -1.2 0
-1.866 -0.469 1.661 -0 -1.2 0
-1.906 -0.506 1.706 -0 -1.2 0
-1.885 -0.561 1.686 -0 -1.2 0
-2.025 -0.573 1.836 -0 -1.2 0
-1.766 -0.687 1.563 -0 -1.2 0
-1.954 -0.693 1.764 -0 -1.2 0
-2.393 -0.662 2.231 -0 -1.2 0
-2.773 -0.662 2.635 -0 -1.2 0
-2.359 -0.787 2.199 -0 -1.2 0
-3.367 -0.739 3.27 -0 -1.2 0
-2.191 -0.921 2.026 -0 -1.2 0
-2.144 -0.98 1.978 -0 -1.2 0
-4.198 -0.97 4.166 -0 -1.2 0
-5.073 -1.071 5.102 -0 -1.2 0
-4.667 -1.192 4.674 -0 -1.2 0
-5.257 -1.337 5.308 -0 -1.2 0
-4.957 -1.449 4.994 -0 -1.2 0
-5.543 -1.633 5.625 -0 -1.2 0
-5.621 -1.785 5.714 -0 -1.2 0
-7.565 -2.217 7.802 -0 -1.2 0
-7.621 -2.422 7.87 -0 -1.2 0
-7.613 -2.619 7.87 -0 -1.2 0
-7.604 -2.817 7.868 -0 -1.2 0
-7.605 -3.018 7.877 -0 -1.2 0
-7.591 -3.216 7.869 -0 -1.2 0
-7.588 -3.418 7.873 -0 -1.2 0
-7.574 -3.618 7.868 -0 -1.2 0
-7.559 -3.819 7.86 -0 -1.2 0
-7.555 -4.025 7.863 -0 -1.2 0
-7.547 -4.232 7.863 -0 -1.2 0
-7.537 -4.44 7.86 -0 -1.2 0
-7.537 -4.654 7.869 -0 -1.2 0
-7.528 -4.866 7.869 -0 -1.2 0
-7.524 -5.083 7.872 -0 -1.2 0
-7.515 -5.299 7.871 -0 -1.2 0
-7.511 -5.522 7.875 -0 -1.2 0
-7.496 -5.742 7.868 -0 -1.2 0
-3.744 -3.529 3.783 -0 -1.2 0
-3.811 -3.692 3.861 -0 -1.2 0
-3.795 -3.802 3.848 -0 -1.2 0
-7.458 -6.664 7.863 -0 -1.2 0
-7.446 -6.903 7.86 -0 -1.2 0
-3.186 -3.683 3.194 -0 -1.2 0
-3.17 -3.78 3.182 -0 -1.2 0
-7.419 -7.65 7.861 -0 -1.2 0
-7.404 -7.905 7.856 -0 -1.2 0
-7.397 -8.171 7.858 -0 -1.2 0
-3.173 -4.245 3.204 -0 -1.2 0
-3.182 -4.377 3.219 -0 -1.2 0
-7.144 -8.76 7.612 -0 -1.2 0
-7.074 -8.974 7.547 -0 -1.2 0
-2.866 -4.4 2.883 -0 -1.2 0
-2.512 -4.098 2.493 -0 -1.2 0
-10.807 -14.541 11.744 -0 -1.2 0
-2.461 -4.259 2.446 -0 -1.2 0
-2.029 -3.797 1.967 -0 -1.2 0
-1.996 -3.849 1.934 -0 -1.2 0
-3.21 -5.698 3.301 -0 -1.2 0
-2.842 -5.317 2.893 -0 -1.2 0
-1.827 -3.901 1.755 -0 -1.2 0
-2.905 -5.732 2.977 -0 -1.2 0
-0.787 -0.025 0.575 -0 -1.2 0
-0.818 -0.018 0.611 -0 -1.2 0
-0.84 -0.026 0.637 -0 -1.2 0
-0.867 -0.028 0.668 -0 -1.2 0
-0.9 -0.025 0.705 -0 -1.2 0
-0.928 -0.029 0.737 -0 -1.2 0
-0.961 -0.03 0.775 -0 -1.2 0
-1 -0.024 0.82 -0 -1.2 0
-1.038 -0.021 0.864 -0 -1.2 0
-1.067 -0.031 0.897 -0 -1.2 0
-1.107 -0.031 0.942 -0 -1.2 0
-1.147 -0.033 0.989 -0 -1.2 0
-1.192 -0.032 1.04 -0 -1.2 0
-1.239 -0.032 1.094 -0 -1.2 0
-1.285 -0.036 1.147 -0 -1.2 0
-1.325 -0.045 1.194 -0 -1.2 0
-1.378 -0.047 1.255 -0 -1.2 0
-1.437 -0.048 1.322 -0 -1.2 0
-1.49 -0.055 1.384 -0 -1.2 0
-1.532 -0.074 1.433 -0 -1.2 0
-1.524 -0.126 1.426 -0 -1.2 0
-1.559 -0.15 1.466 -0 -1.2 0
-1.63 -0.155 1.55 -0 -1.2 0
-1.678 -0.176 1.604 -0 -1.2 0
-1.637 -0.246 1.56 -0 -1.2 0
-1.677 -0.274 1.608 -0 -1.2 0
-1.729 -0.296 1.669 -0 -1.2 0
-1.63 -0.39 1.559 -0 -1.2 0
-1.662 -0.421 1.597 -0 -1.2 0
-1.758 -0.431 1.709 -0 -1.2 0
-1.881 -0.435 1.849 -0 -1.2 0
-1.887 -0.485 1.858 -0 -1.2 0
-1.971 -0.511 1.956 -0 -1.2 0
-2.008 -0.553 2 -0 -1.2 0
-1.838 -0.65 1.808 -0 -1.2 0
-1.887 -0.688 1.866 -0 -1.2 0
-2.152 -0.687 2.171 -0 -1.2 0
-3.092 -0.587 3.246 -0 -1.2 0
-3.863 -0.562 4.13 -0 -1.2 0
-2.101 -0.864 2.12 -0 -1.2 0
-4.119 -0.745 4.431 -0 -1.2 0
-4.343 -0.84 4.693 -0 -1.2 0
-4.034 -0.965 4.344 -0 -1.2 0
-4.079 -1.071 4.399 -0 -1.2 0
-5.114 -1.2 5.593 -0 -1.2 0
-4.945 -1.328 5.405 -0 -1.2 0
-5.253 -1.481 5.765 -0 -1.2 0
-5.088 -1.605 5.581 -0 -1.2 0
-4.811 -1.706 5.267 -0 -1.2 0
-7.308 -2.219 8.156 -0 -1.2 0
-7.564 -2.462 8.459 -0 -1.2 0
-7.549 -2.664 8.452 -0 -1.2 0
-7.539 -2.868 8.449 -0 -1.2 0
-7.525 -3.072 8.443 -0 -1.2 0
-7.51 -3.276 8.434 -0 -1.2 0
-7.486 -3.478 8.415 -0 -1.2 0
-7.441 -3.673 8.371 -0 -1.2 0
-7.469 -3.896 8.414 -0 -1.2 0
-7.463 -4.108 8.416 -0 -1.2 0
-7.424 -4.306 8.378 -0 -1.2 0
-7.256 -4.447 8.194 -0 -1.2 0
-7.25 -4.659 8.195 -0 -1.2 0
-7.241 -4.872 8.194 -0 -1.2 0
-7.241 -5.092 8.204 -0 -1.2 0
-7.227 -5.308 8.196 -0 -1.2 0
-7.215 -5.527 8.192 -0 -1.2 0
-7.206 -5.751 8.193 -0 -1.2 0
-7.202 -5.98 8.196 -0 -1.2 0
-3.597 -3.651 3.958 -0 -1.2 0
-7.211 -6.465 8.228 -0 -1.2 0
-3.527 -3.838 3.885 -0 -1.2 0
-3.116 -3.626 3.404 -0 -1.2 0
-3.062 -3.69 3.345 -0 -1.2 0
-7.154 -7.426 8.205 -0 -1.2 0
-7.138 -7.674 8.197 -0 -1.2 0
-7.122 -7.93 8.191 -0 -1.2 0
-7.109 -8.192 8.187 -0 -1.2 0
-7.065 -8.427 8.148 -0 -1.2 0
-3.036 -4.363 3.345 -0 -1.2 0
-6.854 -8.77 7.918 -0 -1.2 0
-2.986 -4.562 3.297 -0 -1.2 0
-6.893 -9.414 7.992 -0 -1.2 0
-2.627 -4.377 2.876 -0 -1.2 0
-10.548 -14.799 12.422 -0 -1.2 0
-2.533 -4.498 2.773 -0 -1.2 0
-2.33 -4.34 2.534 -0 -1.2 0
-1.863 -3.984 1.983 -0 -1.2 0
-3.039 -5.989 3.419 -0 -1.2 0
-2.993 -6.093 3.372 -0 -1.2 0
-0.762 -0.01 0.632 -0 -1.2 0
-0.778 -0.024 0.652 -0 -1.2 0
-0.809 -0.018 0.69 -0 -1.2 0
-0.83 -0.027 0.717 -0 -1.2 0
-0.862 -0.024 0.755 -0 -1.2 0
-0.888 -0.028 0.788 -0 -1.2 0
-0.924 -0.022 0.834 -0 -1.2 0
-0.951 -0.029 0.866 -0 -1.2 0
-0.983 -0.032 0.906 -0 -1.2 0
-1.015 -0.036 0.946 -0 -1.2 0
-1.054 -0.036 0.993 -0 -1.2 0
-1.102 -0.027 1.054 -0 -1.2 0
-1.14 -0.031 1.101 -0 -1.2 0
-1.185 -0.031 1.156 -0 -1.2 0
-1.229 -0.034 1.211 -0 -1.2 0
-1.273 -0.039 1.267 -0 -1.2 0
-1.324 -0.042 1.328 -0 -1.2 0
-1.375 -0.046 1.392 -0 -1.2 0
-1.432 -0.05 1.463 -0 -1.2 0
-1.454 -0.08 1.491 -0 -1.2 0
-1.463 -0.119 1.505 -0 -1.2 0
-1.485 -0.152 1.533 -0 -1.2 0
-1.547 -0.16 1.612 -0 -1.2 0
-1.587 -0.185 1.661 -0 -1.2 0
-1.637 -0.205 1.725 -0 -1.2 0
-1.7 -0.222 1.803 -0 -1.2 0
-1.709 -0.268 1.816 -0 -1.2 0
-1.766 -0.293 1.887 -0 -1.2 0
-1.718 -0.365 1.832 -0 -1.2 0
-1.81 -0.377 1.947 -0 -1.2 0
-1.799 -0.434 1.935 -0 -1.2 0
-1.879 -0.457 2.035 -0 -1.2 0
-1.934 -0.493 2.105 -0 -1.2 0
-2.032 -0.52 2.228 -0 -1.2 0
-2.243 -0.522 2.489 -0 -1.2 0
-1.891 -0.666 2.06 -0 -1.2 0
-2.295 -0.637 2.559 -0 -1.2 0
-2.437 -0.676 2.736 -0 -1.2 0
-2.207 -0.777 2.457 -0 -1.2 0
-5.061 -0.498 5.978 -0 -1.2 0
-5.002 -0.643 5.909 -0 -1.2 0
-5.059 -0.778 5.987 -0 -1.2 0
-4.8 -0.928 5.674 -0 -1.2 0
-4.994 -1.059 5.919 -0 -1.2 0
-4.933 -1.196 5.852 -0 -1.2 0
-5.054 -1.338 6.008 -0 -1.2 0
-5.067 -1.479 6.029 -0 -1.2 0
-5.245 -1.64 6.259 -0 -1.2 0
-5.336 -1.798 6.378 -0 -1.2 0
-7.025 -2.217 8.489 -0 -1.2 0
-7.199 -2.449 8.716 -0 -1.2 0
-7.191 -2.652 8.715 -0 -1.2 0
-7.187 -2.857 8.72 -0 -1.2 0
-7.174 -3.059 8.713 -0 -1.2 0
-7.171 -3.267 8.72 -0 -1.2 0
-7.166 -3.475 8.723 -0 -1.2 0
-7.147 -3.68 8.71 -0 -1.2 0
-7.143 -3.891 8.715 -0 -1.2 0
-7.137 -4.103 8.717 -0 -1.2 0
-7.134 -4.318 8.724 -0 -1.2 0
-6.968 -4.457 8.525 -0 -1.2 0
-6.961 -4.67 8.526 -0 -1.2 0
-6.957 -4.887 8.532 -0 -1.2 0
-6.951 -5.106 8.535 -0 -1.2 0
-6.936 -5.321 8.526 -0 -1.2 0
-5.268 -4.478 6.421 -0 -1.2 0
-6.916 -5.767 8.522 -0 -1.2 0
-6.91 -5.997 8.526 -0 -1.2 0
-6.868 -6.203 8.484 -0 -1.2 0
-7.062 -6.596 8.743 -0 -1.2 0
-7.062 -6.848 8.755 -0 -1.2 0
-7.036 -7.084 8.735 -0 -1.2 0
-3.099 -3.845 3.706 -0 -1.2 0
-2.927 -3.804 3.492 -0 -1.2 0
-2.943 -3.931 3.518 -0 -1.2 0
-7.047 -8.175 8.8 -0 -1.2 0
-6.886 -8.292 8.606 -0 -1.2 0
-6.776 -8.459 8.478 -0 -1.2 0
-6.736 -8.702 8.439 -0 -1.2 0
-6.582 -8.816 8.254 -0 -1.2 0
-2.876 -4.594 3.466 -0 -1.2 0
-6.608 -9.449 8.316 -0 -1.2 0
-8.97 -12.868 11.404 -0 -1.2 0
-10.255 -15.057 13.097 -0 -1.2 0
-1.753 -4.053 2.051 -0 -1.2 0
-2.924 -6.221 3.603 -0 -1.2 0
-0.72 -0.016 0.674 -0 -1.2 0
-0.744 -0.016 0.707 -0 -1.2 0
-0.769 -0.017 0.739 -0 -1.2 0
-0.789 -0.026 0.766 -0 -1.2 0
-0.823 -0.017 0.812 -0 -1.2 0
-0.849 -0.021 0.846 -0 -1.2 0
-0.878 -0.021 0.887 -0 -1.2 0
-0.909 -0.022 0.928 -0 -1.2 0
-0.945 -0.019 0.976 -0 -1.2 0
-0.97 -0.029 1.011 -0 -1.2 0
-1.011 -0.023 1.066 -0 -1.2 0
-1.042 -0.031 1.107 -0 -1.2 0
-1.084 -0.03 1.163 -0 -1.2 0
-1.125 -0.03 1.22 -0 -1.2 0
-1.173 -0.028 1.283 -0 -1.2 0
-1.216 -0.033 1.341 -0 -1.2 0
-1.264 -0.035 1.405 -0 -1.2 0
-1.312 -0.04 1.47 -0 -1.2 0
-1.365 -0.043 1.543 -0 -1.2 0
-1.381 -0.078 1.566 -0 -1.2 0
-1.385 -0.122 1.573 -0 -1.2 0
-1.416 -0.147 1.616 -0 -1.2 0
-1.476 -0.155 1.697 -0 -1.2 0
-1.547 -0.158 1.793 -0 -1.2 0
-1.635 -0.157 1.911 -0 -1.2 0
-1.661 -0.194 1.948 -0 -1.2 0
-1.715 -0.218 2.022 -0 -1.2 0
-1.712 -0.273 2.02 -0 -1.2 0
-1.719 -0.323 2.032 -0 -1.2 0
-1.72 -0.375 2.036 -0 -1.2 0
-1.766 -0.408 2.101 -0 -1.2 0
-1.896 -0.414 2.275 -0 -1.2 0
-1.789 -0.506 2.136 -0 -1.2 0
-2.013 -0.492 2.436 -0 -1.2 0
-2.313 -0.469 2.839 -0 -1.2 0
-3.803 -0.174 4.827 -0 -1.2 0
-4.269 -0.185 5.452 -0 -1.2 0
-4.709 -0.229 6.047 -0 -1.2 0
-4.75 -0.361 6.109 -0 -1.2 0
-4.777 -0.495 6.153 -0 -1.2 0
-4.75 -0.637 6.122 -0 -1.2 0
-4.774 -0.774 6.163 -0 -1.2 0
-4.755 -0.914 6.145 -0 -1.2 0
-4.64 -1.054 5.997 -0 -1.2 0
-4.791 -1.193 6.208 -0 -1.2 0
-4.577 -1.321 5.927 -0 -1.2 0
-4.606 -1.457 5.974 -0 -1.2 0
-5.217 -1.659 6.805 -0 -1.2 0
-6.688 -2.014 8.801 -0 -1.2 0
-6.732 -2.22 8.871 -0 -1.2 0
-6.98 -2.469 9.217 -0 -1.2 0
-6.971 -2.676 9.216 -0 -1.2 0
-6.966 -2.885 9.22 -0 -1.2 0
-6.929 -3.086 9.181 -0 -1.2 0
-6.949 -3.305 9.219 -0 -1.2 0
-6.885 -3.497 9.144 -0 -1.2 0
-6.831 -3.69 9.081 -0 -1.2 0
-6.93 -3.945 9.227 -0 -1.2 0
-6.911 -4.157 9.214 -0 -1.2 0
-6.799 -4.326 9.072 -0 -1.2 0
-6.652 -4.472 8.882 -0 -1.2 0
-6.645 -4.685 8.883 -0 -1.2 0
-6.635 -4.901 8.881 -0 -1.2 0
-5.094 -4.189 6.773 -0 -1.2 0
-5.195 -4.428 6.921 -0 -1.2 0
-5.27 -4.659 7.035 -0 -1.2 0
-6.603 -5.793 8.885 -0 -1.2 0
-6.575 -6.009 8.859 -0 -1.2 0
-5.778 -5.624 7.768 -0 -1.2 0
-5.742 -5.808 7.728 -0 -1.2 0
-8.815 -8.664 12.01 -0 -1.2 0
-8.423 -8.652 11.483 -0 -1.2 0
-3.451 -4.325 4.57 -0 -1.2 0
-6.654 -7.593 9.048 -0 -1.2 0
-7.411 -8.637 10.121 -0 -1.2 0
-2.713 -3.969 3.562 -0 -1.2 0
-6.515 -8.278 8.897 -0 -1.2 0
-3.319 -4.9 4.424 -0 -1.2 0
-6.385 -8.704 8.744 -0 -1.2 0
-6.272 -8.86 8.6 -0 -1.2 0
-2.766 -4.649 3.668 -0 -1.2 0
-6.339 -9.556 8.728 -0 -1.2 0
-2.713 -4.851 3.608 -0 -1.2 0
-10.18 -15.732 14.216 -0 -1.2 0
-0.68 -0.022 0.71 -0 -1.2 0
-0.704 -0.022 0.743 -0 -1.2 0
-0.731 -0.016 0.783 -0 -1.2 0
-0.755 -0.019 0.818 -0 -1.2 0
-0.778 -0.022 0.852 -0 -1.2 0
-0.802 -0.026 0.887 -0 -1.2 0
-0.831 -0.026 0.929 -0 -1.2 0
-0.859 -0.027 0.97 -0 -1.2 0
-0.893 -0.023 1.019 -0 -1.2 0
-0.927 -0.022 1.069 -0 -1.2 0
-0.962 -0.022 1.117 -0 -1.2 0
-0.991 -0.029 1.161 -0 -1.2 0
-1.031 -0.028 1.218 -0 -1.2 0
-1.075 -0.024 1.283 -0 -1.2 0
-1.11 -0.031 1.335 -0 -1.2 0
-1.15 -0.036 1.393 -0 -1.2 0
-1.196 -0.039 1.46 -0 -1.2 0
-1.247 -0.038 1.534 -0 -1.2 0
-1.283 -0.055 1.587 -0 -1.2 0
-1.329 -0.064 1.653 -0 -1.2 0
-1.321 -0.116 1.646 -0 -1.2 0
-1.341 -0.149 1.676 -0 -1.2 0
-1.435 -0.131 1.812 -0 -1.2 0
-1.524 -0.122 1.942 -0 -1.2 0
-1.549 -0.158 1.979 -0 -1.2 0
-1.606 -0.176 2.063 -0 -1.2 0
-1.69 -0.183 2.186 -0 -1.2 0
-1.803 -0.181 2.349 -0 -1.2 0
-1.743 -0.267 2.269 -0 -1.2 0
-1.811 -0.293 2.368 -0 -1.2 0
-2.386 -0.112 3.193 -0 -1.2 0
-1.722 -0.442 2.248 -0 -1.2 0
-2.434 -0.245 3.27 -0 -1.2 0
-3.008 -0.138 4.098 -0 -1.2 0
-3.275 -0.155 4.486 -0 -1.2 0
-3.597 -0.173 4.956 -0 -1.2 0
-4.016 -0.189 5.565 -0 -1.2 0
-4.497 -0.219 6.265 -0 -1.2 0
-4.455 -0.364 6.214 -0 -1.2 0
-4.464 -0.5 6.234 -0 -1.2 0
-4.346 -0.649 6.072 -0 -1.2 0
-4.556 -0.766 6.384 -0 -1.2 0
-4.566 -0.906 6.407 -0 -1.2 0
-4.582 -1.046 6.436 -0 -1.2 0
-4.623 -1.187 6.505 -0 -1.2 0
-4.493 -1.323 6.323 -0 -1.2 0
-5.012 -1.503 7.088 -0 -1.2 0
-4.557 -1.607 6.434 -0 -1.2 0
-6.4 -2.013 9.133 -0 -1.2 0
-6.424 -2.217 9.18 -0 -1.2 0
-6.44 -2.422 9.215 -0 -1.2 0
-6.443 -2.626 9.231 -0 -1.2 0
-6.433 -2.828 9.229 -0 -1.2 0
-6.426 -3.032 9.231 -0 -1.2 0
-6.417 -3.237 9.23 -0 -1.2 0
-6.4 -3.439 9.217 -0 -1.2 0
-6.399 -3.648 9.226 -0 -1.2 0
-6.389 -3.856 9.224 -0 -1.2 0
-6.377 -4.065 9.219 -0 -1.2 0
-5.376 -3.781 7.749 -0 -1.2 0
-6.362 -4.492 9.222 -0 -1.2 0
-6.354 -4.707 9.223 -0 -1.2 0
-4.885 -4.044 7.049 -0 -1.2 0
-4.825 -4.179 6.97 -0 -1.2 0
-4.758 -4.309 6.88 -0 -1.2 0
-4.628 -4.39 6.697 -0 -1.2 0
-5.274 -5.046 7.673 -0 -1.2 0
-5.143 -5.143 7.488 -0 -1.2 0
-5.072 -5.282 7.394 -0 -1.2 0
-6.274 -6.522 9.212 -0 -1.2 0
-6.264 -6.763 9.211 -0 -1.2 0
-6.256 -7.01 9.213 -0 -1.2 0
-6.244 -7.259 9.211 -0 -1.2 0
-6.225 -7.505 9.197 -0 -1.2 0
-6.221 -7.772 9.208 -0 -1.2 0
-6.21 -8.036 9.206 -0 -1.2 0
-2.546 -4.056 3.654 -0 -1.2 0
-6.164 -8.553 9.168 -0 -1.2 0
-6.033 -8.684 8.988 -0 -1.2 0
-5.971 -8.898 8.908 -0 -1.2 0
-5.888 -9.087 8.798 -0 -1.2 0
-7.632 -11.854 11.493 -0 -1.2 0
-8.622 -13.711 13.038 -0 -1.2 0
-9.731 -15.872 14.773 -0 -1.2 0
-2.551 -5.113 3.723 -0 -1.2 0
-0.649 -0.007 0.766 -0 -1.2 0
-0.667 -0.014 0.794 -0 -1.2 0
-0.693 -0.008 0.835 -0 -1.2 0
-0.711 -0.017 0.864 -0 -1.2 0
-0.734 -0.021 0.9 -0 -1.2 0
