# .PCD v.7 - Point Cloud Data file format
FIELDS x y z vp_x vp_y vp_z
SIZE 4 4 4 4 4 4
TYPE F F F F F F
COUNT 1 1 1 1 1 1
WIDTH 1659
HEIGHT 1
VIEWPOINT 0 -1.20007 0 1 0 0 0
POINTS 1659
DATA ascii
2.878 -0.844 18.153 -0 -1.2 0
2.888 -1.161 18.194 -0 -1.2 0
2.951 -1.488 18.565 -0 -1.2 0
2.951 -1.813 18.545 -0 -1.2 0
2.947 -2.135 18.5 -0 -1.2 0
2.96 -2.466 18.557 -0 -1.2 0
3.877 -3.32 24.284 -0 -1.2 0
2.96 -3.117 18.518 -0 -1.2 0
2.947 -3.433 18.421 -0 -1.2 0
2.946 -3.758 18.397 -0 -1.2 0
2.989 -4.128 18.64 -0 -1.2 0
2.942 -4.409 18.332 -0 -1.2 0
2.944 -4.739 18.32 -0 -1.2 0
2.677 -4.707 16.642 -0 -1.2 0
2.686 -5.02 16.674 -0 -1.2 0
2.678 -5.314 16.612 -0 -1.2 0
2.676 -5.615 16.575 -0 -1.2 0
2.669 -5.909 16.513 -0 -1.2 0
2.87 -6.609 17.738 -0 -1.2 0
2.688 -6.569 16.589 -0 -1.2 0
2.68 -6.868 16.521 -0 -1.2 0
2.719 -7.278 16.742 -0 -1.2 0
2.703 -7.567 16.623 -0 -1.2 0
2.802 -8.148 17.212 -0 -1.2 0
2.742 -8.333 16.824 -0 -1.2 0
2.75 -8.696 16.851 -0 -1.2 0
2.722 -8.961 16.653 -0 -1.2 0
2.857 -9.72 17.453 -0 -1.2 0
2.678 -9.526 16.346 -0 -1.2 0
2.924 -10.69 17.815 -0 -1.2 0
3.19 -12 19.412 -0 -1.2 0
0.223 -0.027 1.238 -0 -1.2 0
0.231 -0.025 1.277 -0 -1.2 0
0.239 -0.024 1.317 -0 -1.2 0
0.245 -0.031 1.35 -0 -1.2 0
0.256 -0.019 1.405 -0 -1.2 0
0.261 -0.035 1.431 -0 -1.2 0
0.272 -0.033 1.479 -0 -1.2 0
0.282 -0.025 1.536 -0 -1.2 0
0.289 -0.037 1.57 -0 -1.2 0
0.301 -0.033 1.628 -0 -1.2 0
0.31 -0.036 1.678 -0 -1.2 0
0.322 -0.034 1.737 -0 -1.2 0
0.332 -0.04 1.788 -0 -1.2 0
0.344 -0.044 1.847 -0 -1.2 0
0.357 -0.043 1.916 -0 -1.2 0
0.37 -0.044 1.985 -0 -1.2 0
0.386 -0.042 2.063 -0 -1.2 0
0.399 -0.047 2.133 -0 -1.2 0
0.415 -0.051 2.212 -0 -1.2 0
0.432 -0.052 2.3 -0 -1.2 0
0.446 -0.065 2.371 -0 -1.2 0
0.468 -0.059 2.487 -0 -1.2 0
0.491 -0.058 2.604 -0 -1.2 0
0.513 -0.064 2.713 -0 -1.2 0
0.542 -0.059 2.858 -0 -1.2 0
0.567 -0.067 2.986 -0 -1.2 0
0.594 -0.074 3.124 -0 -1.2 0
0.628 -0.074 3.3 -0 -1.2 0
0.665 -0.078 3.487 -0 -1.2 0
0.71 -0.074 3.721 -0 -1.2 0
0.756 -0.078 3.956 -0 -1.2 0
0.811 -0.081 4.23 -0 -1.2 0
0.87 -0.086 4.534 -0 -1.2 0
0.941 -0.09 4.896 -0 -1.2 0
1.013 -0.106 5.259 -0 -1.2 0
1.107 -0.115 5.739 -0 -1.2 0
1.216 -0.127 6.298 -0 -1.2 0
1.361 -0.135 7.034 -0 -1.2 0
1.538 -0.148 7.936 -0 -1.2 0
1.766 -0.166 9.103 -0 -1.2 0
2.054 -0.2 10.564 -0 -1.2 0
2.417 -0.259 12.419 -0 -1.2 0
3.085 -0.303 15.822 -0 -1.2 0
3.902 -0.445 19.982 -0 -1.2 0
3.914 -0.796 20.029 -0 -1.2 0
3.904 -1.149 19.962 -0 -1.2 0
4.427 -1.553 22.606 -0 -1.2 0
4.431 -1.953 22.604 -0 -1.2 0
4.427 -2.35 22.566 -0 -1.2 0
4.44 -2.753 22.609 -0 -1.2 0
4.444 -3.155 22.605 -0 -1.2 0
4.448 -3.558 22.605 -0 -1.2 0
4.452 -3.962 22.607 -0 -1.2 0
4.457 -4.369 22.613 -0 -1.2 0
4.461 -4.778 22.61 -0 -1.2 0
4.46 -5.183 22.581 -0 -1.2 0
4.491 -6.871 22.654 -0 -1.2 0
3.727 -6.234 18.792 -0 -1.2 0
3.986 -8.119 20.014 -0 -1.2 0
3.239 -7.11 16.252 -0 -1.2 0
3.364 -7.677 16.86 -0 -1.2 0
3.326 -7.935 16.654 -0 -1.2 0
3.296 -8.208 16.489 -0 -1.2 0
3.304 -8.562 16.507 -0 -1.2 0
3.207 -8.677 16.012 -0 -1.2 0
3.198 -8.993 15.949 -0 -1.2 0
3.733 -10.724 18.585 -0 -1.2 0
3.552 -10.639 17.665 -0 -1.2 0
3.659 -11.334 18.175 -0 -1.2 0
0.263 -0.019 1.253 -0 -1.2 0
0.271 -0.024 1.286 -0 -1.2 0
0.28 -0.023 1.325 -0 -1.2 0
0.287 -0.03 1.358 -0 -1.2 0
0.297 -0.031 1.398 -0 -1.2 0
0.306 -0.033 1.438 -0 -1.2 0
0.315 -0.037 1.479 -0 -1.2 0
0.328 -0.029 1.535 -0 -1.2 0
0.336 -0.041 1.569 -0 -1.2 0
0.349 -0.037 1.626 -0 -1.2 0
0.362 -0.034 1.684 -0 -1.2 0
0.374 -0.038 1.734 -0 -1.2 0
0.386 -0.044 1.785 -0 -1.2 0
0.4 -0.046 1.844 -0 -1.2 0
0.416 -0.046 1.911 -0 -1.2 0
0.434 -0.042 1.988 -0 -1.2 0
0.449 -0.045 2.057 -0 -1.2 0
0.465 -0.05 2.126 -0 -1.2 0
0.483 -0.053 2.205 -0 -1.2 0
0.502 -0.058 2.284 -0 -1.2 0
0.52 -0.066 2.363 -0 -1.2 0
0.546 -0.06 2.478 -0 -1.2 0
0.569 -0.066 2.576 -0 -1.2 0
0.602 -0.057 2.72 -0 -1.2 0
0.629 -0.063 2.837 -0 -1.2 0
0.658 -0.07 2.965 -0 -1.2 0
0.69 -0.077 3.101 -0 -1.2 0
0.73 -0.077 3.276 -0 -1.2 0
0.773 -0.079 3.461 -0 -1.2 0
0.828 -0.073 3.702 -0 -1.2 0
0.879 -0.081 3.917 -0 -1.2 0
0.937 -0.087 4.17 -0 -1.2 0
1.007 -0.092 4.472 -0 -1.2 0
1.087 -0.096 4.822 -0 -1.2 0
1.175 -0.107 5.202 -0 -1.2 0
1.277 -0.121 5.64 -0 -1.2 0
1.407 -0.13 6.205 -0 -1.2 0
1.559 -0.145 6.866 -0 -1.2 0
1.76 -0.158 7.733 -0 -1.2 0
2.027 -0.172 8.891 -0 -1.2 0
2.338 -0.209 10.236 -0 -1.2 0
2.947 -0.204 12.874 -0 -1.2 0
3.47 -0.313 15.135 -0 -1.2 0
4.276 -0.46 18.622 -0 -1.2 0
4.274 -0.791 18.6 -0 -1.2 0
4.28 -1.12 18.612 -0 -1.2 0
4.28 -1.449 18.598 -0 -1.2 0
4.285 -1.779 18.599 -0 -1.2 0
4.289 -2.11 18.603 -0 -1.2 0
4.292 -2.441 18.602 -0 -1.2 0
4.296 -2.773 18.604 -0 -1.2 0
4.298 -3.106 18.601 -0 -1.2 0
4.3 -3.439 18.592 -0 -1.2 0
4.3 -3.772 18.578 -0 -1.2 0
4.303 -4.109 18.577 -0 -1.2 0
4.31 -4.45 18.59 -0 -1.2 0
4.311 -4.789 18.577 -0 -1.2 0
4.319 -5.136 18.596 -0 -1.2 0
4.321 -5.481 18.59 -0 -1.2 0
4.324 -5.83 18.588 -0 -1.2 0
4.33 -6.185 18.598 -0 -1.2 0
4.33 -6.536 18.583 -0 -1.2 0
4.346 -6.911 18.635 -0 -1.2 0
4.332 -7.25 18.561 -0 -1.2 0
4.302 -7.566 18.416 -0 -1.2 0
4.279 -7.89 18.302 -0 -1.2 0
4.187 -8.1 17.892 -0 -1.2 0
3.888 -7.931 16.606 -0 -1.2 0
3.83 -8.161 16.343 -0 -1.2 0
3.863 -8.564 16.469 -0 -1.2 0
4.458 -10.121 18.975 -0 -1.2 0
4.537 -10.694 19.291 -0 -1.2 0
4.557 -11.158 19.357 -0 -1.2 0
4.742 -12.012 20.119 -0 -1.2 0
0.299 -0.025 1.253 -0 -1.2 0
0.308 -0.029 1.285 -0 -1.2 0
0.318 -0.028 1.324 -0 -1.2 0
0.33 -0.021 1.371 -0 -1.2 0
0.339 -0.029 1.403 -0 -1.2 0
0.348 -0.038 1.436 -0 -1.2 0
0.36 -0.035 1.484 -0 -1.2 0
0.373 -0.033 1.532 -0 -1.2 0
0.386 -0.033 1.581 -0 -1.2 0
0.399 -0.035 1.63 -0 -1.2 0
0.412 -0.037 1.679 -0 -1.2 0
0.425 -0.042 1.729 -0 -1.2 0
0.441 -0.042 1.787 -0 -1.2 0
0.456 -0.044 1.846 -0 -1.2 0
0.474 -0.043 1.913 -0 -1.2 0
0.492 -0.044 1.981 -0 -1.2 0
0.51 -0.046 2.049 -0 -1.2 0
0.526 -0.056 2.109 -0 -1.2 0
0.549 -0.054 2.195 -0 -1.2 0
0.57 -0.06 2.273 -0 -1.2 0
0.591 -0.067 2.352 -0 -1.2 0
0.621 -0.061 2.466 -0 -1.2 0
0.649 -0.063 2.572 -0 -1.2 0
0.681 -0.065 2.688 -0 -1.2 0
0.716 -0.063 2.822 -0 -1.2 0
0.747 -0.072 2.939 -0 -1.2 0
0.788 -0.073 3.093 -0 -1.2 0
0.829 -0.079 3.248 -0 -1.2 0
0.88 -0.078 3.44 -0 -1.2 0
0.937 -0.079 3.652 -0 -1.2 0
0.998 -0.081 3.883 -0 -1.2 0
1.065 -0.087 4.135 -0 -1.2 0
1.139 -0.095 4.415 -0 -1.2 0
1.229 -0.101 4.752 -0 -1.2 0
1.334 -0.106 5.148 -0 -1.2 0
1.447 -0.121 5.573 -0 -1.2 0
1.589 -0.132 6.105 -0 -1.2 0
1.765 -0.144 6.771 -0 -1.2 0
1.988 -0.158 7.611 -0 -1.2 0
2.271 -0.178 8.673 -0 -1.2 0
2.612 -0.215 9.959 -0 -1.2 0
3.185 -0.236 12.111 -0 -1.2 0
3.85 -0.316 14.614 -0 -1.2 0
4.142 -0.536 15.707 -0 -1.2 0
4.145 -0.816 15.704 -0 -1.2 0
4.148 -1.095 15.705 -0 -1.2 0
4.15 -1.374 15.703 -0 -1.2 0
4.153 -1.654 15.704 -0 -1.2 0
4.156 -1.934 15.701 -0 -1.2 0
4.157 -2.215 15.694 -0 -1.2 0
4.161 -2.497 15.701 -0 -1.2 0
4.162 -2.778 15.693 -0 -1.2 0
4.162 -3.06 15.681 -0 -1.2 0
4.166 -3.345 15.683 -0 -1.2 0
4.166 -3.629 15.671 -0 -1.2 0
4.168 -3.916 15.672 -0 -1.2 0
4.168 -4.203 15.66 -0 -1.2 0
4.172 -4.494 15.661 -0 -1.2 0
4.174 -4.786 15.657 -0 -1.2 0
4.177 -5.081 15.658 -0 -1.2 0
4.177 -5.375 15.643 -0 -1.2 0
4.182 -5.678 15.651 -0 -1.2 0
4.183 -5.98 15.646 -0 -1.2 0
4.196 -6.298 15.679 -0 -1.2 0
4.187 -6.593 15.634 -0 -1.2 0
4.198 -6.919 15.665 -0 -1.2 0
4.206 -7.244 15.681 -0 -1.2 0
4.345 -7.777 16.183 -0 -1.2 0
3.859 -7.319 14.369 -0 -1.2 0
3.89 -7.671 14.473 -0 -1.2 0
3.919 -8.03 14.57 -0 -1.2 0
3.898 -8.301 14.476 -0 -1.2 0
4.152 -9.112 15.401 -0 -1.2 0
5.399 -11.985 19.984 -0 -1.2 0
0.335 -0.037 1.247 -0 -1.2 0
0.346 -0.035 1.286 -0 -1.2 0
0.36 -0.027 1.332 -0 -1.2 0
0.37 -0.034 1.363 -0 -1.2 0
0.382 -0.035 1.402 -0 -1.2 0
0.396 -0.03 1.45 -0 -1.2 0
0.406 -0.04 1.482 -0 -1.2 0
0.421 -0.039 1.529 -0 -1.2 0
0.435 -0.038 1.577 -0 -1.2 0
0.45 -0.038 1.626 -0 -1.2 0
0.469 -0.03 1.691 -0 -1.2 0
0.48 -0.045 1.724 -0 -1.2 0
0.5 -0.04 1.79 -0 -1.2 0
0.515 -0.047 1.839 -0 -1.2 0
0.535 -0.046 1.906 -0 -1.2 0
0.555 -0.047 1.973 -0 -1.2 0
0.576 -0.049 2.04 -0 -1.2 0
0.596 -0.054 2.108 -0 -1.2 0
0.622 -0.052 2.193 -0 -1.2 0
0.643 -0.061 2.262 -0 -1.2 0
0.669 -0.064 2.348 -0 -1.2 0
0.704 -0.058 2.462 -0 -1.2 0
0.736 -0.06 2.567 -0 -1.2 0
0.773 -0.058 2.691 -0 -1.2 0
0.805 -0.066 2.797 -0 -1.2 0
0.843 -0.072 2.921 -0 -1.2 0
0.89 -0.072 3.074 -0 -1.2 0
0.939 -0.075 3.236 -0 -1.2 0
0.997 -0.073 3.427 -0 -1.2 0
1.06 -0.074 3.637 -0 -1.2 0
1.124 -0.082 3.847 -0 -1.2 0
1.2 -0.086 4.096 -0 -1.2 0
1.284 -0.094 4.373 -0 -1.2 0
1.383 -0.1 4.698 -0 -1.2 0
1.499 -0.106 5.08 -0 -1.2 0
1.624 -0.122 5.491 -0 -1.2 0
1.781 -0.134 6.008 -0 -1.2 0
1.981 -0.144 6.667 -0 -1.2 0
2.228 -0.157 7.48 -0 -1.2 0
2.542 -0.175 8.512 -0 -1.2 0
2.897 -0.219 9.679 -0 -1.2 0
3.522 -0.239 11.735 -0 -1.2 0
4.093 -0.344 13.61 -0 -1.2 0
4.089 -0.589 13.591 -0 -1.2 0
4.094 -0.833 13.597 -0 -1.2 0
4.094 -1.076 13.59 -0 -1.2 0
4.096 -1.319 13.587 -0 -1.2 0
4.099 -1.563 13.59 -0 -1.2 0
4.099 -1.807 13.58 -0 -1.2 0
4.1 -2.051 13.574 -0 -1.2 0
4.102 -2.296 13.575 -0 -1.2 0
4.104 -2.541 13.572 -0 -1.2 0
4.106 -2.788 13.573 -0 -1.2 0
4.109 -3.034 13.57 -0 -1.2 0
4.11 -3.282 13.564 -0 -1.2 0
4.106 -3.529 13.543 -0 -1.2 0
4.11 -3.78 13.547 -0 -1.2 0
4.112 -4.033 13.546 -0 -1.2 0
4.113 -4.287 13.541 -0 -1.2 0
4.115 -4.544 13.541 -0 -1.2 0
4.12 -4.804 13.545 -0 -1.2 0
4.123 -5.066 13.544 -0 -1.2 0
4.123 -5.329 13.54 -0 -1.2 0
4.124 -5.592 13.529 -0 -1.2 0
4.128 -5.864 13.533 -0 -1.2 0
4.133 -6.14 13.541 -0 -1.2 0
4.12 -6.396 13.489 -0 -1.2 0
4.125 -6.679 13.496 -0 -1.2 0
4.139 -6.978 13.533 -0 -1.2 0
4.154 -7.285 13.571 -0 -1.2 0
4.274 -7.765 13.951 -0 -1.2 0
3.796 -7.279 12.392 -0 -1.2 0
3.866 -7.673 12.611 -0 -1.2 0
3.824 -7.879 12.464 -0 -1.2 0
3.807 -8.13 12.399 -0 -1.2 0
4.119 -9.025 13.397 -0 -1.2 0
0.371 -0.036 1.253 -0 -1.2 0
0.384 -0.034 1.29 -0 -1.2 0
0.397 -0.033 1.329 -0 -1.2 0
0.412 -0.026 1.374 -0 -1.2 0
0.423 -0.033 1.406 -0 -1.2 0
0.437 -0.035 1.445 -0 -1.2 0
0.45 -0.038 1.485 -0 -1.2 0
0.466 -0.037 1.532 -0 -1.2 0
0.482 -0.036 1.579 -0 -1.2 0
0.496 -0.043 1.62 -0 -1.2 0
0.515 -0.04 1.675 -0 -1.2 0
0.531 -0.043 1.724 -0 -1.2 0
0.551 -0.043 1.781 -0 -1.2 0
0.57 -0.045 1.838 -0 -1.2 0
0.59 -0.049 1.896 -0 -1.2 0
0.612 -0.05 1.962 -0 -1.2 0
0.638 -0.046 2.037 -0 -1.2 0
0.658 -0.056 2.096 -0 -1.2 0
0.684 -0.058 2.172 -0 -1.2 0
0.713 -0.059 2.257 -0 -1.2 0
0.742 -0.061 2.342 -0 -1.2 0
0.777 -0.059 2.445 -0 -1.2 0
0.814 -0.057 2.558 -0 -1.2 0
0.853 -0.058 2.671 -0 -1.2 0
0.895 -0.059 2.794 -0 -1.2 0
0.937 -0.065 2.917 -0 -1.2 0
0.985 -0.068 3.059 -0 -1.2 0
1.039 -0.071 3.22 -0 -1.2 0
1.094 -0.078 3.381 -0 -1.2 0
1.162 -0.08 3.579 -0 -1.2 0
1.236 -0.084 3.797 -0 -1.2 0
1.326 -0.084 4.061 -0 -1.2 0
1.422 -0.088 4.344 -0 -1.2 0
1.528 -0.096 4.656 -0 -1.2 0
1.647 -0.108 5.007 -0 -1.2 0
1.786 -0.121 5.414 -0 -1.2 0
1.953 -0.135 5.906 -0 -1.2 0
2.172 -0.144 6.548 -0 -1.2 0
2.436 -0.16 7.324 -0 -1.2 0
2.774 -0.178 8.317 -0 -1.2 0
3.144 -0.224 9.407 -0 -1.2 0
3.806 -0.244 11.356 -0 -1.2 0
4.021 -0.413 11.982 -0 -1.2 0
4.026 -0.629 11.991 -0 -1.2 0
4.024 -0.846 11.977 -0 -1.2 0
4.027 -1.062 11.979 -0 -1.2 0
4.026 -1.278 11.967 -0 -1.2 0
4.026 -1.494 11.962 -0 -1.2 0
4.031 -1.71 11.972 -0 -1.2 0
4.03 -1.926 11.959 -0 -1.2 0
4.03 -2.143 11.952 -0 -1.2 0
4.031 -2.361 11.952 -0 -1.2 0
4.033 -2.579 11.947 -0 -1.2 0
4.032 -2.797 11.939 -0 -1.2 0
4.033 -3.017 11.937 -0 -1.2 0
4.04 -3.241 11.949 -0 -1.2 0
4.036 -3.46 11.93 -0 -1.2 0
4.04 -3.685 11.935 -0 -1.2 0
4.042 -3.912 11.936 -0 -1.2 0
4.041 -4.136 11.923 -0 -1.2 0
4.044 -4.367 11.925 -0 -1.2 0
4.046 -4.598 11.923 -0 -1.2 0
4.046 -4.83 11.917 -0 -1.2 0
4.045 -5.063 11.907 -0 -1.2 0
4.046 -5.3 11.902 -0 -1.2 0
4.048 -5.542 11.901 -0 -1.2 0
4.049 -5.785 11.896 -0 -1.2 0
4.048 -6.029 11.887 -0 -1.2 0
4.052 -6.282 11.89 -0 -1.2 0
4.048 -6.528 11.871 -0 -1.2 0
4.057 -6.796 11.891 -0 -1.2 0
4.068 -7.072 11.912 -0 -1.2 0
4.272 -7.651 12.494 -0 -1.2 0
3.878 -7.297 11.347 -0 -1.2 0
3.73 -7.309 10.911 -0 -1.2 0
3.771 -7.634 11.02 -0 -1.2 0
3.752 -7.863 10.958 -0 -1.2 0
3.752 -8.128 10.949 -0 -1.2 0
4.044 -8.975 11.783 -0 -1.2 0
0.406 -0.035 1.257 -0 -1.2 0
0.423 -0.025 1.301 -0 -1.2 0
0.432 -0.037 1.325 -0 -1.2 0
0.452 -0.024 1.377 -0 -1.2 0
0.463 -0.032 1.408 -0 -1.2 0
0.478 -0.034 1.447 -0 -1.2 0
0.49 -0.044 1.479 -0 -1.2 0
0.51 -0.035 1.532 -0 -1.2 0
0.525 -0.04 1.572 -0 -1.2 0
0.546 -0.035 1.627 -0 -1.2 0
0.567 -0.032 1.682 -0 -1.2 0
0.585 -0.036 1.73 -0 -1.2 0
0.606 -0.036 1.787 -0 -1.2 0
0.628 -0.038 1.843 -0 -1.2 0
0.649 -0.042 1.9 -0 -1.2 0
0.674 -0.042 1.966 -0 -1.2 0
0.702 -0.039 2.04 -0 -1.2 0
0.724 -0.049 2.098 -0 -1.2 0
0.752 -0.051 2.173 -0 -1.2 0
0.781 -0.056 2.249 -0 -1.2 0
0.813 -0.059 2.333 -0 -1.2 0
0.851 -0.056 2.435 -0 -1.2 0
0.89 -0.058 2.538 -0 -1.2 0
0.936 -0.055 2.658 -0 -1.2 0
0.978 -0.06 2.771 -0 -1.2 0
1.028 -0.061 2.902 -0 -1.2 0
1.084 -0.061 3.051 -0 -1.2 0
1.144 -0.064 3.209 -0 -1.2 0
1.204 -0.071 3.369 -0 -1.2 0
1.281 -0.07 3.574 -0 -1.2 0
1.358 -0.077 3.78 -0 -1.2 0
1.46 -0.074 4.05 -0 -1.2 0
1.566 -0.077 4.33 -0 -1.2 0
1.676 -0.09 4.621 -0 -1.2 0
1.8 -0.104 4.949 -0 -1.2 0
1.948 -0.12 5.342 -0 -1.2 0
2.139 -0.129 5.846 -0 -1.2 0
2.378 -0.137 6.481 -0 -1.2 0
2.667 -0.151 7.248 -0 -1.2 0
3.059 -0.161 8.285 -0 -1.2 0
3.444 -0.212 9.306 -0 -1.2 0
3.978 -0.27 10.718 -0 -1.2 0
3.97 -0.467 10.692 -0 -1.2 0
3.968 -0.663 10.681 -0 -1.2 0
3.971 -0.857 10.686 -0 -1.2 0
3.971 -1.051 10.679 -0 -1.2 0
3.972 -1.245 10.678 -0 -1.2 0
3.976 -1.439 10.682 -0 -1.2 0
3.978 -1.634 10.684 -0 -1.2 0
3.98 -1.829 10.682 -0 -1.2 0
3.983 -2.025 10.686 -0 -1.2 0
3.982 -2.22 10.678 -0 -1.2 0
3.984 -2.417 10.676 -0 -1.2 0
3.984 -2.613 10.672 -0 -1.2 0
3.983 -2.81 10.663 -0 -1.2 0
3.987 -3.011 10.67 -0 -1.2 0
3.984 -3.209 10.654 -0 -1.2 0
3.989 -3.412 10.663 -0 -1.2 0
3.99 -3.615 10.66 -0 -1.2 0
3.993 -3.821 10.662 -0 -1.2 0
3.998 -4.03 10.669 -0 -1.2 0
3.998 -4.237 10.665 -0 -1.2 0
3.997 -4.445 10.656 -0 -1.2 0
3.998 -4.657 10.652 -0 -1.2 0
4.001 -4.873 10.654 -0 -1.2 0
4.002 -5.09 10.651 -0 -1.2 0
3.998 -5.304 10.636 -0 -1.2 0
4.001 -5.527 10.634 -0 -1.2 0
3.997 -5.747 10.621 -0 -1.2 0
4.006 -5.984 10.637 -0 -1.2 0
4.006 -6.215 10.631 -0 -1.2 0
4.005 -6.447 10.621 -0 -1.2 0
4.008 -6.689 10.623 -0 -1.2 0
4.016 -6.942 10.637 -0 -1.2 0
4.041 -7.226 10.695 -0 -1.2 0
4.182 -7.704 11.055 -0 -1.2 0
3.738 -7.234 9.893 -0 -1.2 0
3.699 -7.407 9.783 -0 -1.2 0
3.715 -7.682 9.82 -0 -1.2 0
3.7 -7.905 9.772 -0 -1.2 0
3.703 -8.166 9.774 -0 -1.2 0
3.99 -9.003 10.512 -0 -1.2 0
0.449 -0.026 1.265 -0 -1.2 0
0.464 -0.024 1.302 -0 -1.2 0
0.48 -0.023 1.34 -0 -1.2 0
0.493 -0.03 1.37 -0 -1.2 0
0.509 -0.03 1.408 -0 -1.2 0
0.522 -0.038 1.439 -0 -1.2 0
0.544 -0.029 1.492 -0 -1.2 0
0.56 -0.034 1.531 -0 -1.2 0
0.58 -0.032 1.577 -0 -1.2 0
0.596 -0.039 1.616 -0 -1.2 0
0.622 -0.03 1.678 -0 -1.2 0
0.642 -0.034 1.725 -0 -1.2 0
0.666 -0.034 1.781 -0 -1.2 0
0.686 -0.041 1.829 -0 -1.2 0
0.713 -0.039 1.893 -0 -1.2 0
0.74 -0.04 1.958 -0 -1.2 0
0.771 -0.036 2.031 -0 -1.2 0
0.798 -0.042 2.096 -0 -1.2 0
0.833 -0.04 2.178 -0 -1.2 0
0.864 -0.044 2.253 -0 -1.2 0
0.896 -0.052 2.328 -0 -1.2 0
0.941 -0.045 2.437 -0 -1.2 0
0.983 -0.046 2.538 -0 -1.2 0
1.033 -0.044 2.657 -0 -1.2 0
1.08 -0.049 2.769 -0 -1.2 0
1.138 -0.047 2.907 -0 -1.2 0
1.196 -0.05 3.045 -0 -1.2 0
1.258 -0.056 3.193 -0 -1.2 0
1.324 -0.063 3.35 -0 -1.2 0
1.409 -0.062 3.552 -0 -1.2 0
1.498 -0.067 3.763 -0 -1.2 0
1.606 -0.065 4.021 -0 -1.2 0
1.726 -0.067 4.306 -0 -1.2 0
1.842 -0.081 4.583 -0 -1.2 0
1.97 -0.099 4.888 -0 -1.2 0
2.13 -0.115 5.267 -0 -1.2 0
2.339 -0.124 5.764 -0 -1.2 0
2.593 -0.133 6.371 -0 -1.2 0
2.903 -0.147 7.108 -0 -1.2 0
3.344 -0.153 8.158 -0 -1.2 0
3.755 -0.204 9.136 -0 -1.2 0
4.005 -0.324 9.728 -0 -1.2 0
3.996 -0.505 9.702 -0 -1.2 0
3.996 -0.684 9.699 -0 -1.2 0
4.004 -0.862 9.713 -0 -1.2 0
4.002 -1.04 9.706 -0 -1.2 0
4.004 -1.218 9.705 -0 -1.2 0
4.008 -1.397 9.71 -0 -1.2 0
4.007 -1.575 9.704 -0 -1.2 0
4.012 -1.755 9.712 -0 -1.2 0
4.009 -1.933 9.699 -0 -1.2 0
4.012 -2.113 9.702 -0 -1.2 0
4.006 -2.291 9.684 -0 -1.2 0
3.991 -2.466 9.644 -0 -1.2 0
3.987 -2.645 9.629 -0 -1.2 0
3.993 -2.828 9.639 -0 -1.2 0
3.993 -3.011 9.636 -0 -1.2 0
3.997 -3.196 9.639 -0 -1.2 0
3.999 -3.381 9.639 -0 -1.2 0
3.999 -3.568 9.636 -0 -1.2 0
4.006 -3.76 9.647 -0 -1.2 0
4.004 -3.947 9.639 -0 -1.2 0
4 -4.136 9.626 -0 -1.2 0
4.004 -4.331 9.627 -0 -1.2 0
4.005 -4.526 9.626 -0 -1.2 0
4.008 -4.726 9.629 -0 -1.2 0
4.007 -4.924 9.62 -0 -1.2 0
4.007 -5.126 9.617 -0 -1.2 0
4.006 -5.33 9.609 -0 -1.2 0
4.007 -5.538 9.606 -0 -1.2 0
3.999 -5.74 9.583 -0 -1.2 0
4.007 -5.962 9.598 -0 -1.2 0
4.007 -6.179 9.591 -0 -1.2 0
4.012 -6.406 9.597 -0 -1.2 0
4.015 -6.634 9.598 -0 -1.2 0
4.022 -6.875 9.612 -0 -1.2 0
4.022 -7.107 9.603 -0 -1.2 0
4.246 -7.698 10.123 -0 -1.2 0
3.799 -7.225 9.07 -0 -1.2 0
3.713 -7.313 8.862 -0 -1.2 0
3.697 -7.52 8.821 -0 -1.2 0
3.7 -7.763 8.82 -0 -1.2 0
3.713 -8.032 8.844 -0 -1.2 0
3.673 -8.206 8.745 -0 -1.2 0
3.958 -9.04 9.404 -0 -1.2 0
0.485 -0.025 1.266 -0 -1.2 0
0.499 -0.03 1.296 -0 -1.2 0
0.516 -0.029 1.333 -0 -1.2 0
0.536 -0.021 1.376 -0 -1.2 0
0.55 -0.029 1.407 -0 -1.2 0
0.568 -0.031 1.444 -0 -1.2 0
0.588 -0.028 1.489 -0 -1.2 0
0.609 -0.025 1.535 -0 -1.2 0
0.63 -0.025 1.58 -0 -1.2 0
0.645 -0.038 1.612 -0 -1.2 0
0.673 -0.028 1.673 -0 -1.2 0
0.695 -0.033 1.719 -0 -1.2 0
0.722 -0.026 1.782 -0 -1.2 0
0.744 -0.034 1.829 -0 -1.2 0
0.773 -0.033 1.892 -0 -1.2 0
0.806 -0.028 1.965 -0 -1.2 0
0.832 -0.035 2.021 -0 -1.2 0
0.866 -0.035 2.093 -0 -1.2 0
0.896 -0.042 2.158 -0 -1.2 0
0.937 -0.038 2.248 -0 -1.2 0
0.972 -0.045 2.322 -0 -1.2 0
1.021 -0.038 2.429 -0 -1.2 0
1.067 -0.04 2.529 -0 -1.2 0
1.121 -0.037 2.646 -0 -1.2 0
1.172 -0.042 2.756 -0 -1.2 0
1.23 -0.044 2.883 -0 -1.2 0
1.292 -0.047 3.019 -0 -1.2 0
1.36 -0.053 3.164 -0 -1.2 0
1.435 -0.057 3.328 -0 -1.2 0
1.523 -0.058 3.518 -0 -1.2 0
1.632 -0.054 3.754 -0 -1.2 0
1.739 -0.059 3.99 -0 -1.2 0
1.869 -0.06 4.271 -0 -1.2 0
1.991 -0.077 4.535 -0 -1.2 0
2.126 -0.096 4.826 -0 -1.2 0
2.302 -0.11 5.207 -0 -1.2 0
2.51 -0.124 5.662 -0 -1.2 0
2.807 -0.125 6.305 -0 -1.2 0
3.171 -0.13 7.095 -0 -1.2 0
3.618 -0.143 8.065 -0 -1.2 0
3.942 -0.221 8.767 -0 -1.2 0
3.953 -0.382 8.787 -0 -1.2 0
3.946 -0.548 8.769 -0 -1.2 0
3.955 -0.709 8.786 -0 -1.2 0
3.959 -0.872 8.79 -0 -1.2 0
3.962 -1.035 8.792 -0 -1.2 0
3.963 -1.198 8.791 -0 -1.2 0
3.959 -1.36 8.778 -0 -1.2 0
3.957 -1.524 8.772 -0 -1.2 0
3.963 -1.687 8.781 -0 -1.2 0
3.96 -1.851 8.771 -0 -1.2 0
3.959 -2.015 8.766 -0 -1.2 0
3.962 -2.18 8.767 -0 -1.2 0
3.963 -2.345 8.766 -0 -1.2 0
3.968 -2.511 8.771 -0 -1.2 0
3.97 -2.679 8.774 -0 -1.2 0
3.971 -2.847 8.774 -0 -1.2 0
3.972 -3.016 8.77 -0 -1.2 0
3.975 -3.187 8.774 -0 -1.2 0
3.977 -3.359 8.774 -0 -1.2 0
3.982 -3.535 8.781 -0 -1.2 0
3.989 -3.714 8.792 -0 -1.2 0
3.983 -3.885 8.774 -0 -1.2 0
3.983 -4.063 8.772 -0 -1.2 0
3.982 -4.241 8.766 -0 -1.2 0
3.984 -4.424 8.766 -0 -1.2 0
3.984 -4.607 8.762 -0 -1.2 0
3.986 -4.796 8.764 -0 -1.2 0
3.987 -4.985 8.761 -0 -1.2 0
3.983 -5.172 8.747 -0 -1.2 0
3.982 -5.363 8.739 -0 -1.2 0
3.985 -5.564 8.743 -0 -1.2 0
3.983 -5.762 8.735 -0 -1.2 0
3.987 -5.97 8.739 -0 -1.2 0
3.99 -6.179 8.74 -0 -1.2 0
3.99 -6.391 8.736 -0 -1.2 0
3.997 -6.612 8.744 -0 -1.2 0
4 -6.837 8.747 -0 -1.2 0
3.998 -7.059 8.739 -0 -1.2 0
4.104 -7.453 8.959 -0 -1.2 0
3.922 -7.397 8.566 -0 -1.2 0
3.869 -7.544 8.449 -0 -1.2 0
3.916 -7.861 8.542 -0 -1.2 0
3.903 -8.086 8.511 -0 -1.2 0
3.887 -8.305 8.469 -0 -1.2 0
3.983 -8.749 8.667 -0 -1.2 0
3.973 -9 8.639 -0 -1.2 0
0.524 -0.018 1.272 -0 -1.2 0
0.539 -0.022 1.302 -0 -1.2 0
0.558 -0.021 1.338 -0 -1.2 0
0.573 -0.028 1.367 -0 -1.2 0
0.593 -0.021 1.412 -0 -1.2 0
0.612 -0.023 1.449 -0 -1.2 0
0.631 -0.027 1.486 -0 -1.2 0
0.653 -0.024 1.531 -0 -1.2 0
0.676 -0.024 1.576 -0 -1.2 0
0.699 -0.026 1.621 -0 -1.2 0
0.722 -0.027 1.667 -0 -1.2 0
0.749 -0.026 1.72 -0 -1.2 0
0.78 -0.02 1.781 -0 -1.2 0
0.803 -0.028 1.828 -0 -1.2 0
0.831 -0.031 1.882 -0 -1.2 0
0.866 -0.027 1.953 -0 -1.2 0
0.894 -0.033 2.008 -0 -1.2 0
0.937 -0.024 2.095 -0 -1.2 0
0.966 -0.036 2.151 -0 -1.2 0
1.006 -0.037 2.231 -0 -1.2 0
1.055 -0.031 2.328 -0 -1.2 0
1.104 -0.029 2.426 -0 -1.2 0
1.15 -0.034 2.516 -0 -1.2 0
1.208 -0.032 2.632 -0 -1.2 0
1.262 -0.037 2.74 -0 -1.2 0
1.328 -0.035 2.873 -0 -1.2 0
1.387 -0.045 2.991 -0 -1.2 0
1.477 -0.038 3.168 -0 -1.2 0
1.554 -0.046 3.32 -0 -1.2 0
1.652 -0.045 3.516 -0 -1.2 0
1.755 -0.049 3.721 -0 -1.2 0
1.881 -0.049 3.971 -0 -1.2 0
2.007 -0.057 4.222 -0 -1.2 0
2.137 -0.074 4.481 -0 -1.2 0
2.286 -0.091 4.777 -0 -1.2 0
2.493 -0.097 5.188 -0 -1.2 0
2.748 -0.101 5.696 -0 -1.2 0
3.044 -0.111 6.285 -0 -1.2 0
3.425 -0.119 7.044 -0 -1.2 0
3.888 -0.137 7.964 -0 -1.2 0
4.275 -0.205 8.734 -0 -1.2 0
4.287 -0.369 8.754 -0 -1.2 0
4.285 -0.535 8.746 -0 -1.2 0
4.29 -0.7 8.753 -0 -1.2 0
4.29 -0.865 8.749 -0 -1.2 0
4.292 -1.029 8.75 -0 -1.2 0
4.294 -1.193 8.749 -0 -1.2 0
4.294 -1.358 8.746 -0 -1.2 0
4.292 -1.523 8.739 -0 -1.2 0
4.294 -1.688 8.74 -0 -1.2 0
4.294 -1.853 8.738 -0 -1.2 0
4.298 -2.019 8.741 -0 -1.2 0
4.296 -2.185 8.734 -0 -1.2 0
4.301 -2.353 8.742 -0 -1.2 0
4.301 -2.521 8.738 -0 -1.2 0
4.3 -2.689 8.731 -0 -1.2 0
4.301 -2.858 8.731 -0 -1.2 0
4.302 -3.029 8.728 -0 -1.2 0
4.305 -3.202 8.73 -0 -1.2 0
4.302 -3.373 8.722 -0 -1.2 0
4.302 -3.547 8.719 -0 -1.2 0
4.306 -3.724 8.722 -0 -1.2 0
4.307 -3.903 8.722 -0 -1.2 0
4.308 -4.082 8.719 -0 -1.2 0
4.31 -4.265 8.721 -0 -1.2 0
4.308 -4.445 8.712 -0 -1.2 0
4.308 -4.63 8.707 -0 -1.2 0
4.311 -4.82 8.709 -0 -1.2 0
4.311 -5.01 8.706 -0 -1.2 0
4.31 -5.202 8.701 -0 -1.2 0
4.307 -5.394 8.691 -0 -1.2 0
4.312 -5.596 8.695 -0 -1.2 0
4.313 -5.8 8.694 -0 -1.2 0
4.318 -6.01 8.699 -0 -1.2 0
4.315 -6.216 8.69 -0 -1.2 0
4.311 -6.425 8.678 -0 -1.2 0
4.31 -6.638 8.67 -0 -1.2 0
4.313 -6.864 8.673 -0 -1.2 0
4.307 -7.08 8.656 -0 -1.2 0
4.181 -7.127 8.405 -0 -1.2 0
4.179 -7.352 8.397 -0 -1.2 0
4.22 -7.649 8.472 -0 -1.2 0
4.232 -7.909 8.489 -0 -1.2 0
4.255 -8.197 8.529 -0 -1.2 0
4.307 -8.544 8.625 -0 -1.2 0
4.312 -8.82 8.631 -0 -1.2 0
4.297 -9.066 8.596 -0 -1.2 0
0.558 -0.024 1.265 -0 -1.2 0
0.581 -0.015 1.306 -0 -1.2 0
0.6 -0.013 1.342 -0 -1.2 0
0.616 -0.02 1.371 -0 -1.2 0
0.636 -0.021 1.407 -0 -1.2 0
0.656 -0.022 1.444 -0 -1.2 0
0.68 -0.02 1.487 -0 -1.2 0
0.704 -0.017 1.531 -0 -1.2 0
0.725 -0.023 1.568 -0 -1.2 0
0.749 -0.025 1.612 -0 -1.2 0
0.778 -0.021 1.664 -0 -1.2 0
0.803 -0.025 1.709 -0 -1.2 0
0.832 -0.024 1.762 -0 -1.2 0
0.868 -0.016 1.83 -0 -1.2 0
0.894 -0.025 1.876 -0 -1.2 0
0.932 -0.021 1.945 -0 -1.2 0
0.966 -0.023 2.008 -0 -1.2 0
1.001 -0.028 2.071 -0 -1.2 0
1.044 -0.026 2.149 -0 -1.2 0
1.087 -0.026 2.228 -0 -1.2 0
1.139 -0.021 2.323 -0 -1.2 0
1.183 -0.027 2.403 -0 -1.2 0
1.24 -0.025 2.507 -0 -1.2 0
1.298 -0.027 2.613 -0 -1.2 0
1.361 -0.027 2.726 -0 -1.2 0
1.423 -0.033 2.842 -0 -1.2 0
1.496 -0.037 2.973 -0 -1.2 0
1.582 -0.036 3.13 -0 -1.2 0
1.679 -0.035 3.305 -0 -1.2 0
1.779 -0.037 3.489 -0 -1.2 0
1.895 -0.038 3.699 -0 -1.2 0
2.015 -0.046 3.919 -0 -1.2 0
2.154 -0.052 4.173 -0 -1.2 0
2.285 -0.073 4.41 -0 -1.2 0
2.463 -0.083 4.735 -0 -1.2 0
2.703 -0.081 5.172 -0 -1.2 0
2.954 -0.094 5.628 -0 -1.2 0
3.299 -0.095 6.259 -0 -1.2 0
3.727 -0.099 7.037 -0 -1.2 0
4.166 -0.131 7.836 -0 -1.2 0
4.638 -0.188 8.696 -0 -1.2 0
4.642 -0.355 8.699 -0 -1.2 0
4.639 -0.523 8.691 -0 -1.2 0
4.644 -0.689 8.698 -0 -1.2 0
4.644 -0.856 8.693 -0 -1.2 0
4.646 -1.022 8.695 -0 -1.2 0
4.648 -1.188 8.694 -0 -1.2 0
4.648 -1.354 8.691 -0 -1.2 0
4.651 -1.521 8.694 -0 -1.2 0
4.653 -1.688 8.694 -0 -1.2 0
4.653 -1.856 8.692 -0 -1.2 0
4.657 -2.024 8.696 -0 -1.2 0
4.655 -2.191 8.688 -0 -1.2 0
4.656 -2.36 8.686 -0 -1.2 0
4.66 -2.531 8.692 -0 -1.2 0
4.658 -2.701 8.685 -0 -1.2 0
4.66 -2.872 8.684 -0 -1.2 0
4.66 -3.044 8.681 -0 -1.2 0
4.658 -3.217 8.675 -0 -1.2 0
4.664 -3.395 8.683 -0 -1.2 0
4.664 -3.571 8.68 -0 -1.2 0
4.667 -3.75 8.682 -0 -1.2 0
4.669 -3.931 8.682 -0 -1.2 0
4.668 -4.112 8.678 -0 -1.2 0
4.663 -4.29 8.663 -0 -1.2 0
4.668 -4.479 8.67 -0 -1.2 0
4.668 -4.666 8.665 -0 -1.2 0
4.66 -4.851 8.649 -0 -1.2 0
4.666 -5.046 8.655 -0 -1.2 0
4.669 -5.243 8.656 -0 -1.2 0
4.674 -5.446 8.663 -0 -1.2 0
4.674 -5.646 8.657 -0 -1.2 0
4.675 -5.852 8.656 -0 -1.2 0
4.675 -6.059 8.651 -0 -1.2 0
4.676 -6.272 8.65 -0 -1.2 0
4.68 -6.492 8.653 -0 -1.2 0
4.685 -6.718 8.658 -0 -1.2 0
4.688 -6.946 8.66 -0 -1.2 0
4.697 -7.187 8.671 -0 -1.2 0
4.565 -7.242 8.43 -0 -1.2 0
4.551 -7.454 8.399 -0 -1.2 0
4.605 -7.771 8.492 -0 -1.2 0
4.624 -8.047 8.522 -0 -1.2 0
4.585 -8.239 8.448 -0 -1.2 0
4.679 -8.65 8.609 -0 -1.2 0
4.68 -8.922 8.607 -0 -1.2 0
4.648 -9.145 8.545 -0 -1.2 0
0.599 -0.009 1.275 -0 -1.2 0
0.616 -0.014 1.303 -0 -1.2 0
0.633 -0.02 1.332 -0 -1.2 0
0.658 -0.012 1.373 -0 -1.2 0
0.679 -0.014 1.409 -0 -1.2 0
0.704 -0.009 1.451 -0 -1.2 0
0.721 -0.019 1.48 -0 -1.2 0
0.747 -0.017 1.523 -0 -1.2 0
0.772 -0.016 1.567 -0 -1.2 0
0.798 -0.018 1.611 -0 -1.2 0
0.824 -0.02 1.655 -0 -1.2 0
0.855 -0.018 1.707 -0 -1.2 0
0.89 -0.013 1.766 -0 -1.2 0
0.921 -0.015 1.818 -0 -1.2 0
0.952 -0.018 1.871 -0 -1.2 0
0.988 -0.02 1.931 -0 -1.2 0
1.024 -0.022 1.992 -0 -1.2 0
1.064 -0.021 2.061 -0 -1.2 0
1.11 -0.019 2.138 -0 -1.2 0
1.152 -0.025 2.207 -0 -1.2 0
1.198 -0.028 2.286 -0 -1.2 0
1.259 -0.022 2.388 -0 -1.2 0
1.314 -0.024 2.483 -0 -1.2 0
1.376 -0.025 2.586 -0 -1.2 0
1.437 -0.03 2.689 -0 -1.2 0
1.514 -0.029 2.818 -0 -1.2 0
1.59 -0.032 2.948 -0 -1.2 0
1.682 -0.031 3.102 -0 -1.2 0
1.784 -0.03 3.273 -0 -1.2 0
1.89 -0.032 3.453 -0 -1.2 0
2.008 -0.036 3.652 -0 -1.2 0
2.14 -0.041 3.875 -0 -1.2 0
2.273 -0.055 4.099 -0 -1.2 0
2.431 -0.066 4.367 -0 -1.2 0
2.65 -0.063 4.736 -0 -1.2 0
2.875 -0.074 5.115 -0 -1.2 0
3.145 -0.085 5.571 -0 -1.2 0
3.516 -0.084 6.197 -0 -1.2 0
3.96 -0.091 6.946 -0 -1.2 0
4.45 -0.118 7.771 -0 -1.2 0
4.99 -0.167 8.683 -0 -1.2 0
4.989 -0.338 8.679 -0 -1.2 0
4.992 -0.508 8.679 -0 -1.2 0
4.993 -0.677 8.678 -0 -1.2 0
4.997 -0.846 8.682 -0 -1.2 0
5 -1.015 8.684 -0 -1.2 0
5.001 -1.184 8.683 -0 -1.2 0
5.001 -1.353 8.68 -0 -1.2 0
5.004 -1.522 8.682 -0 -1.2 0
5.006 -1.692 8.683 -0 -1.2 0
5.006 -1.862 8.68 -0 -1.2 0
5.01 -2.033 8.684 -0 -1.2 0
5.007 -2.203 8.676 -0 -1.2 0
5.008 -2.374 8.675 -0 -1.2 0
5.012 -2.548 8.679 -0 -1.2 0
5.011 -2.72 8.672 -0 -1.2 0
5.012 -2.894 8.671 -0 -1.2 0
5.017 -3.071 8.676 -0 -1.2 0
5.01 -3.244 8.661 -0 -1.2 0
5.011 -3.422 8.66 -0 -1.2 0
5.015 -3.603 8.664 -0 -1.2 0
5.014 -3.782 8.658 -0 -1.2 0
5.02 -3.967 8.665 -0 -1.2 0
5.024 -4.154 8.669 -0 -1.2 0
5.021 -4.339 8.662 -0 -1.2 0
5.018 -4.524 8.652 -0 -1.2 0
5.021 -4.716 8.654 -0 -1.2 0
5.023 -4.91 8.654 -0 -1.2 0
5.023 -5.105 8.65 -0 -1.2 0
5.025 -5.306 8.651 -0 -1.2 0
5.026 -5.507 8.649 -0 -1.2 0
5.029 -5.714 8.65 -0 -1.2 0
5.03 -5.922 8.648 -0 -1.2 0
5.037 -6.141 8.656 -0 -1.2 0
5.034 -6.352 8.647 -0 -1.2 0
5.037 -6.575 8.648 -0 -1.2 0
5.042 -6.804 8.652 -0 -1.2 0
5.036 -7.024 8.638 -0 -1.2 0
4.906 -7.096 8.417 -0 -1.2 0
4.887 -7.303 8.382 -0 -1.2 0
4.993 -7.68 8.556 -0 -1.2 0
4.948 -7.864 8.475 -0 -1.2 0
4.955 -8.124 8.482 -0 -1.2 0
5.028 -8.49 8.599 -0 -1.2 0
5.035 -8.769 8.607 -0 -1.2 0
5.02 -9.018 8.576 -0 -1.2 0
0.628 -0.016 1.265 -0 -1.2 0
0.65 -0.013 1.299 -0 -1.2 0
0.672 -0.012 1.333 -0 -1.2 0
0.69 -0.019 1.362 -0 -1.2 0
0.717 -0.013 1.403 -0 -1.2 0
0.738 -0.015 1.438 -0 -1.2 0
0.761 -0.018 1.473 -0 -1.2 0
0.788 -0.016 1.516 -0 -1.2 0
0.815 -0.015 1.558 -0 -1.2 0
0.842 -0.017 1.601 -0 -1.2 0
0.874 -0.013 1.651 -0 -1.2 0
0.902 -0.017 1.694 -0 -1.2 0
0.935 -0.017 1.745 -0 -1.2 0
0.971 -0.014 1.803 -0 -1.2 0
1.004 -0.017 1.855 -0 -1.2 0
1.042 -0.018 1.915 -0 -1.2 0
1.081 -0.021 1.975 -0 -1.2 0
1.124 -0.02 2.042 -0 -1.2 0
1.172 -0.018 2.117 -0 -1.2 0
1.211 -0.028 2.178 -0 -1.2 0
1.274 -0.018 2.277 -0 -1.2 0
1.323 -0.025 2.354 -0 -1.2 0
1.383 -0.026 2.447 -0 -1.2 0
1.451 -0.023 2.556 -0 -1.2 0
1.517 -0.028 2.658 -0 -1.2 0
1.602 -0.023 2.791 -0 -1.2 0
1.679 -0.03 2.91 -0 -1.2 0
1.769 -0.032 3.054 -0 -1.2 0
1.872 -0.034 3.213 -0 -1.2 0
1.989 -0.033 3.398 -0 -1.2 0
2.114 -0.037 3.593 -0 -1.2 0
2.243 -0.046 3.795 -0 -1.2 0
2.384 -0.058 4.015 -0 -1.2 0
2.582 -0.056 4.326 -0 -1.2 0
2.791 -0.062 4.655 -0 -1.2 0
3.007 -0.081 4.992 -0 -1.2 0
3.308 -0.085 5.463 -0 -1.2 0
3.689 -0.087 6.061 -0 -1.2 0
4.168 -0.09 6.811 -0 -1.2 0
4.684 -0.115 7.62 -0 -1.2 0
5.32 -0.153 8.615 -0 -1.2 0
5.356 -0.319 8.669 -0 -1.2 0
5.358 -0.492 8.67 -0 -1.2 0
5.359 -0.664 8.669 -0 -1.2 0
5.364 -0.836 8.673 -0 -1.2 0
5.367 -1.008 8.675 -0 -1.2 0
5.368 -1.18 8.674 -0 -1.2 0
5.368 -1.352 8.671 -0 -1.2 0
5.366 -1.524 8.665 -0 -1.2 0
5.368 -1.696 8.665 -0 -1.2 0
5.373 -1.869 8.671 -0 -1.2 0
5.373 -2.042 8.666 -0 -1.2 0
5.369 -2.215 8.659 -0 -1.2 0
5.375 -2.391 8.665 -0 -1.2 0
5.374 -2.566 8.661 -0 -1.2 0
5.376 -2.742 8.661 -0 -1.2 0
5.373 -2.917 8.652 -0 -1.2 0
5.372 -3.095 8.647 -0 -1.2 0
5.375 -3.275 8.649 -0 -1.2 0
5.375 -3.456 8.647 -0 -1.2 0
5.375 -3.637 8.644 -0 -1.2 0
5.378 -3.822 8.644 -0 -1.2 0
5.378 -4.007 8.643 -0 -1.2 0
5.378 -4.193 8.639 -0 -1.2 0
5.385 -4.387 8.646 -0 -1.2 0
5.379 -4.575 8.636 -0 -1.2 0
5.383 -4.77 8.637 -0 -1.2 0
5.384 -4.967 8.636 -0 -1.2 0
5.389 -5.169 8.64 -0 -1.2 0
5.39 -5.372 8.639 -0 -1.2 0
5.39 -5.576 8.636 -0 -1.2 0
5.398 -5.79 8.643 -0 -1.2 0
5.397 -6.001 8.64 -0 -1.2 0
5.395 -6.214 8.633 -0 -1.2 0
5.396 -6.433 8.629 -0 -1.2 0
5.403 -6.663 8.637 -0 -1.2 0
5.406 -6.894 8.64 -0 -1.2 0
5.496 -7.228 8.774 -0 -1.2 0
5.311 -7.251 8.484 -0 -1.2 0
5.317 -7.496 8.489 -0 -1.2 0
5.307 -7.726 8.469 -0 -1.2 0
5.33 -8.004 8.5 -0 -1.2 0
5.282 -8.195 8.423 -0 -1.2 0
5.389 -8.606 8.583 -0 -1.2 0
5.387 -8.875 8.576 -0 -1.2 0
5.365 -9.12 8.537 -0 -1.2 0
0.659 -0.022 1.255 -0 -1.2 0
0.686 -0.013 1.294 -0 -1.2 0
0.709 -0.011 1.327 -0 -1.2 0
0.724 -0.025 1.349 -0 -1.2 0
0.755 -0.012 1.395 -0 -1.2 0
0.779 -0.014 1.429 -0 -1.2 0
0.803 -0.017 1.463 -0 -1.2 0
0.831 -0.015 1.504 -0 -1.2 0
0.865 -0.008 1.552 -0 -1.2 0
0.889 -0.016 1.588 -0 -1.2 0
0.922 -0.012 1.637 -0 -1.2 0
0.952 -0.016 1.68 -0 -1.2 0
0.986 -0.016 1.729 -0 -1.2 0
1.03 -0.007 1.793 -0 -1.2 0
1.06 -0.016 1.836 -0 -1.2 0
1.105 -0.012 1.901 -0 -1.2 0
1.145 -0.014 1.959 -0 -1.2 0
1.186 -0.019 2.019 -0 -1.2 0
1.237 -0.017 2.093 -0 -1.2 0
1.283 -0.022 2.159 -0 -1.2 0
1.345 -0.017 2.249 -0 -1.2 0
1.396 -0.023 2.324 -0 -1.2 0
1.464 -0.021 2.421 -0 -1.2 0
1.532 -0.022 2.521 -0 -1.2 0
1.605 -0.022 2.628 -0 -1.2 0
1.685 -0.025 2.743 -0 -1.2 0
1.776 -0.024 2.875 -0 -1.2 0
1.867 -0.03 3.007 -0 -1.2 0
1.975 -0.032 3.163 -0 -1.2 0
2.094 -0.034 3.336 -0 -1.2 0
2.208 -0.045 3.501 -0 -1.2 0
2.35 -0.051 3.708 -0 -1.2 0
2.521 -0.053 3.954 -0 -1.2 0
2.73 -0.051 4.258 -0 -1.2 0
2.918 -0.069 4.53 -0 -1.2 0
3.179 -0.075 4.908 -0 -1.2 0
3.485 -0.083 5.352 -0 -1.2 0
3.898 -0.081 5.953 -0 -1.2 0
4.398 -0.085 6.676 -0 -1.2 0
4.977 -0.102 7.516 -0 -1.2 0
5.704 -0.131 8.57 -0 -1.2 0
5.754 -0.299 8.64 -0 -1.2 0
5.756 -0.475 8.64 -0 -1.2 0
5.762 -0.65 8.647 -0 -1.2 0
5.761 -0.825 8.643 -0 -1.2 0
5.765 -1 8.645 -0 -1.2 0
5.761 -1.175 8.636 -0 -1.2 0
5.76 -1.35 8.633 -0 -1.2 0
5.763 -1.525 8.636 -0 -1.2 0
5.766 -1.701 8.635 -0 -1.2 0
5.771 -1.877 8.641 -0 -1.2 0
5.77 -2.053 8.636 -0 -1.2 0
5.777 -2.232 8.645 -0 -1.2 0
5.773 -2.408 8.634 -0 -1.2 0
5.777 -2.587 8.638 -0 -1.2 0
5.768 -2.764 8.623 -0 -1.2 0
5.775 -2.946 8.629 -0 -1.2 0
5.768 -3.124 8.617 -0 -1.2 0
5.77 -3.307 8.617 -0 -1.2 0
5.771 -3.491 8.615 -0 -1.2 0
5.775 -3.678 8.618 -0 -1.2 0
5.777 -3.866 8.619 -0 -1.2 0
5.783 -4.058 8.625 -0 -1.2 0
5.781 -4.247 8.619 -0 -1.2 0
5.778 -4.438 8.611 -0 -1.2 0
5.782 -4.635 8.614 -0 -1.2 0
5.78 -4.83 8.608 -0 -1.2 0
5.78 -5.03 8.606 -0 -1.2 0
5.784 -5.235 8.608 -0 -1.2 0
5.791 -5.445 8.614 -0 -1.2 0
5.789 -5.653 8.61 -0 -1.2 0
5.796 -5.87 8.616 -0 -1.2 0
5.791 -6.08 8.604 -0 -1.2 0
5.787 -6.295 8.596 -0 -1.2 0
5.797 -6.526 8.605 -0 -1.2 0
5.808 -6.765 8.618 -0 -1.2 0
5.787 -6.974 8.585 -0 -1.2 0
5.714 -7.133 8.477 -0 -1.2 0
5.659 -7.309 8.396 -0 -1.2 0
5.694 -7.589 8.441 -0 -1.2 0
5.687 -7.827 8.426 -0 -1.2 0
5.69 -8.084 8.428 -0 -1.2 0
5.783 -8.463 8.557 -0 -1.2 0
5.787 -8.738 8.559 -0 -1.2 0
5.771 -8.993 8.53 -0 -1.2 0
0.695 -0.014 1.255 -0 -1.2 0
0.718 -0.012 1.287 -0 -1.2 0
0.742 -0.01 1.32 -0 -1.2 0
0.767 -0.01 1.353 -0 -1.2 0
0.796 -0.004 1.393 -0 -1.2 0
0.821 -0.007 1.426 -0 -1.2 0
0.841 -0.017 1.454 -0 -1.2 0
0.871 -0.014 1.494 -0 -1.2 0
0.901 -0.014 1.534 -0 -1.2 0
0.935 -0.009 1.581 -0 -1.2 0
0.966 -0.011 1.623 -0 -1.2 0
0.997 -0.015 1.664 -0 -1.2 0
1.043 -0.004 1.726 -0 -1.2 0
1.083 0 1.783 -0 -1.2 0
1.115 -0.01 1.825 -0 -1.2 0
1.162 -0.006 1.888 -0 -1.2 0
1.205 -0.008 1.945 -0 -1.2 0
1.247 -0.013 2.003 -0 -1.2 0
1.295 -0.016 2.067 -0 -1.2 0
1.348 -0.017 2.141 -0 -1.2 0
1.413 -0.012 2.228 -0 -1.2 0
1.473 -0.013 2.308 -0 -1.2 0
1.538 -0.015 2.397 -0 -1.2 0
1.61 -0.016 2.494 -0 -1.2 0
1.682 -0.021 2.591 -0 -1.2 0
1.77 -0.019 2.711 -0 -1.2 0
1.866 -0.02 2.84 -0 -1.2 0
1.96 -0.025 2.969 -0 -1.2 0
2.068 -0.03 3.113 -0 -1.2 0
2.187 -0.034 3.275 -0 -1.2 0
2.313 -0.043 3.444 -0 -1.2 0
2.478 -0.041 3.668 -0 -1.2 0
2.674 -0.037 3.933 -0 -1.2 0
2.847 -0.053 4.167 -0 -1.2 0
3.062 -0.064 4.457 -0 -1.2 0
3.352 -0.064 4.85 -0 -1.2 0
3.679 -0.07 5.293 -0 -1.2 0
4.095 -0.074 5.854 -0 -1.2 0
4.647 -0.07 6.601 -0 -1.2 0
5.265 -0.087 7.438 -0 -1.2 0
6.061 -0.11 8.515 -0 -1.2 0
6.137 -0.277 8.615 -0 -1.2 0
6.14 -0.457 8.616 -0 -1.2 0
6.141 -0.635 8.616 -0 -1.2 0
6.14 -0.814 8.611 -0 -1.2 0
6.144 -0.992 8.614 -0 -1.2 0
6.145 -1.17 8.612 -0 -1.2 0
6.144 -1.348 8.61 -0 -1.2 0
6.148 -1.527 8.612 -0 -1.2 0
6.15 -1.706 8.612 -0 -1.2 0
6.155 -1.886 8.617 -0 -1.2 0
6.16 -2.066 8.62 -0 -1.2 0
6.156 -2.246 8.612 -0 -1.2 0
6.162 -2.428 8.618 -0 -1.2 0
6.16 -2.609 8.613 -0 -1.2 0
6.162 -2.792 8.614 -0 -1.2 0
6.163 -2.976 8.612 -0 -1.2 0
6.167 -3.162 8.614 -0 -1.2 0
6.164 -3.347 8.607 -0 -1.2 0
6.169 -3.537 8.612 -0 -1.2 0
6.174 -3.727 8.614 -0 -1.2 0
6.175 -3.919 8.614 -0 -1.2 0
6.175 -4.111 8.611 -0 -1.2 0
6.178 -4.307 8.612 -0 -1.2 0
6.173 -4.501 8.604 -0 -1.2 0
6.178 -4.702 8.606 -0 -1.2 0
6.179 -4.905 8.606 -0 -1.2 0
6.185 -5.112 8.611 -0 -1.2 0
6.188 -5.321 8.611 -0 -1.2 0
6.188 -5.531 8.609 -0 -1.2 0
6.191 -5.746 8.61 -0 -1.2 0
6.192 -5.963 8.608 -0 -1.2 0
6.196 -6.185 8.609 -0 -1.2 0
6.201 -6.414 8.614 -0 -1.2 0
6.194 -6.635 8.601 -0 -1.2 0
6.205 -6.877 8.612 -0 -1.2 0
6.29 -7.196 8.722 -0 -1.2 0
6.104 -7.251 8.47 -0 -1.2 0
6.091 -7.48 8.449 -0 -1.2 0
6.08 -7.715 8.431 -0 -1.2 0
6.096 -7.985 8.448 -0 -1.2 0
6.068 -8.212 8.409 -0 -1.2 0
6.183 -8.616 8.557 -0 -1.2 0
6.177 -8.884 8.545 -0 -1.2 0
0.729 -0.007 1.255 -0 -1.2 0
0.75 -0.011 1.281 -0 -1.2 0
0.771 -0.017 1.307 -0 -1.2 0
0.801 -0.009 1.345 -0 -1.2 0
0.826 -0.011 1.377 -0 -1.2 0
0.852 -0.013 1.409 -0 -1.2 0
0.882 -0.009 1.448 -0 -1.2 0
0.909 -0.014 1.481 -0 -1.2 0
0.94 -0.013 1.522 -0 -1.2 0
0.977 -0.008 1.568 -0 -1.2 0
1.009 -0.011 1.608 -0 -1.2 0
1.041 -0.014 1.648 -0 -1.2 0
1.083 -0.009 1.702 -0 -1.2 0
1.121 -0.011 1.749 -0 -1.2 0
1.164 -0.009 1.805 -0 -1.2 0
1.208 -0.01 1.86 -0 -1.2 0
1.252 -0.012 1.915 -0 -1.2 0
1.301 -0.013 1.978 -0 -1.2 0
1.357 -0.011 2.048 -0 -1.2 0
1.402 -0.02 2.106 -0 -1.2 0
1.464 -0.019 2.183 -0 -1.2 0
1.532 -0.017 2.269 -0 -1.2 0
1.606 -0.014 2.362 -0 -1.2 0
1.674 -0.019 2.45 -0 -1.2 0
1.761 -0.016 2.559 -0 -1.2 0
1.843 -0.022 2.661 -0 -1.2 0
1.941 -0.021 2.787 -0 -1.2 0
2.041 -0.027 2.912 -0 -1.2 0
2.147 -0.034 3.047 -0 -1.2 0
2.276 -0.035 3.211 -0 -1.2 0
2.414 -0.041 3.384 -0 -1.2 0
2.593 -0.037 3.611 -0 -1.2 0
2.767 -0.045 3.83 -0 -1.2 0
2.935 -0.064 4.043 -0 -1.2 0
3.158 -0.074 4.325 -0 -1.2 0
3.474 -0.069 4.725 -0 -1.2 0
3.827 -0.071 5.171 -0 -1.2 0
4.274 -0.071 5.735 -0 -1.2 0
4.825 -0.072 6.432 -0 -1.2 0
5.507 -0.081 7.294 -0 -1.2 0
6.307 -0.108 8.307 -0 -1.2 0
6.553 -0.254 8.615 -0 -1.2 0
6.551 -0.438 8.609 -0 -1.2 0
6.558 -0.62 8.616 -0 -1.2 0
6.556 -0.803 8.612 -0 -1.2 0
6.567 -0.985 8.622 -0 -1.2 0
6.561 -1.167 8.613 -0 -1.2 0
6.561 -1.35 8.61 -0 -1.2 0
6.565 -1.532 8.613 -0 -1.2 0
6.561 -1.715 8.604 -0 -1.2 0
6.56 -1.898 8.602 -0 -1.2 0
6.564 -2.082 8.604 -0 -1.2 0
6.566 -2.267 8.604 -0 -1.2 0
6.572 -2.453 8.609 -0 -1.2 0
6.57 -2.638 8.604 -0 -1.2 0
6.572 -2.825 8.604 -0 -1.2 0
6.572 -3.013 8.601 -0 -1.2 0
6.576 -3.203 8.603 -0 -1.2 0
6.577 -3.394 8.603 -0 -1.2 0
6.583 -3.588 8.607 -0 -1.2 0
6.58 -3.78 8.601 -0 -1.2 0
6.581 -3.975 8.601 -0 -1.2 0
6.587 -4.174 8.603 -0 -1.2 0
6.589 -4.374 8.604 -0 -1.2 0
6.589 -4.576 8.602 -0 -1.2 0
6.593 -4.781 8.603 -0 -1.2 0
6.594 -4.987 8.602 -0 -1.2 0
6.592 -5.195 8.598 -0 -1.2 0
6.589 -5.404 8.59 -0 -1.2 0
6.588 -5.617 8.587 -0 -1.2 0
6.591 -5.836 8.587 -0 -1.2 0
6.601 -6.065 8.598 -0 -1.2 0
6.598 -6.287 8.59 -0 -1.2 0
6.592 -6.51 8.579 -0 -1.2 0
6.599 -6.749 8.586 -0 -1.2 0
6.599 -6.985 8.581 -0 -1.2 0
6.503 -7.136 8.458 -0 -1.2 0
6.475 -7.351 8.419 -0 -1.2 0
6.513 -7.637 8.463 -0 -1.2 0
6.479 -7.853 8.418 -0 -1.2 0
6.488 -8.122 8.426 -0 -1.2 0
6.586 -8.497 8.545 -0 -1.2 0
6.597 -8.784 8.555 -0 -1.2 0
6.563 -9.026 8.509 -0 -1.2 0
0.757 -0.014 1.242 -0 -1.2 0
0.783 -0.012 1.272 -0 -1.2 0
0.808 -0.01 1.303 -0 -1.2 0
0.835 -0.01 1.334 -0 -1.2 0
0.862 -0.011 1.365 -0 -1.2 0
0.889 -0.013 1.397 -0 -1.2 0
0.916 -0.017 1.43 -0 -1.2 0
0.953 -0.008 1.474 -0 -1.2 0
0.986 -0.007 1.512 -0 -1.2 0
1.009 -0.021 1.538 -0 -1.2 0
1.052 -0.011 1.59 -0 -1.2 0
1.086 -0.015 1.629 -0 -1.2 0
1.13 -0.01 1.682 -0 -1.2 0
1.175 -0.006 1.735 -0 -1.2 0
1.215 -0.01 1.781 -0 -1.2 0
1.261 -0.011 1.835 -0 -1.2 0
1.312 -0.008 1.896 -0 -1.2 0
1.358 -0.013 1.95 -0 -1.2 0
1.411 -0.016 2.012 -0 -1.2 0
1.468 -0.017 2.081 -0 -1.2 0
1.533 -0.016 2.157 -0 -1.2 0
1.593 -0.022 2.226 -0 -1.2 0
1.669 -0.02 2.317 -0 -1.2 0
1.747 -0.02 2.408 -0 -1.2 0
1.825 -0.025 2.501 -0 -1.2 0
1.922 -0.023 2.614 -0 -1.2 0
2.019 -0.027 2.729 -0 -1.2 0
2.123 -0.031 2.851 -0 -1.2 0
2.227 -0.042 2.974 -0 -1.2 0
2.357 -0.046 3.126 -0 -1.2 0
2.524 -0.041 3.324 -0 -1.2 0
2.692 -0.044 3.522 -0 -1.2 0
2.848 -0.061 3.706 -0 -1.2 0
3.03 -0.077 3.92 -0 -1.2 0
3.251 -0.091 4.179 -0 -1.2 0
3.586 -0.083 4.574 -0 -1.2 0
3.91 -0.097 4.956 -0 -1.2 0
4.4 -0.088 5.534 -0 -1.2 0
4.969 -0.09 6.204 -0 -1.2 0
5.667 -0.1 7.027 -0 -1.2 0
6.476 -0.13 7.98 -0 -1.2 0
7.004 -0.239 8.599 -0 -1.2 0
7 -0.427 8.594 -0 -1.2 0
7.002 -0.614 8.592 -0 -1.2 0
7.001 -0.802 8.588 -0 -1.2 0
7.005 -0.988 8.591 -0 -1.2 0
7.006 -1.174 8.589 -0 -1.2 0
7.005 -1.361 8.587 -0 -1.2 0
7.009 -1.549 8.588 -0 -1.2 0
7.004 -1.735 8.579 -0 -1.2 0
7.01 -1.924 8.584 -0 -1.2 0
7.007 -2.111 8.578 -0 -1.2 0
7.015 -2.301 8.586 -0 -1.2 0
7.008 -2.489 8.575 -0 -1.2 0
7.013 -2.68 8.576 -0 -1.2 0
7.013 -2.872 8.576 -0 -1.2 0
7.013 -3.064 8.572 -0 -1.2 0
7.016 -3.258 8.574 -0 -1.2 0
7.024 -3.455 8.58 -0 -1.2 0
7.023 -3.651 8.575 -0 -1.2 0
7.019 -3.847 8.569 -0 -1.2 0
7.026 -4.05 8.574 -0 -1.2 0
7.03 -4.253 8.576 -0 -1.2 0
7.019 -4.453 8.561 -0 -1.2 0
7.025 -4.66 8.565 -0 -1.2 0
7.028 -4.869 8.565 -0 -1.2 0
7.022 -5.077 8.555 -0 -1.2 0
7.032 -5.295 8.564 -0 -1.2 0
7.033 -5.512 8.561 -0 -1.2 0
7.037 -5.734 8.564 -0 -1.2 0
7.038 -5.957 8.561 -0 -1.2 0
7.036 -6.182 8.557 -0 -1.2 0
7.031 -6.409 8.547 -0 -1.2 0
7.023 -6.636 8.536 -0 -1.2 0
7.035 -6.884 8.546 -0 -1.2 0
7.118 -7.197 8.639 -0 -1.2 0
6.908 -7.259 8.391 -0 -1.2 0
6.905 -7.503 8.385 -0 -1.2 0
6.9 -7.749 8.374 -0 -1.2 0
6.922 -8.031 8.398 -0 -1.2 0
6.877 -8.246 8.341 -0 -1.2 0
7.014 -8.665 8.497 -0 -1.2 0
6.997 -8.926 8.473 -0 -1.2 0
0.79 -0.007 1.239 -0 -1.2 0
0.817 -0.005 1.269 -0 -1.2 0
0.839 -0.011 1.294 -0 -1.2 0
0.867 -0.01 1.324 -0 -1.2 0
0.894 -0.012 1.354 -0 -1.2 0
0.917 -0.019 1.38 -0 -1.2 0
0.95 -0.017 1.417 -0 -1.2 0
0.99 -0.008 1.459 -0 -1.2 0
1.024 -0.008 1.497 -0 -1.2 0
1.052 -0.015 1.528 -0 -1.2 0
1.097 -0.006 1.579 -0 -1.2 0
1.138 -0.004 1.623 -0 -1.2 0
1.172 -0.011 1.662 -0 -1.2 0
1.225 -0.001 1.72 -0 -1.2 0
1.261 -0.01 1.759 -0 -1.2 0
1.308 -0.012 1.811 -0 -1.2 0
1.361 -0.009 1.869 -0 -1.2 0
1.415 -0.009 1.93 -0 -1.2 0
1.475 -0.007 1.996 -0 -1.2 0
1.524 -0.018 2.049 -0 -1.2 0
1.597 -0.012 2.13 -0 -1.2 0
1.664 -0.014 2.204 -0 -1.2 0
1.732 -0.02 2.28 -0 -1.2 0
1.812 -0.021 2.368 -0 -1.2 0
1.9 -0.022 2.465 -0 -1.2 0
2 -0.021 2.576 -0 -1.2 0
2.095 -0.028 2.68 -0 -1.2 0
2.197 -0.036 2.792 -0 -1.2 0
2.324 -0.037 2.933 -0 -1.2 0
2.471 -0.036 3.095 -0 -1.2 0
2.625 -0.039 3.266 -0 -1.2 0
2.793 -0.046 3.451 -0 -1.2 0
2.962 -0.06 3.637 -0 -1.2 0
3.163 -0.073 3.859 -0 -1.2 0
3.438 -0.074 4.163 -0 -1.2 0
3.72 -0.085 4.474 -0 -1.2 0
4.069 -0.096 4.859 -0 -1.2 0
4.558 -0.093 5.399 -0 -1.2 0
5.208 -0.084 6.118 -0 -1.2 0
5.919 -0.097 6.903 -0 -1.2 0
6.805 -0.122 7.881 -0 -1.2 0
7.445 -0.223 8.586 -0 -1.2 0
7.449 -0.415 8.589 -0 -1.2 0
7.45 -0.608 8.588 -0 -1.2 0
7.45 -0.8 8.584 -0 -1.2 0
7.453 -0.991 8.585 -0 -1.2 0
7.448 -1.182 8.577 -0 -1.2 0
7.454 -1.374 8.581 -0 -1.2 0
7.458 -1.566 8.582 -0 -1.2 0
7.459 -1.759 8.581 -0 -1.2 0
7.458 -1.951 8.577 -0 -1.2 0
7.462 -2.144 8.579 -0 -1.2 0
7.463 -2.338 8.578 -0 -1.2 0
7.462 -2.533 8.574 -0 -1.2 0
7.466 -2.728 8.575 -0 -1.2 0
7.459 -2.923 8.566 -0 -1.2 0
7.465 -3.122 8.57 -0 -1.2 0
7.468 -3.321 8.57 -0 -1.2 0
7.461 -3.519 8.56 -0 -1.2 0
7.466 -3.722 8.562 -0 -1.2 0
7.468 -3.926 8.561 -0 -1.2 0
7.468 -4.13 8.559 -0 -1.2 0
7.464 -4.335 8.552 -0 -1.2 0
7.472 -4.547 8.557 -0 -1.2 0
7.476 -4.761 8.559 -0 -1.2 0
7.478 -4.975 8.559 -0 -1.2 0
7.477 -5.191 8.554 -0 -1.2 0
7.486 -5.415 8.561 -0 -1.2 0
7.479 -5.632 8.55 -0 -1.2 0
7.488 -5.863 8.556 -0 -1.2 0
7.482 -6.087 8.547 -0 -1.2 0
7.472 -6.312 8.533 -0 -1.2 0
7.477 -6.552 8.536 -0 -1.2 0
7.479 -6.793 8.535 -0 -1.2 0
7.496 -7.051 8.55 -0 -1.2 0
7.327 -7.158 8.361 -0 -1.2 0
7.326 -7.405 8.357 -0 -1.2 0
7.344 -7.675 8.373 -0 -1.2 0
7.336 -7.926 8.361 -0 -1.2 0
7.329 -8.184 8.35 -0 -1.2 0
7.464 -8.591 8.493 -0 -1.2 0
7.454 -8.862 8.477 -0 -1.2 0
7.411 -9.104 8.428 -0 -1.2 0
0.817 -0.008 1.231 -0 -1.2 0
0.841 -0.012 1.255 -0 -1.2 0
0.868 -0.011 1.284 -0 -1.2 0
0.897 -0.01 1.313 -0 -1.2 0
0.925 -0.012 1.343 -0 -1.2 0
0.949 -0.02 1.368 -0 -1.2 0
0.988 -0.01 1.409 -0 -1.2 0
1.029 -0.003 1.45 -0 -1.2 0
1.059 -0.008 1.482 -0 -1.2 0
1.1 -0.004 1.524 -0 -1.2 0
1.135 -0.006 1.56 -0 -1.2 0
1.171 -0.011 1.597 -0 -1.2 0
1.213 -0.011 1.642 -0 -1.2 0
1.261 -0.008 1.691 -0 -1.2 0
1.316 -0.001 1.748 -0 -1.2 0
1.353 -0.012 1.786 -0 -1.2 0
1.414 -0.004 1.849 -0 -1.2 0
1.47 -0.005 1.908 -0 -1.2 0
1.526 -0.008 1.966 -0 -1.2 0
1.589 -0.009 2.031 -0 -1.2 0
1.658 -0.008 2.102 -0 -1.2 0
1.722 -0.015 2.169 -0 -1.2 0
1.804 -0.013 2.254 -0 -1.2 0
1.882 -0.018 2.334 -0 -1.2 0
1.978 -0.016 2.435 -0 -1.2 0
2.069 -0.022 2.528 -0 -1.2 0
2.167 -0.029 2.63 -0 -1.2 0
2.285 -0.031 2.752 -0 -1.2 0
2.417 -0.033 2.889 -0 -1.2 0
2.562 -0.035 3.04 -0 -1.2 0
2.721 -0.039 3.205 -0 -1.2 0
2.882 -0.05 3.372 -0 -1.2 0
3.077 -0.057 3.573 -0 -1.2 0
3.312 -0.062 3.818 -0 -1.2 0
3.569 -0.071 4.084 -0 -1.2 0
3.882 -0.079 4.408 -0 -1.2 0
4.263 -0.085 4.803 -0 -1.2 0
4.748 -0.089 5.307 -0 -1.2 0
5.407 -0.083 5.99 -0 -1.2 0
6.177 -0.091 6.788 -0 -1.2 0
7.08 -0.121 7.724 -0 -1.2 0
7.914 -0.203 8.589 -0 -1.2 0
7.912 -0.402 8.583 -0 -1.2 0
7.907 -0.599 8.575 -0 -1.2 0
7.919 -0.796 8.586 -0 -1.2 0
7.916 -0.993 8.58 -0 -1.2 0
7.924 -1.19 8.586 -0 -1.2 0
7.924 -1.387 8.582 -0 -1.2 0
7.928 -1.584 8.583 -0 -1.2 0
7.928 -1.782 8.581 -0 -1.2 0
7.927 -1.98 8.577 -0 -1.2 0
7.931 -2.179 8.578 -0 -1.2 0
7.918 -2.376 8.562 -0 -1.2 0
7.93 -2.578 8.572 -0 -1.2 0
7.933 -2.779 8.572 -0 -1.2 0
7.927 -2.979 8.563 -0 -1.2 0
7.945 -3.187 8.579 -0 -1.2 0
7.94 -3.39 8.571 -0 -1.2 0
7.947 -3.597 8.575 -0 -1.2 0
7.944 -3.804 8.569 -0 -1.2 0
7.945 -4.013 8.567 -0 -1.2 0
7.949 -4.226 8.569 -0 -1.2 0
7.952 -4.44 8.569 -0 -1.2 0
7.958 -4.657 8.572 -0 -1.2 0
7.955 -4.873 8.566 -0 -1.2 0
7.955 -5.093 8.563 -0 -1.2 0
7.953 -5.314 8.558 -0 -1.2 0
7.954 -5.54 8.555 -0 -1.2 0
7.958 -5.771 8.557 -0 -1.2 0
7.959 -6.003 8.555 -0 -1.2 0
7.95 -6.233 8.543 -0 -1.2 0
7.952 -6.472 8.54 -0 -1.2 0
7.943 -6.708 8.528 -0 -1.2 0
7.943 -6.955 8.525 -0 -1.2 0
7.91 -7.18 8.486 -0 -1.2 0
7.8 -7.345 8.37 -0 -1.2 0
7.814 -7.613 8.382 -0 -1.2 0
7.801 -7.862 8.365 -0 -1.2 0
7.801 -8.129 8.362 -0 -1.2 0
7.927 -8.52 8.485 -0 -1.2 0
7.928 -8.806 8.484 -0 -1.2 0
7.892 -9.058 8.443 -0 -1.2 0
0.841 -0.015 1.216 -0 -1.2 0
0.869 -0.012 1.244 -0 -1.2 0
0.904 -0.004 1.277 -0 -1.2 0
0.928 -0.011 1.301 -0 -1.2 0
0.958 -0.012 1.329 -0 -1.2 0
0.987 -0.014 1.358 -0 -1.2 0
1.023 -0.011 1.393 -0 -1.2 0
1.064 -0.003 1.433 -0 -1.2 0
1.095 -0.009 1.463 -0 -1.2 0
1.132 -0.01 1.498 -0 -1.2 0
1.175 -0.007 1.54 -0 -1.2 0
1.211 -0.011 1.576 -0 -1.2 0
1.261 -0.006 1.624 -0 -1.2 0
1.305 -0.008 1.666 -0 -1.2 0
1.355 -0.006 1.714 -0 -1.2 0
1.406 -0.008 1.764 -0 -1.2 0
1.456 -0.01 1.813 -0 -1.2 0
1.521 -0.005 1.875 -0 -1.2 0
1.578 -0.009 1.931 -0 -1.2 0
1.644 -0.01 1.994 -0 -1.2 0
1.715 -0.009 2.064 -0 -1.2 0
1.781 -0.016 2.127 -0 -1.2 0
1.86 -0.018 2.204 -0 -1.2 0
1.946 -0.019 2.288 -0 -1.2 0
2.046 -0.017 2.385 -0 -1.2 0
2.134 -0.027 2.469 -0 -1.2 0
2.242 -0.03 2.574 -0 -1.2 0
2.35 -0.038 2.679 -0 -1.2 0
2.507 -0.031 2.831 -0 -1.2 0
2.658 -0.033 2.977 -0 -1.2 0
2.801 -0.046 3.117 -0 -1.2 0
2.988 -0.049 3.298 -0 -1.2 0
3.21 -0.05 3.513 -0 -1.2 0
3.44 -0.06 3.736 -0 -1.2 0
3.679 -0.078 3.966 -0 -1.2 0
3.994 -0.087 4.273 -0 -1.2 0
4.389 -0.093 4.655 -0 -1.2 0
4.891 -0.096 5.142 -0 -1.2 0
5.586 -0.087 5.816 -0 -1.2 0
6.375 -0.098 6.581 -0 -1.2 0
7.324 -0.126 7.499 -0 -1.2 0
8.437 -0.181 8.578 -0 -1.2 0
8.435 -0.385 8.572 -0 -1.2 0
8.429 -0.589 8.565 -0 -1.2 0
8.435 -0.792 8.568 -0 -1.2 0
8.44 -0.995 8.569 -0 -1.2 0
8.441 -1.198 8.567 -0 -1.2 0
8.439 -1.401 8.564 -0 -1.2 0
8.443 -1.604 8.564 -0 -1.2 0
8.445 -1.808 8.563 -0 -1.2 0
8.443 -2.012 8.558 -0 -1.2 0
8.445 -2.216 8.558 -0 -1.2 0
8.446 -2.422 8.556 -0 -1.2 0
8.444 -2.627 8.551 -0 -1.2 0
8.447 -2.834 8.55 -0 -1.2 0
8.461 -3.045 8.56 -0 -1.2 0
8.457 -3.254 8.554 -0 -1.2 0
8.451 -3.462 8.546 -0 -1.2 0
8.457 -3.676 8.549 -0 -1.2 0
8.467 -3.893 8.555 -0 -1.2 0
8.46 -4.106 8.545 -0 -1.2 0
8.464 -4.324 8.546 -0 -1.2 0
8.459 -4.541 8.537 -0 -1.2 0
8.464 -4.765 8.539 -0 -1.2 0
8.466 -4.989 8.538 -0 -1.2 0
8.465 -5.215 8.534 -0 -1.2 0
8.467 -5.445 8.532 -0 -1.2 0
8.466 -5.677 8.529 -0 -1.2 0
8.469 -5.914 8.528 -0 -1.2 0
8.475 -6.156 8.531 -0 -1.2 0
8.458 -6.387 8.51 -0 -1.2 0
8.463 -6.636 8.512 -0 -1.2 0
8.465 -6.887 8.511 -0 -1.2 0
8.597 -7.237 8.634 -0 -1.2 0
8.311 -7.284 8.356 -0 -1.2 0
8.303 -7.537 8.344 -0 -1.2 0
8.316 -7.81 8.353 -0 -1.2 0
8.3 -8.066 8.334 -0 -1.2 0
8.426 -8.452 8.45 -0 -1.2 0
8.436 -8.746 8.456 -0 -1.2 0
8.406 -9.008 8.423 -0 -1.2 0
0.871 -0.008 1.211 -0 -1.2 0
0.901 -0.006 1.238 -0 -1.2 0
0.931 -0.004 1.266 -0 -1.2 0
0.955 -0.011 1.288 -0 -1.2 0
0.992 -0.005 1.321 -0 -1.2 0
1.017 -0.014 1.344 -0 -1.2 0
1.059 -0.005 1.383 -0 -1.2 0
1.091 -0.009 1.411 -0 -1.2 0
1.128 -0.009 1.445 -0 -1.2 0
1.171 -0.004 1.485 -0 -1.2 0
1.21 -0.007 1.519 -0 -1.2 0
1.254 -0.005 1.56 -0 -1.2 0
1.305 -0.001 1.606 -0 -1.2 0
1.344 -0.008 1.642 -0 -1.2 0
1.395 -0.007 1.688 -0 -1.2 0
1.448 -0.008 1.736 -0 -1.2 0
1.501 -0.011 1.784 -0 -1.2 0
1.566 -0.006 1.844 -0 -1.2 0
1.626 -0.009 1.899 -0 -1.2 0
1.693 -0.01 1.959 -0 -1.2 0
1.773 -0.006 2.032 -0 -1.2 0
1.854 -0.005 2.107 -0 -1.2 0
1.936 -0.007 2.181 -0 -1.2 0
2.004 -0.02 2.243 -0 -1.2 0
2.114 -0.015 2.343 -0 -1.2 0
2.204 -0.024 2.425 -0 -1.2 0
2.316 -0.027 2.526 -0 -1.2 0
2.448 -0.027 2.647 -0 -1.2 0
2.589 -0.029 2.775 -0 -1.2 0
2.737 -0.035 2.91 -0 -1.2 0
2.879 -0.049 3.038 -0 -1.2 0
3.099 -0.043 3.239 -0 -1.2 0
3.321 -0.047 3.441 -0 -1.2 0
3.558 -0.056 3.657 -0 -1.2 0
3.788 -0.079 3.866 -0 -1.2 0
4.106 -0.09 4.156 -0 -1.2 0
4.542 -0.09 4.552 -0 -1.2 0
5.059 -0.094 5.022 -0 -1.2 0
5.731 -0.094 5.635 -0 -1.2 0
6.617 -0.093 6.442 -0 -1.2 0
7.659 -0.114 7.391 -0 -1.2 0
8.932 -0.16 8.549 -0 -1.2 0
8.951 -0.367 8.563 -0 -1.2 0
8.961 -0.577 8.569 -0 -1.2 0
8.961 -0.787 8.566 -0 -1.2 0
8.965 -0.996 8.567 -0 -1.2 0
8.966 -1.205 8.565 -0 -1.2 0
8.965 -1.415 8.561 -0 -1.2 0
8.968 -1.625 8.561 -0 -1.2 0
8.962 -1.834 8.552 -0 -1.2 0
8.975 -2.046 8.561 -0 -1.2 0
8.97 -2.256 8.553 -0 -1.2 0
8.977 -2.469 8.557 -0 -1.2 0
8.981 -2.682 8.557 -0 -1.2 0
8.983 -2.896 8.556 -0 -1.2 0
8.997 -3.114 8.566 -0 -1.2 0
8.985 -3.327 8.552 -0 -1.2 0
9 -3.549 8.563 -0 -1.2 0
8.998 -3.767 8.557 -0 -1.2 0
9.007 -3.99 8.562 -0 -1.2 0
9.006 -4.213 8.557 -0 -1.2 0
9.001 -4.435 8.55 -0 -1.2 0
9.001 -4.662 8.547 -0 -1.2 0
9.004 -4.892 8.546 -0 -1.2 0
9.005 -5.124 8.544 -0 -1.2 0
9.009 -5.36 8.544 -0 -1.2 0
9.01 -5.597 8.541 -0 -1.2 0
9 -5.832 8.529 -0 -1.2 0
9.015 -6.083 8.539 -0 -1.2 0
8.992 -6.316 8.514 -0 -1.2 0
8.992 -6.566 8.51 -0 -1.2 0
8.988 -6.817 8.504 -0 -1.2 0
9.061 -7.124 8.566 -0 -1.2 0
8.752 -7.172 8.285 -0 -1.2 0
