# .PCD v.7 - Point Cloud Data file format
FIELDS x y z vp_x vp_y vp_z
SIZE 4 4 4 4 4 4
TYPE F F F F F F
COUNT 1 1 1 1 1 1
WIDTH 1500
HEIGHT 1
VIEWPOINT 0 -1.20013 0 1 0 0 0
POINTS 1500
DATA ascii
27.824 -2.265 -11.375 -0 -1.2 0
27.803 -2.787 -11.362 -0 -1.2 0
27.772 -3.31 -11.347 -0 -1.2 0
27.733 -3.831 -11.327 -0 -1.2 0
27.687 -4.353 -11.305 -0 -1.2 0
27.631 -4.873 -11.278 -0 -1.2 0
27.567 -5.392 -11.248 -0 -1.2 0
27.495 -5.909 -11.215 -0 -1.2 0
27.414 -6.425 -11.178 -0 -1.2 0
27.325 -6.939 -11.139 -0 -1.2 0
27.228 -7.452 -11.096 -0 -1.2 0
27.122 -7.963 -11.049 -0 -1.2 0
27.009 -8.471 -10.999 -0 -1.2 0
26.887 -8.978 -10.946 -0 -1.2 0
26.756 -9.482 -10.889 -0 -1.2 0
26.618 -9.983 -10.83 -0 -1.2 0
26.472 -10.482 -10.767 -0 -1.2 0
26.317 -10.978 -10.7 -0 -1.2 0
26.155 -11.471 -10.631 -0 -1.2 0
25.984 -11.961 -10.558 -0 -1.2 0
25.806 -12.446 -10.483 -0 -1.2 0
25.62 -12.93 -10.403 -0 -1.2 0
25.426 -13.409 -10.321 -0 -1.2 0
25.224 -13.885 -10.236 -0 -1.2 0
25.015 -14.356 -10.147 -0 -1.2 0
24.798 -14.824 -10.056 -0 -1.2 0
24.573 -15.287 -9.961 -0 -1.2 0
24.34 -15.747 -9.864 -0 -1.2 0
24.101 -16.201 -9.763 -0 -1.2 0
23.854 -16.651 -9.659 -0 -1.2 0
23.601 -17.097 -9.553 -0 -1.2 0
23.339 -17.537 -9.444 -0 -1.2 0
23.071 -17.973 -9.332 -0 -1.2 0
22.795 -18.403 -9.217 -0 -1.2 0
22.514 -18.828 -9.099 -0 -1.2 0
22.225 -19.247 -8.979 -0 -1.2 0
21.929 -19.661 -8.855 -0 -1.2 0
21.627 -20.07 -8.73 -0 -1.2 0
21.317 -20.472 -8.601 -0 -1.2 0
21.002 -20.869 -8.47 -0 -1.2 0
20.68 -21.26 -8.337 -0 -1.2 0
20.352 -21.645 -8.201 -0 -1.2 0
20.018 -22.023 -8.062 -0 -1.2 0
27.472 -1.228 -12.263 -0 -1.2 0
27.468 -1.751 -12.257 -0 -1.2 0
27.455 -2.275 -12.247 -0 -1.2 0
27.433 -2.798 -12.233 -0 -1.2 0
27.404 -3.32 -12.216 -0 -1.2 0
27.365 -3.842 -12.195 -0 -1.2 0
27.318 -4.364 -12.171 -0 -1.2 0
27.264 -4.883 -12.142 -0 -1.2 0
27.201 -5.402 -12.11 -0 -1.2 0
27.13 -5.919 -12.075 -0 -1.2 0
27.05 -6.436 -12.036 -0 -1.2 0
26.962 -6.95 -11.992 -0 -1.2 0
26.866 -7.462 -11.946 -0 -1.2 0
26.762 -7.973 -11.896 -0 -1.2 0
26.65 -8.482 -11.843 -0 -1.2 0
26.529 -8.988 -11.785 -0 -1.2 0
26.401 -9.492 -11.724 -0 -1.2 0
26.264 -9.993 -11.66 -0 -1.2 0
26.119 -10.492 -11.592 -0 -1.2 0
25.967 -10.988 -11.521 -0 -1.2 0
25.807 -11.481 -11.446 -0 -1.2 0
25.639 -11.97 -11.368 -0 -1.2 0
25.463 -12.456 -11.286 -0 -1.2 0
25.28 -12.94 -11.201 -0 -1.2 0
25.088 -13.419 -11.113 -0 -1.2 0
24.888 -13.894 -11.02 -0 -1.2 0
24.682 -14.365 -10.925 -0 -1.2 0
24.468 -14.834 -10.827 -0 -1.2 0
24.247 -15.297 -10.725 -0 -1.2 0
24.018 -15.756 -10.62 -0 -1.2 0
23.782 -16.211 -10.512 -0 -1.2 0
23.538 -16.66 -10.4 -0 -1.2 0
23.287 -17.106 -10.286 -0 -1.2 0
23.03 -17.546 -10.168 -0 -1.2 0
22.765 -17.981 -10.048 -0 -1.2 0
22.493 -18.411 -9.924 -0 -1.2 0
22.215 -18.836 -9.797 -0 -1.2 0
21.93 -19.256 -9.668 -0 -1.2 0
21.638 -19.67 -9.535 -0 -1.2 0
21.34 -20.078 -9.399 -0 -1.2 0
21.034 -20.481 -9.261 -0 -1.2 0
20.723 -20.877 -9.12 -0 -1.2 0
20.405 -21.268 -8.976 -0 -1.2 0
20.082 -21.652 -8.829 -0 -1.2 0
19.752 -22.031 -8.681 -0 -1.2 0
27.038 0.328 -13.118 -0 -1.2 0
27.059 -0.193 -13.124 -0 -1.2 0
27.071 -0.716 -13.125 -0 -1.2 0
27.075 -1.239 -13.123 -0 -1.2 0
27.069 -1.762 -13.116 -0 -1.2 0
27.057 -2.287 -13.106 -0 -1.2 0
27.035 -2.809 -13.091 -0 -1.2 0
27.006 -3.331 -13.073 -0 -1.2 0
26.968 -3.853 -13.05 -0 -1.2 0
26.923 -4.375 -13.025 -0 -1.2 0
26.869 -4.894 -12.994 -0 -1.2 0
26.807 -5.413 -12.959 -0 -1.2 0
26.736 -5.93 -12.921 -0 -1.2 0
26.657 -6.447 -12.88 -0 -1.2 0
26.572 -6.961 -12.834 -0 -1.2 0
26.477 -7.473 -12.785 -0 -1.2 0
26.374 -7.984 -12.731 -0 -1.2 0
26.263 -8.492 -12.673 -0 -1.2 0
26.145 -8.999 -12.612 -0 -1.2 0
26.018 -9.503 -12.547 -0 -1.2 0
25.884 -10.004 -12.479 -0 -1.2 0
25.742 -10.503 -12.406 -0 -1.2 0
25.591 -10.998 -12.33 -0 -1.2 0
25.433 -11.491 -12.249 -0 -1.2 0
25.267 -11.981 -12.165 -0 -1.2 0
25.094 -12.466 -12.078 -0 -1.2 0
24.913 -12.95 -11.987 -0 -1.2 0
24.724 -13.429 -11.892 -0 -1.2 0
24.528 -13.905 -11.794 -0 -1.2 0
24.325 -14.375 -11.692 -0 -1.2 0
24.113 -14.844 -11.587 -0 -1.2 0
23.895 -15.307 -11.477 -0 -1.2 0
23.67 -15.766 -11.365 -0 -1.2 0
23.437 -16.22 -11.249 -0 -1.2 0
22.95 -17.115 -11.008 -0 -1.2 0
22.696 -17.555 -10.882 -0 -1.2 0
22.168 -18.42 -10.62 -0 -1.2 0
21.894 -18.845 -10.485 -0 -1.2 0
21.612 -19.264 -10.346 -0 -1.2 0
21.325 -19.679 -10.204 -0 -1.2 0
21.031 -20.087 -10.059 -0 -1.2 0
20.731 -20.489 -9.911 -0 -1.2 0
20.424 -20.885 -9.76 -0 -1.2 0
20.111 -21.276 -9.607 -0 -1.2 0
19.791 -21.66 -9.45 -0 -1.2 0
19.466 -22.039 -9.29 -0 -1.2 0
26.576 0.317 -14.04 -0 -1.2 0
26.595 -0.205 -14.046 -0 -1.2 0
26.607 -0.728 -14.047 -0 -1.2 0
26.61 -1.251 -14.045 -0 -1.2 0
26.606 -1.774 -14.038 -0 -1.2 0
26.593 -2.298 -14.027 -0 -1.2 0
26.572 -2.821 -14.012 -0 -1.2 0
26.543 -3.343 -13.992 -0 -1.2 0
26.507 -3.865 -13.968 -0 -1.2 0
26.461 -4.386 -13.94 -0 -1.2 0
26.409 -4.906 -13.908 -0 -1.2 0
26.348 -5.425 -13.872 -0 -1.2 0
26.279 -5.942 -13.831 -0 -1.2 0
26.202 -6.458 -13.786 -0 -1.2 0
26.117 -6.972 -13.737 -0 -1.2 0
26.024 -7.485 -13.684 -0 -1.2 0
25.923 -7.995 -13.627 -0 -1.2 0
25.814 -8.504 -13.565 -0 -1.2 0
25.698 -9.01 -13.5 -0 -1.2 0
25.574 -9.514 -13.431 -0 -1.2 0
25.441 -10.015 -13.357 -0 -1.2 0
25.301 -10.514 -13.279 -0 -1.2 0
25.153 -11.009 -13.197 -0 -1.2 0
24.835 -11.992 -13.021 -0 -1.2 0
24.665 -12.477 -12.928 -0 -1.2 0
24.487 -12.961 -12.83 -0 -1.2 0
24.301 -13.439 -12.729 -0 -1.2 0
24.109 -13.915 -12.624 -0 -1.2 0
23.909 -14.386 -12.515 -0 -1.2 0
23.702 -14.854 -12.402 -0 -1.2 0
23.487 -15.317 -12.286 -0 -1.2 0
23.266 -15.776 -12.165 -0 -1.2 0
23.036 -16.23 -12.041 -0 -1.2 0
22.309 -17.565 -11.648 -0 -1.2 0
21.789 -18.43 -11.368 -0 -1.2 0
21.244 -19.274 -11.074 -0 -1.2 0
20.961 -19.688 -10.923 -0 -1.2 0
20.673 -20.096 -10.767 -0 -1.2 0
20.376 -20.498 -10.609 -0 -1.2 0
20.075 -20.894 -10.447 -0 -1.2 0
19.768 -21.284 -10.283 -0 -1.2 0
19.454 -21.669 -10.114 -0 -1.2 0
19.135 -22.047 -9.944 -0 -1.2 0
26.092 0.829 -14.866 -0 -1.2 0
26.119 0.306 -14.876 -0 -1.2 0
26.139 -0.216 -14.883 -0 -1.2 0
26.15 -0.739 -14.885 -0 -1.2 0
26.154 -1.262 -14.882 -0 -1.2 0
26.149 -1.785 -14.875 -0 -1.2 0
26.137 -2.309 -14.863 -0 -1.2 0
26.116 -2.832 -14.847 -0 -1.2 0
26.088 -3.354 -14.826 -0 -1.2 0
26.053 -3.876 -14.801 -0 -1.2 0
26.009 -4.397 -14.771 -0 -1.2 0
25.956 -4.917 -14.737 -0 -1.2 0
25.896 -5.436 -14.699 -0 -1.2 0
25.829 -5.953 -14.656 -0 -1.2 0
25.753 -6.469 -14.608 -0 -1.2 0
25.669 -6.983 -14.556 -0 -1.2 0
25.578 -7.496 -14.5 -0 -1.2 0
25.479 -8.006 -14.439 -0 -1.2 0
25.372 -8.515 -14.374 -0 -1.2 0
25.257 -9.021 -14.305 -0 -1.2 0
25.135 -9.525 -14.231 -0 -1.2 0
25.006 -10.026 -14.153 -0 -1.2 0
24.868 -10.525 -14.071 -0 -1.2 0
24.723 -11.02 -13.984 -0 -1.2 0
24.57 -11.513 -13.894 -0 -1.2 0
24.243 -12.487 -13.699 -0 -1.2 0
24.068 -12.971 -13.596 -0 -1.2 0
23.886 -13.449 -13.489 -0 -1.2 0
23.697 -13.925 -13.377 -0 -1.2 0
23.5 -14.396 -13.261 -0 -1.2 0
23.297 -14.864 -13.142 -0 -1.2 0
23.085 -15.327 -13.019 -0 -1.2 0
22.868 -15.786 -12.891 -0 -1.2 0
22.643 -16.24 -12.76 -0 -1.2 0
22.412 -16.689 -12.625 -0 -1.2 0
20.319 -20.104 -11.41 -0 -1.2 0
20.029 -20.506 -11.241 -0 -1.2 0
19.733 -20.902 -11.07 -0 -1.2 0
19.431 -21.293 -10.896 -0 -1.2 0
19.122 -21.677 -10.718 -0 -1.2 0
18.809 -22.055 -10.536 -0 -1.2 0
25.664 0.294 -15.656 -0 -1.2 0
25.682 -0.227 -15.663 -0 -1.2 0
25.694 -0.75 -15.664 -0 -1.2 0
25.697 -1.273 -15.662 -0 -1.2 0
25.693 -1.796 -15.654 -0 -1.2 0
25.681 -2.321 -15.642 -0 -1.2 0
25.661 -2.843 -15.625 -0 -1.2 0
25.633 -3.365 -15.603 -0 -1.2 0
25.598 -3.887 -15.577 -0 -1.2 0
25.555 -4.408 -15.545 -0 -1.2 0
25.503 -4.928 -15.51 -0 -1.2 0
25.444 -5.447 -15.469 -0 -1.2 0
25.378 -5.964 -15.423 -0 -1.2 0
25.303 -6.48 -15.373 -0 -1.2 0
25.222 -6.994 -15.32 -0 -1.2 0
25.132 -7.506 -15.26 -0 -1.2 0
25.035 -8.017 -15.197 -0 -1.2 0
24.929 -8.525 -15.127 -0 -1.2 0
24.817 -9.032 -15.054 -0 -1.2 0
24.697 -9.536 -14.977 -0 -1.2 0
24.569 -10.036 -14.895 -0 -1.2 0
24.434 -10.535 -14.809 -0 -1.2 0
24.292 -11.03 -14.718 -0 -1.2 0
24.142 -11.523 -14.622 -0 -1.2 0
23.82 -12.498 -14.418 -0 -1.2 0
23.284 -13.935 -14.079 -0 -1.2 0
21.786 -17.144 -13.141 -0 -1.2 0
19.68 -20.515 -11.832 -0 -1.2 0
19.389 -20.911 -11.651 -0 -1.2 0
19.093 -21.301 -11.467 -0 -1.2 0
18.789 -21.685 -11.28 -0 -1.2 0
18.481 -22.063 -11.089 -0 -1.2 0
25.169 0.287 -16.444 -0 -1.2 0
25.187 -0.235 -16.451 -0 -1.2 0
25.198 -0.758 -16.453 -0 -1.2 0
25.202 -1.281 -16.45 -0 -1.2 0
25.198 -1.804 -16.442 -0 -1.2 0
25.186 -2.328 -16.429 -0 -1.2 0
25.167 -2.85 -16.411 -0 -1.2 0
25.14 -3.373 -16.387 -0 -1.2 0
25.105 -3.894 -16.36 -0 -1.2 0
25.064 -4.416 -16.327 -0 -1.2 0
25.013 -4.936 -16.29 -0 -1.2 0
24.956 -5.454 -16.246 -0 -1.2 0
24.89 -5.971 -16.199 -0 -1.2 0
24.818 -6.487 -16.147 -0 -1.2 0
24.738 -7.001 -16.089 -0 -1.2 0
24.65 -7.514 -16.027 -0 -1.2 0
24.554 -8.024 -15.96 -0 -1.2 0
24.452 -8.532 -15.887 -0 -1.2 0
24.342 -9.039 -15.811 -0 -1.2 0
24.224 -9.543 -15.73 -0 -1.2 0
24.1 -10.043 -15.643 -0 -1.2 0
23.967 -10.542 -15.552 -0 -1.2 0
23.827 -11.037 -15.457 -0 -1.2 0
23.681 -11.53 -15.356 -0 -1.2 0
23.527 -12.019 -15.251 -0 -1.2 0
23.366 -12.505 -15.141 -0 -1.2 0
22.651 -14.412 -14.658 -0 -1.2 0
22.455 -14.88 -14.525 -0 -1.2 0
18.732 -21.306 -12.041 -0 -1.2 0
18.133 -22.069 -11.644 -0 -1.2 0
24.72 0.283 -17.116 -0 -1.2 0
24.739 -0.239 -17.123 -0 -1.2 0
24.754 -1.285 -17.122 -0 -1.2 0
24.751 -1.808 -17.114 -0 -1.2 0
24.74 -2.332 -17.1 -0 -1.2 0
24.72 -2.854 -17.08 -0 -1.2 0
24.695 -3.377 -17.056 -0 -1.2 0
24.66 -3.898 -17.027 -0 -1.2 0
24.62 -4.42 -16.993 -0 -1.2 0
24.571 -4.939 -16.954 -0 -1.2 0
24.514 -5.458 -16.909 -0 -1.2 0
24.451 -5.975 -16.86 -0 -1.2 0
24.38 -6.491 -16.805 -0 -1.2 0
24.301 -7.005 -16.745 -0 -1.2 0
24.216 -7.518 -16.68 -0 -1.2 0
24.022 -8.536 -16.535 -0 -1.2 0
23.914 -9.043 -16.455 -0 -1.2 0
23.41 -11.041 -16.085 -0 -1.2 0
24.262 0.278 -17.764 -0 -1.2 0
24.281 -0.244 -17.771 -0 -1.2 0
24.297 -1.289 -17.769 -0 -1.2 0
24.293 -1.813 -17.761 -0 -1.2 0
24.282 -2.337 -17.747 -0 -1.2 0
24.265 -2.859 -17.727 -0 -1.2 0
24.24 -3.381 -17.702 -0 -1.2 0
24.207 -3.903 -17.671 -0 -1.2 0
24.166 -4.425 -17.635 -0 -1.2 0
24.119 -4.944 -17.595 -0 -1.2 0
24.064 -5.463 -17.548 -0 -1.2 0
24.002 -5.98 -17.496 -0 -1.2 0
23.933 -6.496 -17.44 -0 -1.2 0
23.856 -7.01 -17.377 -0 -1.2 0
23.477 -9.047 -17.075 -0 -1.2 0
22.843 -11.538 -16.583 -0 -1.2 0
21.268 -15.809 -15.382 -0 -1.2 0
17.508 -22.075 -12.564 -0 -1.2 0
23.767 -1.297 -18.476 -0 -1.2 0
23.765 -1.82 -18.467 -0 -1.2 0
23.754 -2.344 -18.452 -0 -1.2 0
23.737 -2.866 -18.432 -0 -1.2 0
23.713 -3.388 -18.405 -0 -1.2 0
23.681 -3.91 -18.373 -0 -1.2 0
23.641 -4.432 -18.336 -0 -1.2 0
23.596 -4.951 -18.293 -0 -1.2 0
23.542 -5.47 -18.245 -0 -1.2 0
23.482 -5.987 -18.191 -0 -1.2 0
23.415 -6.503 -18.132 -0 -1.2 0
23.339 -7.017 -18.067 -0 -1.2 0
23.264 -1.304 -19.108 -0 -1.2 0
23.262 -1.827 -19.098 -0 -1.2 0
23.252 -2.351 -19.082 -0 -1.2 0
23.236 -2.873 -19.061 -0 -1.2 0
23.211 -3.396 -19.034 -0 -1.2 0
23.181 -3.917 -19.001 -0 -1.2 0
23.143 -4.439 -18.962 -0 -1.2 0
23.099 -4.959 -18.918 -0 -1.2 0
23.047 -5.477 -18.867 -0 -1.2 0
22.988 -5.994 -18.812 -0 -1.2 0
22.922 -6.51 -18.75 -0 -1.2 0
22.85 -7.024 -18.682 -0 -1.2 0
22.77 -7.536 -18.61 -0 -1.2 0
22.683 -8.047 -18.531 -0 -1.2 0
22.59 -8.555 -18.447 -0 -1.2 0
22.489 -9.061 -18.358 -0 -1.2 0
20.942 -14.433 -17.01 -0 -1.2 0
17.07 -21.707 -13.731 -0 -1.2 0
22.755 -1.312 -19.716 -0 -1.2 0
22.752 -1.835 -19.705 -0 -1.2 0
22.743 -2.359 -19.689 -0 -1.2 0
22.728 -2.882 -19.667 -0 -1.2 0
22.705 -3.404 -19.639 -0 -1.2 0
22.675 -3.926 -19.604 -0 -1.2 0
22.638 -4.447 -19.564 -0 -1.2 0
22.594 -4.967 -19.518 -0 -1.2 0
22.544 -5.485 -19.466 -0 -1.2 0
22.488 -6.002 -19.409 -0 -1.2 0
22.423 -6.518 -19.345 -0 -1.2 0
22.352 -7.032 -19.276 -0 -1.2 0
22.275 -7.544 -19.199 -0 -1.2 0
22.099 -8.563 -19.032 -0 -1.2 0
22.002 -9.069 -18.939 -0 -1.2 0
21.424 -9.389 -18.434 -0 -1.2 0
21.786 -10.073 -18.736 -0 -1.2 0
20.661 -13.97 -17.701 -0 -1.2 0
20.492 -14.44 -17.547 -0 -1.2 0
20.316 -14.908 -17.387 -0 -1.2 0
19.135 -17.615 -16.323 -0 -1.2 0
22.161 -1.323 -20.382 -0 -1.2 0
22.16 -1.846 -20.372 -0 -1.2 0
22.151 -2.37 -20.355 -0 -1.2 0
22.137 -2.893 -20.332 -0 -1.2 0
22.115 -3.415 -20.302 -0 -1.2 0
22.086 -3.936 -20.267 -0 -1.2 0
22.051 -4.458 -20.225 -0 -1.2 0
22.009 -4.977 -20.178 -0 -1.2 0
21.961 -5.496 -20.124 -0 -1.2 0
21.905 -6.013 -20.064 -0 -1.2 0
21.843 -6.529 -19.998 -0 -1.2 0
21.774 -7.043 -19.926 -0 -1.2 0
21.54 -3.426 -20.911 -0 -1.2 0
21.513 -3.947 -20.874 -0 -1.2 0
21.479 -4.469 -20.831 -0 -1.2 0
21.438 -4.988 -20.782 -0 -1.2 0
20.197 -12.068 -19.442 -0 -1.2 0
19.919 -13.036 -19.154 -0 -1.2 0
18.175 -17.633 -17.373 -0 -1.2 0
20.284 -1.359 -22.255 -0 -1.2 0
19.907 -1.868 -21.83 -0 -1.2 0
20.278 -2.406 -22.224 -0 -1.2 0
20.264 -2.928 -22.199 -0 -1.2 0
20.246 -3.45 -22.167 -0 -1.2 0
20.221 -3.972 -22.128 -0 -1.2 0
20.189 -4.493 -22.082 -0 -1.2 0
20.153 -5.013 -22.03 -0 -1.2 0
20.004 -6.564 -21.833 -0 -1.2 0
19.942 -7.077 -21.754 -0 -1.2 0
19.874 -7.589 -21.669 -0 -1.2 0
19.645 -0.848 -22.821 -0 -1.2 0
19.651 -1.371 -22.816 -0 -1.2 0
19.619 -1.894 -22.766 -0 -1.2 0
19.645 -2.418 -22.785 -0 -1.2 0
19.633 -2.94 -22.758 -0 -1.2 0
19.615 -3.463 -22.725 -0 -1.2 0
19.592 -3.984 -22.686 -0 -1.2 0
19.562 -4.505 -22.639 -0 -1.2 0
19.526 -5.025 -22.585 -0 -1.2 0
19.485 -5.544 -22.524 -0 -1.2 0
19.436 -6.06 -22.457 -0 -1.2 0
19.383 -6.576 -22.383 -0 -1.2 0
18.845 -10.129 -21.676 -0 -1.2 0
18.16 -13.07 -20.813 -0 -1.2 0
19.021 -1.384 -23.344 -0 -1.2 0
19.022 -1.907 -23.332 -0 -1.2 0
19.016 -2.431 -23.312 -0 -1.2 0
19.005 -2.953 -23.285 -0 -1.2 0
18.988 -3.476 -23.251 -0 -1.2 0
18.966 -3.997 -23.21 -0 -1.2 0
18.937 -4.518 -23.162 -0 -1.2 0
18.902 -5.038 -23.107 -0 -1.2 0
18.862 -5.556 -23.045 -0 -1.2 0
18.817 -6.073 -22.976 -0 -1.2 0
18.766 -6.589 -22.9 -0 -1.2 0
18.708 -7.102 -22.817 -0 -1.2 0
18.646 -7.614 -22.728 -0 -1.2 0
18.423 -9.138 -22.417 -0 -1.2 0
18.308 -1.399 -23.907 -0 -1.2 0
18.309 -1.922 -23.894 -0 -1.2 0
18.304 -2.446 -23.874 -0 -1.2 0
18.294 -2.968 -23.847 -0 -1.2 0
18.278 -3.49 -23.812 -0 -1.2 0
18.257 -4.012 -23.77 -0 -1.2 0
18.229 -4.533 -23.72 -0 -1.2 0
18.196 -5.053 -23.664 -0 -1.2 0
18.158 -5.571 -23.601 -0 -1.2 0
18.115 -6.088 -23.53 -0 -1.2 0
18.067 -6.603 -23.452 -0 -1.2 0
18.012 -7.117 -23.368 -0 -1.2 0
17.952 -7.629 -23.275 -0 -1.2 0
17.887 -8.139 -23.176 -0 -1.2 0
17.815 -8.646 -23.07 -0 -1.2 0
17.57 -10.156 -22.71 -0 -1.2 0
17.479 -10.654 -22.576 -0 -1.2 0
17.278 -11.64 -22.288 -0 -1.2 0
17.169 -12.129 -22.134 -0 -1.2 0
16.814 -13.573 -21.631 -0 -1.2 0
13.545 -21.775 -17.146 -0 -1.2 0
17.64 -1.936 -24.392 -0 -1.2 0
17.636 -2.461 -24.371 -0 -1.2 0
17.627 -2.983 -24.342 -0 -1.2 0
17.612 -3.505 -24.307 -0 -1.2 0
17.592 -4.026 -24.264 -0 -1.2 0
17.567 -4.547 -24.214 -0 -1.2 0
17.535 -5.067 -24.156 -0 -1.2 0
17.499 -5.585 -24.091 -0 -1.2 0
17.457 -6.102 -24.019 -0 -1.2 0
17.411 -6.617 -23.94 -0 -1.2 0
17.358 -7.131 -23.853 -0 -1.2 0
17.302 -7.643 -23.759 -0 -1.2 0
17.239 -8.153 -23.658 -0 -1.2 0
17.171 -8.66 -23.55 -0 -1.2 0
17.02 -9.669 -23.312 -0 -1.2 0
16.847 -10.667 -23.045 -0 -1.2 0
16.755 -11.161 -22.901 -0 -1.2 0
14.413 -18.984 -19.44 -0 -1.2 0
13.068 -21.785 -17.5 -0 -1.2 0
12.86 -22.161 -17.202 -0 -1.2 0
16.941 -1.952 -24.88 -0 -1.2 0
16.938 -2.476 -24.859 -0 -1.2 0
16.93 -2.998 -24.83 -0 -1.2 0
16.916 -3.52 -24.794 -0 -1.2 0
16.896 -4.042 -24.75 -0 -1.2 0
16.873 -4.563 -24.699 -0 -1.2 0
16.844 -5.082 -24.641 -0 -1.2 0
16.809 -5.601 -24.574 -0 -1.2 0
16.77 -6.117 -24.501 -0 -1.2 0
16.726 -6.633 -24.419 -0 -1.2 0
16.676 -7.146 -24.331 -0 -1.2 0
16.621 -7.658 -24.235 -0 -1.2 0
16.497 -8.675 -24.021 -0 -1.2 0
16.427 -9.181 -23.903 -0 -1.2 0
16.352 -9.684 -23.778 -0 -1.2 0
12.764 -21.414 -18.149 -0 -1.2 0
12.569 -21.796 -17.849 -0 -1.2 0
12.368 -22.172 -17.544 -0 -1.2 0
16.073 -1.449 -25.461 -0 -1.2 0
16.075 -1.972 -25.447 -0 -1.2 0
16.073 -2.496 -25.425 -0 -1.2 0
16.065 -3.018 -25.396 -0 -1.2 0
16.052 -3.54 -25.359 -0 -1.2 0
16.035 -4.061 -25.314 -0 -1.2 0
16.013 -4.583 -25.262 -0 -1.2 0
15.985 -5.102 -25.202 -0 -1.2 0
15.953 -5.62 -25.134 -0 -1.2 0
15.916 -6.137 -25.059 -0 -1.2 0
15.874 -6.652 -24.976 -0 -1.2 0
15.777 -7.677 -24.788 -0 -1.2 0
15.72 -8.187 -24.681 -0 -1.2 0
15.66 -8.694 -24.568 -0 -1.2 0
15.594 -9.2 -24.448 -0 -1.2 0
15.523 -9.703 -24.32 -0 -1.2 0
15.448 -10.203 -24.184 -0 -1.2 0
15.369 -10.701 -24.042 -0 -1.2 0
15.101 -12.175 -23.57 -0 -1.2 0
12.312 -21.04 -18.863 -0 -1.2 0
12.129 -21.428 -18.563 -0 -1.2 0
11.755 -22.186 -17.943 -0 -1.2 0
15.251 -1.467 -25.959 -0 -1.2 0
15.254 -1.99 -25.946 -0 -1.2 0
15.252 -2.514 -25.924 -0 -1.2 0
15.245 -3.037 -25.893 -0 -1.2 0
15.234 -3.559 -25.856 -0 -1.2 0
15.218 -4.08 -25.81 -0 -1.2 0
15.197 -4.601 -25.757 -0 -1.2 0
15.171 -5.12 -25.695 -0 -1.2 0
15.141 -5.639 -25.626 -0 -1.2 0
15.107 -6.155 -25.549 -0 -1.2 0
15.068 -6.67 -25.465 -0 -1.2 0
15.024 -7.184 -25.372 -0 -1.2 0
14.976 -7.695 -25.273 -0 -1.2 0
14.924 -8.205 -25.165 -0 -1.2 0
14.866 -8.712 -25.05 -0 -1.2 0
14.803 -9.218 -24.926 -0 -1.2 0
14.737 -9.721 -24.796 -0 -1.2 0
14.667 -10.221 -24.658 -0 -1.2 0
14.591 -10.718 -24.513 -0 -1.2 0
14.512 -11.212 -24.359 -0 -1.2 0
14.149 -13.158 -23.675 -0 -1.2 0
11.352 -21.824 -18.613 -0 -1.2 0
11.173 -22.2 -18.295 -0 -1.2 0
14.409 -0.963 -26.437 -0 -1.2 0
14.417 -1.486 -26.431 -0 -1.2 0
14.42 -2.009 -26.417 -0 -1.2 0
14.418 -2.533 -26.394 -0 -1.2 0
14.412 -3.055 -26.363 -0 -1.2 0
14.401 -3.578 -26.325 -0 -1.2 0
14.387 -4.099 -26.279 -0 -1.2 0
14.368 -4.62 -26.224 -0 -1.2 0
14.345 -5.139 -26.162 -0 -1.2 0
14.317 -5.657 -26.091 -0 -1.2 0
14.284 -6.174 -26.013 -0 -1.2 0
14.248 -6.689 -25.928 -0 -1.2 0
14.207 -7.202 -25.833 -0 -1.2 0
14.162 -7.714 -25.732 -0 -1.2 0
14.112 -8.223 -25.622 -0 -1.2 0
14.059 -8.731 -25.504 -0 -1.2 0
14.001 -9.236 -25.379 -0 -1.2 0
13.939 -9.739 -25.247 -0 -1.2 0
13.873 -10.239 -25.106 -0 -1.2 0
11.079 -21.068 -19.58 -0 -1.2 0
10.917 -21.456 -19.268 -0 -1.2 0
10.751 -21.837 -18.95 -0 -1.2 0
10.583 -22.213 -18.627 -0 -1.2 0
13.485 -0.984 -26.919 -0 -1.2 0
13.492 -1.507 -26.912 -0 -1.2 0
13.496 -2.03 -26.898 -0 -1.2 0
13.494 -2.554 -26.875 -0 -1.2 0
13.49 -3.076 -26.843 -0 -1.2 0
13.481 -3.598 -26.804 -0 -1.2 0
13.467 -4.119 -26.757 -0 -1.2 0
13.451 -4.64 -26.701 -0 -1.2 0
13.429 -5.159 -26.638 -0 -1.2 0
13.404 -5.678 -26.567 -0 -1.2 0
13.374 -6.194 -26.487 -0 -1.2 0
13.341 -6.709 -26.399 -0 -1.2 0
13.303 -7.222 -26.303 -0 -1.2 0
13.262 -7.734 -26.2 -0 -1.2 0
13.216 -8.243 -26.089 -0 -1.2 0
13.166 -8.751 -25.969 -0 -1.2 0
13.113 -9.256 -25.841 -0 -1.2 0
13.055 -9.759 -25.706 -0 -1.2 0
10.686 -20.291 -20.555 -0 -1.2 0
10.24 -21.471 -19.619 -0 -1.2 0
10.085 -21.852 -19.295 -0 -1.2 0
9.927 -22.228 -18.965 -0 -1.2 0
12.547 1.087 -27.279 -0 -1.2 0
12.615 -1.003 -27.336 -0 -1.2 0
12.622 -1.526 -27.33 -0 -1.2 0
12.625 -2.049 -27.314 -0 -1.2 0
12.626 -2.573 -27.291 -0 -1.2 0
12.622 -3.095 -27.26 -0 -1.2 0
12.614 -3.617 -27.22 -0 -1.2 0
12.602 -4.138 -27.172 -0 -1.2 0
12.587 -4.659 -27.116 -0 -1.2 0
12.568 -5.179 -27.051 -0 -1.2 0
12.544 -5.697 -26.979 -0 -1.2 0
12.517 -6.213 -26.898 -0 -1.2 0
12.487 -6.728 -26.808 -0 -1.2 0
12.452 -7.241 -26.712 -0 -1.2 0
12.413 -7.753 -26.607 -0 -1.2 0
12.371 -8.262 -26.493 -0 -1.2 0
12.326 -8.769 -26.372 -0 -1.2 0
12.275 -9.275 -26.242 -0 -1.2 0
12.223 -9.777 -26.104 -0 -1.2 0
12.105 -10.774 -25.806 -0 -1.2 0
12.04 -11.267 -25.645 -0 -1.2 0
11.9 -12.247 -25.3 -0 -1.2 0
10.018 -20.306 -20.873 -0 -1.2 0
9.744 -21.098 -20.245 -0 -1.2 0
9.603 -21.485 -19.922 -0 -1.2 0
9.459 -21.866 -19.594 -0 -1.2 0
9.312 -22.241 -19.259 -0 -1.2 0
11.732 -1.023 -27.724 -0 -1.2 0
11.744 -2.069 -27.702 -0 -1.2 0
11.744 -2.593 -27.679 -0 -1.2 0
11.741 -3.115 -27.647 -0 -1.2 0
11.734 -3.637 -27.606 -0 -1.2 0
11.724 -4.158 -27.558 -0 -1.2 0
11.71 -4.679 -27.501 -0 -1.2 0
11.693 -5.198 -27.435 -0 -1.2 0
11.672 -5.716 -27.362 -0 -1.2 0
11.647 -6.232 -27.28 -0 -1.2 0
11.62 -6.747 -27.189 -0 -1.2 0
11.588 -7.261 -27.09 -0 -1.2 0
11.553 -7.772 -26.983 -0 -1.2 0
11.515 -8.281 -26.869 -0 -1.2 0
11.473 -8.788 -26.746 -0 -1.2 0
11.427 -9.294 -26.615 -0 -1.2 0
9.341 -20.321 -21.169 -0 -1.2 0
9.216 -20.72 -20.854 -0 -1.2 0
9.087 -21.113 -20.533 -0 -1.2 0
8.956 -21.499 -20.205 -0 -1.2 0
8.823 -21.88 -19.871 -0 -1.2 0
8.686 -22.255 -19.532 -0 -1.2 0
10.776 -1.044 -28.108 -0 -1.2 0
10.783 -1.567 -28.101 -0 -1.2 0
10.788 -2.09 -28.086 -0 -1.2 0
10.79 -2.614 -28.062 -0 -1.2 0
10.788 -3.136 -28.03 -0 -1.2 0
10.782 -3.658 -27.989 -0 -1.2 0
10.774 -4.179 -27.939 -0 -1.2 0
10.762 -4.7 -27.882 -0 -1.2 0
10.746 -5.219 -27.815 -0 -1.2 0
10.727 -5.737 -27.741 -0 -1.2 0
10.706 -6.253 -27.658 -0 -1.2 0
10.681 -6.768 -27.566 -0 -1.2 0
10.653 -7.281 -27.466 -0 -1.2 0
10.621 -7.792 -27.358 -0 -1.2 0
10.587 -8.301 -27.241 -0 -1.2 0
10.548 -8.808 -27.116 -0 -1.2 0
10.508 -9.314 -26.983 -0 -1.2 0
10.416 -10.315 -26.692 -0 -1.2 0
10.366 -10.812 -26.535 -0 -1.2 0
10.312 -11.305 -26.37 -0 -1.2 0
8.608 -20.337 -21.462 -0 -1.2 0
8.494 -20.735 -21.142 -0 -1.2 0
8.376 -21.128 -20.817 -0 -1.2 0
8.257 -21.515 -20.484 -0 -1.2 0
8.135 -21.895 -20.146 -0 -1.2 0
8.01 -22.27 -19.802 -0 -1.2 0
9.924 1.043 -28.337 -0 -1.2 0
9.998 -2.093 -28.376 -0 -1.2 0
9.999 -2.617 -28.352 -0 -1.2 0
9.998 -3.139 -28.319 -0 -1.2 0
9.994 -3.661 -28.278 -0 -1.2 0
9.986 -4.182 -28.229 -0 -1.2 0
9.975 -4.703 -28.171 -0 -1.2 0
9.963 -5.222 -28.103 -0 -1.2 0
9.946 -5.74 -28.029 -0 -1.2 0
9.926 -6.257 -27.945 -0 -1.2 0
9.903 -6.772 -27.852 -0 -1.2 0
9.878 -7.285 -27.752 -0 -1.2 0
9.849 -7.796 -27.643 -0 -1.2 0
9.818 -8.305 -27.525 -0 -1.2 0
9.784 -8.812 -27.399 -0 -1.2 0
8.396 -18.688 -22.916 -0 -1.2 0
8.301 -19.109 -22.62 -0 -1.2 0
8.101 -19.935 -22.008 -0 -1.2 0
7.998 -20.34 -21.693 -0 -1.2 0
7.892 -20.738 -21.369 -0 -1.2 0
7.784 -21.131 -21.041 -0 -1.2 0
7.673 -21.517 -20.705 -0 -1.2 0
7.56 -21.898 -20.363 -0 -1.2 0
7.445 -22.273 -20.016 -0 -1.2 0
9.213 -1.571 -28.653 -0 -1.2 0
9.217 -2.094 -28.638 -0 -1.2 0
9.219 -2.618 -28.615 -0 -1.2 0
9.219 -3.14 -28.582 -0 -1.2 0
9.215 -3.662 -28.541 -0 -1.2 0
9.21 -4.183 -28.491 -0 -1.2 0
9.2 -4.704 -28.432 -0 -1.2 0
9.188 -5.223 -28.365 -0 -1.2 0
9.173 -5.741 -28.29 -0 -1.2 0
9.157 -6.257 -28.206 -0 -1.2 0
9.135 -6.772 -28.113 -0 -1.2 0
9.113 -7.285 -28.011 -0 -1.2 0
9.087 -7.796 -27.902 -0 -1.2 0
9.059 -8.306 -27.783 -0 -1.2 0
9.027 -8.813 -27.656 -0 -1.2 0
8.957 -9.82 -27.379 -0 -1.2 0
8.917 -10.319 -27.226 -0 -1.2 0
8.237 -16.053 -24.776 -0 -1.2 0
7.582 -19.525 -22.535 -0 -1.2 0
7.49 -19.936 -22.223 -0 -1.2 0
7.394 -20.34 -21.904 -0 -1.2 0
7.297 -20.739 -21.579 -0 -1.2 0
7.198 -21.131 -21.247 -0 -1.2 0
7.096 -21.518 -20.909 -0 -1.2 0
6.993 -21.899 -20.564 -0 -1.2 0
6.887 -22.273 -20.213 -0 -1.2 0
8.344 -1.573 -28.917 -0 -1.2 0
8.352 -2.62 -28.878 -0 -1.2 0
8.352 -3.142 -28.845 -0 -1.2 0
8.35 -3.664 -28.804 -0 -1.2 0
8.344 -4.185 -28.755 -0 -1.2 0
8.337 -4.706 -28.696 -0 -1.2 0
8.327 -5.225 -28.629 -0 -1.2 0
8.315 -5.743 -28.552 -0 -1.2 0
8.299 -6.26 -28.467 -0 -1.2 0
8.281 -6.775 -28.375 -0 -1.2 0
8.262 -7.288 -28.273 -0 -1.2 0
8.239 -7.799 -28.162 -0 -1.2 0
8.214 -8.308 -28.043 -0 -1.2 0
8.186 -8.815 -27.915 -0 -1.2 0
8.156 -9.32 -27.779 -0 -1.2 0
8.124 -9.822 -27.634 -0 -1.2 0
8.088 -10.322 -27.482 -0 -1.2 0
7.877 -12.774 -26.593 -0 -1.2 0
7.721 -14.205 -25.963 -0 -1.2 0
7.664 -14.673 -25.737 -0 -1.2 0
7.277 -17.395 -24.219 -0 -1.2 0
7.204 -17.832 -23.94 -0 -1.2 0
7.13 -18.264 -23.653 -0 -1.2 0
7.052 -18.69 -23.361 -0 -1.2 0
6.973 -19.112 -23.06 -0 -1.2 0
6.892 -19.527 -22.752 -0 -1.2 0
6.809 -19.938 -22.437 -0 -1.2 0
6.724 -20.342 -22.116 -0 -1.2 0
6.636 -20.741 -21.788 -0 -1.2 0
6.547 -21.133 -21.454 -0 -1.2 0
6.456 -21.52 -21.113 -0 -1.2 0
6.363 -21.9 -20.765 -0 -1.2 0
6.267 -22.275 -20.411 -0 -1.2 0
7.515 -1.574 -29.142 -0 -1.2 0
7.521 -2.097 -29.127 -0 -1.2 0
7.524 -2.621 -29.104 -0 -1.2 0
7.524 -3.143 -29.071 -0 -1.2 0
7.523 -3.665 -29.03 -0 -1.2 0
7.519 -4.186 -28.98 -0 -1.2 0
7.513 -4.707 -28.921 -0 -1.2 0
7.505 -5.226 -28.853 -0 -1.2 0
7.494 -5.744 -28.777 -0 -1.2 0
7.482 -6.26 -28.692 -0 -1.2 0
7.467 -6.775 -28.599 -0 -1.2 0
7.449 -7.288 -28.496 -0 -1.2 0
7.43 -7.8 -28.385 -0 -1.2 0
7.407 -8.309 -28.266 -0 -1.2 0
7.383 -8.816 -28.137 -0 -1.2 0
7.358 -9.321 -28 -0 -1.2 0
7.265 -10.82 -27.539 -0 -1.2 0
7.021 -13.732 -26.391 -0 -1.2 0
6.922 -14.674 -25.944 -0 -1.2 0
6.7 -16.507 -24.957 -0 -1.2 0
6.577 -17.396 -24.417 -0 -1.2 0
6.446 -18.265 -23.848 -0 -1.2 0
6.377 -18.691 -23.552 -0 -1.2 0
6.307 -19.112 -23.249 -0 -1.2 0
6.234 -19.528 -22.94 -0 -1.2 0
6.16 -19.938 -22.623 -0 -1.2 0
6.083 -20.343 -22.299 -0 -1.2 0
6.006 -20.741 -21.968 -0 -1.2 0
5.926 -21.134 -21.632 -0 -1.2 0
5.844 -21.52 -21.288 -0 -1.2 0
5.761 -21.901 -20.938 -0 -1.2 0
5.676 -22.276 -20.582 -0 -1.2 0
6.638 -0.005 -29.336 -0 -1.2 0
6.667 -1.573 -29.346 -0 -1.2 0
6.673 -2.096 -29.332 -0 -1.2 0
6.676 -2.62 -29.309 -0 -1.2 0
6.678 -3.142 -29.276 -0 -1.2 0
6.677 -3.664 -29.235 -0 -1.2 0
6.675 -4.185 -29.184 -0 -1.2 0
6.671 -4.706 -29.126 -0 -1.2 0
6.664 -5.225 -29.058 -0 -1.2 0
6.656 -5.743 -28.982 -0 -1.2 0
6.645 -6.259 -28.896 -0 -1.2 0
6.633 -6.775 -28.802 -0 -1.2 0
6.618 -7.288 -28.699 -0 -1.2 0
6.601 -7.799 -28.587 -0 -1.2 0
6.583 -8.308 -28.468 -0 -1.2 0
6.563 -8.815 -28.339 -0 -1.2 0
6.54 -9.32 -28.2 -0 -1.2 0
6.515 -9.822 -28.054 -0 -1.2 0
6.489 -10.322 -27.9 -0 -1.2 0
6.46 -10.819 -27.737 -0 -1.2 0
6.431 -11.312 -27.566 -0 -1.2 0
6.398 -11.803 -27.385 -0 -1.2 0
6.289 -13.255 -26.797 -0 -1.2 0
6.249 -13.731 -26.583 -0 -1.2 0
6.207 -14.205 -26.363 -0 -1.2 0
6.163 -14.673 -26.134 -0 -1.2 0
6.02 -16.055 -25.401 -0 -1.2 0
5.805 -17.832 -24.314 -0 -1.2 0
5.625 -19.112 -23.422 -0 -1.2 0
5.561 -19.527 -23.111 -0 -1.2 0
5.496 -19.938 -22.792 -0 -1.2 0
5.428 -20.342 -22.466 -0 -1.2 0
5.36 -20.741 -22.134 -0 -1.2 0
5.29 -21.133 -21.795 -0 -1.2 0
5.219 -21.52 -21.448 -0 -1.2 0
5.145 -21.9 -21.097 -0 -1.2 0
5.07 -22.275 -20.738 -0 -1.2 0
5.72 -1.051 -29.548 -0 -1.2 0
5.728 -1.574 -29.542 -0 -1.2 0
5.739 -2.621 -29.504 -0 -1.2 0
5.742 -3.143 -29.472 -0 -1.2 0
5.742 -3.665 -29.431 -0 -1.2 0
5.741 -4.186 -29.381 -0 -1.2 0
5.738 -4.707 -29.322 -0 -1.2 0
5.734 -5.226 -29.254 -0 -1.2 0
5.728 -5.744 -29.178 -0 -1.2 0
5.72 -6.26 -29.093 -0 -1.2 0
5.711 -6.776 -28.997 -0 -1.2 0
5.699 -7.289 -28.894 -0 -1.2 0
5.686 -7.8 -28.783 -0 -1.2 0
5.671 -8.309 -28.661 -0 -1.2 0
5.654 -8.816 -28.532 -0 -1.2 0
5.636 -9.321 -28.394 -0 -1.2 0
5.616 -9.823 -28.248 -0 -1.2 0
5.595 -10.323 -28.092 -0 -1.2 0
5.571 -10.82 -27.928 -0 -1.2 0
5.546 -11.313 -27.756 -0 -1.2 0
5.519 -11.804 -27.575 -0 -1.2 0
5.49 -12.291 -27.385 -0 -1.2 0
5.461 -12.775 -27.188 -0 -1.2 0
5.429 -13.256 -26.982 -0 -1.2 0
5.361 -14.206 -26.547 -0 -1.2 0
5.324 -14.674 -26.317 -0 -1.2 0
5.285 -15.139 -26.079 -0 -1.2 0
5.205 -16.056 -25.579 -0 -1.2 0
5.161 -16.507 -25.316 -0 -1.2 0
5.116 -16.954 -25.047 -0 -1.2 0
5.022 -17.832 -24.486 -0 -1.2 0
4.974 -18.265 -24.195 -0 -1.2 0
4.923 -18.691 -23.895 -0 -1.2 0
4.871 -19.113 -23.589 -0 -1.2 0
4.817 -19.528 -23.276 -0 -1.2 0
4.762 -19.939 -22.954 -0 -1.2 0
4.705 -20.343 -22.627 -0 -1.2 0
4.648 -20.742 -22.293 -0 -1.2 0
4.588 -21.134 -21.951 -0 -1.2 0
4.527 -21.521 -21.604 -0 -1.2 0
4.465 -21.901 -21.249 -0 -1.2 0
4.402 -22.276 -20.888 -0 -1.2 0
4.853 -1.051 -29.701 -0 -1.2 0
4.861 -1.573 -29.696 -0 -1.2 0
4.867 -2.096 -29.682 -0 -1.2 0
4.872 -2.62 -29.659 -0 -1.2 0
4.875 -3.142 -29.627 -0 -1.2 0
4.878 -3.664 -29.586 -0 -1.2 0
4.877 -4.185 -29.536 -0 -1.2 0
4.877 -4.706 -29.477 -0 -1.2 0
4.874 -5.225 -29.408 -0 -1.2 0
4.87 -5.744 -29.332 -0 -1.2 0
4.864 -6.26 -29.246 -0 -1.2 0
4.858 -6.775 -29.152 -0 -1.2 0
4.849 -7.288 -29.048 -0 -1.2 0
4.839 -7.799 -28.936 -0 -1.2 0
4.828 -8.308 -28.814 -0 -1.2 0
4.815 -8.815 -28.684 -0 -1.2 0
4.8 -9.32 -28.546 -0 -1.2 0
4.784 -9.823 -28.399 -0 -1.2 0
4.767 -10.322 -28.243 -0 -1.2 0
4.749 -10.819 -28.079 -0 -1.2 0
4.728 -11.312 -27.906 -0 -1.2 0
4.706 -11.803 -27.724 -0 -1.2 0
4.684 -12.291 -27.534 -0 -1.2 0
4.66 -12.774 -27.336 -0 -1.2 0
4.633 -13.255 -27.13 -0 -1.2 0
4.607 -13.731 -26.915 -0 -1.2 0
4.577 -14.205 -26.691 -0 -1.2 0
4.548 -14.673 -26.461 -0 -1.2 0
4.517 -15.138 -26.221 -0 -1.2 0
4.45 -16.055 -25.72 -0 -1.2 0
4.377 -16.953 -25.187 -0 -1.2 0
4.339 -17.395 -24.908 -0 -1.2 0
4.3 -17.832 -24.623 -0 -1.2 0
4.259 -18.264 -24.329 -0 -1.2 0
4.217 -18.691 -24.029 -0 -1.2 0
4.173 -19.112 -23.721 -0 -1.2 0
4.129 -19.528 -23.406 -0 -1.2 0
4.083 -19.938 -23.084 -0 -1.2 0
4.036 -20.342 -22.755 -0 -1.2 0
3.987 -20.741 -22.419 -0 -1.2 0
3.938 -21.134 -22.077 -0 -1.2 0
3.887 -21.52 -21.727 -0 -1.2 0
3.835 -21.901 -21.371 -0 -1.2 0
3.782 -22.275 -21.008 -0 -1.2 0
4.02 -1.05 -29.823 -0 -1.2 0
4.027 -1.573 -29.819 -0 -1.2 0
4.034 -2.096 -29.805 -0 -1.2 0
4.04 -2.62 -29.783 -0 -1.2 0
4.044 -3.142 -29.75 -0 -1.2 0
4.047 -3.664 -29.709 -0 -1.2 0
4.048 -4.185 -29.659 -0 -1.2 0
4.049 -4.706 -29.6 -0 -1.2 0
4.048 -5.225 -29.533 -0 -1.2 0
4.047 -5.743 -29.455 -0 -1.2 0
4.043 -6.259 -29.37 -0 -1.2 0
4.039 -6.774 -29.274 -0 -1.2 0
4.033 -7.287 -29.171 -0 -1.2 0
4.026 -7.798 -29.058 -0 -1.2 0
4.018 -8.307 -28.937 -0 -1.2 0
4.009 -8.815 -28.807 -0 -1.2 0
3.998 -9.32 -28.667 -0 -1.2 0
3.987 -9.822 -28.52 -0 -1.2 0
3.974 -10.321 -28.364 -0 -1.2 0
3.96 -10.818 -28.198 -0 -1.2 0
3.945 -11.312 -28.026 -0 -1.2 0
3.928 -11.803 -27.843 -0 -1.2 0
3.91 -12.29 -27.653 -0 -1.2 0
3.892 -12.773 -27.455 -0 -1.2 0
3.871 -13.255 -27.247 -0 -1.2 0
3.85 -13.731 -27.031 -0 -1.2 0
3.828 -14.204 -26.808 -0 -1.2 0
3.805 -14.673 -26.576 -0 -1.2 0
3.779 -15.138 -26.337 -0 -1.2 0
3.754 -15.598 -26.089 -0 -1.2 0
3.727 -16.055 -25.833 -0 -1.2 0
3.699 -16.506 -25.569 -0 -1.2 0
3.67 -16.952 -25.298 -0 -1.2 0
3.639 -17.395 -25.019 -0 -1.2 0
3.608 -17.831 -24.732 -0 -1.2 0
3.575 -18.264 -24.438 -0 -1.2 0
3.541 -18.69 -24.136 -0 -1.2 0
3.507 -19.112 -23.827 -0 -1.2 0
3.471 -19.527 -23.511 -0 -1.2 0
3.434 -19.938 -23.188 -0 -1.2 0
3.396 -20.342 -22.858 -0 -1.2 0
3.358 -20.741 -22.52 -0 -1.2 0
3.318 -21.133 -22.176 -0 -1.2 0
3.277 -21.52 -21.826 -0 -1.2 0
3.235 -21.9 -21.468 -0 -1.2 0
3.192 -22.275 -21.105 -0 -1.2 0
3.108 -1.053 -29.929 -0 -1.2 0
3.116 -1.575 -29.925 -0 -1.2 0
3.13 -2.622 -29.888 -0 -1.2 0
3.135 -3.144 -29.857 -0 -1.2 0
3.139 -3.666 -29.816 -0 -1.2 0
3.142 -4.187 -29.766 -0 -1.2 0
3.144 -4.708 -29.707 -0 -1.2 0
3.145 -5.227 -29.638 -0 -1.2 0
3.146 -5.746 -29.561 -0 -1.2 0
3.145 -6.262 -29.475 -0 -1.2 0
3.144 -6.777 -29.381 -0 -1.2 0
3.142 -7.29 -29.277 -0 -1.2 0
3.138 -7.801 -29.163 -0 -1.2 0
3.134 -8.31 -29.042 -0 -1.2 0
3.129 -8.817 -28.912 -0 -1.2 0
3.122 -9.322 -28.773 -0 -1.2 0
3.115 -9.824 -28.624 -0 -1.2 0
3.107 -10.324 -28.468 -0 -1.2 0
3.099 -10.821 -28.303 -0 -1.2 0
3.088 -11.314 -28.129 -0 -1.2 0
3.077 -11.805 -27.946 -0 -1.2 0
3.066 -12.292 -27.755 -0 -1.2 0
3.053 -12.776 -27.556 -0 -1.2 0
3.039 -13.257 -27.348 -0 -1.2 0
3.024 -13.733 -27.132 -0 -1.2 0
3.009 -14.207 -26.907 -0 -1.2 0
2.993 -14.675 -26.675 -0 -1.2 0
2.975 -15.14 -26.435 -0 -1.2 0
2.957 -15.601 -26.186 -0 -1.2 0
2.938 -16.057 -25.93 -0 -1.2 0
2.918 -16.508 -25.665 -0 -1.2 0
2.897 -16.955 -25.393 -0 -1.2 0
2.875 -17.397 -25.114 -0 -1.2 0
2.852 -17.833 -24.826 -0 -1.2 0
2.829 -18.266 -24.531 -0 -1.2 0
2.804 -18.692 -24.228 -0 -1.2 0
2.779 -19.114 -23.919 -0 -1.2 0
2.753 -19.529 -23.601 -0 -1.2 0
2.726 -19.94 -23.278 -0 -1.2 0
2.699 -20.344 -22.946 -0 -1.2 0
2.67 -20.742 -22.607 -0 -1.2 0
2.641 -21.135 -22.263 -0 -1.2 0
2.611 -21.521 -21.91 -0 -1.2 0
2.58 -21.902 -21.552 -0 -1.2 0
2.547 -22.276 -21.187 -0 -1.2 0
2.278 -1.577 -29.999 -0 -1.2 0
2.284 -2.1 -29.985 -0 -1.2 0
2.292 -2.624 -29.963 -0 -1.2 0
2.298 -3.146 -29.931 -0 -1.2 0
2.303 -3.668 -29.89 -0 -1.2 0
2.308 -4.189 -29.84 -0 -1.2 0
2.312 -4.71 -29.781 -0 -1.2 0
2.315 -5.229 -29.714 -0 -1.2 0
2.318 -5.747 -29.636 -0 -1.2 0
2.32 -6.263 -29.55 -0 -1.2 0
2.321 -6.778 -29.455 -0 -1.2 0
2.321 -7.291 -29.351 -0 -1.2 0
2.321 -7.802 -29.238 -0 -1.2 0
2.32 -8.311 -29.117 -0 -1.2 0
2.318 -8.819 -28.986 -0 -1.2 0
2.317 -9.324 -28.846 -0 -1.2 0
2.313 -9.826 -28.698 -0 -1.2 0
2.31 -10.325 -28.541 -0 -1.2 0
2.305 -10.822 -28.376 -0 -1.2 0
2.3 -11.315 -28.202 -0 -1.2 0
2.295 -11.807 -28.019 -0 -1.2 0
2.288 -12.294 -27.828 -0 -1.2 0
2.281 -12.777 -27.628 -0 -1.2 0
2.273 -13.258 -27.42 -0 -1.2 0
2.264 -13.735 -27.204 -0 -1.2 0
2.255 -14.208 -26.979 -0 -1.2 0
2.246 -14.676 -26.746 -0 -1.2 0
2.234 -15.141 -26.505 -0 -1.2 0
2.224 -15.602 -26.256 -0 -1.2 0
2.212 -16.058 -25.999 -0 -1.2 0
2.199 -16.509 -25.735 -0 -1.2 0
2.186 -16.956 -25.462 -0 -1.2 0
2.172 -17.398 -25.182 -0 -1.2 0
2.157 -17.835 -24.894 -0 -1.2 0
2.142 -18.267 -24.598 -0 -1.2 0
2.127 -18.693 -24.295 -0 -1.2 0
2.109 -19.115 -23.984 -0 -1.2 0
2.093 -19.53 -23.666 -0 -1.2 0
2.075 -19.941 -23.341 -0 -1.2 0
2.056 -20.345 -23.01 -0 -1.2 0
2.038 -20.743 -22.671 -0 -1.2 0
2.018 -21.136 -22.325 -0 -1.2 0
1.998 -21.522 -21.973 -0 -1.2 0
1.977 -21.903 -21.613 -0 -1.2 0
1.955 -22.277 -21.247 -0 -1.2 0
1.446 -1.577 -30.048 -0 -1.2 0
1.454 -2.1 -30.035 -0 -1.2 0
1.461 -2.624 -30.012 -0 -1.2 0
1.468 -3.146 -29.981 -0 -1.2 0
1.474 -3.668 -29.94 -0 -1.2 0
1.48 -4.189 -29.89 -0 -1.2 0
1.486 -4.71 -29.831 -0 -1.2 0
1.492 -5.229 -29.764 -0 -1.2 0
1.496 -5.747 -29.687 -0 -1.2 0
1.5 -6.263 -29.6 -0 -1.2 0
1.505 -6.778 -29.506 -0 -1.2 0
1.508 -7.292 -29.402 -0 -1.2 0
1.511 -7.803 -29.29 -0 -1.2 0
1.514 -8.312 -29.168 -0 -1.2 0
1.515 -8.819 -29.037 -0 -1.2 0
1.517 -9.324 -28.898 -0 -1.2 0
1.518 -9.826 -28.749 -0 -1.2 0
1.519 -10.325 -28.592 -0 -1.2 0
1.52 -10.823 -28.426 -0 -1.2 0
1.519 -11.316 -28.253 -0 -1.2 0
1.518 -11.807 -28.07 -0 -1.2 0
1.517 -12.294 -27.878 -0 -1.2 0
1.516 -12.777 -27.679 -0 -1.2 0
1.513 -13.259 -27.47 -0 -1.2 0
1.511 -13.735 -27.253 -0 -1.2 0
1.508 -14.208 -27.029 -0 -1.2 0
1.505 -14.676 -26.796 -0 -1.2 0
1.501 -15.142 -26.555 -0 -1.2 0
1.497 -15.602 -26.305 -0 -1.2 0
1.492 -16.058 -26.049 -0 -1.2 0
1.487 -16.51 -25.783 -0 -1.2 0
1.481 -16.956 -25.51 -0 -1.2 0
1.475 -17.398 -25.23 -0 -1.2 0
1.469 -17.835 -24.941 -0 -1.2 0
1.461 -18.267 -24.645 -0 -1.2 0
1.455 -18.694 -24.342 -0 -1.2 0
1.446 -19.115 -24.031 -0 -1.2 0
1.438 -19.53 -23.713 -0 -1.2 0
1.429 -19.941 -23.388 -0 -1.2 0
1.42 -20.345 -23.055 -0 -1.2 0
1.411 -20.744 -22.716 -0 -1.2 0
1.401 -21.136 -22.37 -0 -1.2 0
1.39 -21.523 -22.017 -0 -1.2 0
1.379 -21.903 -21.657 -0 -1.2 0
1.368 -22.278 -21.29 -0 -1.2 0
0.49 -1.581 -30.075 -0 -1.2 0
0.498 -2.104 -30.063 -0 -1.2 0
0.552 -5.751 -29.716 -0 -1.2 0
0.56 -6.267 -29.63 -0 -1.2 0
0.566 -6.782 -29.535 -0 -1.2 0
0.573 -7.295 -29.431 -0 -1.2 0
0.58 -7.806 -29.318 -0 -1.2 0
0.586 -8.315 -29.197 -0 -1.2 0
0.592 -8.822 -29.066 -0 -1.2 0
0.599 -9.327 -28.927 -0 -1.2 0
0.604 -9.83 -28.778 -0 -1.2 0
0.61 -10.329 -28.622 -0 -1.2 0
0.615 -10.826 -28.457 -0 -1.2 0
0.621 -11.319 -28.282 -0 -1.2 0
0.626 -11.81 -28.1 -0 -1.2 0
0.631 -12.297 -27.908 -0 -1.2 0
0.636 -12.781 -27.708 -0 -1.2 0
0.641 -13.262 -27.5 -0 -1.2 0
0.645 -13.738 -27.283 -0 -1.2 0
0.65 -14.211 -27.058 -0 -1.2 0
0.653 -14.68 -26.826 -0 -1.2 0
0.658 -15.145 -26.584 -0 -1.2 0
0.661 -15.605 -26.335 -0 -1.2 0
0.665 -16.061 -26.077 -0 -1.2 0
0.668 -16.513 -25.812 -0 -1.2 0
0.67 -16.959 -25.539 -0 -1.2 0
0.674 -17.401 -25.259 -0 -1.2 0
0.677 -17.838 -24.97 -0 -1.2 0
0.679 -18.27 -24.674 -0 -1.2 0
0.681 -18.696 -24.37 -0 -1.2 0
0.684 -19.118 -24.06 -0 -1.2 0
0.686 -19.533 -23.741 -0 -1.2 0
0.687 -19.943 -23.416 -0 -1.2 0
0.688 -20.348 -23.083 -0 -1.2 0
0.689 -20.746 -22.744 -0 -1.2 0
0.691 -21.139 -22.397 -0 -1.2 0
0.691 -21.525 -22.044 -0 -1.2 0
0.692 -21.906 -21.684 -0 -1.2 0
0.692 -22.28 -21.317 -0 -1.2 0
-0.415 -0.014 -30.059 -0 -1.2 0
-0.296 -6.784 -29.536 -0 -1.2 0
-0.286 -7.297 -29.433 -0 -1.2 0
-0.276 -7.808 -29.32 -0 -1.2 0
-0.266 -8.317 -29.199 -0 -1.2 0
-0.257 -8.825 -29.068 -0 -1.2 0
-0.246 -9.33 -28.93 -0 -1.2 0
-0.235 -9.832 -28.781 -0 -1.2 0
-0.225 -10.331 -28.624 -0 -1.2 0
-0.214 -10.828 -28.459 -0 -1.2 0
-0.204 -11.321 -28.286 -0 -1.2 0
-0.194 -11.812 -28.102 -0 -1.2 0
-0.183 -12.3 -27.911 -0 -1.2 0
-0.173 -12.783 -27.712 -0 -1.2 0
-0.162 -13.264 -27.504 -0 -1.2 0
-0.151 -13.74 -27.287 -0 -1.2 0
-0.14 -14.213 -27.063 -0 -1.2 0
-0.129 -14.682 -26.83 -0 -1.2 0
-0.118 -15.147 -26.589 -0 -1.2 0
-0.107 -15.607 -26.34 -0 -1.2 0
-0.096 -16.063 -26.083 -0 -1.2 0
-0.085 -16.515 -25.817 -0 -1.2 0
-0.073 -16.961 -25.545 -0 -1.2 0
-0.062 -17.403 -25.264 -0 -1.2 0
-0.051 -17.84 -24.975 -0 -1.2 0
-0.04 -18.272 -24.68 -0 -1.2 0
-0.029 -18.698 -24.377 -0 -1.2 0
-0.017 -19.12 -24.066 -0 -1.2 0
-0.006 -19.535 -23.748 -0 -1.2 0
0.004 -19.945 -23.422 -0 -1.2 0
0.016 -20.35 -23.09 -0 -1.2 0
0.027 -20.748 -22.751 -0 -1.2 0
0.038 -21.14 -22.404 -0 -1.2 0
0.049 -21.527 -22.051 -0 -1.2 0
0.06 -21.907 -21.691 -0 -1.2 0
0.072 -22.282 -21.325 -0 -1.2 0
-1.139 -7.299 -29.409 -0 -1.2 0
-1.126 -7.81 -29.297 -0 -1.2 0
-1.111 -8.319 -29.176 -0 -1.2 0
-1.098 -8.826 -29.046 -0 -1.2 0
-1.083 -9.331 -28.907 -0 -1.2 0
-1.069 -9.833 -28.76 -0 -1.2 0
-1.053 -10.332 -28.604 -0 -1.2 0
-1.039 -10.829 -28.438 -0 -1.2 0
-1.023 -11.323 -28.264 -0 -1.2 0
-1.007 -11.814 -28.082 -0 -1.2 0
-0.99 -12.301 -27.891 -0 -1.2 0
-0.974 -12.784 -27.692 -0 -1.2 0
-0.957 -13.265 -27.485 -0 -1.2 0
-0.94 -13.741 -27.269 -0 -1.2 0
-0.922 -14.215 -27.044 -0 -1.2 0
-0.905 -14.683 -26.812 -0 -1.2 0
-0.886 -15.148 -26.571 -0 -1.2 0
-0.868 -15.608 -26.323 -0 -1.2 0
-0.85 -16.065 -26.066 -0 -1.2 0
-0.831 -16.516 -25.801 -0 -1.2 0
-0.812 -16.962 -25.529 -0 -1.2 0
-0.792 -17.404 -25.249 -0 -1.2 0
-0.772 -17.841 -24.961 -0 -1.2 0
-0.753 -18.273 -24.665 -0 -1.2 0
-0.733 -18.699 -24.362 -0 -1.2 0
-0.712 -19.121 -24.052 -0 -1.2 0
-0.693 -19.536 -23.734 -0 -1.2 0
-0.672 -19.946 -23.409 -0 -1.2 0
-0.65 -20.351 -23.078 -0 -1.2 0
-0.629 -20.749 -22.738 -0 -1.2 0
-0.608 -21.141 -22.393 -0 -1.2 0
-0.586 -21.528 -22.039 -0 -1.2 0
-0.565 -21.908 -21.681 -0 -1.2 0
-0.543 -22.283 -21.315 -0 -1.2 0
-1.918 -9.828 -28.714 -0 -1.2 0
-1.899 -10.327 -28.558 -0 -1.2 0
-1.879 -10.824 -28.393 -0 -1.2 0
-1.859 -11.317 -28.22 -0 -1.2 0
-1.837 -11.809 -28.039 -0 -1.2 0
-1.815 -12.296 -27.848 -0 -1.2 0
-1.793 -12.779 -27.65 -0 -1.2 0
-1.77 -13.26 -27.443 -0 -1.2 0
-1.746 -13.736 -27.228 -0 -1.2 0
-1.722 -14.21 -27.004 -0 -1.2 0
-1.698 -14.678 -26.772 -0 -1.2 0
-1.674 -15.143 -26.533 -0 -1.2 0
-1.648 -15.604 -26.285 -0 -1.2 0
-1.622 -16.06 -26.029 -0 -1.2 0
-1.595 -16.511 -25.764 -0 -1.2 0
-1.568 -16.958 -25.493 -0 -1.2 0
-1.541 -17.4 -25.213 -0 -1.2 0
-1.513 -17.836 -24.927 -0 -1.2 0
-1.484 -18.269 -24.632 -0 -1.2 0
-1.455 -18.695 -24.329 -0 -1.2 0
-1.426 -19.116 -24.02 -0 -1.2 0
-1.397 -19.532 -23.704 -0 -1.2 0
-1.366 -19.942 -23.379 -0 -1.2 0
-1.336 -20.347 -23.048 -0 -1.2 0
-1.305 -20.745 -22.709 -0 -1.2 0
-1.273 -21.137 -22.365 -0 -1.2 0
-1.241 -21.524 -22.013 -0 -1.2 0
-1.209 -21.904 -21.654 -0 -1.2 0
-1.176 -22.279 -21.29 -0 -1.2 0
-2.876 -2.61 -29.896 -0 -1.2 0
-2.641 -9.813 -28.658 -0 -1.2 0
-2.618 -10.312 -28.503 -0 -1.2 0
-2.594 -10.809 -28.339 -0 -1.2 0
-2.569 -11.303 -28.167 -0 -1.2 0
-2.544 -11.794 -27.986 -0 -1.2 0
-2.518 -12.281 -27.797 -0 -1.2 0
-2.49 -12.765 -27.599 -0 -1.2 0
-2.463 -13.246 -27.393 -0 -1.2 0
-2.434 -13.722 -27.178 -0 -1.2 0
-2.405 -14.196 -26.956 -0 -1.2 0
-2.375 -14.664 -26.725 -0 -1.2 0
-2.344 -15.129 -26.486 -0 -1.2 0
-2.312 -15.59 -26.239 -0 -1.2 0
-2.281 -16.046 -25.984 -0 -1.2 0
-2.247 -16.498 -25.721 -0 -1.2 0
-2.214 -16.944 -25.45 -0 -1.2 0
-2.18 -17.387 -25.171 -0 -1.2 0
-2.145 -17.823 -24.885 -0 -1.2 0
-2.109 -18.256 -24.592 -0 -1.2 0
-2.073 -18.682 -24.29 -0 -1.2 0
-2.036 -19.104 -23.982 -0 -1.2 0
-2 -19.519 -23.666 -0 -1.2 0
-1.961 -19.93 -23.343 -0 -1.2 0
-1.922 -20.335 -23.013 -0 -1.2 0
-1.883 -20.733 -22.676 -0 -1.2 0
-1.843 -21.126 -22.332 -0 -1.2 0
-1.802 -21.512 -21.982 -0 -1.2 0
-1.761 -21.893 -21.624 -0 -1.2 0
-1.721 -22.268 -21.26 -0 -1.2 0
-3.458 -7.259 -29.226 -0 -1.2 0
-3.437 -7.77 -29.115 -0 -1.2 0
-3.415 -8.279 -28.996 -0 -1.2 0
-3.367 -9.292 -28.731 -0 -1.2 0
-3.342 -9.794 -28.586 -0 -1.2 0
-3.315 -10.294 -28.432 -0 -1.2 0
-3.287 -10.791 -28.27 -0 -1.2 0
-3.259 -11.284 -28.098 -0 -1.2 0
-3.23 -11.776 -27.918 -0 -1.2 0
-3.199 -12.263 -27.729 -0 -1.2 0
-3.167 -12.747 -27.533 -0 -1.2 0
-3.135 -13.228 -27.328 -0 -1.2 0
-3.101 -13.705 -27.115 -0 -1.2 0
-3.067 -14.178 -26.893 -0 -1.2 0
-3.032 -14.647 -26.663 -0 -1.2 0
-2.995 -15.112 -26.425 -0 -1.2 0
-2.958 -15.573 -26.179 -0 -1.2 0
-2.92 -16.03 -25.925 -0 -1.2 0
-2.881 -16.481 -25.663 -0 -1.2 0
-2.841 -16.928 -25.393 -0 -1.2 0
-2.801 -17.37 -25.116 -0 -1.2 0
-2.759 -17.807 -24.832 -0 -1.2 0
-2.717 -18.24 -24.539 -0 -1.2 0
-2.673 -18.667 -24.239 -0 -1.2 0
-2.63 -19.088 -23.932 -0 -1.2 0
-2.584 -19.504 -23.617 -0 -1.2 0
-2.539 -19.915 -23.295 -0 -1.2 0
-2.493 -20.32 -22.967 -0 -1.2 0
-2.445 -20.718 -22.631 -0 -1.2 0
-2.397 -21.111 -22.288 -0 -1.2 0
-2.349 -21.498 -21.939 -0 -1.2 0
-2.299 -21.879 -21.583 -0 -1.2 0
-2.249 -22.254 -21.22 -0 -1.2 0
-4.399 -3.618 -29.635 -0 -1.2 0
-4.289 -6.729 -29.219 -0 -1.2 0
-4.267 -7.242 -29.119 -0 -1.2 0
-4.243 -7.754 -29.009 -0 -1.2 0
-4.191 -8.77 -28.764 -0 -1.2 0
-4.163 -9.276 -28.628 -0 -1.2 0
-4.134 -9.778 -28.483 -0 -1.2 0
-4.104 -10.278 -28.331 -0 -1.2 0
-4.072 -10.775 -28.169 -0 -1.2 0
-4.038 -11.269 -27.998 -0 -1.2 0
-4.004 -11.76 -27.82 -0 -1.2 0
-3.968 -12.248 -27.633 -0 -1.2 0
-3.932 -12.731 -27.437 -0 -1.2 0
-3.894 -13.213 -27.233 -0 -1.2 0
-3.855 -13.689 -27.021 -0 -1.2 0
-3.815 -14.163 -26.801 -0 -1.2 0
-3.773 -14.632 -26.572 -0 -1.2 0
-3.731 -15.097 -26.336 -0 -1.2 0
-3.687 -15.558 -26.091 -0 -1.2 0
-3.642 -16.015 -25.838 -0 -1.2 0
-3.596 -16.467 -25.578 -0 -1.2 0
-3.55 -16.913 -25.31 -0 -1.2 0
-3.502 -17.356 -25.034 -0 -1.2 0
-3.452 -17.793 -24.75 -0 -1.2 0
-3.401 -18.226 -24.459 -0 -1.2 0
-3.35 -18.653 -24.161 -0 -1.2 0
-3.299 -19.075 -23.855 -0 -1.2 0
-3.244 -19.491 -23.542 -0 -1.2 0
-3.19 -19.902 -23.222 -0 -1.2 0
-3.135 -20.307 -22.895 -0 -1.2 0
-3.079 -20.706 -22.561 -0 -1.2 0
-3.022 -21.099 -22.22 -0 -1.2 0
-2.964 -21.486 -21.872 -0 -1.2 0
-2.905 -21.867 -21.517 -0 -1.2 0
-2.844 -22.242 -21.157 -0 -1.2 0
-5.145 -3.077 -29.552 -0 -1.2 0
-5.13 -3.599 -29.515 -0 -1.2 0
-5.078 -5.161 -29.35 -0 -1.2 0
-5.012 -6.71 -29.104 -0 -1.2 0
-4.988 -7.224 -29.004 -0 -1.2 0
-4.961 -7.735 -28.896 -0 -1.2 0
-4.904 -8.752 -28.652 -0 -1.2 0
-4.872 -9.257 -28.518 -0 -1.2 0
-4.84 -9.76 -28.375 -0 -1.2 0
-4.806 -10.259 -28.222 -0 -1.2 0
-4.77 -10.757 -28.061 -0 -1.2 0
-4.734 -11.251 -27.893 -0 -1.2 0
-4.695 -11.742 -27.715 -0 -1.2 0
-4.656 -12.23 -27.529 -0 -1.2 0
-4.614 -12.714 -27.335 -0 -1.2 0
-4.572 -13.195 -27.133 -0 -1.2 0
-4.527 -13.672 -26.921 -0 -1.2 0
-4.481 -14.146 -26.703 -0 -1.2 0
-4.435 -14.615 -26.475 -0 -1.2 0
-4.387 -15.081 -26.24 -0 -1.2 0
-4.338 -15.541 -25.997 -0 -1.2 0
-4.287 -15.998 -25.746 -0 -1.2 0
-4.234 -16.45 -25.487 -0 -1.2 0
-4.181 -16.897 -25.22 -0 -1.2 0
-4.126 -17.34 -24.946 -0 -1.2 0
-4.07 -17.777 -24.663 -0 -1.2 0
-4.013 -18.21 -24.374 -0 -1.2 0
-3.955 -18.637 -24.077 -0 -1.2 0
-3.895 -19.06 -23.773 -0 -1.2 0
-3.834 -19.476 -23.462 -0 -1.2 0
-3.772 -19.887 -23.143 -0 -1.2 0
-3.708 -20.292 -22.818 -0 -1.2 0
-3.644 -20.691 -22.485 -0 -1.2 0
-3.579 -21.085 -22.146 -0 -1.2 0
-3.513 -21.472 -21.801 -0 -1.2 0
-3.445 -21.853 -21.447 -0 -1.2 0
-3.376 -22.228 -21.089 -0 -1.2 0
-5.855 -2.532 -29.448 -0 -1.2 0
-5.702 -6.688 -28.977 -0 -1.2 0
-5.675 -7.201 -28.879 -0 -1.2 0
-5.647 -7.713 -28.772 -0 -1.2 0
-5.615 -8.222 -28.656 -0 -1.2 0
-5.583 -8.73 -28.53 -0 -1.2 0
-5.513 -9.738 -28.255 -0 -1.2 0
-5.476 -10.238 -28.104 -0 -1.2 0
-5.437 -10.735 -27.944 -0 -1.2 0
-5.396 -11.229 -27.776 -0 -1.2 0
-5.354 -11.721 -27.6 -0 -1.2 0
-5.31 -12.209 -27.416 -0 -1.2 0
-5.264 -12.693 -27.223 -0 -1.2 0
-5.218 -13.174 -27.021 -0 -1.2 0
-5.169 -13.651 -26.811 -0 -1.2 0
-5.118 -14.125 -26.595 -0 -1.2 0
-5.066 -14.594 -26.369 -0 -1.2 0
-5.013 -15.06 -26.135 -0 -1.2 0
-4.958 -15.521 -25.893 -0 -1.2 0
-4.901 -15.979 -25.643 -0 -1.2 0
-4.843 -16.431 -25.387 -0 -1.2 0
-4.783 -16.878 -25.121 -0 -1.2 0
-4.723 -17.321 -24.848 -0 -1.2 0
-4.661 -17.758 -24.568 -0 -1.2 0
-4.596 -18.192 -24.28 -0 -1.2 0
-4.531 -18.619 -23.986 -0 -1.2 0
-4.464 -19.041 -23.684 -0 -1.2 0
-4.397 -19.458 -23.374 -0 -1.2 0
-4.327 -19.869 -23.057 -0 -1.2 0
-4.256 -20.274 -22.734 -0 -1.2 0
-4.184 -20.674 -22.403 -0 -1.2 0
-4.111 -21.067 -22.066 -0 -1.2 0
-4.037 -21.455 -21.721 -0 -1.2 0
-3.96 -21.837 -21.371 -0 -1.2 0
-3.884 -22.212 -21.014 -0 -1.2 0
-6.646 -2.512 -29.278 -0 -1.2 0
-6.633 -3.034 -29.25 -0 -1.2 0
-6.617 -3.557 -29.215 -0 -1.2 0
-6.599 -4.078 -29.17 -0 -1.2 0
-6.509 -6.153 -28.902 -0 -1.2 0
-6.482 -6.668 -28.814 -0 -1.2 0
-6.351 -8.711 -28.371 -0 -1.2 0
-6.315 -9.216 -28.238 -0 -1.2 0
-6.233 -10.219 -27.948 -0 -1.2 0
-6.191 -10.717 -27.79 -0 -1.2 0
-6.146 -11.21 -27.623 -0 -1.2 0
-6.099 -11.702 -27.449 -0 -1.2 0
-6.05 -12.19 -27.266 -0 -1.2 0
-5.999 -12.674 -27.075 -0 -1.2 0
-5.947 -13.156 -26.875 -0 -1.2 0
-5.892 -13.633 -26.667 -0 -1.2 0
-5.837 -14.107 -26.45 -0 -1.2 0
-5.779 -14.577 -26.227 -0 -1.2 0
-5.719 -15.043 -25.995 -0 -1.2 0
-5.658 -15.504 -25.755 -0 -1.2 0
-5.595 -15.961 -25.507 -0 -1.2 0
-5.53 -16.414 -25.252 -0 -1.2 0
-5.464 -16.861 -24.989 -0 -1.2 0
-5.395 -17.304 -24.718 -0 -1.2 0
-5.326 -17.742 -24.441 -0 -1.2 0
-5.255 -18.175 -24.155 -0 -1.2 0
-5.181 -18.603 -23.862 -0 -1.2 0
-5.106 -19.025 -23.561 -0 -1.2 0
-5.03 -19.442 -23.254 -0 -1.2 0
-4.952 -19.853 -22.939 -0 -1.2 0
-4.873 -20.259 -22.618 -0 -1.2 0
-4.793 -20.659 -22.289 -0 -1.2 0
-4.711 -21.053 -21.955 -0 -1.2 0
-4.627 -21.44 -21.613 -0 -1.2 0
-4.542 -21.822 -21.264 -0 -1.2 0
-4.456 -22.198 -20.91 -0 -1.2 0
-7.428 -2.501 -29.084 -0 -1.2 0
-7.414 -3.023 -29.058 -0 -1.2 0
-7.397 -3.545 -29.023 -0 -1.2 0
-7.379 -4.067 -28.978 -0 -1.2 0
-7.358 -4.588 -28.926 -0 -1.2 0
-7.335 -5.107 -28.865 -0 -1.2 0
-7.309 -5.626 -28.793 -0 -1.2 0
-7.282 -6.142 -28.715 -0 -1.2 0
-7.252 -6.657 -28.626 -0 -1.2 0
-7.186 -7.683 -28.424 -0 -1.2 0
-7.11 -8.7 -28.188 -0 -1.2 0
-7.07 -9.206 -28.057 -0 -1.2 0
-6.981 -10.208 -27.769 -0 -1.2 0
-6.934 -10.706 -27.613 -0 -1.2 0
-6.885 -11.2 -27.448 -0 -1.2 0
-6.834 -11.692 -27.274 -0 -1.2 0
-6.78 -12.18 -27.093 -0 -1.2 0
-6.724 -12.664 -26.903 -0 -1.2 0
-6.666 -13.146 -26.705 -0 -1.2 0
-6.606 -13.623 -26.499 -0 -1.2 0
-6.545 -14.097 -26.285 -0 -1.2 0
-6.481 -14.567 -26.062 -0 -1.2 0
-6.416 -15.033 -25.833 -0 -1.2 0
-6.348 -15.494 -25.594 -0 -1.2 0
-6.278 -15.951 -25.349 -0 -1.2 0
-6.207 -16.404 -25.096 -0 -1.2 0
-6.134 -16.851 -24.834 -0 -1.2 0
-6.058 -17.295 -24.566 -0 -1.2 0
-5.981 -17.732 -24.289 -0 -1.2 0
-5.902 -18.166 -24.006 -0 -1.2 0
-5.821 -18.594 -23.716 -0 -1.2 0
-5.739 -19.016 -23.418 -0 -1.2 0
-5.655 -19.433 -23.112 -0 -1.2 0
-5.568 -19.845 -22.8 -0 -1.2 0
-5.481 -20.251 -22.482 -0 -1.2 0
-5.391 -20.65 -22.156 -0 -1.2 0
-5.3 -21.044 -21.822 -0 -1.2 0
-5.208 -21.432 -21.484 -0 -1.2 0
-5.113 -21.814 -21.138 -0 -1.2 0
-5.018 -22.19 -20.785 -0 -1.2 0
-8.387 -2.514 -28.816 -0 -1.2 0
-8.372 -3.036 -28.79 -0 -1.2 0
-8.354 -3.558 -28.756 -0 -1.2 0
-8.286 -5.12 -28.599 -0 -1.2 0
-8.258 -5.638 -28.528 -0 -1.2 0
-8.228 -6.154 -28.451 -0 -1.2 0
-8.195 -6.67 -28.363 -0 -1.2 0
-8.122 -7.695 -28.163 -0 -1.2 0
-8.081 -8.204 -28.051 -0 -1.2 0
-8.038 -8.712 -27.929 -0 -1.2 0
-7.993 -9.218 -27.799 -0 -1.2 0
-7.945 -9.72 -27.661 -0 -1.2 0
-7.895 -10.22 -27.514 -0 -1.2 0
-7.842 -10.718 -27.359 -0 -1.2 0
-7.787 -11.212 -27.195 -0 -1.2 0
-7.73 -11.704 -27.024 -0 -1.2 0
-7.671 -12.191 -26.845 -0 -1.2 0
-7.609 -12.675 -26.656 -0 -1.2 0
-7.544 -13.157 -26.46 -0 -1.2 0
-7.477 -13.634 -26.255 -0 -1.2 0
-7.408 -14.109 -26.044 -0 -1.2 0
-7.337 -14.578 -25.823 -0 -1.2 0
-7.263 -15.044 -25.595 -0 -1.2 0
-7.189 -15.505 -25.36 -0 -1.2 0
-7.11 -15.962 -25.117 -0 -1.2 0
-7.031 -16.415 -24.865 -0 -1.2 0
-6.948 -16.862 -24.606 -0 -1.2 0
-6.863 -17.305 -24.34 -0 -1.2 0
-6.778 -17.743 -24.067 -0 -1.2 0
-6.689 -18.176 -23.786 -0 -1.2 0
-6.598 -18.604 -23.498 -0 -1.2 0
-6.506 -19.026 -23.203 -0 -1.2 0
-6.412 -19.443 -22.901 -0 -1.2 0
-6.315 -19.854 -22.591 -0 -1.2 0
-6.216 -20.26 -22.275 -0 -1.2 0
-6.117 -20.66 -21.953 -0 -1.2 0
-6.014 -21.054 -21.623 -0 -1.2 0
-5.911 -21.441 -21.287 -0 -1.2 0
-5.805 -21.823 -20.944 -0 -1.2 0
-5.697 -22.199 -20.595 -0 -1.2 0
-9.47 0.087 -28.485 -0 -1.2 0
-9.467 -0.435 -28.502 -0 -1.2 0
-9.463 -0.958 -28.512 -0 -1.2 0
-9.455 -1.481 -28.511 -0 -1.2 0
-9.431 -2.528 -28.486 -0 -1.2 0
-9.414 -3.05 -28.46 -0 -1.2 0
-9.395 -3.572 -28.426 -0 -1.2 0
-9.374 -4.093 -28.383 -0 -1.2 0
