# .PCD v.7 - Point Cloud Data file format
FIELDS x y z vp_x vp_y vp_z
SIZE 4 4 4 4 4 4
TYPE F F F F F F
COUNT 1 1 1 1 1 1
WIDTH 1528
HEIGHT 1
VIEWPOINT 0 -1.20013 0 1 0 0 0
POINTS 1528
DATA ascii
-19.561 -17.064 16.353 -0 -1.2 0
-19.337 -17.505 16.182 -0 -1.2 0
-19.108 -17.94 16.004 -0 -1.2 0
-18.873 -18.371 15.821 -0 -1.2 0
-18.632 -18.796 15.634 -0 -1.2 0
-18.385 -19.216 15.442 -0 -1.2 0
-18.133 -19.631 15.246 -0 -1.2 0
-17.874 -20.04 15.045 -0 -1.2 0
-17.611 -20.443 14.839 -0 -1.2 0
-17.343 -20.84 14.628 -0 -1.2 0
-17.069 -21.231 14.414 -0 -1.2 0
-16.79 -21.616 14.194 -0 -1.2 0
-16.505 -21.995 13.972 -0 -1.2 0
-16.216 -22.368 13.744 -0 -1.2 0
-22.62 0.406 19.795 -0 -1.2 0
-22.63 -0.117 19.816 -0 -1.2 0
-22.634 -0.64 19.831 -0 -1.2 0
-22.63 -1.163 19.841 -0 -1.2 0
-21.963 -7.908 19.414 -0 -1.2 0
-21.865 -8.417 19.34 -0 -1.2 0
-21.76 -8.923 19.259 -0 -1.2 0
-21.647 -9.428 19.173 -0 -1.2 0
-21.53 -9.93 19.081 -0 -1.2 0
-21.404 -10.428 18.984 -0 -1.2 0
-21.273 -10.925 18.88 -0 -1.2 0
-21.135 -11.418 18.771 -0 -1.2 0
-20.99 -11.908 18.655 -0 -1.2 0
-20.84 -12.395 18.535 -0 -1.2 0
-20.683 -12.877 18.409 -0 -1.2 0
-20.519 -13.358 18.278 -0 -1.2 0
-20.35 -13.833 18.14 -0 -1.2 0
-20.174 -14.306 17.997 -0 -1.2 0
-19.992 -14.773 17.848 -0 -1.2 0
-19.804 -15.238 17.695 -0 -1.2 0
-19.61 -15.697 17.536 -0 -1.2 0
-19.41 -16.152 17.372 -0 -1.2 0
-19.204 -16.603 17.202 -0 -1.2 0
-18.992 -17.048 17.027 -0 -1.2 0
-18.776 -17.49 16.848 -0 -1.2 0
-18.552 -17.925 16.662 -0 -1.2 0
-18.323 -18.356 16.472 -0 -1.2 0
-18.089 -18.782 16.277 -0 -1.2 0
-17.849 -19.202 16.077 -0 -1.2 0
-17.604 -19.616 15.872 -0 -1.2 0
-17.354 -20.026 15.662 -0 -1.2 0
-17.097 -20.429 15.447 -0 -1.2 0
-16.836 -20.826 15.228 -0 -1.2 0
-16.57 -21.217 15.004 -0 -1.2 0
-16.299 -21.603 14.776 -0 -1.2 0
-16.022 -21.982 14.543 -0 -1.2 0
-15.741 -22.355 14.306 -0 -1.2 0
-21.238 -8.4 20.034 -0 -1.2 0
-21.135 -8.907 19.951 -0 -1.2 0
-21.027 -9.412 19.862 -0 -1.2 0
-20.911 -9.914 19.766 -0 -1.2 0
-20.79 -10.412 19.665 -0 -1.2 0
-20.661 -10.909 19.557 -0 -1.2 0
-20.527 -11.402 19.443 -0 -1.2 0
-20.386 -11.892 19.324 -0 -1.2 0
-20.24 -12.379 19.199 -0 -1.2 0
-20.088 -12.862 19.068 -0 -1.2 0
-19.928 -13.342 18.931 -0 -1.2 0
-19.763 -13.818 18.789 -0 -1.2 0
-19.592 -14.29 18.641 -0 -1.2 0
-19.416 -14.758 18.487 -0 -1.2 0
-19.233 -15.223 18.328 -0 -1.2 0
-19.044 -15.682 18.162 -0 -1.2 0
-18.85 -16.138 17.992 -0 -1.2 0
-18.649 -16.588 17.816 -0 -1.2 0
-18.443 -17.034 17.634 -0 -1.2 0
-18.233 -17.475 17.447 -0 -1.2 0
-18.015 -17.911 17.256 -0 -1.2 0
-17.793 -18.342 17.059 -0 -1.2 0
-17.565 -18.768 16.856 -0 -1.2 0
-17.332 -19.188 16.649 -0 -1.2 0
-17.094 -19.603 16.436 -0 -1.2 0
-16.85 -20.012 16.219 -0 -1.2 0
-16.601 -20.416 15.996 -0 -1.2 0
-16.347 -20.813 15.769 -0 -1.2 0
-16.089 -21.205 15.537 -0 -1.2 0
-15.825 -21.59 15.3 -0 -1.2 0
-15.557 -21.97 15.059 -0 -1.2 0
-15.283 -22.343 14.812 -0 -1.2 0
-20.588 -8.384 20.709 -0 -1.2 0
-20.488 -8.891 20.622 -0 -1.2 0
-20.383 -9.396 20.529 -0 -1.2 0
-20.27 -9.897 20.431 -0 -1.2 0
-20.153 -10.396 20.325 -0 -1.2 0
-20.028 -10.893 20.213 -0 -1.2 0
-19.898 -11.386 20.096 -0 -1.2 0
-19.761 -11.876 19.973 -0 -1.2 0
-19.619 -12.363 19.843 -0 -1.2 0
-19.471 -12.846 19.708 -0 -1.2 0
-19.316 -13.327 19.566 -0 -1.2 0
-19.156 -13.802 19.419 -0 -1.2 0
-18.819 -14.743 19.106 -0 -1.2 0
-18.27 -16.123 18.593 -0 -1.2 0
-18.075 -16.574 18.412 -0 -1.2 0
-17.671 -17.461 18.03 -0 -1.2 0
-17.244 -18.328 17.628 -0 -1.2 0
-17.023 -18.754 17.419 -0 -1.2 0
-16.797 -19.175 17.204 -0 -1.2 0
-16.566 -19.589 16.984 -0 -1.2 0
-16.33 -19.999 16.758 -0 -1.2 0
-16.088 -20.403 16.528 -0 -1.2 0
-15.841 -20.8 16.294 -0 -1.2 0
-15.591 -21.192 16.054 -0 -1.2 0
-15.335 -21.578 15.808 -0 -1.2 0
-15.074 -21.957 15.559 -0 -1.2 0
-14.809 -22.331 15.304 -0 -1.2 0
-19.939 -7.857 21.507 -0 -1.2 0
-19.85 -8.366 21.424 -0 -1.2 0
-19.753 -8.873 21.334 -0 -1.2 0
-19.652 -9.378 21.238 -0 -1.2 0
-19.543 -9.879 21.135 -0 -1.2 0
-19.429 -10.378 21.026 -0 -1.2 0
-19.309 -10.875 20.911 -0 -1.2 0
-19.183 -11.368 20.79 -0 -1.2 0
-19.051 -11.859 20.662 -0 -1.2 0
-18.914 -12.346 20.528 -0 -1.2 0
-18.771 -12.829 20.386 -0 -1.2 0
-18.467 -13.785 20.088 -0 -1.2 0
-18.141 -14.726 19.764 -0 -1.2 0
-16.62 -18.313 18.232 -0 -1.2 0
-15.504 -20.388 17.094 -0 -1.2 0
-15.267 -20.786 16.851 -0 -1.2 0
-15.025 -21.178 16.602 -0 -1.2 0
-14.778 -21.564 16.349 -0 -1.2 0
-14.526 -21.944 16.09 -0 -1.2 0
-14.271 -22.318 15.827 -0 -1.2 0
-18.736 -10.362 21.655 -0 -1.2 0
-18.619 -10.859 21.536 -0 -1.2 0
-18.498 -11.352 21.411 -0 -1.2 0
-18.37 -11.843 21.279 -0 -1.2 0
-18.237 -12.33 21.141 -0 -1.2 0
-18.099 -12.813 20.995 -0 -1.2 0
-17.956 -13.294 20.844 -0 -1.2 0
-17.651 -14.243 20.522 -0 -1.2 0
-14.945 -20.375 17.601 -0 -1.2 0
-14.716 -20.773 17.35 -0 -1.2 0
-14.482 -21.165 17.093 -0 -1.2 0
-14.244 -21.551 16.833 -0 -1.2 0
-14.001 -21.931 16.566 -0 -1.2 0
-13.754 -22.305 16.295 -0 -1.2 0
-18.022 -10.345 22.261 -0 -1.2 0
-17.669 -11.827 21.873 -0 -1.2 0
-14.799 -19.547 18.589 -0 -1.2 0
-14.587 -19.958 18.342 -0 -1.2 0
-14.37 -20.362 18.089 -0 -1.2 0
-14.149 -20.76 17.831 -0 -1.2 0
-13.924 -21.152 17.567 -0 -1.2 0
-13.694 -21.539 17.299 -0 -1.2 0
-13.461 -21.919 17.024 -0 -1.2 0
-13.223 -22.293 16.745 -0 -1.2 0
-17.767 -7.294 23.494 -0 -1.2 0
-17.692 -7.805 23.41 -0 -1.2 0
-17.611 -8.314 23.319 -0 -1.2 0
-17.434 -9.326 23.115 -0 -1.2 0
-17.127 -10.825 22.758 -0 -1.2 0
-13.943 -19.943 18.851 -0 -1.2 0
-13.524 -20.746 18.325 -0 -1.2 0
-13.308 -21.139 18.054 -0 -1.2 0
-13.089 -21.525 17.778 -0 -1.2 0
-12.865 -21.905 17.496 -0 -1.2 0
-12.637 -22.28 17.209 -0 -1.2 0
-17.191 -5.733 24.271 -0 -1.2 0
-17.072 -6.764 24.136 -0 -1.2 0
-17.004 -7.277 24.057 -0 -1.2 0
-16.932 -7.788 23.971 -0 -1.2 0
-16.854 -8.298 23.877 -0 -1.2 0
-16.684 -9.31 23.669 -0 -1.2 0
-12.935 -20.733 18.76 -0 -1.2 0
-12.728 -21.126 18.483 -0 -1.2 0
-12.518 -21.513 18.2 -0 -1.2 0
-12.303 -21.893 17.911 -0 -1.2 0
-12.086 -22.268 17.616 -0 -1.2 0
-16.288 -6.747 24.676 -0 -1.2 0
-16.223 -7.261 24.596 -0 -1.2 0
-16.155 -7.772 24.507 -0 -1.2 0
-16.08 -8.281 24.412 -0 -1.2 0
-16.001 -8.788 24.309 -0 -1.2 0
-11.933 -21.5 18.602 -0 -1.2 0
-11.728 -21.881 18.307 -0 -1.2 0
-11.521 -22.256 18.006 -0 -1.2 0
-15.365 -7.243 25.146 -0 -1.2 0
-15.298 -7.754 25.056 -0 -1.2 0
-15.227 -8.263 24.958 -0 -1.2 0
-15.152 -8.771 24.853 -0 -1.2 0
-15.072 -9.276 24.74 -0 -1.2 0
-10.899 -22.243 18.405 -0 -1.2 0
-14.409 -8.247 25.444 -0 -1.2 0
-14.338 -8.754 25.337 -0 -1.2 0
-13.886 -5.146 26.403 -0 -1.2 0
-13.629 -7.721 26.012 -0 -1.2 0
-13.129 0.092 27.066 -0 -1.2 0
-13.085 -2.522 27.077 -0 -1.2 0
-13.064 -3.045 27.055 -0 -1.2 0
-13.039 -3.567 27.024 -0 -1.2 0
-13.01 -4.088 26.985 -0 -1.2 0
-12.977 -4.609 26.937 -0 -1.2 0
-12.941 -5.128 26.882 -0 -1.2 0
-12.9 -5.647 26.819 -0 -1.2 0
-12.856 -6.163 26.748 -0 -1.2 0
-12.807 -6.678 26.668 -0 -1.2 0
-12.755 -7.192 26.58 -0 -1.2 0
-12.699 -7.703 26.484 -0 -1.2 0
-12.575 -8.72 26.268 -0 -1.2 0
-11.831 -13.166 24.907 -0 -1.2 0
-11.73 -13.643 24.717 -0 -1.2 0
-12.227 -0.413 27.503 -0 -1.2 0
-12.222 -0.936 27.515 -0 -1.2 0
-12.213 -1.459 27.516 -0 -1.2 0
-12.2 -1.982 27.51 -0 -1.2 0
-12.185 -2.506 27.495 -0 -1.2 0
-12.165 -3.028 27.472 -0 -1.2 0
-12.141 -3.55 27.441 -0 -1.2 0
-12.114 -4.071 27.401 -0 -1.2 0
-12.083 -4.592 27.353 -0 -1.2 0
-12.01 -5.63 27.232 -0 -1.2 0
-11.968 -6.146 27.159 -0 -1.2 0
-11.923 -6.662 27.079 -0 -1.2 0
-11.874 -7.175 26.99 -0 -1.2 0
-11.821 -7.687 26.892 -0 -1.2 0
-11.765 -8.197 26.787 -0 -1.2 0
-10.914 -13.627 25.097 -0 -1.2 0
-11.307 0.649 27.849 -0 -1.2 0
-11.308 0.126 27.876 -0 -1.2 0
-11.306 -0.396 27.895 -0 -1.2 0
-11.301 -0.919 27.905 -0 -1.2 0
-11.292 -1.442 27.908 -0 -1.2 0
-11.281 -1.965 27.901 -0 -1.2 0
-11.266 -2.489 27.886 -0 -1.2 0
-11.247 -3.011 27.862 -0 -1.2 0
-11.224 -3.533 27.83 -0 -1.2 0
-11.198 -4.055 27.791 -0 -1.2 0
-11.17 -4.576 27.742 -0 -1.2 0
-11.137 -5.095 27.685 -0 -1.2 0
-11.101 -5.614 27.619 -0 -1.2 0
-11.062 -6.13 27.545 -0 -1.2 0
-11.02 -6.646 27.462 -0 -1.2 0
-10.974 -7.159 27.373 -0 -1.2 0
-10.924 -7.671 27.274 -0 -1.2 0
-9.988 -14.087 25.249 -0 -1.2 0
-9.894 -14.556 25.037 -0 -1.2 0
-9.38 -16.841 23.87 -0 -1.2 0
-8.916 -18.584 22.806 -0 -1.2 0
-10.296 1.189 28.2 -0 -1.2 0
-10.3 0.667 28.237 -0 -1.2 0
-10.3 0.143 28.264 -0 -1.2 0
-10.298 -0.378 28.283 -0 -1.2 0
-10.293 -0.901 28.294 -0 -1.2 0
-10.284 -1.424 28.295 -0 -1.2 0
-10.273 -1.947 28.289 -0 -1.2 0
-10.259 -2.471 28.274 -0 -1.2 0
-10.241 -2.993 28.25 -0 -1.2 0
-10.22 -3.516 28.217 -0 -1.2 0
-10.195 -4.037 28.176 -0 -1.2 0
-10.169 -4.558 28.127 -0 -1.2 0
-10.139 -5.078 28.069 -0 -1.2 0
-10.105 -5.596 28.003 -0 -1.2 0
-10.002 -6.079 27.742 -0 -1.2 0
-10.03 -6.628 27.844 -0 -1.2 0
-9.987 -7.142 27.752 -0 -1.2 0
-9.941 -7.653 27.651 -0 -1.2 0
-9.787 -9.177 27.301 -0 -1.2 0
-8.624 -16.379 24.452 -0 -1.2 0
-8.524 -16.826 24.2 -0 -1.2 0
-8.318 -17.708 23.675 -0 -1.2 0
-9.345 -0.885 28.621 -0 -1.2 0
-9.06 -7.126 28.072 -0 -1.2 0
-8.973 -8.147 27.861 -0 -1.2 0
-8.823 -9.664 27.48 -0 -1.2 0
-7.899 -15.912 24.98 -0 -1.2 0
-6.571 -21.399 21.205 -0 -1.2 0
-7.359 1.238 29.103 -0 -1.2 0
-5.414 1.268 29.525 -0 -1.2 0
-3.068 -20.155 23.082 -0 -1.2 0
-2.315 1.313 29.927 -0 -1.2 0
-0.102 -4.925 29.87 -0 -1.2 0
6.743 -19.213 23.068 -0 -1.2 0
6.659 -19.628 22.759 -0 -1.2 0
7.54 -19.206 22.825 -0 -1.2 0
8.005 -20.427 21.63 -0 -1.2 0
10.177 -18.342 22.473 -0 -1.2 0
10.948 -18.338 22.11 -0 -1.2 0
10.816 -18.764 21.835 -0 -1.2 0
10.682 -19.184 21.554 -0 -1.2 0
11.902 -17.902 21.954 -0 -1.2 0
11.764 -18.333 21.691 -0 -1.2 0
11.622 -18.759 21.422 -0 -1.2 0
10.365 -21.963 19.039 -0 -1.2 0
12.649 -17.899 21.534 -0 -1.2 0
12.502 -18.33 21.277 -0 -1.2 0
12.35 -18.756 21.013 -0 -1.2 0
13.369 -17.895 21.098 -0 -1.2 0
13.212 -18.326 20.846 -0 -1.2 0
13.053 -18.753 20.587 -0 -1.2 0
12.372 -20.401 19.49 -0 -1.2 0
12.193 -20.799 19.201 -0 -1.2 0
11.823 -21.577 18.605 -0 -1.2 0
11.632 -21.957 18.299 -0 -1.2 0
14.128 -17.891 20.601 -0 -1.2 0
13.44 -19.584 19.579 -0 -1.2 0
13.072 -20.397 19.032 -0 -1.2 0
12.881 -20.795 18.75 -0 -1.2 0
12.687 -21.187 18.462 -0 -1.2 0
12.489 -21.573 18.169 -0 -1.2 0
12.288 -21.953 17.87 -0 -1.2 0
13.706 -20.393 18.585 -0 -1.2 0
13.506 -20.791 18.309 -0 -1.2 0
13.302 -21.183 18.029 -0 -1.2 0
13.094 -21.569 17.743 -0 -1.2 0
12.882 -21.949 17.451 -0 -1.2 0
18.614 -0.062 23.654 -0 -1.2 0
14.33 -20.39 18.112 -0 -1.2 0
14.121 -20.788 17.843 -0 -1.2 0
13.907 -21.18 17.57 -0 -1.2 0
13.689 -21.566 17.291 -0 -1.2 0
13.467 -21.946 17.008 -0 -1.2 0
19.498 -0.581 22.949 -0 -1.2 0
19.502 -1.104 22.951 -0 -1.2 0
19.5 -1.627 22.947 -0 -1.2 0
19.492 -2.151 22.936 -0 -1.2 0
19.479 -2.674 22.918 -0 -1.2 0
19.458 -3.196 22.893 -0 -1.2 0
19.432 -3.718 22.861 -0 -1.2 0
19.401 -4.24 22.821 -0 -1.2 0
19.364 -4.76 22.775 -0 -1.2 0
19.321 -5.28 22.722 -0 -1.2 0
19.271 -5.797 22.662 -0 -1.2 0
19.216 -6.313 22.596 -0 -1.2 0
14.319 -21.563 16.777 -0 -1.2 0
14.086 -21.943 16.503 -0 -1.2 0
20.286 -0.578 22.256 -0 -1.2 0
20.289 -1.101 22.258 -0 -1.2 0
20.286 -1.624 22.254 -0 -1.2 0
20.278 -2.148 22.244 -0 -1.2 0
20.264 -2.67 22.227 -0 -1.2 0
20.243 -3.193 22.202 -0 -1.2 0
20.215 -3.715 22.171 -0 -1.2 0
20.182 -4.237 22.133 -0 -1.2 0
20.143 -4.757 22.089 -0 -1.2 0
20.098 -5.276 22.038 -0 -1.2 0
20.046 -5.794 21.981 -0 -1.2 0
19.925 -6.825 21.845 -0 -1.2 0
19.61 -8.866 21.495 -0 -1.2 0
15.585 -20.384 17.05 -0 -1.2 0
14.886 -21.56 16.28 -0 -1.2 0
14.642 -21.941 16.013 -0 -1.2 0
21.051 -1.098 21.538 -0 -1.2 0
21.048 -1.621 21.536 -0 -1.2 0
21.039 -2.145 21.525 -0 -1.2 0
21.024 -2.668 21.508 -0 -1.2 0
21.002 -3.191 21.485 -0 -1.2 0
20.973 -3.712 21.455 -0 -1.2 0
20.939 -4.234 21.42 -0 -1.2 0
20.898 -4.754 21.377 -0 -1.2 0
20.851 -5.274 21.327 -0 -1.2 0
20.598 -7.335 21.066 -0 -1.2 0
19.394 -12.821 19.826 -0 -1.2 0
15.682 -21.172 16.015 -0 -1.2 0
15.434 -21.558 15.762 -0 -1.2 0
15.182 -21.939 15.504 -0 -1.2 0
21.83 -0.573 20.743 -0 -1.2 0
21.832 -1.096 20.746 -0 -1.2 0
21.83 -1.619 20.743 -0 -1.2 0
21.82 -2.143 20.734 -0 -1.2 0
21.804 -2.666 20.718 -0 -1.2 0
21.781 -3.189 20.695 -0 -1.2 0
21.751 -3.71 20.667 -0 -1.2 0
21.715 -4.232 20.633 -0 -1.2 0
21.672 -4.752 20.592 -0 -1.2 0
21.623 -5.272 20.544 -0 -1.2 0
21.567 -5.789 20.491 -0 -1.2 0
21.504 -6.306 20.431 -0 -1.2 0
21.436 -6.821 20.365 -0 -1.2 0
21.36 -7.333 20.294 -0 -1.2 0
20.886 -9.867 19.842 -0 -1.2 0
20.771 -10.367 19.733 -0 -1.2 0
20.254 -12.334 19.239 -0 -1.2 0
17.46 -19.151 16.583 -0 -1.2 0
16.505 -20.779 15.675 -0 -1.2 0
16.253 -21.171 15.436 -0 -1.2 0
15.997 -21.557 15.192 -0 -1.2 0
15.736 -21.937 14.944 -0 -1.2 0
22.524 -0.572 19.986 -0 -1.2 0
22.528 -1.095 19.989 -0 -1.2 0
22.524 -1.618 19.986 -0 -1.2 0
22.514 -2.143 19.977 -0 -1.2 0
22.496 -2.665 19.962 -0 -1.2 0
22.473 -3.188 19.942 -0 -1.2 0
22.442 -3.71 19.914 -0 -1.2 0
22.405 -4.231 19.881 -0 -1.2 0
22.36 -4.752 19.842 -0 -1.2 0
22.309 -5.271 19.796 -0 -1.2 0
22.251 -5.788 19.746 -0 -1.2 0
22.187 -6.305 19.688 -0 -1.2 0
22.115 -6.82 19.625 -0 -1.2 0
21.952 -7.844 19.481 -0 -1.2 0
21.861 -8.353 19.4 -0 -1.2 0
21.174 -11.357 18.792 -0 -1.2 0
16.763 -21.17 14.882 -0 -1.2 0
16.498 -21.556 14.648 -0 -1.2 0
16.228 -21.937 14.409 -0 -1.2 0
23.181 -2.143 19.2 -0 -1.2 0
23.163 -2.666 19.185 -0 -1.2 0
23.138 -3.188 19.165 -0 -1.2 0
23.106 -3.71 19.139 -0 -1.2 0
23.067 -4.232 19.108 -0 -1.2 0
23.022 -4.752 19.071 -0 -1.2 0
22.969 -5.271 19.027 -0 -1.2 0
22.908 -5.789 18.978 -0 -1.2 0
22.687 -7.333 18.797 -0 -1.2 0
22.6 -7.844 18.725 -0 -1.2 0
20.671 -14.716 17.136 -0 -1.2 0
17.518 -20.778 14.533 -0 -1.2 0
16.978 -21.557 14.087 -0 -1.2 0
16.701 -21.937 13.857 -0 -1.2 0
17.756 -21.171 13.679 -0 -1.2 0
17.475 -21.558 13.464 -0 -1.2 0
24.492 -0.053 17.495 -0 -1.2 0
24.502 -0.576 17.503 -0 -1.2 0
24.506 -1.099 17.507 -0 -1.2 0
24.501 -1.622 17.505 -0 -1.2 0
24.49 -2.146 17.498 -0 -1.2 0
24.47 -2.669 17.486 -0 -1.2 0
24.443 -3.191 17.468 -0 -1.2 0
24.41 -3.713 17.445 -0 -1.2 0
24.368 -4.235 17.417 -0 -1.2 0
24.129 -6.309 17.251 -0 -1.2 0
18.493 -20.781 13.265 -0 -1.2 0
17.922 -21.559 12.86 -0 -1.2 0
17.629 -21.939 12.65 -0 -1.2 0
25.095 -0.578 16.64 -0 -1.2 0
25.098 -1.101 16.645 -0 -1.2 0
25.094 -1.624 16.643 -0 -1.2 0
25.082 -2.149 16.637 -0 -1.2 0
25.062 -2.671 16.625 -0 -1.2 0
25.035 -3.194 16.609 -0 -1.2 0
24.999 -3.716 16.588 -0 -1.2 0
24.957 -4.238 16.561 -0 -1.2 0
24.907 -4.758 16.529 -0 -1.2 0
24.849 -5.277 16.492 -0 -1.2 0
24.783 -5.794 16.451 -0 -1.2 0
23.421 -11.853 15.568 -0 -1.2 0
18.048 -21.941 12.04 -0 -1.2 0
25.645 0.986 15.649 -0 -1.2 0
25.671 0.463 15.668 -0 -1.2 0
25.69 -0.059 15.682 -0 -1.2 0
25.701 -0.582 15.69 -0 -1.2 0
25.704 -1.105 15.694 -0 -1.2 0
25.698 -1.628 15.692 -0 -1.2 0
25.686 -2.152 15.687 -0 -1.2 0
25.665 -2.675 15.677 -0 -1.2 0
25.637 -3.197 15.661 -0 -1.2 0
25.601 -3.719 15.641 -0 -1.2 0
25.557 -4.241 15.617 -0 -1.2 0
25.446 -5.28 15.553 -0 -1.2 0
25.304 -6.314 15.471 -0 -1.2 0
25.133 -7.342 15.37 -0 -1.2 0
23.983 -11.856 14.686 -0 -1.2 0
23.818 -12.342 14.587 -0 -1.2 0
18.785 -21.563 11.554 -0 -1.2 0
18.477 -21.944 11.367 -0 -1.2 0
26.199 0.459 14.766 -0 -1.2 0
26.127 -3.723 14.744 -0 -1.2 0
25.632 -4.19 14.468 -0 -1.2 0
25.632 -5.23 14.472 -0 -1.2 0
25.676 -5.761 14.499 -0 -1.2 0
25.824 -6.318 14.585 -0 -1.2 0
25.739 -6.833 14.54 -0 -1.2 0
25.153 -8.284 14.216 -0 -1.2 0
19.475 -21.18 11.076 -0 -1.2 0
19.167 -21.566 10.904 -0 -1.2 0
18.851 -21.946 10.729 -0 -1.2 0
26.668 0.978 13.834 -0 -1.2 0
26.695 0.454 13.851 -0 -1.2 0
26.709 -2.161 13.871 -0 -1.2 0
26.62 -3.727 13.833 -0 -1.2 0
26.005 -6.261 13.527 -0 -1.2 0
19.838 -21.183 10.406 -0 -1.2 0
19.523 -21.569 10.243 -0 -1.2 0
19.202 -21.95 10.079 -0 -1.2 0
27.193 0.448 12.845 -0 -1.2 0
27.154 -3.212 12.848 -0 -1.2 0
27.115 -3.734 12.833 -0 -1.2 0
26.799 -6.329 12.699 -0 -1.2 0
26.712 -6.844 12.66 -0 -1.2 0
20.826 -20.399 9.956 -0 -1.2 0
20.518 -20.796 9.813 -0 -1.2 0
20.203 -21.188 9.667 -0 -1.2 0
19.882 -21.574 9.518 -0 -1.2 0
19.554 -21.954 9.365 -0 -1.2 0
27.593 0.964 11.882 -0 -1.2 0
27.62 0.441 11.897 -0 -1.2 0
27.355 -0.091 11.786 -0 -1.2 0
27.367 -0.609 11.794 -0 -1.2 0
27.369 -1.127 11.798 -0 -1.2 0
27.345 -1.644 11.791 -0 -1.2 0
27.358 -2.163 11.8 -0 -1.2 0
27.327 -2.681 11.79 -0 -1.2 0
27.58 -3.219 11.902 -0 -1.2 0
27.523 -3.739 11.88 -0 -1.2 0
27.219 -6.336 11.766 -0 -1.2 0
27.13 -6.851 11.73 -0 -1.2 0
21.149 -20.404 9.237 -0 -1.2 0
20.836 -20.801 9.105 -0 -1.2 0
20.516 -21.193 8.97 -0 -1.2 0
20.19 -21.579 8.831 -0 -1.2 0
19.858 -21.959 8.691 -0 -1.2 0
28.012 0.434 10.943 -0 -1.2 0
27.415 -7.37 10.76 -0 -1.2 0
21.757 -20.006 8.633 -0 -1.2 0
21.446 -20.409 8.514 -0 -1.2 0
21.128 -20.807 8.392 -0 -1.2 0
20.803 -21.198 8.268 -0 -1.2 0
20.472 -21.584 8.142 -0 -1.2 0
20.135 -21.964 8.012 -0 -1.2 0
23.244 -18.341 8.249 -0 -1.2 0
22.955 -18.767 8.151 -0 -1.2 0
22.659 -19.187 8.051 -0 -1.2 0
22.358 -19.602 7.948 -0 -1.2 0
22.048 -20.012 7.843 -0 -1.2 0
21.732 -20.415 7.736 -0 -1.2 0
21.41 -20.813 7.626 -0 -1.2 0
21.081 -21.204 7.514 -0 -1.2 0
20.746 -21.59 7.399 -0 -1.2 0
20.404 -21.97 7.283 -0 -1.2 0
28.742 -0.627 8.969 -0 -1.2 0
28.743 -1.15 8.973 -0 -1.2 0
26.224 -13.347 8.278 -0 -1.2 0
25.335 -14.058 8.005 -0 -1.2 0
25.293 -14.614 7.997 -0 -1.2 0
24.852 -16.143 7.87 -0 -1.2 0
24.596 -16.593 7.794 -0 -1.2 0
24.334 -17.04 7.716 -0 -1.2 0
24.064 -17.48 7.634 -0 -1.2 0
23.786 -17.917 7.551 -0 -1.2 0
23.502 -18.348 7.465 -0 -1.2 0
23.209 -18.773 7.377 -0 -1.2 0
22.911 -19.193 7.287 -0 -1.2 0
22.605 -19.609 7.195 -0 -1.2 0
22.292 -20.018 7.101 -0 -1.2 0
21.973 -20.421 7.005 -0 -1.2 0
21.646 -20.819 6.906 -0 -1.2 0
21.314 -21.21 6.805 -0 -1.2 0
20.975 -21.596 6.702 -0 -1.2 0
20.629 -21.975 6.597 -0 -1.2 0
29.016 -0.112 7.986 -0 -1.2 0
29.027 -0.635 7.993 -0 -1.2 0
29.03 -1.158 7.998 -0 -1.2 0
29.024 -1.681 8.001 -0 -1.2 0
28.476 -6.881 7.89 -0 -1.2 0
28.374 -7.394 7.866 -0 -1.2 0
25.334 -13.937 7.08 -0 -1.2 0
25.242 -14.461 7.059 -0 -1.2 0
24.758 -14.773 6.928 -0 -1.2 0
24.859 -15.413 6.961 -0 -1.2 0
25.097 -16.15 7.032 -0 -1.2 0
24.84 -16.6 6.965 -0 -1.2 0
24.574 -17.047 6.895 -0 -1.2 0
24.301 -17.487 6.823 -0 -1.2 0
24.021 -17.924 6.749 -0 -1.2 0
23.733 -18.354 6.674 -0 -1.2 0
23.439 -18.78 6.596 -0 -1.2 0
23.136 -19.2 6.516 -0 -1.2 0
22.827 -19.615 6.435 -0 -1.2 0
22.512 -20.024 6.351 -0 -1.2 0
22.189 -20.427 6.266 -0 -1.2 0
21.86 -20.825 6.177 -0 -1.2 0
21.524 -21.216 6.088 -0 -1.2 0
21.181 -21.602 5.998 -0 -1.2 0
20.832 -21.981 5.904 -0 -1.2 0
29.289 -0.121 6.914 -0 -1.2 0
29.301 -0.644 6.921 -0 -1.2 0
29.303 -1.167 6.926 -0 -1.2 0
29.297 -1.69 6.928 -0 -1.2 0
26.517 -13.839 6.371 -0 -1.2 0
26.297 -14.311 6.322 -0 -1.2 0
25.184 -14.314 6.06 -0 -1.2 0
24.921 -14.743 6.002 -0 -1.2 0
24.659 -15.172 5.944 -0 -1.2 0
25.131 -16.037 6.061 -0 -1.2 0
25.072 -16.608 6.053 -0 -1.2 0
24.804 -17.054 5.993 -0 -1.2 0
24.529 -17.495 5.931 -0 -1.2 0
24.245 -17.931 5.868 -0 -1.2 0
23.955 -18.362 5.803 -0 -1.2 0
23.657 -18.787 5.737 -0 -1.2 0
23.353 -19.207 5.668 -0 -1.2 0
23.041 -19.622 5.598 -0 -1.2 0
22.722 -20.031 5.527 -0 -1.2 0
22.396 -20.434 5.452 -0 -1.2 0
22.063 -20.831 5.377 -0 -1.2 0
21.724 -21.223 5.301 -0 -1.2 0
21.378 -21.608 5.222 -0 -1.2 0
21.026 -21.988 5.143 -0 -1.2 0
29.511 -0.13 5.901 -0 -1.2 0
29.521 -0.653 5.908 -0 -1.2 0
29.524 -1.176 5.912 -0 -1.2 0
29.517 -1.699 5.915 -0 -1.2 0
29.502 -2.223 5.917 -0 -1.2 0
29.477 -2.746 5.916 -0 -1.2 0
29.444 -3.268 5.913 -0 -1.2 0
29.401 -3.79 5.909 -0 -1.2 0
28.046 -10.443 5.696 -0 -1.2 0
27.881 -10.938 5.666 -0 -1.2 0
27.708 -11.432 5.636 -0 -1.2 0
26.716 -13.847 5.458 -0 -1.2 0
26.493 -14.319 5.417 -0 -1.2 0
25.133 -14.764 5.15 -0 -1.2 0
25.089 -15.909 5.151 -0 -1.2 0
25.259 -16.616 5.191 -0 -1.2 0
24.988 -17.062 5.141 -0 -1.2 0
24.711 -17.502 5.089 -0 -1.2 0
24.426 -17.938 5.036 -0 -1.2 0
24.133 -18.369 4.981 -0 -1.2 0
23.834 -18.795 4.925 -0 -1.2 0
23.526 -19.214 4.867 -0 -1.2 0
23.212 -19.629 4.807 -0 -1.2 0
22.891 -20.038 4.747 -0 -1.2 0
22.563 -20.441 4.685 -0 -1.2 0
22.228 -20.838 4.621 -0 -1.2 0
21.886 -21.229 4.556 -0 -1.2 0
21.537 -21.615 4.49 -0 -1.2 0
21.182 -21.994 4.422 -0 -1.2 0
29.696 -0.139 4.881 -0 -1.2 0
29.707 -0.662 4.888 -0 -1.2 0
29.71 -1.185 4.893 -0 -1.2 0
29.702 -1.708 4.896 -0 -1.2 0
29.687 -2.233 4.898 -0 -1.2 0
29.662 -2.755 4.899 -0 -1.2 0
29.629 -3.277 4.898 -0 -1.2 0
29.586 -3.799 4.895 -0 -1.2 0
29.237 -6.393 4.861 -0 -1.2 0
29.141 -6.908 4.85 -0 -1.2 0
28.255 -7.25 4.707 -0 -1.2 0
28.135 -7.745 4.692 -0 -1.2 0
28.006 -8.237 4.675 -0 -1.2 0
28.528 -9.451 4.771 -0 -1.2 0
28.379 -9.952 4.752 -0 -1.2 0
28.221 -10.452 4.73 -0 -1.2 0
28.037 -10.94 4.704 -0 -1.2 0
27.881 -11.441 4.683 -0 -1.2 0
27.307 -12.9 4.602 -0 -1.2 0
27.099 -13.379 4.572 -0 -1.2 0
26.882 -13.856 4.54 -0 -1.2 0
26.658 -14.327 4.508 -0 -1.2 0
26.285 -14.723 4.45 -0 -1.2 0
26.185 -15.259 4.438 -0 -1.2 0
25.68 -16.174 4.363 -0 -1.2 0
25.416 -16.624 4.324 -0 -1.2 0
25.145 -17.07 4.284 -0 -1.2 0
24.865 -17.51 4.242 -0 -1.2 0
24.578 -17.946 4.199 -0 -1.2 0
24.284 -18.376 4.154 -0 -1.2 0
23.982 -18.802 4.108 -0 -1.2 0
23.673 -19.222 4.061 -0 -1.2 0
23.357 -19.636 4.013 -0 -1.2 0
23.033 -20.045 3.964 -0 -1.2 0
22.702 -20.448 3.912 -0 -1.2 0
22.365 -20.845 3.861 -0 -1.2 0
22.021 -21.236 3.807 -0 -1.2 0
21.67 -21.621 3.754 -0 -1.2 0
21.313 -22.001 3.698 -0 -1.2 0
29.856 -0.15 3.777 -0 -1.2 0
29.867 -0.673 3.784 -0 -1.2 0
29.87 -1.196 3.788 -0 -1.2 0
29.847 -2.243 3.795 -0 -1.2 0
29.822 -2.765 3.796 -0 -1.2 0
29.788 -3.288 3.797 -0 -1.2 0
29.745 -3.809 3.797 -0 -1.2 0
29.693 -4.331 3.794 -0 -1.2 0
29.633 -4.851 3.792 -0 -1.2 0
29.562 -5.37 3.788 -0 -1.2 0
29.483 -5.887 3.782 -0 -1.2 0
29.395 -6.404 3.776 -0 -1.2 0
29.298 -6.918 3.768 -0 -1.2 0
29.192 -7.431 3.76 -0 -1.2 0
29.078 -7.941 3.75 -0 -1.2 0
28.954 -8.45 3.739 -0 -1.2 0
28.822 -8.957 3.727 -0 -1.2 0
28.682 -9.461 3.714 -0 -1.2 0
28.532 -9.962 3.7 -0 -1.2 0
28.373 -10.461 3.684 -0 -1.2 0
28.206 -10.957 3.668 -0 -1.2 0
28.031 -11.45 3.65 -0 -1.2 0
27.847 -11.94 3.632 -0 -1.2 0
27.654 -12.426 3.611 -0 -1.2 0
27.453 -12.91 3.591 -0 -1.2 0
27.244 -13.389 3.569 -0 -1.2 0
27.027 -13.865 3.545 -0 -1.2 0
26.801 -14.336 3.522 -0 -1.2 0
26.568 -14.805 3.497 -0 -1.2 0
26.326 -15.268 3.47 -0 -1.2 0
26.076 -15.728 3.443 -0 -1.2 0
25.818 -16.183 3.414 -0 -1.2 0
25.552 -16.632 3.385 -0 -1.2 0
25.279 -17.078 3.354 -0 -1.2 0
24.998 -17.518 3.323 -0 -1.2 0
24.71 -17.955 3.291 -0 -1.2 0
24.413 -18.385 3.258 -0 -1.2 0
24.11 -18.81 3.223 -0 -1.2 0
23.799 -19.23 3.188 -0 -1.2 0
23.481 -19.644 3.151 -0 -1.2 0
23.156 -20.053 3.114 -0 -1.2 0
22.824 -20.456 3.076 -0 -1.2 0
22.485 -20.853 3.037 -0 -1.2 0
22.139 -21.244 2.997 -0 -1.2 0
21.786 -21.629 2.956 -0 -1.2 0
21.427 -22.008 2.915 -0 -1.2 0
29.968 -0.16 2.749 -0 -1.2 0
29.979 -0.682 2.756 -0 -1.2 0
29.981 -1.205 2.761 -0 -1.2 0
29.959 -2.253 2.769 -0 -1.2 0
29.934 -2.775 2.772 -0 -1.2 0
29.899 -3.298 2.773 -0 -1.2 0
29.856 -3.819 2.775 -0 -1.2 0
29.804 -4.341 2.774 -0 -1.2 0
29.743 -4.861 2.774 -0 -1.2 0
29.673 -5.38 2.773 -0 -1.2 0
29.593 -5.897 2.77 -0 -1.2 0
29.505 -6.413 2.767 -0 -1.2 0
29.408 -6.928 2.763 -0 -1.2 0
29.301 -7.44 2.758 -0 -1.2 0
29.186 -7.951 2.753 -0 -1.2 0
29.063 -8.46 2.746 -0 -1.2 0
28.929 -8.966 2.739 -0 -1.2 0
28.788 -9.47 2.731 -0 -1.2 0
28.638 -9.972 2.722 -0 -1.2 0
28.479 -10.471 2.712 -0 -1.2 0
28.311 -10.966 2.701 -0 -1.2 0
28.135 -11.46 2.69 -0 -1.2 0
27.95 -11.949 2.677 -0 -1.2 0
27.757 -12.435 2.665 -0 -1.2 0
27.556 -12.919 2.651 -0 -1.2 0
27.346 -13.398 2.636 -0 -1.2 0
27.127 -13.874 2.621 -0 -1.2 0
26.901 -14.345 2.605 -0 -1.2 0
26.666 -14.813 2.588 -0 -1.2 0
26.423 -15.277 2.57 -0 -1.2 0
26.172 -15.736 2.551 -0 -1.2 0
25.914 -16.191 2.532 -0 -1.2 0
25.647 -16.641 2.512 -0 -1.2 0
25.373 -17.087 2.491 -0 -1.2 0
25.09 -17.527 2.469 -0 -1.2 0
24.801 -17.963 2.447 -0 -1.2 0
24.503 -18.393 2.424 -0 -1.2 0
24.199 -18.818 2.401 -0 -1.2 0
23.887 -19.238 2.375 -0 -1.2 0
23.568 -19.652 2.351 -0 -1.2 0
23.242 -20.061 2.325 -0 -1.2 0
22.908 -20.463 2.298 -0 -1.2 0
22.567 -20.86 2.271 -0 -1.2 0
22.22 -21.251 2.243 -0 -1.2 0
21.866 -21.636 2.214 -0 -1.2 0
21.506 -22.015 2.185 -0 -1.2 0
30.056 -0.693 1.728 -0 -1.2 0
30.057 -1.216 1.732 -0 -1.2 0
30.01 -2.785 1.745 -0 -1.2 0
29.976 -3.308 1.748 -0 -1.2 0
29.933 -3.829 1.751 -0 -1.2 0
29.879 -4.351 1.754 -0 -1.2 0
29.818 -4.871 1.755 -0 -1.2 0
29.748 -5.39 1.756 -0 -1.2 0
29.669 -5.907 1.756 -0 -1.2 0
29.579 -6.423 1.757 -0 -1.2 0
29.482 -6.938 1.756 -0 -1.2 0
29.376 -7.45 1.755 -0 -1.2 0
29.26 -7.961 1.753 -0 -1.2 0
29.136 -8.469 1.752 -0 -1.2 0
29.003 -8.976 1.749 -0 -1.2 0
28.861 -9.48 1.746 -0 -1.2 0
28.711 -9.981 1.742 -0 -1.2 0
28.551 -10.48 1.739 -0 -1.2 0
28.383 -10.976 1.733 -0 -1.2 0
28.206 -11.469 1.728 -0 -1.2 0
28.021 -11.959 1.723 -0 -1.2 0
27.828 -12.444 1.716 -0 -1.2 0
27.625 -12.928 1.709 -0 -1.2 0
27.415 -13.407 1.703 -0 -1.2 0
27.196 -13.883 1.695 -0 -1.2 0
26.968 -14.354 1.686 -0 -1.2 0
26.734 -14.822 1.678 -0 -1.2 0
26.49 -15.286 1.668 -0 -1.2 0
26.238 -15.745 1.658 -0 -1.2 0
25.979 -16.2 1.648 -0 -1.2 0
25.712 -16.649 1.637 -0 -1.2 0
25.437 -17.095 1.626 -0 -1.2 0
25.154 -17.535 1.615 -0 -1.2 0
24.863 -17.971 1.602 -0 -1.2 0
24.566 -18.401 1.59 -0 -1.2 0
24.26 -18.826 1.576 -0 -1.2 0
23.948 -19.246 1.563 -0 -1.2 0
23.627 -19.66 1.549 -0 -1.2 0
23.3 -20.068 1.534 -0 -1.2 0
22.966 -20.471 1.519 -0 -1.2 0
22.625 -20.868 1.503 -0 -1.2 0
22.277 -21.259 1.488 -0 -1.2 0
21.922 -21.643 1.471 -0 -1.2 0
21.56 -22.022 1.454 -0 -1.2 0
30.087 -0.181 0.612 -0 -1.2 0
30.098 -0.704 0.617 -0 -1.2 0
30.101 -1.227 0.623 -0 -1.2 0
30.077 -2.274 0.633 -0 -1.2 0
30.052 -2.797 0.637 -0 -1.2 0
30.018 -3.319 0.643 -0 -1.2 0
29.975 -3.841 0.646 -0 -1.2 0
29.923 -4.362 0.651 -0 -1.2 0
29.86 -4.882 0.655 -0 -1.2 0
29.79 -5.401 0.659 -0 -1.2 0
29.71 -5.918 0.662 -0 -1.2 0
29.622 -6.434 0.667 -0 -1.2 0
29.524 -6.949 0.669 -0 -1.2 0
29.417 -7.461 0.673 -0 -1.2 0
29.302 -7.972 0.676 -0 -1.2 0
29.177 -8.48 0.679 -0 -1.2 0
29.044 -8.987 0.681 -0 -1.2 0
28.902 -9.491 0.683 -0 -1.2 0
28.751 -9.992 0.686 -0 -1.2 0
28.591 -10.491 0.687 -0 -1.2 0
28.423 -10.986 0.689 -0 -1.2 0
28.246 -11.48 0.691 -0 -1.2 0
28.061 -11.969 0.692 -0 -1.2 0
27.867 -12.455 0.693 -0 -1.2 0
27.664 -12.939 0.694 -0 -1.2 0
27.453 -13.417 0.695 -0 -1.2 0
27.235 -13.893 0.695 -0 -1.2 0
27.007 -14.364 0.695 -0 -1.2 0
26.771 -14.832 0.695 -0 -1.2 0
26.527 -15.296 0.695 -0 -1.2 0
26.276 -15.755 0.695 -0 -1.2 0
26.016 -16.209 0.695 -0 -1.2 0
25.749 -16.659 0.694 -0 -1.2 0
25.472 -17.105 0.693 -0 -1.2 0
25.189 -17.544 0.692 -0 -1.2 0
24.899 -17.98 0.691 -0 -1.2 0
24.6 -18.41 0.689 -0 -1.2 0
24.294 -18.835 0.687 -0 -1.2 0
23.981 -19.255 0.686 -0 -1.2 0
23.661 -19.669 0.683 -0 -1.2 0
23.333 -20.077 0.681 -0 -1.2 0
22.998 -20.48 0.678 -0 -1.2 0
22.656 -20.876 0.676 -0 -1.2 0
22.307 -21.267 0.673 -0 -1.2 0
21.952 -21.651 0.669 -0 -1.2 0
21.59 -22.03 0.667 -0 -1.2 0
30.076 -0.2 -0.977 -0 -1.2 0
30.087 -0.723 -0.972 -0 -1.2 0
30.083 -1.769 -0.958 -0 -1.2 0
30.067 -2.293 -0.95 -0 -1.2 0
30.042 -2.816 -0.943 -0 -1.2 0
30.007 -3.338 -0.936 -0 -1.2 0
29.964 -3.86 -0.927 -0 -1.2 0
29.912 -4.381 -0.919 -0 -1.2 0
29.85 -4.901 -0.91 -0 -1.2 0
29.78 -5.42 -0.901 -0 -1.2 0
29.7 -5.937 -0.892 -0 -1.2 0
29.611 -6.453 -0.882 -0 -1.2 0
29.514 -6.967 -0.873 -0 -1.2 0
29.407 -7.48 -0.863 -0 -1.2 0
29.292 -7.99 -0.853 -0 -1.2 0
29.168 -8.499 -0.842 -0 -1.2 0
29.034 -9.006 -0.831 -0 -1.2 0
28.892 -9.509 -0.82 -0 -1.2 0
28.741 -10.01 -0.809 -0 -1.2 0
28.582 -10.509 -0.798 -0 -1.2 0
28.413 -11.004 -0.786 -0 -1.2 0
28.237 -11.498 -0.773 -0 -1.2 0
28.051 -11.987 -0.761 -0 -1.2 0
27.857 -12.472 -0.749 -0 -1.2 0
27.655 -12.956 -0.736 -0 -1.2 0
27.444 -13.435 -0.723 -0 -1.2 0
27.225 -13.91 -0.71 -0 -1.2 0
26.997 -14.381 -0.696 -0 -1.2 0
26.762 -14.849 -0.682 -0 -1.2 0
26.518 -15.312 -0.669 -0 -1.2 0
26.266 -15.772 -0.654 -0 -1.2 0
26.007 -16.226 -0.639 -0 -1.2 0
25.739 -16.675 -0.625 -0 -1.2 0
25.464 -17.121 -0.61 -0 -1.2 0
25.18 -17.56 -0.596 -0 -1.2 0
24.89 -17.996 -0.581 -0 -1.2 0
24.592 -18.426 -0.565 -0 -1.2 0
24.286 -18.851 -0.55 -0 -1.2 0
23.973 -19.27 -0.534 -0 -1.2 0
23.652 -19.684 -0.518 -0 -1.2 0
23.324 -20.092 -0.502 -0 -1.2 0
22.99 -20.494 -0.486 -0 -1.2 0
22.649 -20.89 -0.47 -0 -1.2 0
22.3 -21.281 -0.453 -0 -1.2 0
21.945 -21.665 -0.437 -0 -1.2 0
21.583 -22.044 -0.42 -0 -1.2 0
30.02 -0.214 -2.072 -0 -1.2 0
30.027 -1.783 -2.052 -0 -1.2 0
30.011 -2.308 -2.043 -0 -1.2 0
29.986 -2.83 -2.035 -0 -1.2 0
29.951 -3.352 -2.026 -0 -1.2 0
29.908 -3.874 -2.016 -0 -1.2 0
29.856 -4.395 -2.006 -0 -1.2 0
29.795 -4.915 -1.994 -0 -1.2 0
29.725 -5.434 -1.982 -0 -1.2 0
29.644 -5.951 -1.97 -0 -1.2 0
29.556 -6.467 -1.957 -0 -1.2 0
29.459 -6.981 -1.944 -0 -1.2 0
29.352 -7.494 -1.93 -0 -1.2 0
29.237 -8.004 -1.914 -0 -1.2 0
29.113 -8.513 -1.899 -0 -1.2 0
28.98 -9.019 -1.884 -0 -1.2 0
28.838 -9.523 -1.867 -0 -1.2 0
28.687 -10.024 -1.85 -0 -1.2 0
28.529 -10.523 -1.833 -0 -1.2 0
28.36 -11.018 -1.814 -0 -1.2 0
28.184 -11.511 -1.795 -0 -1.2 0
27.999 -12 -1.776 -0 -1.2 0
27.805 -12.485 -1.756 -0 -1.2 0
27.604 -12.969 -1.736 -0 -1.2 0
27.393 -13.447 -1.715 -0 -1.2 0
27.174 -13.923 -1.694 -0 -1.2 0
26.947 -14.394 -1.671 -0 -1.2 0
26.712 -14.862 -1.649 -0 -1.2 0
26.469 -15.325 -1.626 -0 -1.2 0
26.218 -15.784 -1.603 -0 -1.2 0
25.958 -16.238 -1.578 -0 -1.2 0
25.692 -16.687 -1.554 -0 -1.2 0
25.417 -17.133 -1.529 -0 -1.2 0
25.134 -17.572 -1.504 -0 -1.2 0
24.844 -18.008 -1.478 -0 -1.2 0
24.546 -18.437 -1.451 -0 -1.2 0
24.241 -18.862 -1.424 -0 -1.2 0
23.929 -19.281 -1.397 -0 -1.2 0
23.609 -19.695 -1.37 -0 -1.2 0
23.281 -20.103 -1.342 -0 -1.2 0
22.948 -20.505 -1.313 -0 -1.2 0
22.607 -20.901 -1.284 -0 -1.2 0
22.259 -21.291 -1.255 -0 -1.2 0
21.905 -21.675 -1.226 -0 -1.2 0
21.543 -22.054 -1.195 -0 -1.2 0
29.932 -0.228 -3.086 -0 -1.2 0
29.943 -0.751 -3.08 -0 -1.2 0
29.939 -1.797 -3.065 -0 -1.2 0
29.924 -2.321 -3.056 -0 -1.2 0
29.899 -2.843 -3.047 -0 -1.2 0
29.864 -3.366 -3.035 -0 -1.2 0
29.821 -3.887 -3.024 -0 -1.2 0
29.769 -4.409 -3.012 -0 -1.2 0
29.708 -4.929 -2.998 -0 -1.2 0
29.638 -5.447 -2.984 -0 -1.2 0
29.558 -5.964 -2.969 -0 -1.2 0
29.47 -6.48 -2.952 -0 -1.2 0
29.373 -6.995 -2.936 -0 -1.2 0
29.267 -7.507 -2.918 -0 -1.2 0
29.152 -8.017 -2.898 -0 -1.2 0
29.029 -8.526 -2.879 -0 -1.2 0
28.895 -9.032 -2.858 -0 -1.2 0
28.755 -9.536 -2.837 -0 -1.2 0
28.604 -10.037 -2.815 -0 -1.2 0
28.446 -10.535 -2.791 -0 -1.2 0
28.278 -11.03 -2.767 -0 -1.2 0
28.102 -11.524 -2.742 -0 -1.2 0
27.918 -12.013 -2.716 -0 -1.2 0
27.724 -12.498 -2.689 -0 -1.2 0
27.524 -12.981 -2.662 -0 -1.2 0
27.314 -13.46 -2.635 -0 -1.2 0
27.095 -13.935 -2.605 -0 -1.2 0
26.869 -14.406 -2.575 -0 -1.2 0
26.635 -14.874 -2.544 -0 -1.2 0
26.392 -15.337 -2.514 -0 -1.2 0
26.142 -15.796 -2.481 -0 -1.2 0
25.883 -16.25 -2.448 -0 -1.2 0
25.617 -16.699 -2.415 -0 -1.2 0
25.343 -17.144 -2.38 -0 -1.2 0
25.061 -17.583 -2.345 -0 -1.2 0
24.772 -18.019 -2.309 -0 -1.2 0
24.475 -18.448 -2.272 -0 -1.2 0
24.171 -18.873 -2.235 -0 -1.2 0
23.86 -19.291 -2.197 -0 -1.2 0
23.54 -19.705 -2.158 -0 -1.2 0
23.214 -20.113 -2.119 -0 -1.2 0
22.882 -20.515 -2.079 -0 -1.2 0
22.542 -20.911 -2.038 -0 -1.2 0
22.195 -21.301 -1.997 -0 -1.2 0
21.841 -21.685 -1.956 -0 -1.2 0
21.481 -22.063 -1.913 -0 -1.2 0
29.817 -1.811 -4.075 -0 -1.2 0
29.802 -2.335 -4.065 -0 -1.2 0
29.777 -2.857 -4.054 -0 -1.2 0
29.742 -3.38 -4.042 -0 -1.2 0
29.7 -3.901 -4.029 -0 -1.2 0
29.648 -4.423 -4.015 -0 -1.2 0
29.587 -4.943 -3.999 -0 -1.2 0
29.518 -5.461 -3.982 -0 -1.2 0
29.438 -5.978 -3.963 -0 -1.2 0
29.351 -6.494 -3.944 -0 -1.2 0
29.254 -7.008 -3.924 -0 -1.2 0
29.148 -7.52 -3.902 -0 -1.2 0
29.034 -8.031 -3.879 -0 -1.2 0
28.911 -8.539 -3.855 -0 -1.2 0
28.778 -9.046 -3.83 -0 -1.2 0
28.638 -9.549 -3.803 -0 -1.2 0
28.488 -10.05 -3.775 -0 -1.2 0
28.33 -10.549 -3.746 -0 -1.2 0
28.163 -11.044 -3.716 -0 -1.2 0
27.989 -11.537 -3.685 -0 -1.2 0
27.805 -12.026 -3.653 -0 -1.2 0
27.612 -12.511 -3.62 -0 -1.2 0
27.412 -12.994 -3.585 -0 -1.2 0
27.203 -13.472 -3.55 -0 -1.2 0
26.986 -13.948 -3.514 -0 -1.2 0
26.76 -14.418 -3.476 -0 -1.2 0
26.527 -14.886 -3.437 -0 -1.2 0
26.285 -15.349 -3.397 -0 -1.2 0
26.036 -15.808 -3.357 -0 -1.2 0
25.779 -16.262 -3.314 -0 -1.2 0
25.514 -16.711 -3.272 -0 -1.2 0
25.241 -17.156 -3.227 -0 -1.2 0
24.96 -17.595 -3.183 -0 -1.2 0
24.672 -18.03 -3.136 -0 -1.2 0
24.377 -18.459 -3.09 -0 -1.2 0
24.073 -18.884 -3.042 -0 -1.2 0
23.763 -19.302 -2.994 -0 -1.2 0
23.446 -19.716 -2.944 -0 -1.2 0
23.121 -20.124 -2.894 -0 -1.2 0
22.79 -20.525 -2.842 -0 -1.2 0
22.451 -20.921 -2.79 -0 -1.2 0
22.106 -21.311 -2.737 -0 -1.2 0
21.754 -21.695 -2.683 -0 -1.2 0
21.395 -22.073 -2.628 -0 -1.2 0
29.653 -0.78 -5.168 -0 -1.2 0
29.655 -1.303 -5.161 -0 -1.2 0
29.649 -1.826 -5.152 -0 -1.2 0
29.633 -2.351 -5.142 -0 -1.2 0
29.609 -2.873 -5.131 -0 -1.2 0
29.574 -3.395 -5.117 -0 -1.2 0
29.532 -3.917 -5.102 -0 -1.2 0
29.481 -4.438 -5.085 -0 -1.2 0
29.42 -4.958 -5.067 -0 -1.2 0
29.351 -5.477 -5.048 -0 -1.2 0
29.272 -5.993 -5.026 -0 -1.2 0
29.185 -6.509 -5.003 -0 -1.2 0
29.089 -7.023 -4.979 -0 -1.2 0
28.983 -7.536 -4.953 -0 -1.2 0
28.87 -8.046 -4.926 -0 -1.2 0
28.748 -8.554 -4.897 -0 -1.2 0
28.616 -9.06 -4.867 -0 -1.2 0
28.477 -9.564 -4.835 -0 -1.2 0
28.327 -10.065 -4.801 -0 -1.2 0
28.171 -10.563 -4.766 -0 -1.2 0
28.005 -11.058 -4.73 -0 -1.2 0
27.831 -11.551 -4.693 -0 -1.2 0
27.648 -12.04 -4.654 -0 -1.2 0
27.457 -12.525 -4.613 -0 -1.2 0
27.258 -13.008 -4.571 -0 -1.2 0
27.05 -13.486 -4.528 -0 -1.2 0
26.834 -13.962 -4.484 -0 -1.2 0
26.61 -14.432 -4.437 -0 -1.2 0
26.378 -14.9 -4.39 -0 -1.2 0
26.138 -15.362 -4.341 -0 -1.2 0
25.89 -15.821 -4.291 -0 -1.2 0
25.634 -16.275 -4.239 -0 -1.2 0
25.371 -16.724 -4.187 -0 -1.2 0
25.099 -17.169 -4.133 -0 -1.2 0
24.82 -17.608 -4.078 -0 -1.2 0
24.534 -18.043 -4.021 -0 -1.2 0
24.24 -18.472 -3.963 -0 -1.2 0
23.938 -18.896 -3.905 -0 -1.2 0
23.63 -19.315 -3.845 -0 -1.2 0
23.314 -19.728 -3.784 -0 -1.2 0
22.991 -20.136 -3.721 -0 -1.2 0
22.662 -20.537 -3.657 -0 -1.2 0
22.326 -20.933 -3.593 -0 -1.2 0
21.982 -21.323 -3.527 -0 -1.2 0
21.632 -21.706 -3.459 -0 -1.2 0
21.276 -22.084 -3.392 -0 -1.2 0
29.43 0.25 -6.172 -0 -1.2 0
29.451 -0.272 -6.169 -0 -1.2 0
29.461 -0.795 -6.163 -0 -1.2 0
29.464 -1.318 -6.156 -0 -1.2 0
29.457 -1.841 -6.146 -0 -1.2 0
29.442 -2.365 -6.136 -0 -1.2 0
29.418 -2.887 -6.123 -0 -1.2 0
29.384 -3.41 -6.108 -0 -1.2 0
29.342 -3.931 -6.091 -0 -1.2 0
29.291 -4.453 -6.072 -0 -1.2 0
29.231 -4.972 -6.052 -0 -1.2 0
29.162 -5.491 -6.03 -0 -1.2 0
29.083 -6.008 -6.005 -0 -1.2 0
28.997 -6.524 -5.98 -0 -1.2 0
28.902 -7.038 -5.952 -0 -1.2 0
28.797 -7.55 -5.922 -0 -1.2 0
28.684 -8.06 -5.891 -0 -1.2 0
28.563 -8.568 -5.858 -0 -1.2 0
28.432 -9.075 -5.823 -0 -1.2 0
28.293 -9.578 -5.786 -0 -1.2 0
28.145 -10.079 -5.747 -0 -1.2 0
27.99 -10.577 -5.707 -0 -1.2 0
27.825 -11.072 -5.665 -0 -1.2 0
27.652 -11.565 -5.622 -0 -1.2 0
27.47 -12.054 -5.576 -0 -1.2 0
27.28 -12.539 -5.529 -0 -1.2 0
27.083 -13.022 -5.48 -0 -1.2 0
26.877 -13.5 -5.429 -0 -1.2 0
26.662 -13.975 -5.377 -0 -1.2 0
26.439 -14.445 -5.324 -0 -1.2 0
26.209 -14.913 -5.268 -0 -1.2 0
25.97 -15.375 -5.211 -0 -1.2 0
25.724 -15.834 -5.153 -0 -1.2 0
25.47 -16.287 -5.092 -0 -1.2 0
24.939 -17.181 -4.967 -0 -1.2 0
24.377 -18.055 -4.836 -0 -1.2 0
24.085 -18.484 -4.769 -0 -1.2 0
23.785 -18.908 -4.7 -0 -1.2 0
23.479 -19.326 -4.629 -0 -1.2 0
23.165 -19.739 -4.557 -0 -1.2 0
22.844 -20.147 -4.484 -0 -1.2 0
22.518 -20.548 -4.409 -0 -1.2 0
22.183 -20.944 -4.333 -0 -1.2 0
21.842 -21.333 -4.255 -0 -1.2 0
21.494 -21.717 -4.176 -0 -1.2 0
21.14 -22.095 -4.096 -0 -1.2 0
29.177 0.758 -7.16 -0 -1.2 0
29.206 0.235 -7.159 -0 -1.2 0
29.226 -0.287 -7.157 -0 -1.2 0
29.237 -0.81 -7.151 -0 -1.2 0
29.239 -1.333 -7.144 -0 -1.2 0
29.233 -1.856 -7.133 -0 -1.2 0
29.218 -2.38 -7.122 -0 -1.2 0
29.194 -2.902 -7.107 -0 -1.2 0
29.16 -3.425 -7.091 -0 -1.2 0
29.118 -3.946 -7.073 -0 -1.2 0
29.067 -4.468 -7.052 -0 -1.2 0
29.008 -4.987 -7.03 -0 -1.2 0
28.94 -5.506 -7.005 -0 -1.2 0
28.862 -6.023 -6.978 -0 -1.2 0
28.776 -6.539 -6.949 -0 -1.2 0
28.682 -7.052 -6.917 -0 -1.2 0
28.578 -7.564 -6.884 -0 -1.2 0
28.466 -8.075 -6.849 -0 -1.2 0
28.346 -8.583 -6.812 -0 -1.2 0
28.216 -9.089 -6.772 -0 -1.2 0
28.078 -9.592 -6.73 -0 -1.2 0
27.932 -10.093 -6.687 -0 -1.2 0
27.777 -10.591 -6.641 -0 -1.2 0
27.613 -11.086 -6.594 -0 -1.2 0
27.073 -12.552 -6.438 -0 -1.2 0
26.878 -13.035 -6.383 -0 -1.2 0
26.673 -13.513 -6.325 -0 -1.2 0
26.46 -13.989 -6.265 -0 -1.2 0
26.239 -14.459 -6.204 -0 -1.2 0
26.01 -14.926 -6.141 -0 -1.2 0
25.774 -15.388 -6.075 -0 -1.2 0
25.529 -15.847 -6.009 -0 -1.2 0
25.277 -16.3 -5.94 -0 -1.2 0
25.017 -16.749 -5.868 -0 -1.2 0
24.75 -17.194 -5.796 -0 -1.2 0
22.991 -19.751 -5.325 -0 -1.2 0
22.672 -20.158 -5.241 -0 -1.2 0
22.348 -20.56 -5.155 -0 -1.2 0
22.016 -20.955 -5.067 -0 -1.2 0
21.677 -21.344 -4.978 -0 -1.2 0
21.332 -21.728 -4.887 -0 -1.2 0
20.981 -22.105 -4.796 -0 -1.2 0
28.623 3.344 -8.174 -0 -1.2 0
28.899 0.742 -8.211 -0 -1.2 0
28.928 0.218 -8.211 -0 -1.2 0
28.948 -0.304 -8.208 -0 -1.2 0
28.958 -0.827 -8.203 -0 -1.2 0
28.961 -1.35 -8.196 -0 -1.2 0
28.955 -1.873 -8.185 -0 -1.2 0
28.94 -2.397 -8.173 -0 -1.2 0
28.916 -2.919 -8.157 -0 -1.2 0
28.882 -3.441 -8.14 -0 -1.2 0
28.841 -3.963 -8.12 -0 -1.2 0
28.791 -4.484 -8.097 -0 -1.2 0
28.732 -5.004 -8.072 -0 -1.2 0
28.665 -5.522 -8.044 -0 -1.2 0
28.588 -6.039 -8.014 -0 -1.2 0
28.503 -6.555 -7.982 -0 -1.2 0
28.409 -7.069 -7.947 -0 -1.2 0
28.306 -7.581 -7.91 -0 -1.2 0
28.196 -8.091 -7.87 -0 -1.2 0
28.077 -8.599 -7.829 -0 -1.2 0
27.948 -9.105 -7.783 -0 -1.2 0
27.812 -9.608 -7.737 -0 -1.2 0
27.667 -10.109 -7.688 -0 -1.2 0
27.514 -10.607 -7.636 -0 -1.2 0
27.352 -11.102 -7.583 -0 -1.2 0
27.182 -11.594 -7.526 -0 -1.2 0
27.004 -12.083 -7.468 -0 -1.2 0
25.991 -14.473 -7.141 -0 -1.2 0
25.038 -16.315 -6.842 -0 -1.2 0
22.459 -20.171 -6.047 -0 -1.2 0
22.137 -20.572 -5.95 -0 -1.2 0
21.809 -20.967 -5.85 -0 -1.2 0
21.473 -21.356 -5.749 -0 -1.2 0
21.132 -21.74 -5.645 -0 -1.2 0
20.784 -22.117 -5.541 -0 -1.2 0
28.643 0.203 -9.152 -0 -1.2 0
28.664 -0.319 -9.149 -0 -1.2 0
28.674 -0.842 -9.145 -0 -1.2 0
28.677 -1.365 -9.136 -0 -1.2 0
28.67 -1.888 -9.126 -0 -1.2 0
28.656 -2.412 -9.113 -0 -1.2 0
28.632 -2.934 -9.096 -0 -1.2 0
28.599 -3.456 -9.078 -0 -1.2 0
28.558 -3.978 -9.056 -0 -1.2 0
28.509 -4.499 -9.032 -0 -1.2 0
28.451 -5.019 -9.005 -0 -1.2 0
28.384 -5.537 -8.974 -0 -1.2 0
28.308 -6.054 -8.942 -0 -1.2 0
28.224 -6.57 -8.907 -0 -1.2 0
28.131 -7.084 -8.868 -0 -1.2 0
28.029 -7.596 -8.828 -0 -1.2 0
27.92 -8.105 -8.784 -0 -1.2 0
27.802 -8.614 -8.737 -0 -1.2 0
27.085 -11.116 -8.468 -0 -1.2 0
26.917 -11.608 -8.406 -0 -1.2 0
26.74 -12.097 -8.341 -0 -1.2 0
24.009 -17.659 -7.376 -0 -1.2 0
21.923 -20.584 -6.661 -0 -1.2 0
21.265 -21.368 -6.438 -0 -1.2 0
20.582 -22.128 -6.207 -0 -1.2 0
28.329 0.187 -10.083 -0 -1.2 0
28.362 -1.38 -10.068 -0 -1.2 0
28.356 -1.903 -10.057 -0 -1.2 0
28.341 -2.428 -10.043 -0 -1.2 0
28.318 -2.95 -10.026 -0 -1.2 0
28.286 -3.472 -10.006 -0 -1.2 0
28.245 -3.993 -9.982 -0 -1.2 0
28.196 -4.515 -9.957 -0 -1.2 0
28.139 -5.034 -9.927 -0 -1.2 0
28.073 -5.553 -9.895 -0 -1.2 0
27.998 -6.069 -9.86 -0 -1.2 0
27.915 -6.585 -9.821 -0 -1.2 0
27.823 -7.099 -9.78 -0 -1.2 0
27.723 -7.611 -9.736 -0 -1.2 0
27.498 -8.629 -9.638 -0 -1.2 0
26.789 -11.131 -9.344 -0 -1.2 0
25.235 -14.968 -8.724 -0 -1.2 0
21.999 -20.195 -7.484 -0 -1.2 0
27.956 0.17 -11.073 -0 -1.2 0
27.986 -0.874 -11.068 -0 -1.2 0
27.989 -1.397 -11.059 -0 -1.2 0
27.983 -1.92 -11.048 -0 -1.2 0
27.969 -2.445 -11.033 -0 -1.2 0
27.946 -2.967 -11.015 -0 -1.2 0
27.915 -3.489 -10.994 -0 -1.2 0
27.874 -4.01 -10.969 -0 -1.2 0
27.826 -4.532 -10.941 -0 -1.2 0
27.77 -5.051 -10.909 -0 -1.2 0
27.705 -5.57 -10.874 -0 -1.2 0
27.63 -6.086 -10.836 -0 -1.2 0
27.549 -6.602 -10.794 -0 -1.2 0
27.459 -7.115 -10.75 -0 -1.2 0
27.36 -7.627 -10.702 -0 -1.2 0
20.096 -22.151 -7.568 -0 -1.2 0
27.61 -1.414 -11.971 -0 -1.2 0
27.605 -1.937 -11.959 -0 -1.2 0
27.591 -2.461 -11.943 -0 -1.2 0
27.568 -2.983 -11.925 -0 -1.2 0
27.538 -3.505 -11.901 -0 -1.2 0
27.498 -4.026 -11.875 -0 -1.2 0
27.45 -4.548 -11.845 -0 -1.2 0
27.395 -5.067 -11.811 -0 -1.2 0
27.331 -5.585 -11.774 -0 -1.2 0
27.257 -6.102 -11.734 -0 -1.2 0
27.177 -6.618 -11.689 -0 -1.2 0
27.088 -7.131 -11.641 -0 -1.2 0
26.991 -7.643 -11.59 -0 -1.2 0
26.885 -8.153 -11.534 -0 -1.2 0
26.772 -8.661 -11.476 -0 -1.2 0
24.571 -14.997 -10.405 -0 -1.2 0
24.117 -15.917 -10.192 -0 -1.2 0
23.635 -16.817 -9.966 -0 -1.2 0
27.165 0.138 -12.893 -0 -1.2 0
27.192 -1.952 -12.868 -0 -1.2 0
27.178 -2.476 -12.851 -0 -1.2 0
27.156 -2.999 -12.831 -0 -1.2 0
27.126 -3.521 -12.807 -0 -1.2 0
27.087 -4.042 -12.779 -0 -1.2 0
27.04 -4.563 -12.748 -0 -1.2 0
26.985 -5.083 -12.711 -0 -1.2 0
26.922 -5.601 -12.672 -0 -1.2 0
26.85 -6.118 -12.629 -0 -1.2 0
26.771 -6.633 -12.581 -0 -1.2 0
26.684 -7.147 -12.53 -0 -1.2 0
26.588 -7.658 -12.476 -0 -1.2 0
26.484 -8.168 -12.417 -0 -1.2 0
26.373 -8.676 -12.354 -0 -1.2 0
23.759 -15.93 -10.98 -0 -1.2 0
26.713 -1.97 -13.83 -0 -1.2 0
26.7 -2.494 -13.813 -0 -1.2 0
26.679 -3.016 -13.792 -0 -1.2 0
26.649 -3.538 -13.766 -0 -1.2 0
26.611 -4.059 -13.737 -0 -1.2 0
26.565 -4.58 -13.704 -0 -1.2 0
26.511 -5.1 -13.665 -0 -1.2 0
26.45 -5.618 -13.623 -0 -1.2 0
26.38 -6.135 -13.578 -0 -1.2 0
26.301 -6.65 -13.528 -0 -1.2 0
26.216 -7.164 -13.472 -0 -1.2 0
26.122 -7.675 -13.414 -0 -1.2 0
25.792 -9.198 -13.215 -0 -1.2 0
25.393 -10.699 -12.978 -0 -1.2 0
24.193 -14.091 -12.291 -0 -1.2 0
26.239 -1.986 -14.708 -0 -1.2 0
26.226 -2.51 -14.69 -0 -1.2 0
26.205 -3.032 -14.668 -0 -1.2 0
26.176 -3.554 -14.642 -0 -1.2 0
26.139 -4.075 -14.61 -0 -1.2 0
26.094 -4.596 -14.575 -0 -1.2 0
26.041 -5.116 -14.536 -0 -1.2 0
25.981 -5.634 -14.491 -0 -1.2 0
24.799 -11.208 -13.718 -0 -1.2 0
21.99 -17.74 -12.012 -0 -1.2 0
25.168 -0.973 -16.494 -0 -1.2 0
25.171 -1.496 -16.486 -0 -1.2 0
25.165 -2.019 -16.471 -0 -1.2 0
25.153 -2.543 -16.453 -0 -1.2 0
25.133 -3.065 -16.429 -0 -1.2 0
25.106 -3.587 -16.4 -0 -1.2 0
25.071 -4.109 -16.366 -0 -1.2 0
25.028 -4.63 -16.327 -0 -1.2 0
24.781 -6.699 -16.123 -0 -1.2 0
24.7 -7.212 -16.059 -0 -1.2 0
24.613 -7.724 -15.991 -0 -1.2 0
23.789 -11.24 -15.378 -0 -1.2 0
22.004 -15.988 -14.108 -0 -1.2 0
24.608 -0.99 -17.316 -0 -1.2 0
24.612 -1.512 -17.307 -0 -1.2 0
24.607 -2.035 -17.292 -0 -1.2 0
24.595 -2.559 -17.273 -0 -1.2 0
24.576 -3.082 -17.249 -0 -1.2 0
24.549 -3.604 -17.219 -0 -1.2 0
24.515 -4.125 -17.183 -0 -1.2 0
24.473 -4.646 -17.143 -0 -1.2 0
24.424 -5.165 -17.097 -0 -1.2 0
24.368 -5.683 -17.047 -0 -1.2 0
24.304 -6.199 -16.991 -0 -1.2 0
22.648 -13.199 -15.675 -0 -1.2 0
21.922 -15.085 -15.124 -0 -1.2 0
24.023 -1.006 -18.118 -0 -1.2 0
24.026 -1.529 -18.11 -0 -1.2 0
24.021 -2.052 -18.094 -0 -1.2 0
24.01 -2.576 -18.075 -0 -1.2 0
23.991 -3.098 -18.049 -0 -1.2 0
23.966 -3.62 -18.019 -0 -1.2 0
23.933 -4.141 -17.982 -0 -1.2 0
23.891 -4.662 -17.94 -0 -1.2 0
23.844 -5.181 -17.892 -0 -1.2 0
23.789 -5.699 -17.84 -0 -1.2 0
23.727 -6.216 -17.782 -0 -1.2 0
23.657 -6.731 -17.718 -0 -1.2 0
23.581 -7.244 -17.649 -0 -1.2 0
23.497 -7.755 -17.574 -0 -1.2 0
23.375 -2.07 -18.919 -0 -1.2 0
23.365 -2.594 -18.898 -0 -1.2 0
23.347 -3.116 -18.872 -0 -1.2 0
23.322 -3.638 -18.84 -0 -1.2 0
23.29 -4.159 -18.802 -0 -1.2 0
23.251 -4.68 -18.758 -0 -1.2 0
23.204 -5.199 -18.709 -0 -1.2 0
23.151 -5.717 -18.655 -0 -1.2 0
23.091 -6.233 -18.594 -0 -1.2 0
23.024 -6.748 -18.528 -0 -1.2 0
22.948 -7.262 -18.455 -0 -1.2 0
22.868 -7.773 -18.378 -0 -1.2 0
22.684 -8.789 -18.206 -0 -1.2 0
22.234 -10.794 -17.796 -0 -1.2 0
17.111 -21.882 -13.388 -0 -1.2 0
16.831 -22.257 -13.153 -0 -1.2 0
22.757 -2.087 -19.658 -0 -1.2 0
22.745 -2.611 -19.637 -0 -1.2 0
22.728 -3.133 -19.61 -0 -1.2 0
22.704 -3.655 -19.576 -0 -1.2 0
22.673 -4.176 -19.537 -0 -1.2 0
22.635 -4.697 -19.492 -0 -1.2 0
22.59 -5.216 -19.441 -0 -1.2 0
22.538 -5.734 -19.385 -0 -1.2 0
22.48 -6.25 -19.322 -0 -1.2 0
22.415 -6.765 -19.253 -0 -1.2 0
22.342 -7.278 -19.178 -0 -1.2 0
22.263 -7.789 -19.098 -0 -1.2 0
22.178 -8.298 -19.012 -0 -1.2 0
22.085 -8.806 -18.92 -0 -1.2 0
21.88 -9.813 -18.719 -0 -1.2 0
21.648 -10.81 -18.495 -0 -1.2 0
21.523 -11.303 -18.375 -0 -1.2 0
16.932 -21.513 -14.162 -0 -1.2 0
16.665 -21.894 -13.921 -0 -1.2 0
16.392 -22.269 -13.676 -0 -1.2 0
22.114 -2.104 -20.376 -0 -1.2 0
22.103 -2.627 -20.355 -0 -1.2 0
22.086 -3.149 -20.327 -0 -1.2 0
22.063 -3.671 -20.292 -0 -1.2 0
22.033 -4.192 -20.252 -0 -1.2 0
21.997 -4.713 -20.206 -0 -1.2 0
21.953 -5.232 -20.154 -0 -1.2 0
21.903 -5.75 -20.095 -0 -1.2 0
21.846 -6.267 -20.029 -0 -1.2 0
21.783 -6.782 -19.959 -0 -1.2 0
21.713 -7.295 -19.882 -0 -1.2 0
21.636 -7.806 -19.799 -0 -1.2 0
21.463 -8.822 -19.615 -0 -1.2 0
21.368 -9.327 -19.514 -0 -1.2 0
21.264 -9.829 -19.407 -0 -1.2 0
21.156 -10.328 -19.294 -0 -1.2 0
20.79 -11.81 -18.92 -0 -1.2 0
20.656 -12.297 -18.785 -0 -1.2 0
16.461 -21.526 -14.688 -0 -1.2 0
15.937 -22.281 -14.185 -0 -1.2 0
21.395 -1.076 -21.152 -0 -1.2 0
21.399 -1.599 -21.142 -0 -1.2 0
21.396 -2.122 -21.127 -0 -1.2 0
21.386 -2.646 -21.105 -0 -1.2 0
21.37 -3.168 -21.075 -0 -1.2 0
21.348 -3.69 -21.04 -0 -1.2 0
21.319 -4.211 -20.999 -0 -1.2 0
21.284 -4.732 -20.951 -0 -1.2 0
21.241 -5.251 -20.897 -0 -1.2 0
21.193 -5.769 -20.836 -0 -1.2 0
21.139 -6.285 -20.769 -0 -1.2 0
21.078 -6.8 -20.696 -0 -1.2 0
21.01 -7.313 -20.616 -0 -1.2 0
20.937 -7.824 -20.53 -0 -1.2 0
20.857 -8.333 -20.438 -0 -1.2 0
20.77 -8.84 -20.34 -0 -1.2 0
20.677 -9.345 -20.236 -0 -1.2 0
20.577 -9.847 -20.125 -0 -1.2 0
20.473 -10.346 -20.008 -0 -1.2 0
20.361 -10.843 -19.885 -0 -1.2 0
20.243 -11.336 -19.757 -0 -1.2 0
15.428 -22.294 -14.717 -0 -1.2 0
20.692 -1.093 -21.838 -0 -1.2 0
20.696 -1.616 -21.829 -0 -1.2 0
20.694 -2.139 -21.813 -0 -1.2 0
20.685 -2.663 -21.789 -0 -1.2 0
20.669 -3.185 -21.76 -0 -1.2 0
20.648 -3.707 -21.724 -0 -1.2 0
20.62 -4.228 -21.682 -0 -1.2 0
20.587 -4.749 -21.633 -0 -1.2 0
20.547 -5.268 -21.576 -0 -1.2 0
20.499 -5.786 -21.514 -0 -1.2 0
20.447 -6.302 -21.445 -0 -1.2 0
20.388 -6.817 -21.37 -0 -1.2 0
20.323 -7.33 -21.288 -0 -1.2 0
20.252 -7.84 -21.2 -0 -1.2 0
20.175 -8.349 -21.105 -0 -1.2 0
20.091 -8.856 -21.004 -0 -1.2 0
20.002 -9.361 -20.896 -0 -1.2 0
19.906 -9.863 -20.782 -0 -1.2 0
19.804 -10.362 -20.662 -0 -1.2 0
15.659 -21.166 -16.002 -0 -1.2 0
15.178 -21.932 -15.474 -0 -1.2 0
14.931 -22.306 -15.202 -0 -1.2 0
19.966 -1.111 -22.503 -0 -1.2 0
19.97 -1.634 -22.493 -0 -1.2 0
19.968 -2.156 -22.476 -0 -1.2 0
19.96 -2.68 -22.453 -0 -1.2 0
19.945 -3.202 -22.423 -0 -1.2 0
19.925 -3.724 -22.386 -0 -1.2 0
19.898 -4.245 -22.343 -0 -1.2 0
19.866 -4.766 -22.292 -0 -1.2 0
19.828 -5.285 -22.234 -0 -1.2 0
19.782 -5.803 -22.17 -0 -1.2 0
19.732 -6.319 -22.1 -0 -1.2 0
19.676 -6.834 -22.022 -0 -1.2 0
19.614 -7.346 -21.938 -0 -1.2 0
19.544 -7.857 -21.847 -0 -1.2 0
19.47 -8.366 -21.75 -0 -1.2 0
19.389 -8.873 -21.646 -0 -1.2 0
19.304 -9.378 -21.535 -0 -1.2 0
19.212 -9.88 -21.418 -0 -1.2 0
18.901 -11.369 -21.027 -0 -1.2 0
15.119 -21.179 -16.496 -0 -1.2 0
14.889 -21.564 -16.226 -0 -1.2 0
14.655 -21.944 -15.952 -0 -1.2 0
14.417 -22.318 -15.673 -0 -1.2 0
19.136 -0.083 -23.19 -0 -1.2 0
19.161 -1.129 -23.192 -0 -1.2 0
19.163 -2.175 -23.165 -0 -1.2 0
19.156 -2.699 -23.141 -0 -1.2 0
19.141 -3.221 -23.11 -0 -1.2 0
19.122 -3.743 -23.073 -0 -1.2 0
19.097 -4.264 -23.027 -0 -1.2 0
19.066 -4.785 -22.975 -0 -1.2 0
19.03 -5.303 -22.916 -0 -1.2 0
18.987 -5.821 -22.851 -0 -1.2 0
18.939 -6.337 -22.778 -0 -1.2 0
18.885 -6.852 -22.698 -0 -1.2 0
18.826 -7.365 -22.612 -0 -1.2 0
18.759 -7.876 -22.517 -0 -1.2 0
18.689 -8.384 -22.417 -0 -1.2 0
18.612 -8.891 -22.31 -0 -1.2 0
18.529 -9.396 -22.196 -0 -1.2 0
18.442 -9.898 -22.075 -0 -1.2 0
18.347 -10.397 -21.948 -0 -1.2 0
18.249 -10.893 -21.815 -0 -1.2 0
17.918 -12.364 -21.372 -0 -1.2 0
14.947 -20.403 -17.547 -0 -1.2 0
14.735 -20.801 -17.28 -0 -1.2 0
14.519 -21.192 -17.008 -0 -1.2 0
14.299 -21.578 -16.73 -0 -1.2 0
14.075 -21.958 -16.448 -0 -1.2 0
13.846 -22.331 -16.16 -0 -1.2 0
18.393 -1.147 -23.804 -0 -1.2 0
18.396 -2.192 -23.777 -0 -1.2 0
18.389 -2.716 -23.752 -0 -1.2 0
18.377 -3.238 -23.721 -0 -1.2 0
18.357 -3.76 -23.682 -0 -1.2 0
18.334 -4.281 -23.636 -0 -1.2 0
18.305 -4.802 -23.583 -0 -1.2 0
18.27 -5.321 -23.523 -0 -1.2 0
18.229 -5.838 -23.456 -0 -1.2 0
18.183 -6.354 -23.381 -0 -1.2 0
18.132 -6.869 -23.3 -0 -1.2 0
18.075 -7.382 -23.21 -0 -1.2 0
18.012 -7.892 -23.114 -0 -1.2 0
17.944 -8.401 -23.011 -0 -1.2 0
17.871 -8.908 -22.902 -0 -1.2 0
17.791 -9.413 -22.785 -0 -1.2 0
17.708 -9.914 -22.661 -0 -1.2 0
17.617 -10.413 -22.53 -0 -1.2 0
17.523 -10.91 -22.393 -0 -1.2 0
17.422 -11.402 -22.25 -0 -1.2 0
14.358 -20.416 -18.017 -0 -1.2 0
14.155 -20.814 -17.743 -0 -1.2 0
13.948 -21.205 -17.464 -0 -1.2 0
