# .PCD v.7 - Point Cloud Data file format
FIELDS x y z vp_x vp_y vp_z
SIZE 4 4 4 4 4 4
TYPE F F F F F F
COUNT 1 1 1 1 1 1
WIDTH 1677
HEIGHT 1
VIEWPOINT 0 -1.20013 0 1 0 0 0
POINTS 1677
DATA ascii
8.062 -4.275 12.332 -0 -1.2 0
8.03 -4.526 12.274 -0 -1.2 0
7.028 -4.327 10.746 -0 -1.2 0
7.706 -4.899 11.766 -0 -1.2 0
6.292 -4.405 9.616 -0 -1.2 0
14.634 -9.348 22.247 -0 -1.2 0
6.403 -4.9 9.772 -0 -1.2 0
9.256 -6.939 14.081 -0 -1.2 0
7.181 -5.868 10.934 -0 -1.2 0
7.286 -6.198 11.086 -0 -1.2 0
7.393 -6.539 11.239 -0 -1.2 0
7.312 -6.745 11.11 -0 -1.2 0
7.134 -6.87 10.835 -0 -1.2 0
6.192 -6.329 9.406 -0 -1.2 0
6.783 -7.093 10.289 -0 -1.2 0
5.935 -6.564 9.007 -0 -1.2 0
6.299 -7.152 9.547 -0 -1.2 0
6.678 -7.788 10.109 -0 -1.2 0
6.353 -7.716 9.613 -0 -1.2 0
7.651 -9.405 11.552 -0 -1.2 0
6.843 -8.807 10.33 -0 -1.2 0
7.424 -9.793 11.194 -0 -1.2 0
7.165 -9.803 10.796 -0 -1.2 0
0.688 0.036 1.095 -0 -1.2 0
0.711 0.038 1.129 -0 -1.2 0
0.735 0.039 1.162 -0 -1.2 0
0.754 0.033 1.19 -0 -1.2 0
0.774 0.026 1.218 -0 -1.2 0
0.803 0.03 1.259 -0 -1.2 0
0.827 0.028 1.294 -0 -1.2 0
0.851 0.024 1.328 -0 -1.2 0
0.884 0.032 1.376 -0 -1.2 0
0.909 0.025 1.411 -0 -1.2 0
0.943 0.03 1.46 -0 -1.2 0
0.983 0.038 1.516 -0 -1.2 0
1.013 0.032 1.559 -0 -1.2 0
1.052 0.037 1.615 -0 -1.2 0
1.088 0.034 1.667 -0 -1.2 0
1.129 0.034 1.724 -0 -1.2 0
1.18 0.043 1.797 -0 -1.2 0
1.226 0.044 1.862 -0 -1.2 0
1.277 0.048 1.936 -0 -1.2 0
1.329 0.047 2.01 -0 -1.2 0
1.396 0.059 2.106 -0 -1.2 0
1.455 0.057 2.19 -0 -1.2 0
1.518 0.057 2.28 -0 -1.2 0
1.583 0.053 2.371 -0 -1.2 0
1.657 0.053 2.477 -0 -1.2 0
1.743 0.056 2.601 -0 -1.2 0
1.836 0.058 2.731 -0 -1.2 0
1.944 0.066 2.886 -0 -1.2 0
2.058 0.069 3.05 -0 -1.2 0
2.195 0.078 3.246 -0 -1.2 0
2.317 0.071 3.419 -0 -1.2 0
2.462 0.068 3.624 -0 -1.2 0
2.623 0.063 3.854 -0 -1.2 0
2.852 0.078 4.181 -0 -1.2 0
3.109 0.09 4.549 -0 -1.2 0
3.408 0.1 4.974 -0 -1.2 0
3.854 0.142 5.61 -0 -1.2 0
4.352 0.171 6.321 -0 -1.2 0
4.926 0.189 7.139 -0 -1.2 0
5.728 0.228 8.285 -0 -1.2 0
6.704 0.252 9.677 -0 -1.2 0
7.085 0.113 10.215 -0 -1.2 0
6.744 -0.15 9.722 -0 -1.2 0
8.072 -0.205 11.613 -0 -1.2 0
6.833 -0.55 9.839 -0 -1.2 0
15.349 -0.322 21.982 -0 -1.2 0
15.371 -0.785 22.002 -0 -1.2 0
15.412 -1.25 22.049 -0 -1.2 0
15.448 -1.717 22.088 -0 -1.2 0
15.462 -2.185 22.096 -0 -1.2 0
15.472 -2.653 22.098 -0 -1.2 0
15.478 -3.122 22.092 -0 -1.2 0
15.495 -3.594 22.106 -0 -1.2 0
15.507 -4.067 22.111 -0 -1.2 0
15.521 -4.543 22.118 -0 -1.2 0
15.536 -5.022 22.126 -0 -1.2 0
10.581 -4.088 15.087 -0 -1.2 0
8.964 -3.902 12.789 -0 -1.2 0
15.583 -6.479 22.156 -0 -1.2 0
8.909 -4.439 12.697 -0 -1.2 0
8.468 -4.536 12.065 -0 -1.2 0
10.03 -5.495 14.266 -0 -1.2 0
7.057 -4.404 10.057 -0 -1.2 0
6.998 -4.6 9.968 -0 -1.2 0
8.614 -5.699 12.243 -0 -1.2 0
7.334 -5.248 10.431 -0 -1.2 0
6.732 -5.125 9.576 -0 -1.2 0
6.91 -5.463 9.821 -0 -1.2 0
7.278 -5.945 10.332 -0 -1.2 0
6.717 -5.796 9.536 -0 -1.2 0
7.432 -6.562 10.535 -0 -1.2 0
7.03 -6.51 9.964 -0 -1.2 0
6.442 -6.282 9.132 -0 -1.2 0
6.376 -6.458 9.034 -0 -1.2 0
6.829 -7.097 9.663 -0 -1.2 0
7.354 -7.84 10.391 -0 -1.2 0
8.605 -9.33 12.136 -0 -1.2 0
7.189 -8.242 10.146 -0 -1.2 0
6.915 -8.241 9.756 -0 -1.2 0
6.752 -8.343 9.52 -0 -1.2 0
7.819 -9.827 11.003 -0 -1.2 0
7.301 -9.549 10.27 -0 -1.2 0
7.598 -10.227 10.677 -0 -1.2 0
6.891 -9.985 9.675 -0 -1.2 0
0.719 0.036 1.079 -0 -1.2 0
0.739 0.031 1.105 -0 -1.2 0
0.76 0.026 1.132 -0 -1.2 0
0.785 0.026 1.165 -0 -1.2 0
0.81 0.027 1.198 -0 -1.2 0
0.84 0.031 1.237 -0 -1.2 0
0.865 0.028 1.271 -0 -1.2 0
0.891 0.025 1.306 -0 -1.2 0
0.921 0.026 1.346 -0 -1.2 0
0.956 0.032 1.393 -0 -1.2 0
0.987 0.03 1.434 -0 -1.2 0
1.019 0.027 1.475 -0 -1.2 0
1.064 0.039 1.537 -0 -1.2 0
1.101 0.038 1.586 -0 -1.2 0
1.133 0.03 1.629 -0 -1.2 0
1.186 0.04 1.699 -0 -1.2 0
1.229 0.039 1.756 -0 -1.2 0
1.282 0.045 1.827 -0 -1.2 0
1.331 0.043 1.891 -0 -1.2 0
1.386 0.044 1.964 -0 -1.2 0
1.451 0.05 2.051 -0 -1.2 0
1.517 0.053 2.139 -0 -1.2 0
1.584 0.054 2.227 -0 -1.2 0
1.656 0.054 2.324 -0 -1.2 0
1.734 0.054 2.428 -0 -1.2 0
1.824 0.057 2.547 -0 -1.2 0
1.921 0.059 2.676 -0 -1.2 0
2.023 0.06 2.811 -0 -1.2 0
2.148 0.067 2.979 -0 -1.2 0
2.287 0.073 3.162 -0 -1.2 0
2.425 0.072 3.347 -0 -1.2 0
2.581 0.072 3.555 -0 -1.2 0
2.739 0.062 3.764 -0 -1.2 0
3.002 0.086 4.113 -0 -1.2 0
3.248 0.09 4.442 -0 -1.2 0
3.555 0.099 4.849 -0 -1.2 0
3.997 0.132 5.438 -0 -1.2 0
4.555 0.174 6.18 -0 -1.2 0
5.114 0.182 6.924 -0 -1.2 0
5.936 0.218 8.018 -0 -1.2 0
6.976 0.248 9.4 -0 -1.2 0
8.167 0.243 10.985 -0 -1.2 0
7.279 -0.114 9.796 -0 -1.2 0
7.273 -0.326 9.782 -0 -1.2 0
7.378 -0.527 9.918 -0 -1.2 0
15.834 -0.323 21.166 -0 -1.2 0
16.427 -0.768 21.945 -0 -1.2 0
16.476 -1.243 21.997 -0 -1.2 0
16.501 -1.719 22.021 -0 -1.2 0
16.515 -2.197 22.028 -0 -1.2 0
16.531 -2.676 22.037 -0 -1.2 0
16.547 -3.156 22.049 -0 -1.2 0
16.558 -3.637 22.052 -0 -1.2 0
16.576 -4.122 22.064 -0 -1.2 0
16.583 -4.607 22.063 -0 -1.2 0
8.582 -3.154 11.457 -0 -1.2 0
8.609 -3.413 11.488 -0 -1.2 0
10.829 -4.336 14.418 -0 -1.2 0
16.636 -6.58 22.087 -0 -1.2 0
16.653 -7.084 22.096 -0 -1.2 0
16.662 -7.59 22.099 -0 -1.2 0
8.188 -4.517 10.903 -0 -1.2 0
9.151 -5.202 12.165 -0 -1.2 0
8.042 -4.946 10.698 -0 -1.2 0
7.777 -5.059 10.343 -0 -1.2 0
7.008 -4.882 9.325 -0 -1.2 0
7.906 -5.623 10.501 -0 -1.2 0
6.9 -5.262 9.173 -0 -1.2 0
7.106 -5.617 9.438 -0 -1.2 0
7.391 -6.042 9.806 -0 -1.2 0
7.134 -6.106 9.464 -0 -1.2 0
9.828 -8.353 12.993 -0 -1.2 0
9.972 -8.804 13.176 -0 -1.2 0
6.653 -6.446 8.816 -0 -1.2 0
6.878 -6.872 9.105 -0 -1.2 0
7.663 -7.816 10.127 -0 -1.2 0
7.552 -7.993 9.975 -0 -1.2 0
7.601 -8.323 10.033 -0 -1.2 0
9.209 -10.22 12.127 -0 -1.2 0
7.599 -8.904 10.016 -0 -1.2 0
8.21 -9.866 10.807 -0 -1.2 0
7.999 -9.962 10.523 -0 -1.2 0
7.49 -9.703 9.853 -0 -1.2 0
7.331 -9.83 9.64 -0 -1.2 0
0.758 0.044 1.064 -0 -1.2 0
0.776 0.032 1.086 -0 -1.2 0
0.801 0.034 1.117 -0 -1.2 0
0.822 0.027 1.143 -0 -1.2 0
0.848 0.027 1.176 -0 -1.2 0
0.88 0.032 1.214 -0 -1.2 0
0.906 0.029 1.246 -0 -1.2 0
0.933 0.025 1.28 -0 -1.2 0
0.965 0.027 1.32 -0 -1.2 0
0.997 0.026 1.359 -0 -1.2 0
1.034 0.031 1.405 -0 -1.2 0
1.067 0.028 1.445 -0 -1.2 0
1.111 0.034 1.499 -0 -1.2 0
1.154 0.039 1.554 -0 -1.2 0
1.193 0.036 1.601 -0 -1.2 0
1.237 0.036 1.656 -0 -1.2 0
1.288 0.04 1.718 -0 -1.2 0
1.343 0.046 1.787 -0 -1.2 0
1.394 0.044 1.85 -0 -1.2 0
1.446 0.041 1.913 -0 -1.2 0
1.52 0.051 2.005 -0 -1.2 0
1.588 0.054 2.091 -0 -1.2 0
1.658 0.055 2.177 -0 -1.2 0
1.729 0.051 2.263 -0 -1.2 0
1.81 0.051 2.365 -0 -1.2 0
1.905 0.055 2.481 -0 -1.2 0
1.999 0.054 2.598 -0 -1.2 0
2.113 0.057 2.737 -0 -1.2 0
2.244 0.066 2.9 -0 -1.2 0
2.382 0.069 3.072 -0 -1.2 0
2.527 0.068 3.25 -0 -1.2 0
2.691 0.068 3.452 -0 -1.2 0
2.874 0.066 3.678 -0 -1.2 0
3.112 0.077 3.973 -0 -1.2 0
3.395 0.089 4.323 -0 -1.2 0
3.727 0.102 4.734 -0 -1.2 0
4.172 0.131 5.284 -0 -1.2 0
4.737 0.168 5.983 -0 -1.2 0
5.322 0.178 6.706 -0 -1.2 0
6.189 0.216 7.778 -0 -1.2 0
7.202 0.234 9.03 -0 -1.2 0
7.83 0.133 9.804 -0 -1.2 0
7.669 -0.104 9.6 -0 -1.2 0
8.396 -0.24 10.496 -0 -1.2 0
15.722 0.08 19.553 -0 -1.2 0
8.772 -4.09 10.88 -0 -1.2 0
8.728 -4.326 10.821 -0 -1.2 0
9.979 -5.082 12.352 -0 -1.2 0
11.759 -6.142 14.528 -0 -1.2 0
11.547 -6.391 14.262 -0 -1.2 0
7.09 -4.541 8.792 -0 -1.2 0
6.96 -4.895 8.625 -0 -1.2 0
7.982 -5.704 9.87 -0 -1.2 0
7.755 -5.812 9.589 -0 -1.2 0
8.05 -6.247 9.944 -0 -1.2 0
9.548 -7.52 11.769 -0 -1.2 0
11.217 -9.018 13.8 -0 -1.2 0
10.93 -9.173 13.443 -0 -1.2 0
8.717 -7.814 10.736 -0 -1.2 0
10.341 -9.43 12.71 -0 -1.2 0
7 -6.954 8.631 -0 -1.2 0
7.899 -7.994 9.721 -0 -1.2 0
7.72 -8.112 9.498 -0 -1.2 0
8.046 -8.704 9.888 -0 -1.2 0
7.646 -8.607 9.397 -0 -1.2 0
9.409 -10.717 11.531 -0 -1.2 0
9.451 -11.129 11.575 -0 -1.2 0
8.412 -10.351 10.308 -0 -1.2 0
0.78 0.03 1.034 -0 -1.2 0
0.806 0.032 1.065 -0 -1.2 0
0.833 0.034 1.096 -0 -1.2 0
0.859 0.035 1.128 -0 -1.2 0
0.883 0.028 1.153 -0 -1.2 0
0.909 0.026 1.185 -0 -1.2 0
0.937 0.023 1.216 -0 -1.2 0
0.965 0.019 1.249 -0 -1.2 0
1.009 0.033 1.299 -0 -1.2 0
1.042 0.033 1.338 -0 -1.2 0
1.075 0.031 1.376 -0 -1.2 0
1.115 0.033 1.422 -0 -1.2 0
1.155 0.034 1.467 -0 -1.2 0
1.2 0.039 1.521 -0 -1.2 0
1.246 0.041 1.573 -0 -1.2 0
1.287 0.036 1.62 -0 -1.2 0
1.344 0.045 1.687 -0 -1.2 0
1.391 0.041 1.742 -0 -1.2 0
1.445 0.04 1.802 -0 -1.2 0
1.509 0.046 1.877 -0 -1.2 0
1.581 0.052 1.96 -0 -1.2 0
1.652 0.055 2.043 -0 -1.2 0
1.719 0.051 2.12 -0 -1.2 0
1.792 0.048 2.204 -0 -1.2 0
1.883 0.052 2.31 -0 -1.2 0
1.975 0.052 2.415 -0 -1.2 0
2.074 0.052 2.53 -0 -1.2 0
2.191 0.055 2.665 -0 -1.2 0
2.322 0.06 2.816 -0 -1.2 0
2.472 0.067 2.99 -0 -1.2 0
2.629 0.069 3.171 -0 -1.2 0
2.799 0.069 3.368 -0 -1.2 0
2.989 0.068 3.588 -0 -1.2 0
3.237 0.078 3.875 -0 -1.2 0
3.538 0.093 4.221 -0 -1.2 0
3.858 0.098 4.592 -0 -1.2 0
4.334 0.132 5.142 -0 -1.2 0
4.902 0.163 5.799 -0 -1.2 0
5.504 0.173 6.495 -0 -1.2 0
6.393 0.21 7.523 -0 -1.2 0
6.999 0.148 8.221 -0 -1.2 0
6.962 -0.044 8.175 -0 -1.2 0
6.922 -0.234 8.126 -0 -1.2 0
6.927 -0.417 8.127 -0 -1.2 0
6.824 -0.607 8.006 -0 -1.2 0
6.836 -0.786 8.016 -0 -1.2 0
6.854 -0.965 8.033 -0 -1.2 0
6.895 -1.146 8.078 -0 -1.2 0
6.908 -1.327 8.09 -0 -1.2 0
6.919 -1.51 8.099 -0 -1.2 0
11.014 -3.221 12.799 -0 -1.2 0
10.99 -3.511 12.766 -0 -1.2 0
11.042 -3.82 12.82 -0 -1.2 0
11.044 -4.12 12.817 -0 -1.2 0
9.221 -3.867 10.716 -0 -1.2 0
12.628 -5.249 14.627 -0 -1.2 0
12.486 -5.547 14.457 -0 -1.2 0
10.928 -5.292 12.661 -0 -1.2 0
12.269 -6.504 14.188 -0 -1.2 0
7.514 -4.606 8.729 -0 -1.2 0
10.939 -6.541 12.651 -0 -1.2 0
8.264 -5.44 9.581 -0 -1.2 0
11.313 -7.395 13.068 -0 -1.2 0
8.029 -5.791 9.303 -0 -1.2 0
7.556 -5.739 8.757 -0 -1.2 0
7.77 -6.11 8.997 -0 -1.2 0
7.731 -6.325 8.949 -0 -1.2 0
8.285 -6.966 9.578 -0 -1.2 0
8.3 -7.789 9.579 -0 -1.2 0
8.576 -8.303 9.888 -0 -1.2 0
8.077 -8.159 9.316 -0 -1.2 0
7.891 -8.269 9.098 -0 -1.2 0
10.606 -11.149 12.182 -0 -1.2 0
9.971 -11.283 11.447 -0 -1.2 0
8.933 -10.554 10.26 -0 -1.2 0
9.552 -11.978 10.95 -0 -1.2 0
0.819 0.045 1.025 -0 -1.2 0
0.837 0.032 1.045 -0 -1.2 0
0.865 0.035 1.074 -0 -1.2 0
0.894 0.035 1.105 -0 -1.2 0
0.917 0.028 1.13 -0 -1.2 0
0.945 0.026 1.161 -0 -1.2 0
0.974 0.024 1.192 -0 -1.2 0
1.008 0.026 1.228 -0 -1.2 0
1.042 0.028 1.266 -0 -1.2 0
1.083 0.033 1.309 -0 -1.2 0
1.112 0.026 1.341 -0 -1.2 0
1.158 0.034 1.391 -0 -1.2 0
1.199 0.035 1.436 -0 -1.2 0
1.241 0.035 1.481 -0 -1.2 0
1.288 0.037 1.532 -0 -1.2 0
1.336 0.037 1.583 -0 -1.2 0
1.396 0.046 1.649 -0 -1.2 0
1.451 0.047 1.708 -0 -1.2 0
1.5 0.04 1.761 -0 -1.2 0
1.561 0.042 1.827 -0 -1.2 0
1.636 0.048 1.907 -0 -1.2 0
1.71 0.052 1.988 -0 -1.2 0
1.779 0.048 2.062 -0 -1.2 0
1.866 0.053 2.157 -0 -1.2 0
1.949 0.049 2.245 -0 -1.2 0
2.044 0.05 2.349 -0 -1.2 0
2.153 0.053 2.466 -0 -1.2 0
2.269 0.053 2.592 -0 -1.2 0
2.404 0.058 2.737 -0 -1.2 0
2.559 0.065 2.906 -0 -1.2 0
2.722 0.068 3.082 -0 -1.2 0
2.913 0.074 3.288 -0 -1.2 0
3.104 0.069 3.493 -0 -1.2 0
3.361 0.08 3.772 -0 -1.2 0
3.653 0.088 4.088 -0 -1.2 0
4.005 0.1 4.469 -0 -1.2 0
4.466 0.124 4.966 -0 -1.2 0
5.062 0.159 5.611 -0 -1.2 0
5.673 0.166 6.272 -0 -1.2 0
6.119 0.109 6.752 -0 -1.2 0
6.119 -0.047 6.75 -0 -1.2 0
6.173 -0.197 6.806 -0 -1.2 0
6.252 -0.345 6.889 -0 -1.2 0
8.692 -0.269 9.527 -0 -1.2 0
10.215 -0.383 11.17 -0 -1.2 0
10.719 -0.62 11.711 -0 -1.2 0
9.83 -3.682 10.701 -0 -1.2 0
13.068 -5.233 14.174 -0 -1.2 0
11.296 -4.969 12.264 -0 -1.2 0
10.669 -5.038 11.586 -0 -1.2 0
8.632 -4.511 9.392 -0 -1.2 0
11.282 -6.505 12.224 -0 -1.2 0
7.967 -5.126 8.664 -0 -1.2 0
7.247 -4.964 7.89 -0 -1.2 0
7.259 -5.178 7.899 -0 -1.2 0
7.842 -5.739 8.52 -0 -1.2 0
8.258 -6.233 8.961 -0 -1.2 0
11.008 -8.63 11.893 -0 -1.2 0
8.064 -6.847 8.741 -0 -1.2 0
10.334 -8.813 11.163 -0 -1.2 0
8.733 -7.885 9.447 -0 -1.2 0
8.849 -8.265 9.567 -0 -1.2 0
9.019 -8.704 9.744 -0 -1.2 0
8.379 -8.443 9.057 -0 -1.2 0
8.026 -8.407 8.676 -0 -1.2 0
11.094 -11.63 11.939 -0 -1.2 0
9.091 -10.04 9.8 -0 -1.2 0
10.439 -11.768 11.23 -0 -1.2 0
9.601 -11.268 10.332 -0 -1.2 0
10.343 -12.464 11.113 -0 -1.2 0
9.239 -11.609 9.935 -0 -1.2 0
0.85 0.045 1.002 -0 -1.2 0
0.87 0.033 1.02 -0 -1.2 0
0.898 0.035 1.049 -0 -1.2 0
0.922 0.028 1.074 -0 -1.2 0
0.951 0.028 1.103 -0 -1.2 0
0.981 0.027 1.132 -0 -1.2 0
1.011 0.024 1.162 -0 -1.2 0
1.047 0.026 1.198 -0 -1.2 0
1.082 0.028 1.234 -0 -1.2 0
1.124 0.034 1.276 -0 -1.2 0
1.165 0.038 1.318 -0 -1.2 0
1.202 0.034 1.355 -0 -1.2 0
1.245 0.035 1.398 -0 -1.2 0
1.288 0.035 1.441 -0 -1.2 0
1.343 0.042 1.497 -0 -1.2 0
1.387 0.037 1.541 -0 -1.2 0
1.449 0.046 1.603 -0 -1.2 0
1.506 0.048 1.661 -0 -1.2 0
1.557 0.041 1.712 -0 -1.2 0
1.615 0.037 1.77 -0 -1.2 0
1.691 0.045 1.847 -0 -1.2 0
1.775 0.052 1.931 -0 -1.2 0
1.847 0.048 2.003 -0 -1.2 0
1.931 0.049 2.088 -0 -1.2 0
2.023 0.05 2.181 -0 -1.2 0
2.129 0.054 2.286 -0 -1.2 0
2.228 0.049 2.387 -0 -1.2 0
2.348 0.05 2.507 -0 -1.2 0
2.482 0.052 2.642 -0 -1.2 0
2.651 0.064 2.811 -0 -1.2 0
2.82 0.066 2.981 -0 -1.2 0
3.017 0.072 3.18 -0 -1.2 0
3.236 0.076 3.399 -0 -1.2 0
3.503 0.086 3.668 -0 -1.2 0
3.778 0.085 3.945 -0 -1.2 0
4.172 0.106 4.341 -0 -1.2 0
4.622 0.123 4.794 -0 -1.2 0
5.2 0.147 5.375 -0 -1.2 0
5.855 0.16 6.035 -0 -1.2 0
6.764 0.191 6.949 -0 -1.2 0
7.948 0.222 8.14 -0 -1.2 0
9.352 0.226 9.552 -0 -1.2 0
9.783 0.046 9.983 -0 -1.2 0
6.499 -0.501 6.673 -0 -1.2 0
6.451 -0.663 6.622 -0 -1.2 0
6.427 -0.821 6.597 -0 -1.2 0
6.367 -0.979 6.535 -0 -1.2 0
6.405 -1.135 6.569 -0 -1.2 0
6.468 -1.292 6.63 -0 -1.2 0
6.586 -1.456 6.746 -0 -1.2 0
10.544 -3.502 10.697 -0 -1.2 0
11.682 -4.652 11.826 -0 -1.2 0
12.224 -5.131 12.364 -0 -1.2 0
12.839 -5.669 12.975 -0 -1.2 0
10.614 -5.147 10.744 -0 -1.2 0
10.795 -5.787 10.918 -0 -1.2 0
11.792 -6.542 11.91 -0 -1.2 0
11.739 -6.836 11.852 -0 -1.2 0
11.775 -7.178 11.884 -0 -1.2 0
13.785 -8.609 13.885 -0 -1.2 0
12.867 -8.469 12.964 -0 -1.2 0
13.564 -9.259 13.654 -0 -1.2 0
9.453 -7.041 9.551 -0 -1.2 0
9.566 -7.394 9.66 -0 -1.2 0
9.781 -7.83 9.87 -0 -1.2 0
8.627 -7.289 8.717 -0 -1.2 0
10.736 -9.493 10.808 -0 -1.2 0
8.617 -8.096 8.697 -0 -1.2 0
8.877 -8.6 8.95 -0 -1.2 0
9.601 -9.541 9.666 -0 -1.2 0
8.821 -9.148 8.886 -0 -1.2 0
9.479 -10.087 9.535 -0 -1.2 0
9.856 -10.801 9.904 -0 -1.2 0
9.571 -10.867 9.616 -0 -1.2 0
10.039 -11.729 10.075 -0 -1.2 0
9.523 -11.544 9.558 -0 -1.2 0
9.279 -11.641 9.312 -0 -1.2 0
0.878 0.045 0.979 -0 -1.2 0
0.898 0.033 0.997 -0 -1.2 0
0.922 0.028 1.02 -0 -1.2 0
0.953 0.028 1.049 -0 -1.2 0
0.978 0.021 1.072 -0 -1.2 0
1.013 0.027 1.105 -0 -1.2 0
1.044 0.024 1.134 -0 -1.2 0
1.075 0.02 1.164 -0 -1.2 0
1.118 0.028 1.203 -0 -1.2 0
1.16 0.034 1.243 -0 -1.2 0
1.198 0.033 1.278 -0 -1.2 0
1.236 0.029 1.315 -0 -1.2 0
1.28 0.03 1.356 -0 -1.2 0
1.33 0.035 1.404 -0 -1.2 0
1.382 0.037 1.452 -0 -1.2 0
1.439 0.043 1.505 -0 -1.2 0
1.491 0.042 1.555 -0 -1.2 0
1.549 0.043 1.609 -0 -1.2 0
1.608 0.041 1.665 -0 -1.2 0
1.674 0.043 1.727 -0 -1.2 0
1.754 0.049 1.802 -0 -1.2 0
1.833 0.053 1.876 -0 -1.2 0
1.914 0.053 1.952 -0 -1.2 0
1.995 0.049 2.029 -0 -1.2 0
2.096 0.054 2.125 -0 -1.2 0
2.192 0.051 2.214 -0 -1.2 0
2.295 0.046 2.31 -0 -1.2 0
2.419 0.047 2.427 -0 -1.2 0
2.557 0.049 2.557 -0 -1.2 0
2.731 0.061 2.721 -0 -1.2 0
2.919 0.07 2.898 -0 -1.2 0
3.124 0.075 3.09 -0 -1.2 0
3.335 0.073 3.289 -0 -1.2 0
3.597 0.079 3.536 -0 -1.2 0
4.18 0.172 4.084 -0 -1.2 0
4.324 0.11 4.219 -0 -1.2 0
4.789 0.127 4.657 -0 -1.2 0
5.328 0.138 5.164 -0 -1.2 0
6.027 0.157 5.821 -0 -1.2 0
6.851 0.166 6.595 -0 -1.2 0
8.246 0.229 7.91 -0 -1.2 0
9.857 0.255 9.424 -0 -1.2 0
9.715 0.003 9.287 -0 -1.2 0
9.735 -0.227 9.304 -0 -1.2 0
10.687 -0.649 10.193 -0 -1.2 0
11.327 -3.323 10.762 -0 -1.2 0
10.008 -3.793 9.516 -0 -1.2 0
10.145 -4.08 9.642 -0 -1.2 0
10.321 -4.647 9.799 -0 -1.2 0
10.508 -4.977 9.971 -0 -1.2 0
12.078 -5.871 11.437 -0 -1.2 0
12.115 -6.198 11.468 -0 -1.2 0
10.718 -5.883 10.158 -0 -1.2 0
13.02 -7.612 12.302 -0 -1.2 0
12.828 -7.861 12.118 -0 -1.2 0
12.776 -8.183 12.065 -0 -1.2 0
12.86 -8.587 12.14 -0 -1.2 0
11.219 -7.938 10.603 -0 -1.2 0
11.184 -8.237 10.567 -0 -1.2 0
12.858 -9.689 12.124 -0 -1.2 0
8.631 -7.095 8.181 -0 -1.2 0
8.961 -7.597 8.485 -0 -1.2 0
8.737 -7.699 8.273 -0 -1.2 0
9.185 -8.327 8.687 -0 -1.2 0
8.811 -8.309 8.336 -0 -1.2 0
9.141 -8.878 8.638 -0 -1.2 0
8.968 -9.026 8.474 -0 -1.2 0
10.278 -10.547 9.688 -0 -1.2 0
8.829 -9.508 8.338 -0 -1.2 0
9.887 -10.879 9.316 -0 -1.2 0
0.901 0.038 0.95 -0 -1.2 0
0.927 0.033 0.973 -0 -1.2 0
0.957 0.035 0.999 -0 -1.2 0
0.988 0.035 1.026 -0 -1.2 0
1.014 0.028 1.049 -0 -1.2 0
1.045 0.026 1.077 -0 -1.2 0
1.083 0.03 1.109 -0 -1.2 0
1.115 0.026 1.137 -0 -1.2 0
1.152 0.028 1.17 -0 -1.2 0
1.197 0.033 1.21 -0 -1.2 0
1.236 0.032 1.244 -0 -1.2 0
1.281 0.034 1.284 -0 -1.2 0
1.32 0.029 1.318 -0 -1.2 0
1.373 0.035 1.364 -0 -1.2 0
1.425 0.037 1.41 -0 -1.2 0
1.478 0.037 1.457 -0 -1.2 0
1.538 0.041 1.51 -0 -1.2 0
1.598 0.042 1.562 -0 -1.2 0
1.665 0.045 1.622 -0 -1.2 0
1.727 0.042 1.675 -0 -1.2 0
1.808 0.048 1.748 -0 -1.2 0
1.885 0.047 1.813 -0 -1.2 0
1.974 0.052 1.893 -0 -1.2 0
2.058 0.048 1.966 -0 -1.2 0
2.156 0.049 2.052 -0 -1.2 0
2.268 0.053 2.151 -0 -1.2 0
2.367 0.045 2.238 -0 -1.2 0
2.502 0.049 2.357 -0 -1.2 0
2.638 0.048 2.476 -0 -1.2 0
2.817 0.059 2.633 -0 -1.2 0
3.012 0.068 2.804 -0 -1.2 0
3.229 0.075 2.996 -0 -1.2 0
3.44 0.071 3.18 -0 -1.2 0
3.725 0.081 3.431 -0 -1.2 0
4.34 0.177 3.973 -0 -1.2 0
4.555 0.134 4.161 -0 -1.2 0
4.94 0.124 4.499 -0 -1.2 0
5.481 0.13 4.974 -0 -1.2 0
6.193 0.148 5.601 -0 -1.2 0
7.146 0.176 6.439 -0 -1.2 0
8.467 0.217 7.599 -0 -1.2 0
6.603 -0.229 5.955 -0 -1.2 0
6.643 -0.376 5.991 -0 -1.2 0
6.608 -0.533 5.958 -0 -1.2 0
6.615 -0.683 5.962 -0 -1.2 0
6.613 -0.835 5.959 -0 -1.2 0
6.639 -0.985 5.979 -0 -1.2 0
6.573 -1.136 5.919 -0 -1.2 0
6.61 -1.288 5.95 -0 -1.2 0
6.712 -1.444 6.039 -0 -1.2 0
6.804 -1.605 6.118 -0 -1.2 0
12.143 -2.29 10.8 -0 -1.2 0
12.112 -2.568 10.77 -0 -1.2 0
12.152 -2.855 10.802 -0 -1.2 0
12.106 -3.131 10.759 -0 -1.2 0
12.109 -3.415 10.757 -0 -1.2 0
12.101 -3.698 10.747 -0 -1.2 0
11.844 -3.923 10.519 -0 -1.2 0
11.873 -4.212 10.542 -0 -1.2 0
10.435 -4.081 9.28 -0 -1.2 0
10.556 -4.371 9.383 -0 -1.2 0
10.565 -4.63 9.388 -0 -1.2 0
12.421 -5.561 11.008 -0 -1.2 0
12.42 -5.869 11.003 -0 -1.2 0
10.761 -5.494 9.55 -0 -1.2 0
12.419 -6.493 10.996 -0 -1.2 0
12.427 -6.814 10.999 -0 -1.2 0
11.078 -6.765 9.815 -0 -1.2 0
11.234 -7.143 9.947 -0 -1.2 0
12.5 -8.51 11.046 -0 -1.2 0
8.762 -6.517 7.784 -0 -1.2 0
12.728 -9.358 11.236 -0 -1.2 0
10.843 -8.435 9.589 -0 -1.2 0
12.719 -10.089 11.22 -0 -1.2 0
9.376 -7.984 8.307 -0 -1.2 0
9.071 -8.031 8.038 -0 -1.2 0
10.057 -9.104 8.892 -0 -1.2 0
11.58 -10.695 10.211 -0 -1.2 0
13.328 -12.587 11.727 -0 -1.2 0
8.946 -9.074 7.916 -0 -1.2 0
8.897 -9.329 7.87 -0 -1.2 0
10.299 -10.998 9.083 -0 -1.2 0
9.766 -10.827 8.617 -0 -1.2 0
10.765 -12.628 9.475 -0 -1.2 0
0.925 0.031 0.919 -0 -1.2 0
0.956 0.033 0.945 -0 -1.2 0
0.987 0.035 0.971 -0 -1.2 0
1.019 0.035 0.997 -0 -1.2 0
1.052 0.035 1.023 -0 -1.2 0
1.078 0.027 1.045 -0 -1.2 0
1.111 0.024 1.072 -0 -1.2 0
1.156 0.033 1.108 -0 -1.2 0
1.189 0.028 1.136 -0 -1.2 0
1.229 0.028 1.168 -0 -1.2 0
1.269 0.026 1.2 -0 -1.2 0
1.321 0.034 1.244 -0 -1.2 0
1.368 0.035 1.282 -0 -1.2 0
1.416 0.035 1.32 -0 -1.2 0
1.464 0.032 1.36 -0 -1.2 0
1.518 0.032 1.404 -0 -1.2 0
1.587 0.042 1.46 -0 -1.2 0
1.648 0.042 1.51 -0 -1.2 0
1.718 0.046 1.568 -0 -1.2 0
1.781 0.042 1.619 -0 -1.2 0
1.866 0.049 1.688 -0 -1.2 0
1.943 0.048 1.752 -0 -1.2 0
2.022 0.044 1.815 -0 -1.2 0
2.115 0.044 1.892 -0 -1.2 0
2.216 0.045 1.974 -0 -1.2 0
2.325 0.046 2.063 -0 -1.2 0
2.441 0.045 2.158 -0 -1.2 0
2.58 0.05 2.272 -0 -1.2 0
2.721 0.048 2.386 -0 -1.2 0
2.905 0.06 2.537 -0 -1.2 0
3.106 0.068 2.701 -0 -1.2 0
3.33 0.076 2.884 -0 -1.2 0
3.54 0.07 3.055 -0 -1.2 0
4.104 0.166 3.516 -0 -1.2 0
4.513 0.19 3.851 -0 -1.2 0
4.848 0.176 4.124 -0 -1.2 0
5.078 0.121 4.312 -0 -1.2 0
5.636 0.129 4.767 -0 -1.2 0
6.349 0.142 5.349 -0 -1.2 0
7.378 0.179 6.189 -0 -1.2 0
7.356 0.009 6.17 -0 -1.2 0
10.521 0.256 8.757 -0 -1.2 0
11.403 0.113 9.475 -0 -1.2 0
11.392 -0.399 9.462 -0 -1.2 0
6.981 -0.827 5.857 -0 -1.2 0
6.954 -0.982 5.832 -0 -1.2 0
15.664 -3.65 12.918 -0 -1.2 0
15.481 -4.327 12.763 -0 -1.2 0
11.954 -4.414 9.882 -0 -1.2 0
11.863 -4.666 9.806 -0 -1.2 0
14.16 -5.698 11.671 -0 -1.2 0
16.253 -6.771 13.37 -0 -1.2 0
15.349 -6.823 12.631 -0 -1.2 0
10.728 -5.347 8.872 -0 -1.2 0
10.868 -5.669 8.984 -0 -1.2 0
10.953 -5.976 9.05 -0 -1.2 0
11.95 -6.726 9.857 -0 -1.2 0
12.467 -7.288 10.273 -0 -1.2 0
12.684 -7.723 10.446 -0 -1.2 0
12.709 -8.069 10.463 -0 -1.2 0
12.868 -8.499 10.589 -0 -1.2 0
12.824 -8.818 10.55 -0 -1.2 0
10.078 -7.427 8.322 -0 -1.2 0
9.515 -7.334 7.863 -0 -1.2 0
9.369 -7.502 7.742 -0 -1.2 0
9.072 -7.556 7.499 -0 -1.2 0
9.669 -8.271 7.98 -0 -1.2 0
8.914 -7.971 7.366 -0 -1.2 0
8.833 -8.178 7.298 -0 -1.2 0
9.095 -8.674 7.507 -0 -1.2 0
8.856 -8.757 7.312 -0 -1.2 0
9.02 -9.194 7.44 -0 -1.2 0
9.268 -9.73 7.638 -0 -1.2 0
9.168 -9.952 7.556 -0 -1.2 0
10.222 -11.343 8.402 -0 -1.2 0
11.132 -12.669 9.133 -0 -1.2 0
0.959 0.045 0.902 -0 -1.2 0
0.981 0.033 0.919 -0 -1.2 0
1.013 0.035 0.944 -0 -1.2 0
1.04 0.028 0.964 -0 -1.2 0
1.073 0.029 0.989 -0 -1.2 0
1.113 0.033 1.019 -0 -1.2 0
1.147 0.03 1.045 -0 -1.2 0
1.181 0.027 1.07 -0 -1.2 0
1.22 0.028 1.102 -0 -1.2 0
1.267 0.034 1.137 -0 -1.2 0
1.309 0.033 1.168 -0 -1.2 0
1.35 0.029 1.2 -0 -1.2 0
1.398 0.03 1.236 -0 -1.2 0
1.446 0.029 1.274 -0 -1.2 0
1.502 0.032 1.316 -0 -1.2 0
1.559 0.032 1.358 -0 -1.2 0
1.628 0.042 1.412 -0 -1.2 0
1.699 0.048 1.466 -0 -1.2 0
1.756 0.041 1.51 -0 -1.2 0
1.836 0.047 1.57 -0 -1.2 0
1.908 0.045 1.625 -0 -1.2 0
1.996 0.048 1.692 -0 -1.2 0
2.076 0.044 1.753 -0 -1.2 0
2.172 0.045 1.826 -0 -1.2 0
2.275 0.046 1.905 -0 -1.2 0
2.394 0.051 1.996 -0 -1.2 0
2.506 0.046 2.081 -0 -1.2 0
2.641 0.047 2.184 -0 -1.2 0
2.792 0.049 2.299 -0 -1.2 0
2.99 0.064 2.45 -0 -1.2 0
3.189 0.069 2.601 -0 -1.2 0
3.418 0.077 2.777 -0 -1.2 0
3.642 0.073 2.947 -0 -1.2 0
4.283 0.188 3.437 -0 -1.2 0
4.641 0.193 3.71 -0 -1.2 0
5.009 0.185 3.99 -0 -1.2 0
5.23 0.126 4.157 -0 -1.2 0
5.755 0.123 4.558 -0 -1.2 0
6.495 0.139 5.121 -0 -1.2 0
7.559 0.178 5.933 -0 -1.2 0
8.887 0.21 6.945 -0 -1.2 0
10.771 0.254 8.381 -0 -1.2 0
12.897 0.24 10.001 -0 -1.2 0
15.248 -3.852 11.76 -0 -1.2 0
15.076 -4.156 11.626 -0 -1.2 0
15.08 -4.495 11.625 -0 -1.2 0
15.992 -5.062 12.317 -0 -1.2 0
15.796 -5.372 12.165 -0 -1.2 0
15.99 -5.79 12.31 -0 -1.2 0
12.142 -4.932 9.384 -0 -1.2 0
11.835 -5.108 9.148 -0 -1.2 0
16.167 -6.97 12.435 -0 -1.2 0
10.303 -5.068 7.982 -0 -1.2 0
10.209 -5.275 7.909 -0 -1.2 0
13.648 -7.028 10.515 -0 -1.2 0
10.403 -5.861 8.051 -0 -1.2 0
10.432 -6.133 8.072 -0 -1.2 0
9.979 -6.161 7.726 -0 -1.2 0
10.164 -6.515 7.864 -0 -1.2 0
10.066 -6.721 7.788 -0 -1.2 0
9.98 -6.935 7.721 -0 -1.2 0
10.127 -7.291 7.83 -0 -1.2 0
10.012 -7.491 7.741 -0 -1.2 0
9.895 -7.689 7.65 -0 -1.2 0
11.507 -9.098 8.868 -0 -1.2 0
10.713 -8.848 8.265 -0 -1.2 0
9.269 -8.062 7.169 -0 -1.2 0
9.501 -8.522 7.343 -0 -1.2 0
9.638 -8.924 7.444 -0 -1.2 0
9.291 -8.929 7.18 -0 -1.2 0
9.534 -9.441 7.361 -0 -1.2 0
10.731 -10.851 8.262 -0 -1.2 0
10.315 -10.815 7.945 -0 -1.2 0
12.093 -12.925 9.282 -0 -1.2 0
11.847 -13.104 9.094 -0 -1.2 0
0.984 0.045 0.877 -0 -1.2 0
1 0.026 0.889 -0 -1.2 0
1.039 0.036 0.916 -0 -1.2 0
1.073 0.036 0.94 -0 -1.2 0
1.107 0.035 0.964 -0 -1.2 0
1.129 0.02 0.98 -0 -1.2 0
1.169 0.024 1.009 -0 -1.2 0
1.21 0.027 1.037 -0 -1.2 0
1.252 0.029 1.067 -0 -1.2 0
1.293 0.028 1.097 -0 -1.2 0
1.335 0.027 1.126 -0 -1.2 0
1.384 0.03 1.161 -0 -1.2 0
1.434 0.03 1.196 -0 -1.2 0
1.483 0.029 1.232 -0 -1.2 0
1.54 0.033 1.272 -0 -1.2 0
1.598 0.033 1.312 -0 -1.2 0
1.669 0.042 1.364 -0 -1.2 0
1.735 0.043 1.41 -0 -1.2 0
1.808 0.047 1.463 -0 -1.2 0
1.875 0.043 1.509 -0 -1.2 0
1.957 0.045 1.568 -0 -1.2 0
2.038 0.044 1.626 -0 -1.2 0
2.128 0.045 1.689 -0 -1.2 0
2.226 0.045 1.759 -0 -1.2 0
2.325 0.043 1.83 -0 -1.2 0
2.447 0.047 1.916 -0 -1.2 0
2.57 0.046 2.003 -0 -1.2 0
2.708 0.048 2.102 -0 -1.2 0
2.855 0.046 2.206 -0 -1.2 0
3.058 0.061 2.35 -0 -1.2 0
3.268 0.07 2.5 -0 -1.2 0
3.48 0.07 2.651 -0 -1.2 0
3.812 0.1 2.886 -0 -1.2 0
4.398 0.191 3.304 -0 -1.2 0
4.71 0.181 3.525 -0 -1.2 0
5.191 0.201 3.867 -0 -1.2 0
5.489 0.157 4.078 -0 -1.2 0
5.884 0.121 4.359 -0 -1.2 0
6.601 0.13 4.868 -0 -1.2 0
7.684 0.169 5.637 -0 -1.2 0
8.996 0.195 6.57 -0 -1.2 0
10.935 0.243 7.947 -0 -1.2 0
14.689 0.393 10.615 -0 -1.2 0
15.508 -2.825 11.177 -0 -1.2 0
14.963 -3.085 10.788 -0 -1.2 0
15.387 -3.473 11.085 -0 -1.2 0
16.588 -5.107 11.928 -0 -1.2 0
11.414 -4.353 8.257 -0 -1.2 0
16.136 -6.078 11.601 -0 -1.2 0
15.883 -6.359 11.419 -0 -1.2 0
12.469 -5.505 8.999 -0 -1.2 0
14.275 -6.479 10.276 -0 -1.2 0
11.577 -5.724 8.365 -0 -1.2 0
14.047 -7.052 10.109 -0 -1.2 0
10.766 -5.907 7.787 -0 -1.2 0
10.902 -6.232 7.881 -0 -1.2 0
8.894 -5.493 6.459 -0 -1.2 0
10.286 -6.445 7.442 -0 -1.2 0
11.348 -7.291 8.192 -0 -1.2 0
9.76 -6.664 7.067 -0 -1.2 0
13.196 -8.991 9.493 -0 -1.2 0
12.342 -8.803 8.887 -0 -1.2 0
14.44 -10.515 10.367 -0 -1.2 0
10.449 -8.178 7.546 -0 -1.2 0
10.862 -8.765 7.836 -0 -1.2 0
9.459 -8.034 6.844 -0 -1.2 0
9.844 -8.606 7.114 -0 -1.2 0
9.756 -8.83 7.05 -0 -1.2 0
9.795 -9.157 7.075 -0 -1.2 0
9.365 -9.093 6.771 -0 -1.2 0
12.91 -12.568 9.266 -0 -1.2 0
12.324 -12.448 8.85 -0 -1.2 0
0.997 0.031 0.839 -0 -1.2 0
1.025 0.026 0.858 -0 -1.2 0
1.064 0.036 0.885 -0 -1.2 0
1.093 0.029 0.903 -0 -1.2 0
1.134 0.035 0.93 -0 -1.2 0
1.169 0.034 0.953 -0 -1.2 0
1.204 0.031 0.976 -0 -1.2 0
1.24 0.027 0.999 -0 -1.2 0
1.276 0.023 1.024 -0 -1.2 0
1.324 0.028 1.056 -0 -1.2 0
1.368 0.027 1.083 -0 -1.2 0
1.418 0.03 1.117 -0 -1.2 0
1.469 0.031 1.15 -0 -1.2 0
1.52 0.03 1.184 -0 -1.2 0
1.571 0.028 1.217 -0 -1.2 0
1.637 0.033 1.26 -0 -1.2 0
1.703 0.037 1.305 -0 -1.2 0
1.77 0.039 1.348 -0 -1.2 0
1.846 0.042 1.398 -0 -1.2 0
1.92 0.044 1.448 -0 -1.2 0
1.997 0.041 1.497 -0 -1.2 0
2.081 0.04 1.553 -0 -1.2 0
2.173 0.041 1.614 -0 -1.2 0
2.274 0.043 1.679 -0 -1.2 0
2.382 0.044 1.751 -0 -1.2 0
2.515 0.052 1.838 -0 -1.2 0
2.633 0.047 1.916 -0 -1.2 0
2.775 0.048 2.009 -0 -1.2 0
2.934 0.05 2.113 -0 -1.2 0
3.134 0.062 2.245 -0 -1.2 0
3.349 0.071 2.387 -0 -1.2 0
3.567 0.071 2.53 -0 -1.2 0
4.165 0.182 2.924 -0 -1.2 0
4.508 0.192 3.15 -0 -1.2 0
4.868 0.193 3.387 -0 -1.2 0
5.238 0.181 3.63 -0 -1.2 0
5.798 0.197 3.998 -0 -1.2 0
6.038 0.124 4.156 -0 -1.2 0
6.741 0.126 4.617 -0 -1.2 0
7.659 0.135 5.222 -0 -1.2 0
6.284 -0.22 4.315 -0 -1.2 0
6.27 -0.352 4.306 -0 -1.2 0
6.297 -0.479 4.323 -0 -1.2 0
6.306 -0.608 4.327 -0 -1.2 0
6.354 -0.735 4.358 -0 -1.2 0
14.849 -3.959 9.928 -0 -1.2 0
15.102 -4.331 10.092 -0 -1.2 0
16.447 -4.974 10.974 -0 -1.2 0
11.895 -4.15 7.985 -0 -1.2 0
11.353 -4.256 7.628 -0 -1.2 0
11.581 -4.574 7.776 -0 -1.2 0
12.812 -5.229 8.582 -0 -1.2 0
12.943 -5.562 8.667 -0 -1.2 0
11.711 -5.396 7.857 -0 -1.2 0
11.551 -5.6 7.751 -0 -1.2 0
8.832 -4.937 5.966 -0 -1.2 0
13.898 -7.497 9.285 -0 -1.2 0
9.188 -5.529 6.198 -0 -1.2 0
9.361 -5.841 6.309 -0 -1.2 0
10.725 -6.804 7.202 -0 -1.2 0
10.898 -7.169 7.313 -0 -1.2 0
11.222 -7.637 7.524 -0 -1.2 0
12.524 -8.727 8.374 -0 -1.2 0
10.089 -7.496 6.779 -0 -1.2 0
10.585 -8.098 7.103 -0 -1.2 0
11.075 -8.728 7.422 -0 -1.2 0
10.018 -8.271 6.73 -0 -1.2 0
10.252 -8.732 6.881 -0 -1.2 0
9.691 -8.592 6.513 -0 -1.2 0
10.267 -9.347 6.887 -0 -1.2 0
11.924 -11.058 7.968 -0 -1.2 0
10.156 -9.883 6.812 -0 -1.2 0
12.621 -12.445 8.419 -0 -1.2 0
1.024 0.039 0.817 -0 -1.2 0
1.053 0.034 0.835 -0 -1.2 0
1.093 0.042 0.86 -0 -1.2 0
1.123 0.036 0.878 -0 -1.2 0
1.158 0.035 0.899 -0 -1.2 0
1.194 0.034 0.922 -0 -1.2 0
1.23 0.031 0.943 -0 -1.2 0
1.267 0.027 0.965 -0 -1.2 0
1.303 0.023 0.988 -0 -1.2 0
1.354 0.029 1.019 -0 -1.2 0
1.397 0.027 1.045 -0 -1.2 0
1.441 0.024 1.073 -0 -1.2 0
1.493 0.025 1.104 -0 -1.2 0
1.545 0.025 1.136 -0 -1.2 0
1.605 0.028 1.172 -0 -1.2 0
1.672 0.033 1.213 -0 -1.2 0
1.733 0.032 1.251 -0 -1.2 0
1.808 0.039 1.297 -0 -1.2 0
1.877 0.038 1.339 -0 -1.2 0
1.962 0.044 1.39 -0 -1.2 0
2.039 0.042 1.438 -0 -1.2 0
2.125 0.041 1.491 -0 -1.2 0
2.22 0.041 1.548 -0 -1.2 0
2.322 0.043 1.611 -0 -1.2 0
2.433 0.044 1.679 -0 -1.2 0
2.552 0.044 1.752 -0 -1.2 0
2.681 0.044 1.831 -0 -1.2 0
2.834 0.049 1.924 -0 -1.2 0
2.996 0.05 2.023 -0 -1.2 0
3.199 0.062 2.148 -0 -1.2 0
3.412 0.068 2.278 -0 -1.2 0
3.634 0.068 2.414 -0 -1.2 0
4.254 0.182 2.793 -0 -1.2 0
4.612 0.194 3.012 -0 -1.2 0
4.979 0.196 3.236 -0 -1.2 0
5.449 0.206 3.524 -0 -1.2 0
5.97 0.209 3.843 -0 -1.2 0
6.291 0.15 4.039 -0 -1.2 0
6.832 0.118 4.37 -0 -1.2 0
6.275 -0.11 4.027 -0 -1.2 0
6.23 -0.245 4 -0 -1.2 0
6.234 -0.372 4.002 -0 -1.2 0
6.252 -0.496 4.012 -0 -1.2 0
6.277 -0.62 4.027 -0 -1.2 0
6.309 -0.745 4.046 -0 -1.2 0
6.435 -0.996 4.122 -0 -1.2 0
6.522 -1.126 4.175 -0 -1.2 0
12.379 -3.947 7.745 -0 -1.2 0
11.615 -4.262 7.277 -0 -1.2 0
12.013 -4.628 7.519 -0 -1.2 0
10.517 -4.412 6.605 -0 -1.2 0
10.68 -4.697 6.703 -0 -1.2 0
9.198 -4.394 5.799 -0 -1.2 0
13.827 -6.383 8.622 -0 -1.2 0
9.651 -4.991 6.073 -0 -1.2 0
12.26 -6.336 7.663 -0 -1.2 0
11.656 -6.344 7.294 -0 -1.2 0
9.814 -5.736 6.169 -0 -1.2 0
9.273 -5.697 5.839 -0 -1.2 0
11.648 -7.172 7.285 -0 -1.2 0
11.865 -7.577 7.417 -0 -1.2 0
12.924 -8.483 8.061 -0 -1.2 0
11.165 -7.751 6.988 -0 -1.2 0
10.071 -7.353 6.321 -0 -1.2 0
11.334 -8.443 7.089 -0 -1.2 0
10.596 -8.243 6.637 -0 -1.2 0
10.379 -8.379 6.505 -0 -1.2 0
10.818 -8.992 6.771 -0 -1.2 0
10.492 -9.051 6.571 -0 -1.2 0
9.637 -8.677 6.051 -0 -1.2 0
12.259 -11.131 7.644 -0 -1.2 0
10.351 -9.871 6.482 -0 -1.2 0
1.038 0.031 0.786 -0 -1.2 0
1.072 0.034 0.806 -0 -1.2 0
1.108 0.036 0.826 -0 -1.2 0
1.138 0.029 0.843 -0 -1.2 0
1.174 0.029 0.864 -0 -1.2 0
1.217 0.034 0.888 -0 -1.2 0
1.254 0.031 0.909 -0 -1.2 0
1.291 0.028 0.929 -0 -1.2 0
1.328 0.023 0.951 -0 -1.2 0
1.373 0.022 0.976 -0 -1.2 0
1.424 0.027 1.005 -0 -1.2 0
1.469 0.024 1.031 -0 -1.2 0
1.522 0.025 1.061 -0 -1.2 0
1.575 0.025 1.091 -0 -1.2 0
1.628 0.023 1.121 -0 -1.2 0
1.696 0.028 1.16 -0 -1.2 0
1.766 0.033 1.199 -0 -1.2 0
1.836 0.034 1.238 -0 -1.2 0
1.906 0.033 1.279 -0 -1.2 0
1.992 0.039 1.327 -0 -1.2 0
2.079 0.042 1.377 -0 -1.2 0
2.166 0.041 1.427 -0 -1.2 0
2.254 0.037 1.476 -0 -1.2 0
2.374 0.046 1.545 -0 -1.2 0
2.48 0.044 1.604 -0 -1.2 0
2.602 0.045 1.674 -0 -1.2 0
2.724 0.041 1.743 -0 -1.2 0
2.889 0.049 1.836 -0 -1.2 0
3.054 0.051 1.93 -0 -1.2 0
3.237 0.053 2.034 -0 -1.2 0
3.462 0.062 2.161 -0 -1.2 0
3.789 0.096 2.347 -0 -1.2 0
4.328 0.18 2.653 -0 -1.2 0
4.71 0.198 2.87 -0 -1.2 0
5.068 0.194 3.072 -0 -1.2 0
5.47 0.186 3.3 -0 -1.2 0
6.053 0.202 3.632 -0 -1.2 0
6.226 0.113 3.729 -0 -1.2 0
6.226 -0.012 3.73 -0 -1.2 0
6.225 -0.137 3.728 -0 -1.2 0
6.247 -0.259 3.74 -0 -1.2 0
6.432 -0.361 3.845 -0 -1.2 0
6.235 -0.509 3.732 -0 -1.2 0
6.243 -0.631 3.737 -0 -1.2 0
6.292 -0.752 3.765 -0 -1.2 0
15.204 -4.535 8.81 -0 -1.2 0
15.252 -4.863 8.837 -0 -1.2 0
11.898 -4.277 6.935 -0 -1.2 0
13.173 -4.897 7.657 -0 -1.2 0
11.929 -4.789 6.952 -0 -1.2 0
12.44 -5.216 7.24 -0 -1.2 0
11.129 -5.018 6.497 -0 -1.2 0
11.018 -5.22 6.434 -0 -1.2 0
10.831 -5.389 6.326 -0 -1.2 0
9.572 -5.097 5.613 -0 -1.2 0
9.624 -5.338 5.642 -0 -1.2 0
10.107 -5.785 5.914 -0 -1.2 0
9.994 -5.965 5.85 -0 -1.2 0
13.745 -8.139 7.972 -0 -1.2 0
12.282 -7.679 7.143 -0 -1.2 0
11.54 -7.559 6.723 -0 -1.2 0
13.994 -9.296 8.11 -0 -1.2 0
13.224 -9.177 7.674 -0 -1.2 0
11.193 -8.213 6.524 -0 -1.2 0
11.477 -9.005 6.683 -0 -1.2 0
10.921 -8.917 6.368 -0 -1.2 0
13.183 -10.923 7.646 -0 -1.2 0
11.411 -9.919 6.643 -0 -1.2 0
1.059 0.032 0.756 -0 -1.2 0
1.088 0.027 0.772 -0 -1.2 0
1.13 0.036 0.794 -0 -1.2 0
1.16 0.029 0.809 -0 -1.2 0
1.197 0.029 0.828 -0 -1.2 0
1.241 0.034 0.852 -0 -1.2 0
1.272 0.025 0.868 -0 -1.2 0
1.309 0.021 0.887 -0 -1.2 0
1.362 0.029 0.915 -0 -1.2 0
1.407 0.029 0.938 -0 -1.2 0
1.445 0.021 0.958 -0 -1.2 0
1.498 0.024 0.986 -0 -1.2 0
1.544 0.02 1.01 -0 -1.2 0
1.598 0.02 1.037 -0 -1.2 0
1.653 0.016 1.066 -0 -1.2 0
1.723 0.023 1.102 -0 -1.2 0
1.786 0.022 1.136 -0 -1.2 0
1.864 0.029 1.176 -0 -1.2 0
1.936 0.028 1.214 -0 -1.2 0
2.024 0.035 1.259 -0 -1.2 0
2.12 0.042 1.31 -0 -1.2 0
2.209 0.041 1.357 -0 -1.2 0
2.299 0.037 1.403 -0 -1.2 0
2.422 0.047 1.467 -0 -1.2 0
2.537 0.048 1.527 -0 -1.2 0
2.645 0.041 1.584 -0 -1.2 0
2.778 0.041 1.653 -0 -1.2 0
2.937 0.046 1.736 -0 -1.2 0
3.114 0.051 1.828 -0 -1.2 0
3.292 0.05 1.92 -0 -1.2 0
3.504 0.054 2.032 -0 -1.2 0
4.06 0.158 2.322 -0 -1.2 0
4.421 0.183 2.51 -0 -1.2 0
4.776 0.19 2.695 -0 -1.2 0
5.149 0.19 2.89 -0 -1.2 0
5.568 0.184 3.108 -0 -1.2 0
6.118 0.191 3.395 -0 -1.2 0
6.234 0.092 3.455 -0 -1.2 0
6.242 -0.03 3.459 -0 -1.2 0
6.232 -0.155 3.453 -0 -1.2 0
6.246 -0.275 3.46 -0 -1.2 0
6.381 -0.381 3.53 -0 -1.2 0
6.223 -0.521 3.448 -0 -1.2 0
6.249 -0.64 3.462 -0 -1.2 0
6.291 -0.759 3.484 -0 -1.2 0
25.216 -4.178 13.346 -0 -1.2 0
15.278 -4.176 8.163 -0 -1.2 0
13.375 -4.06 7.172 -0 -1.2 0
13.7 -4.411 7.341 -0 -1.2 0
13.129 -4.541 7.043 -0 -1.2 0
12.162 -4.536 6.54 -0 -1.2 0
12.638 -4.936 6.786 -0 -1.2 0
12.424 -5.131 6.674 -0 -1.2 0
9.556 -4.393 5.18 -0 -1.2 0
11.457 -5.303 6.17 -0 -1.2 0
10.52 -5.183 5.682 -0 -1.2 0
10.164 -5.267 5.496 -0 -1.2 0
12.728 -6.614 6.831 -0 -1.2 0
10.554 -5.901 5.699 -0 -1.2 0
13.984 -7.801 7.483 -0 -1.2 0
14.906 -8.594 7.963 -0 -1.2 0
13.311 -8.099 7.132 -0 -1.2 0
12.318 -7.867 6.615 -0 -1.2 0
12.7 -8.39 6.814 -0 -1.2 0
12.515 -8.595 6.717 -0 -1.2 0
13.024 -9.232 6.981 -0 -1.2 0
12.31 -9.424 6.608 -0 -1.2 0
1.094 0.053 0.736 -0 -1.2 0
1.106 0.026 0.742 -0 -1.2 0
1.142 0.029 0.759 -0 -1.2 0
1.179 0.029 0.777 -0 -1.2 0
1.217 0.029 0.795 -0 -1.2 0
1.255 0.028 0.813 -0 -1.2 0
1.293 0.025 0.831 -0 -1.2 0
1.331 0.021 0.849 -0 -1.2 0
1.384 0.029 0.875 -0 -1.2 0
1.43 0.029 0.897 -0 -1.2 0
1.469 0.021 0.916 -0 -1.2 0
1.523 0.024 0.942 -0 -1.2 0
1.569 0.019 0.964 -0 -1.2 0
1.632 0.025 0.994 -0 -1.2 0
1.687 0.023 1.021 -0 -1.2 0
1.751 0.023 1.051 -0 -1.2 0
1.823 0.027 1.086 -0 -1.2 0
1.886 0.024 1.116 -0 -1.2 0
1.967 0.028 1.156 -0 -1.2 0
2.049 0.029 1.194 -0 -1.2 0
2.146 0.036 1.241 -0 -1.2 0
2.237 0.036 1.284 -0 -1.2 0
2.337 0.037 1.332 -0 -1.2 0
2.461 0.046 1.393 -0 -1.2 0
2.57 0.044 1.445 -0 -1.2 0
2.689 0.041 1.502 -0 -1.2 0
2.824 0.041 1.566 -0 -1.2 0
2.977 0.042 1.64 -0 -1.2 0
3.157 0.047 1.727 -0 -1.2 0
3.338 0.046 1.813 -0 -1.2 0
3.554 0.051 1.916 -0 -1.2 0
4.17 0.171 2.212 -0 -1.2 0
4.477 0.177 2.36 -0 -1.2 0
4.838 0.185 2.533 -0 -1.2 0
5.209 0.182 2.711 -0 -1.2 0
5.652 0.181 2.923 -0 -1.2 0
6.203 0.186 3.188 -0 -1.2 0
6.879 0.195 3.513 -0 -1.2 0
6.24 -0.049 3.206 -0 -1.2 0
6.219 -0.173 3.196 -0 -1.2 0
6.197 -0.296 3.185 -0 -1.2 0
6.191 -0.415 3.182 -0 -1.2 0
6.2 -0.533 3.187 -0 -1.2 0
6.227 -0.65 3.199 -0 -1.2 0
6.287 -0.765 3.228 -0 -1.2 0
25.706 -3.69 12.548 -0 -1.2 0
25.16 -4.124 12.285 -0 -1.2 0
25.126 -4.61 12.269 -0 -1.2 0
14.049 -3.882 6.952 -0 -1.2 0
13.967 -4.143 6.913 -0 -1.2 0
12.217 -4.003 6.072 -0 -1.2 0
12.319 -4.275 6.121 -0 -1.2 0
12.87 -4.68 6.386 -0 -1.2 0
12.298 -4.772 6.112 -0 -1.2 0
13.71 -5.482 6.789 -0 -1.2 0
11.504 -5.011 5.73 -0 -1.2 0
13.983 -6.159 6.919 -0 -1.2 0
10.48 -5.103 5.238 -0 -1.2 0
11.016 -5.548 5.496 -0 -1.2 0
10.995 -5.781 5.485 -0 -1.2 0
10.816 -6.187 5.399 -0 -1.2 0
13.343 -8.32 6.612 -0 -1.2 0
12.475 -8.145 6.194 -0 -1.2 0
12.799 -8.644 6.35 -0 -1.2 0
1.092 0.031 0.698 -0 -1.2 0
1.129 0.034 0.714 -0 -1.2 0
1.16 0.029 0.728 -0 -1.2 0
1.198 0.029 0.744 -0 -1.2 0
1.236 0.029 0.761 -0 -1.2 0
1.275 0.027 0.777 -0 -1.2 0
1.306 0.018 0.792 -0 -1.2 0
1.352 0.021 0.812 -0 -1.2 0
1.391 0.016 0.829 -0 -1.2 0
1.445 0.022 0.853 -0 -1.2 0
1.492 0.021 0.873 -0 -1.2 0
1.54 0.018 0.894 -0 -1.2 0
1.587 0.014 0.915 -0 -1.2 0
1.651 0.019 0.943 -0 -1.2 0
1.706 0.016 0.967 -0 -1.2 0
1.763 0.012 0.992 -0 -1.2 0
1.836 0.016 1.024 -0 -1.2 0
1.909 0.019 1.056 -0 -1.2 0
1.991 0.023 1.092 -0 -1.2 0
2.081 0.029 1.132 -0 -1.2 0
2.181 0.036 1.175 -0 -1.2 0
2.273 0.036 1.216 -0 -1.2 0
2.365 0.032 1.257 -0 -1.2 0
2.484 0.038 1.308 -0 -1.2 0
2.603 0.039 1.361 -0 -1.2 0
2.739 0.044 1.421 -0 -1.2 0
2.869 0.04 1.478 -0 -1.2 0
3.033 0.045 1.55 -0 -1.2 0
3.198 0.043 1.622 -0 -1.2 0
3.382 0.042 1.703 -0 -1.2 0
3.636 0.058 1.815 -0 -1.2 0
4.235 0.17 2.079 -0 -1.2 0
4.556 0.179 2.219 -0 -1.2 0
4.887 0.177 2.365 -0 -1.2 0
5.255 0.173 2.526 -0 -1.2 0
5.705 0.172 2.723 -0 -1.2 0
6.282 0.181 2.977 -0 -1.2 0
7.014 0.198 3.299 -0 -1.2 0
6.265 -0.062 2.97 -0 -1.2 0
6.217 -0.189 2.948 -0 -1.2 0
6.194 -0.31 2.939 -0 -1.2 0
6.187 -0.428 2.936 -0 -1.2 0
6.188 -0.544 2.937 -0 -1.2 0
6.214 -0.659 2.947 -0 -1.2 0
6.275 -0.772 2.974 -0 -1.2 0
25.712 -3.655 11.515 -0 -1.2 0
25.194 -4.087 11.288 -0 -1.2 0
24.907 -4.532 11.161 -0 -1.2 0
14.917 -3.434 6.772 -0 -1.2 0
25.595 -5.618 11.463 -0 -1.2 0
14.635 -3.958 6.649 -0 -1.2 0
14.937 -4.31 6.781 -0 -1.2 0
25.647 -7.141 11.488 -0 -1.2 0
13.337 -4.491 6.079 -0 -1.2 0
25.057 -8.005 11.229 -0 -1.2 0
11.059 -4.802 5.078 -0 -1.2 0
11.077 -5.039 5.086 -0 -1.2 0
11.609 -5.474 5.319 -0 -1.2 0
10.961 -5.461 5.035 -0 -1.2 0
10.822 -6.114 4.974 -0 -1.2 0
1.108 0.031 0.665 -0 -1.2 0
1.146 0.033 0.68 -0 -1.2 0
1.178 0.028 0.692 -0 -1.2 0
1.21 0.021 0.705 -0 -1.2 0
1.247 0.022 0.72 -0 -1.2 0
1.293 0.027 0.738 -0 -1.2 0
1.333 0.024 0.754 -0 -1.2 0
1.372 0.021 0.77 -0 -1.2 0
1.419 0.022 0.788 -0 -1.2 0
1.459 0.016 0.804 -0 -1.2 0
1.507 0.014 0.823 -0 -1.2 0
1.563 0.018 0.845 -0 -1.2 0
1.611 0.014 0.864 -0 -1.2 0
1.668 0.012 0.887 -0 -1.2 0
1.732 0.016 0.912 -0 -1.2 0
1.797 0.017 0.939 -0 -1.2 0
1.856 0.012 0.961 -0 -1.2 0
1.946 0.024 0.997 -0 -1.2 0
2.021 0.022 1.027 -0 -1.2 0
2.113 0.028 1.064 -0 -1.2 0
2.205 0.031 1.1 -0 -1.2 0
2.298 0.031 1.137 -0 -1.2 0
2.401 0.032 1.177 -0 -1.2 0
2.52 0.038 1.225 -0 -1.2 0
2.642 0.039 1.274 -0 -1.2 0
2.79 0.046 1.332 -0 -1.2 0
2.912 0.039 1.381 -0 -1.2 0
3.07 0.041 1.444 -0 -1.2 0
3.229 0.037 1.507 -0 -1.2 0
3.424 0.039 1.584 -0 -1.2 0
3.762 0.081 1.718 -0 -1.2 0
4.228 0.148 1.903 -0 -1.2 0
4.589 0.168 2.046 -0 -1.2 0
4.943 0.171 2.186 -0 -1.2 0
5.316 0.167 2.334 -0 -1.2 0
5.763 0.165 2.512 -0 -1.2 0
6.322 0.169 2.734 -0 -1.2 0
6.883 0.152 2.956 -0 -1.2 0
6.249 -0.083 2.705 -0 -1.2 0
6.219 -0.205 2.693 -0 -1.2 0
6.195 -0.323 2.684 -0 -1.2 0
6.206 -0.438 2.689 -0 -1.2 0
6.217 -0.552 2.692 -0 -1.2 0
6.225 -0.667 2.696 -0 -1.2 0
6.286 -0.779 2.72 -0 -1.2 0
25.833 -3.636 10.481 -0 -1.2 0
25.529 -4.088 10.36 -0 -1.2 0
24.85 -4.479 10.092 -0 -1.2 0
25.527 -5.058 10.361 -0 -1.2 0
25.477 -5.537 10.342 -0 -1.2 0
25.931 -6.116 10.523 -0 -1.2 0
25.937 -6.619 10.526 -0 -1.2 0
25.643 -7.057 10.41 -0 -1.2 0
25.587 -7.546 10.388 -0 -1.2 0
24.912 -7.868 10.121 -0 -1.2 0
25.605 -8.57 10.397 -0 -1.2 0
10.846 -4.459 4.535 -0 -1.2 0
11.278 -4.823 4.707 -0 -1.2 0
1.117 0.023 0.632 -0 -1.2 0
1.154 0.026 0.645 -0 -1.2 0
1.192 0.028 0.659 -0 -1.2 0
1.231 0.028 0.673 -0 -1.2 0
1.263 0.021 0.684 -0 -1.2 0
1.31 0.027 0.701 -0 -1.2 0
1.342 0.018 0.712 -0 -1.2 0
1.382 0.014 0.727 -0 -1.2 0
1.437 0.022 0.747 -0 -1.2 0
1.477 0.015 0.761 -0 -1.2 0
1.518 0.009 0.776 -0 -1.2 0
1.574 0.011 0.796 -0 -1.2 0
1.623 0.007 0.813 -0 -1.2 0
1.688 0.012 0.837 -0 -1.2 0
1.754 0.015 0.86 -0 -1.2 0
1.812 0.011 0.881 -0 -1.2 0
1.886 0.016 0.908 -0 -1.2 0
1.961 0.018 0.934 -0 -1.2 0
2.046 0.022 0.965 -0 -1.2 0
2.122 0.019 0.992 -0 -1.2 0
2.225 0.026 1.029 -0 -1.2 0
2.327 0.031 1.065 -0 -1.2 0
2.431 0.031 1.103 -0 -1.2 0
2.544 0.033 1.144 -0 -1.2 0
2.675 0.038 1.19 -0 -1.2 0
2.816 0.043 1.24 -0 -1.2 0
2.948 0.039 1.288 -0 -1.2 0
3.109 0.04 1.346 -0 -1.2 0
3.287 0.042 1.41 -0 -1.2 0
3.449 0.032 1.467 -0 -1.2 0
3.954 0.125 1.648 -0 -1.2 0
4.291 0.149 1.769 -0 -1.2 0
4.611 0.157 1.884 -0 -1.2 0
4.969 0.16 2.012 -0 -1.2 0
5.366 0.161 2.155 -0 -1.2 0
5.809 0.157 2.313 -0 -1.2 0
6.412 0.169 2.529 -0 -1.2 0
6.599 0.083 2.596 -0 -1.2 0
6.235 -0.099 2.467 -0 -1.2 0
6.214 -0.218 2.459 -0 -1.2 0
6.189 -0.336 2.451 -0 -1.2 0
6.201 -0.448 2.455 -0 -1.2 0
6.21 -0.561 2.459 -0 -1.2 0
6.218 -0.674 2.462 -0 -1.2 0
6.568 -1.247 2.589 -0 -1.2 0
26.264 -3.652 9.653 -0 -1.2 0
25.441 -4.047 9.36 -0 -1.2 0
24.762 -4.431 9.117 -0 -1.2 0
25.412 -4.996 9.351 -0 -1.2 0
25.409 -5.476 9.351 -0 -1.2 0
25.534 -6.963 9.399 -0 -1.2 0
25.498 -7.45 9.387 -0 -1.2 0
24.851 -7.774 9.156 -0 -1.2 0
25.1 -8.337 9.247 -0 -1.2 0
25.484 -8.956 9.385 -0 -1.2 0
24.829 -11.31 9.155 -0 -1.2 0
1.129 0.022 0.6 -0 -1.2 0
1.167 0.026 0.612 -0 -1.2 0
1.206 0.028 0.625 -0 -1.2 0
1.239 0.021 0.635 -0 -1.2 0
1.278 0.021 0.648 -0 -1.2 0
1.325 0.027 0.663 -0 -1.2 0
1.358 0.018 0.673 -0 -1.2 0
1.406 0.02 0.688 -0 -1.2 0
1.446 0.015 0.702 -0 -1.2 0
1.502 0.021 0.72 -0 -1.2 0
1.544 0.014 0.733 -0 -1.2 0
1.593 0.011 0.749 -0 -1.2 0
1.65 0.013 0.767 -0 -1.2 0
1.716 0.018 0.788 -0 -1.2 0
1.766 0.01 0.805 -0 -1.2 0
1.833 0.011 0.826 -0 -1.2 0
1.901 0.011 0.847 -0 -1.2 0
1.976 0.012 0.872 -0 -1.2 0
2.061 0.017 0.899 -0 -1.2 0
2.147 0.019 0.927 -0 -1.2 0
2.25 0.026 0.96 -0 -1.2 0
2.346 0.026 0.991 -0 -1.2 0
2.45 0.027 1.024 -0 -1.2 0
2.565 0.028 1.061 -0 -1.2 0
2.697 0.034 1.104 -0 -1.2 0
2.831 0.034 1.147 -0 -1.2 0
2.973 0.034 1.192 -0 -1.2 0
3.144 0.039 1.247 -0 -1.2 0
3.307 0.035 1.299 -0 -1.2 0
3.489 0.031 1.358 -0 -1.2 0
4.027 0.133 1.53 -0 -1.2 0
4.322 0.143 1.624 -0 -1.2 0
4.655 0.152 1.732 -0 -1.2 0
5.008 0.154 1.845 -0 -1.2 0
5.418 0.157 1.977 -0 -1.2 0
5.895 0.159 2.129 -0 -1.2 0
6.476 0.166 2.317 -0 -1.2 0
6.562 0.06 2.344 -0 -1.2 0
6.241 -0.111 2.242 -0 -1.2 0
6.219 -0.229 2.235 -0 -1.2 0
6.185 -0.347 2.224 -0 -1.2 0
6.216 -0.456 2.234 -0 -1.2 0
6.216 -0.569 2.235 -0 -1.2 0
6.223 -0.68 2.237 -0 -1.2 0
7.38 -0.734 2.61 -0 -1.2 0
26.478 -3.651 8.75 -0 -1.2 0
25.362 -4.011 8.393 -0 -1.2 0
24.696 -4.391 8.179 -0 -1.2 0
24.928 -4.886 8.256 -0 -1.2 0
25.162 -5.392 8.333 -0 -1.2 0
25.751 -5.976 8.523 -0 -1.2 0
25.75 -6.462 8.525 -0 -1.2 0
25.759 -6.955 8.529 -0 -1.2 0
25.388 -7.357 8.411 -0 -1.2 0
24.884 -7.714 8.25 -0 -1.2 0
24.87 -8.196 8.247 -0 -1.2 0
25.096 -8.755 8.321 -0 -1.2 0
24.691 -9.123 8.193 -0 -1.2 0
24.689 -9.619 8.194 -0 -1.2 0
25.55 -10.437 8.473 -0 -1.2 0
25.381 -10.899 8.419 -0 -1.2 0
24.886 -11.227 8.262 -0 -1.2 0
25.013 -11.808 8.304 -0 -1.2 0
24.708 -12.208 8.208 -0 -1.2 0
1.141 0.022 0.567 -0 -1.2 0
1.187 0.033 0.579 -0 -1.2 0
1.219 0.028 0.588 -0 -1.2 0
1.252 0.021 0.597 -0 -1.2 0
1.284 0.014 0.606 -0 -1.2 0
1.332 0.019 0.62 -0 -1.2 0
1.38 0.024 0.634 -0 -1.2 0
1.421 0.02 0.645 -0 -1.2 0
1.462 0.015 0.656 -0 -1.2 0
1.511 0.015 0.671 -0 -1.2 0
1.56 0.013 0.684 -0 -1.2 0
1.61 0.011 0.698 -0 -1.2 0
1.66 0.006 0.713 -0 -1.2 0
1.726 0.011 0.731 -0 -1.2 0
1.777 0.004 0.745 -0 -1.2 0
1.853 0.01 0.767 -0 -1.2 0
1.921 0.01 0.786 -0 -1.2 0
1.998 0.012 0.807 -0 -1.2 0
2.083 0.016 0.832 -0 -1.2 0
2.161 0.013 0.854 -0 -1.2 0
2.257 0.017 0.881 -0 -1.2 0
2.362 0.021 0.91 -0 -1.2 0
2.468 0.022 0.94 -0 -1.2 0
2.584 0.024 0.973 -0 -1.2 0
2.717 0.029 1.01 -0 -1.2 0
2.861 0.033 1.051 -0 -1.2 0
3.006 0.033 1.092 -0 -1.2 0
3.17 0.035 1.138 -0 -1.2 0
3.343 0.034 1.187 -0 -1.2 0
3.554 0.039 1.246 -0 -1.2 0
4.042 0.123 1.384 -0 -1.2 0
4.36 0.139 1.473 -0 -1.2 0
4.687 0.146 1.565 -0 -1.2 0
5.062 0.153 1.671 -0 -1.2 0
5.477 0.156 1.787 -0 -1.2 0
5.968 0.16 1.926 -0 -1.2 0
6.546 0.164 2.089 -0 -1.2 0
6.519 0.039 2.082 -0 -1.2 0
6.233 -0.125 2.002 -0 -1.2 0
6.219 -0.241 1.998 -0 -1.2 0
6.204 -0.354 1.994 -0 -1.2 0
6.206 -0.466 1.996 -0 -1.2 0
6.215 -0.576 1.999 -0 -1.2 0
6.232 -0.686 2.004 -0 -1.2 0
6.437 -1.129 2.064 -0 -1.2 0
26.143 -1.706 7.62 -0 -1.2 0
26.176 -2.179 7.63 -0 -1.2 0
26.182 -2.653 7.634 -0 -1.2 0
26.19 -3.128 7.638 -0 -1.2 0
26.189 -3.604 7.64 -0 -1.2 0
25.292 -3.979 7.388 -0 -1.2 0
24.723 -4.367 7.229 -0 -1.2 0
24.798 -4.833 7.252 -0 -1.2 0
25.273 -5.371 7.388 -0 -1.2 0
25.669 -5.916 7.502 -0 -1.2 0
25.688 -6.4 7.509 -0 -1.2 0
25.688 -6.884 7.512 -0 -1.2 0
25.362 -7.292 7.42 -0 -1.2 0
24.965 -7.672 7.31 -0 -1.2 0
24.71 -8.082 7.24 -0 -1.2 0
25.364 -8.763 7.427 -0 -1.2 0
25.581 -9.333 7.49 -0 -1.2 0
25.76 -10.422 7.545 -0 -1.2 0
25.391 -10.806 7.443 -0 -1.2 0
24.902 -11.132 7.306 -0 -1.2 0
24.835 -11.627 7.289 -0 -1.2 0
1.152 0.022 0.535 -0 -1.2 0
1.198 0.032 0.546 -0 -1.2 0
1.231 0.027 0.555 -0 -1.2 0
1.263 0.02 0.563 -0 -1.2 0
1.304 0.021 0.572 -0 -1.2 0
1.352 0.026 0.584 -0 -1.2 0
1.393 0.023 0.595 -0 -1.2 0
1.426 0.013 0.603 -0 -1.2 0
1.467 0.008 0.613 -0 -1.2 0
1.525 0.014 0.627 -0 -1.2 0
1.566 0.007 0.638 -0 -1.2 0
1.624 0.01 0.652 -0 -1.2 0
1.683 0.012 0.666 -0 -1.2 0
1.742 0.011 0.681 -0 -1.2 0
1.801 0.009 0.695 -0 -1.2 0
1.861 0.004 0.71 -0 -1.2 0
1.938 0.01 0.729 -0 -1.2 0
2.016 0.011 0.748 -0 -1.2 0
2.094 0.011 0.767 -0 -1.2 0
2.181 0.012 0.789 -0 -1.2 0
2.269 0.011 0.81 -0 -1.2 0
2.375 0.016 0.836 -0 -1.2 0
2.482 0.017 0.862 -0 -1.2 0
2.607 0.023 0.893 -0 -1.2 0
2.742 0.028 0.927 -0 -1.2 0
2.878 0.029 0.959 -0 -1.2 0
3.033 0.032 0.998 -0 -1.2 0
3.198 0.034 1.039 -0 -1.2 0
3.373 0.033 1.082 -0 -1.2 0
3.586 0.038 1.134 -0 -1.2 0
4.042 0.111 1.246 -0 -1.2 0
4.379 0.132 1.329 -0 -1.2 0
4.701 0.137 1.408 -0 -1.2 0
5.061 0.14 1.497 -0 -1.2 0
5.497 0.147 1.604 -0 -1.2 0
5.993 0.152 1.726 -0 -1.2 0
6.615 0.163 1.879 -0 -1.2 0
6.472 0.018 1.845 -0 -1.2 0
6.23 -0.136 1.785 -0 -1.2 0
6.226 -0.249 1.786 -0 -1.2 0
6.202 -0.363 1.78 -0 -1.2 0
6.213 -0.472 1.783 -0 -1.2 0
6.223 -0.582 1.785 -0 -1.2 0
6.231 -0.692 1.789 -0 -1.2 0
6.081 -0.809 1.752 -0 -1.2 0
6.369 -1.019 1.824 -0 -1.2 0
27.484 -3.714 7.033 -0 -1.2 0
26.171 -4.062 6.711 -0 -1.2 0
24.556 -4.323 6.315 -0 -1.2 0
24.565 -4.772 6.319 -0 -1.2 0
26.174 -5.495 6.719 -0 -1.2 0
26.218 -7.454 6.738 -0 -1.2 0
26.294 -7.972 6.759 -0 -1.2 0
24.609 -8 6.345 -0 -1.2 0
26.22 -8.962 6.746 -0 -1.2 0
24.629 -11.455 6.366 -0 -1.2 0
1.174 0.037 0.505 -0 -1.2 0
1.2 0.025 0.511 -0 -1.2 0
1.24 0.027 0.52 -0 -1.2 0
1.273 0.02 0.527 -0 -1.2 0
1.313 0.02 0.535 -0 -1.2 0
1.354 0.019 0.544 -0 -1.2 0
1.395 0.017 0.553 -0 -1.2 0
1.444 0.019 0.563 -0 -1.2 0
1.486 0.015 0.572 -0 -1.2 0
1.536 0.014 0.582 -0 -1.2 0
1.586 0.013 0.593 -0 -1.2 0
1.636 0.01 0.604 -0 -1.2 0
1.695 0.012 0.616 -0 -1.2 0
1.755 0.011 0.628 -0 -1.2 0
1.823 0.014 0.643 -0 -1.2 0
1.883 0.009 0.655 -0 -1.2 0
1.953 0.009 0.671 -0 -1.2 0
2.022 0.006 0.685 -0 -1.2 0
2.11 0.01 0.703 -0 -1.2 0
2.198 0.012 0.722 -0 -1.2 0
2.277 0.006 0.738 -0 -1.2 0
2.392 0.016 0.763 -0 -1.2 0
2.5 0.017 0.785 -0 -1.2 0
2.617 0.018 0.811 -0 -1.2 0
2.754 0.023 0.84 -0 -1.2 0
2.891 0.025 0.868 -0 -1.2 0
3.055 0.032 0.903 -0 -1.2 0
3.212 0.03 0.936 -0 -1.2 0
3.398 0.033 0.975 -0 -1.2 0
3.668 0.056 1.032 -0 -1.2 0
4.063 0.108 1.116 -0 -1.2 0
4.403 0.129 1.187 -0 -1.2 0
4.735 0.136 1.257 -0 -1.2 0
5.118 0.143 1.338 -0 -1.2 0
5.51 0.14 1.421 -0 -1.2 0
6.077 0.159 1.54 -0 -1.2 0
6.655 0.16 1.662 -0 -1.2 0
6.502 0.013 1.63 -0 -1.2 0
6.229 -0.146 1.574 -0 -1.2 0
6.225 -0.257 1.574 -0 -1.2 0
6.228 -0.367 1.575 -0 -1.2 0
6.212 -0.479 1.571 -0 -1.2 0
6.231 -0.587 1.576 -0 -1.2 0
6.238 -0.696 1.579 -0 -1.2 0
6.335 -0.911 1.601 -0 -1.2 0
27.081 -4.636 5.998 -0 -1.2 0
27.108 -8.139 6.022 -0 -1.2 0
1.176 0.03 0.469 -0 -1.2 0
1.209 0.025 0.475 -0 -1.2 0
1.249 0.027 0.482 -0 -1.2 0
1.275 0.014 0.487 -0 -1.2 0
1.323 0.02 0.495 -0 -1.2 0
1.357 0.012 0.5 -0 -1.2 0
1.406 0.017 0.51 -0 -1.2 0
1.455 0.019 0.518 -0 -1.2 0
1.497 0.015 0.525 -0 -1.2 0
1.539 0.008 0.532 -0 -1.2 0
1.598 0.013 0.543 -0 -1.2 0
1.648 0.01 0.552 -0 -1.2 0
1.7 0.006 0.56 -0 -1.2 0
1.759 0.005 0.571 -0 -1.2 0
1.828 0.008 0.583 -0 -1.2 0
1.897 0.009 0.595 -0 -1.2 0
1.967 0.009 0.607 -0 -1.2 0
2.037 0.005 0.619 -0 -1.2 0
2.125 0.01 0.634 -0 -1.2 0
2.205 0.007 0.648 -0 -1.2 0
2.294 0.006 0.663 -0 -1.2 0
2.418 0.02 0.685 -0 -1.2 0
2.518 0.017 0.702 -0 -1.2 0
2.636 0.018 0.723 -0 -1.2 0
2.764 0.02 0.746 -0 -1.2 0
2.902 0.021 0.769 -0 -1.2 0
3.069 0.028 0.798 -0 -1.2 0
3.227 0.027 0.826 -0 -1.2 0
3.404 0.026 0.857 -0 -1.2 0
3.742 0.071 0.915 -0 -1.2 0
4.12 0.115 0.981 -0 -1.2 0
4.416 0.123 1.032 -0 -1.2 0
4.76 0.133 1.092 -0 -1.2 0
5.144 0.14 1.158 -0 -1.2 0
5.568 0.143 1.232 -0 -1.2 0
6.12 0.158 1.328 -0 -1.2 0
6.711 0.161 1.431 -0 -1.2 0
6.392 -0.014 1.376 -0 -1.2 0
6.273 -0.146 1.356 -0 -1.2 0
6.22 -0.264 1.348 -0 -1.2 0
6.224 -0.374 1.349 -0 -1.2 0
6.216 -0.483 1.348 -0 -1.2 0
6.216 -0.592 1.349 -0 -1.2 0
6.253 -0.698 1.355 -0 -1.2 0
9.792 -1.153 1.974 -0 -1.2 0
1.175 0.022 0.435 -0 -1.2 0
1.208 0.018 0.44 -0 -1.2 0
1.248 0.02 0.446 -0 -1.2 0
1.289 0.02 0.451 -0 -1.2 0
1.33 0.02 0.456 -0 -1.2 0
1.364 0.012 0.462 -0 -1.2 0
1.413 0.017 0.469 -0 -1.2 0
1.455 0.013 0.474 -0 -1.2 0
1.505 0.015 0.481 -0 -1.2 0
1.547 0.008 0.488 -0 -1.2 0
1.598 0.007 0.494 -0 -1.2 0
1.657 0.01 0.502 -0 -1.2 0
1.708 0.005 0.509 -0 -1.2 0
1.785 0.017 0.521 -0 -1.2 0
1.837 0.008 0.528 -0 -1.2 0
1.898 0.004 0.536 -0 -1.2 0
1.968 0.004 0.546 -0 -1.2 0
2.047 0.005 0.557 -0 -1.2 0
2.127 0.006 0.568 -0 -1.2 0
2.216 0.007 0.58 -0 -1.2 0
2.305 0.006 0.593 -0 -1.2 0
