# .PCD v.7 - Point Cloud Data file format
FIELDS x y z vp_x vp_y vp_z
SIZE 4 4 4 4 4 4
TYPE F F F F F F
COUNT 1 1 1 1 1 1
WIDTH 1519
HEIGHT 1
VIEWPOINT 0 -1.20008 0 1 0 0 0
POINTS 1519
DATA ascii
-11.818 -17.53 21.972 -0 -1.2 0
-11.678 -17.966 21.718 -0 -1.2 0
-11.533 -18.396 21.457 -0 -1.2 0
-11.385 -18.821 21.19 -0 -1.2 0
-11.234 -19.241 20.916 -0 -1.2 0
-11.079 -19.655 20.636 -0 -1.2 0
-10.921 -20.063 20.349 -0 -1.2 0
-10.759 -20.466 20.056 -0 -1.2 0
-10.594 -20.863 19.757 -0 -1.2 0
-10.425 -21.254 19.451 -0 -1.2 0
-10.255 -21.638 19.14 -0 -1.2 0
-10.08 -22.016 18.823 -0 -1.2 0
-9.903 -22.389 18.5 -0 -1.2 0
-9.722 -22.755 18.172 -0 -1.2 0
-12.484 -11.452 25.085 -0 -1.2 0
-12.398 -11.941 24.921 -0 -1.2 0
-12.308 -12.428 24.75 -0 -1.2 0
-12.214 -12.911 24.57 -0 -1.2 0
-12.116 -13.39 24.384 -0 -1.2 0
-12.016 -13.866 24.191 -0 -1.2 0
-11.91 -14.338 23.99 -0 -1.2 0
-11.801 -14.806 23.78 -0 -1.2 0
-11.69 -15.269 23.564 -0 -1.2 0
-11.573 -15.729 23.341 -0 -1.2 0
-11.454 -16.183 23.111 -0 -1.2 0
-11.332 -16.634 22.873 -0 -1.2 0
-11.206 -17.079 22.629 -0 -1.2 0
-11.076 -17.519 22.377 -0 -1.2 0
-10.943 -17.955 22.119 -0 -1.2 0
-10.806 -18.385 21.854 -0 -1.2 0
-10.667 -18.811 21.582 -0 -1.2 0
-10.524 -19.23 21.303 -0 -1.2 0
-10.378 -19.645 21.019 -0 -1.2 0
-10.229 -20.053 20.727 -0 -1.2 0
-10.077 -20.456 20.43 -0 -1.2 0
-9.921 -20.853 20.126 -0 -1.2 0
-9.763 -21.244 19.815 -0 -1.2 0
-9.602 -21.628 19.499 -0 -1.2 0
-9.437 -22.007 19.177 -0 -1.2 0
-9.271 -22.379 18.848 -0 -1.2 0
-9.1 -22.745 18.514 -0 -1.2 0
-11.581 -11.437 25.534 -0 -1.2 0
-11.5 -11.926 25.368 -0 -1.2 0
-11.415 -12.413 25.195 -0 -1.2 0
-11.327 -12.896 25.013 -0 -1.2 0
-11.236 -13.375 24.823 -0 -1.2 0
-11.141 -13.852 24.626 -0 -1.2 0
-11.043 -14.323 24.421 -0 -1.2 0
-10.941 -14.792 24.209 -0 -1.2 0
-10.836 -15.255 23.991 -0 -1.2 0
-10.728 -15.715 23.764 -0 -1.2 0
-10.616 -16.169 23.53 -0 -1.2 0
-10.501 -16.62 23.288 -0 -1.2 0
-10.384 -17.066 23.041 -0 -1.2 0
-10.263 -17.506 22.785 -0 -1.2 0
-10.138 -17.942 22.522 -0 -1.2 0
-10.011 -18.372 22.253 -0 -1.2 0
-9.88 -18.798 21.977 -0 -1.2 0
-9.747 -19.218 21.694 -0 -1.2 0
-9.611 -19.632 21.405 -0 -1.2 0
-9.472 -20.04 21.109 -0 -1.2 0
-9.329 -20.444 20.806 -0 -1.2 0
-9.185 -20.841 20.498 -0 -1.2 0
-9.038 -21.232 20.182 -0 -1.2 0
-8.886 -21.617 19.861 -0 -1.2 0
-8.733 -21.995 19.533 -0 -1.2 0
-8.577 -22.368 19.199 -0 -1.2 0
-8.419 -22.734 18.861 -0 -1.2 0
-10.656 -11.911 25.755 -0 -1.2 0
-10.576 -12.398 25.579 -0 -1.2 0
-10.494 -12.881 25.396 -0 -1.2 0
-10.408 -13.36 25.204 -0 -1.2 0
-10.32 -13.837 25.004 -0 -1.2 0
-10.228 -14.309 24.797 -0 -1.2 0
-10.133 -14.777 24.582 -0 -1.2 0
-10.034 -15.24 24.36 -0 -1.2 0
-9.933 -15.7 24.13 -0 -1.2 0
-9.829 -16.155 23.893 -0 -1.2 0
-9.722 -16.606 23.649 -0 -1.2 0
-9.612 -17.052 23.397 -0 -1.2 0
-9.498 -17.492 23.138 -0 -1.2 0
-9.383 -17.928 22.872 -0 -1.2 0
-9.264 -18.359 22.6 -0 -1.2 0
-9.142 -18.785 22.32 -0 -1.2 0
-9.018 -19.205 22.033 -0 -1.2 0
-8.891 -19.619 21.74 -0 -1.2 0
-8.761 -20.028 21.44 -0 -1.2 0
-8.629 -20.431 21.133 -0 -1.2 0
-8.493 -20.829 20.82 -0 -1.2 0
-8.355 -21.22 20.5 -0 -1.2 0
-8.216 -21.605 20.175 -0 -1.2 0
-8.072 -21.984 19.842 -0 -1.2 0
-7.927 -22.356 19.505 -0 -1.2 0
-7.78 -22.723 19.16 -0 -1.2 0
-9.8 -11.895 26.113 -0 -1.2 0
-9.727 -12.382 25.935 -0 -1.2 0
-9.65 -12.865 25.749 -0 -1.2 0
-9.488 -13.821 25.354 -0 -1.2 0
-9.402 -14.293 25.144 -0 -1.2 0
-9.222 -15.225 24.701 -0 -1.2 0
-9.128 -15.685 24.469 -0 -1.2 0
-8.829 -17.037 23.727 -0 -1.2 0
-8.725 -17.477 23.465 -0 -1.2 0
-8.618 -17.914 23.196 -0 -1.2 0
-8.507 -18.344 22.92 -0 -1.2 0
-8.394 -18.77 22.637 -0 -1.2 0
-8.279 -19.19 22.346 -0 -1.2 0
-8.161 -19.605 22.049 -0 -1.2 0
-8.041 -20.014 21.746 -0 -1.2 0
-7.918 -20.418 21.435 -0 -1.2 0
-7.792 -20.815 21.118 -0 -1.2 0
-7.665 -21.207 20.795 -0 -1.2 0
-7.535 -21.592 20.466 -0 -1.2 0
-7.403 -21.971 20.129 -0 -1.2 0
-7.268 -22.344 19.787 -0 -1.2 0
-7.131 -22.711 19.439 -0 -1.2 0
-8.8 -12.363 26.289 -0 -1.2 0
-8.729 -12.846 26.1 -0 -1.2 0
-8.656 -13.326 25.904 -0 -1.2 0
-8.58 -13.803 25.7 -0 -1.2 0
-8.501 -14.274 25.488 -0 -1.2 0
-8.337 -15.207 25.041 -0 -1.2 0
-8.25 -15.667 24.806 -0 -1.2 0
-8.161 -16.122 24.564 -0 -1.2 0
-7.977 -17.019 24.056 -0 -1.2 0
-7.782 -17.897 23.518 -0 -1.2 0
-7.681 -18.327 23.238 -0 -1.2 0
-7.578 -18.754 22.951 -0 -1.2 0
-7.473 -19.174 22.659 -0 -1.2 0
-7.365 -19.589 22.358 -0 -1.2 0
-7.254 -19.998 22.051 -0 -1.2 0
-7.143 -20.402 21.736 -0 -1.2 0
-7.028 -20.8 21.416 -0 -1.2 0
-6.912 -21.191 21.088 -0 -1.2 0
-6.794 -21.577 20.755 -0 -1.2 0
-6.672 -21.956 20.415 -0 -1.2 0
-6.549 -22.329 20.068 -0 -1.2 0
-6.425 -22.696 19.716 -0 -1.2 0
-7.929 -12.344 26.589 -0 -1.2 0
-7.864 -12.827 26.4 -0 -1.2 0
-7.344 -16.104 24.847 -0 -1.2 0
-7.261 -16.556 24.595 -0 -1.2 0
-6.906 -18.31 23.51 -0 -1.2 0
-6.812 -18.737 23.221 -0 -1.2 0
-6.715 -19.157 22.924 -0 -1.2 0
-6.617 -19.573 22.621 -0 -1.2 0
-6.517 -19.982 22.311 -0 -1.2 0
-6.414 -20.386 21.994 -0 -1.2 0
-6.31 -20.784 21.669 -0 -1.2 0
-6.203 -21.176 21.339 -0 -1.2 0
-6.096 -21.561 21.003 -0 -1.2 0
-5.986 -21.941 20.659 -0 -1.2 0
-5.875 -22.315 20.309 -0 -1.2 0
-5.76 -22.682 19.953 -0 -1.2 0
-7.336 -9.837 27.694 -0 -1.2 0
-7.287 -10.336 27.544 -0 -1.2 0
-7.236 -10.833 27.386 -0 -1.2 0
-7.184 -11.327 27.219 -0 -1.2 0
-7.129 -11.817 27.045 -0 -1.2 0
-6.882 -12.57 26.173 -0 -1.2 0
-6.819 -13.037 25.968 -0 -1.2 0
-6.723 -13.442 25.634 -0 -1.2 0
-6.615 -13.819 25.258 -0 -1.2 0
-6.754 -14.687 25.827 -0 -1.2 0
-6.685 -15.151 25.595 -0 -1.2 0
-6.613 -15.612 25.356 -0 -1.2 0
-6.54 -16.068 25.109 -0 -1.2 0
-6.464 -16.519 24.855 -0 -1.2 0
-6.306 -17.407 24.324 -0 -1.2 0
-6.224 -17.845 24.047 -0 -1.2 0
-6.142 -18.276 23.763 -0 -1.2 0
-6.056 -18.703 23.472 -0 -1.2 0
-5.969 -19.124 23.173 -0 -1.2 0
-5.879 -19.539 22.867 -0 -1.2 0
-5.789 -19.949 22.554 -0 -1.2 0
-5.696 -20.354 22.235 -0 -1.2 0
-5.602 -20.752 21.909 -0 -1.2 0
-5.506 -21.144 21.575 -0 -1.2 0
-5.408 -21.53 21.235 -0 -1.2 0
-5.309 -21.911 20.89 -0 -1.2 0
-5.208 -22.285 20.538 -0 -1.2 0
-5.105 -22.652 20.178 -0 -1.2 0
-6.469 -8.784 28.235 -0 -1.2 0
-6.429 -9.289 28.101 -0 -1.2 0
-6.387 -9.792 27.96 -0 -1.2 0
-6.344 -10.292 27.81 -0 -1.2 0
-6.298 -10.788 27.651 -0 -1.2 0
-6.25 -11.283 27.484 -0 -1.2 0
-6.15 -12.261 27.125 -0 -1.2 0
-6.097 -12.745 26.933 -0 -1.2 0
-5.803 -15.109 25.851 -0 -1.2 0
-5.739 -15.571 25.611 -0 -1.2 0
-5.673 -16.027 25.362 -0 -1.2 0
-5.606 -16.479 25.106 -0 -1.2 0
-5.537 -16.926 24.842 -0 -1.2 0
-5.307 -16.896 23.858 -0 -1.2 0
-5.393 -17.805 24.293 -0 -1.2 0
-5.319 -18.237 24.007 -0 -1.2 0
-5.243 -18.664 23.713 -0 -1.2 0
-5.166 -19.086 23.413 -0 -1.2 0
-5.086 -19.502 23.105 -0 -1.2 0
-5.005 -19.912 22.79 -0 -1.2 0
-4.924 -20.317 22.469 -0 -1.2 0
-4.84 -20.716 22.139 -0 -1.2 0
-4.755 -21.109 21.804 -0 -1.2 0
-4.669 -21.496 21.462 -0 -1.2 0
-4.581 -21.876 21.114 -0 -1.2 0
-4.491 -22.251 20.759 -0 -1.2 0
-4.4 -22.619 20.397 -0 -1.2 0
-5.609 -8.233 28.58 -0 -1.2 0
-5.461 -10.248 28.029 -0 -1.2 0
-5.42 -10.745 27.87 -0 -1.2 0
-5.377 -11.24 27.702 -0 -1.2 0
-5.24 -12.703 27.148 -0 -1.2 0
-5.19 -13.183 26.948 -0 -1.2 0
-5.14 -13.661 26.738 -0 -1.2 0
-5.087 -14.134 26.521 -0 -1.2 0
-5.034 -14.604 26.295 -0 -1.2 0
-4.978 -15.069 26.062 -0 -1.2 0
-4.921 -15.531 25.82 -0 -1.2 0
-4.863 -15.987 25.571 -0 -1.2 0
-4.679 -17.329 24.776 -0 -1.2 0
-4.615 -17.767 24.496 -0 -1.2 0
-4.549 -18.199 24.209 -0 -1.2 0
-4.482 -18.627 23.914 -0 -1.2 0
-4.414 -19.049 23.612 -0 -1.2 0
-4.344 -19.466 23.303 -0 -1.2 0
-4.273 -19.876 22.986 -0 -1.2 0
-4.201 -20.282 22.662 -0 -1.2 0
-4.127 -20.681 22.333 -0 -1.2 0
-4.052 -21.075 21.995 -0 -1.2 0
-3.976 -21.462 21.651 -0 -1.2 0
-3.899 -21.843 21.301 -0 -1.2 0
-3.821 -22.218 20.944 -0 -1.2 0
-3.741 -22.587 20.581 -0 -1.2 0
-4.705 -8.187 28.772 -0 -1.2 0
-4.674 -8.695 28.647 -0 -1.2 0
-4.609 -9.703 28.371 -0 -1.2 0
-4.574 -10.203 28.221 -0 -1.2 0
-4.5 -11.195 27.892 -0 -1.2 0
-4.42 -12.175 27.531 -0 -1.2 0
-4.335 -13.14 27.136 -0 -1.2 0
-4.291 -13.618 26.926 -0 -1.2 0
-4.149 -15.027 26.247 -0 -1.2 0
-4.099 -15.489 26.005 -0 -1.2 0
-4.049 -15.946 25.755 -0 -1.2 0
-3.996 -16.399 25.496 -0 -1.2 0
-3.833 -17.728 24.676 -0 -1.2 0
-3.776 -18.16 24.388 -0 -1.2 0
-3.717 -18.589 24.091 -0 -1.2 0
-3.658 -19.011 23.788 -0 -1.2 0
-3.598 -19.428 23.477 -0 -1.2 0
-3.536 -19.839 23.16 -0 -1.2 0
-3.475 -20.246 22.834 -0 -1.2 0
-3.411 -20.646 22.503 -0 -1.2 0
-3.347 -21.039 22.165 -0 -1.2 0
-3.28 -21.427 21.818 -0 -1.2 0
-3.214 -21.809 21.466 -0 -1.2 0
-3.147 -22.185 21.108 -0 -1.2 0
-3.078 -22.554 20.743 -0 -1.2 0
-3.637 -8.135 28.958 -0 -1.2 0
-3.61 -8.642 28.834 -0 -1.2 0
-3.554 -9.651 28.557 -0 -1.2 0
-3.524 -10.152 28.407 -0 -1.2 0
-3.493 -10.649 28.247 -0 -1.2 0
-3.462 -11.144 28.078 -0 -1.2 0
-3.395 -12.124 27.716 -0 -1.2 0
-3.181 -13.169 26.243 -0 -1.2 0
-3.127 -15.441 26.185 -0 -1.2 0
-3.042 -16.352 25.676 -0 -1.2 0
-2.954 -17.244 25.134 -0 -1.2 0
-2.908 -17.683 24.852 -0 -1.2 0
-2.862 -18.116 24.563 -0 -1.2 0
-2.813 -18.545 24.265 -0 -1.2 0
-2.765 -18.967 23.961 -0 -1.2 0
-2.716 -19.385 23.649 -0 -1.2 0
-2.666 -19.797 23.33 -0 -1.2 0
-2.615 -20.204 23.004 -0 -1.2 0
-2.564 -20.604 22.67 -0 -1.2 0
-2.511 -20.999 22.33 -0 -1.2 0
-2.458 -21.387 21.983 -0 -1.2 0
-2.404 -21.77 21.63 -0 -1.2 0
-2.35 -22.146 21.27 -0 -1.2 0
-2.294 -22.516 20.903 -0 -1.2 0
-2.618 -8.592 28.971 -0 -1.2 0
-2.57 -9.602 28.696 -0 -1.2 0
-2.545 -10.102 28.545 -0 -1.2 0
-2.52 -10.6 28.385 -0 -1.2 0
-2.493 -11.095 28.216 -0 -1.2 0
-2.466 -11.587 28.039 -0 -1.2 0
-2.437 -12.076 27.854 -0 -1.2 0
-2.409 -12.561 27.66 -0 -1.2 0
-2.379 -13.043 27.457 -0 -1.2 0
-2.318 -13.996 27.027 -0 -1.2 0
-2.287 -14.467 26.8 -0 -1.2 0
-2.254 -14.933 26.564 -0 -1.2 0
-2.187 -15.854 26.069 -0 -1.2 0
-2.117 -16.756 25.543 -0 -1.2 0
-2.082 -17.2 25.267 -0 -1.2 0
-2.045 -17.639 24.984 -0 -1.2 0
-2.009 -18.073 24.695 -0 -1.2 0
-1.971 -18.502 24.396 -0 -1.2 0
-1.933 -18.926 24.091 -0 -1.2 0
-1.893 -19.344 23.779 -0 -1.2 0
-1.854 -19.756 23.458 -0 -1.2 0
-1.814 -20.163 23.132 -0 -1.2 0
-1.774 -20.565 22.797 -0 -1.2 0
-1.733 -20.96 22.457 -0 -1.2 0
-1.691 -21.349 22.109 -0 -1.2 0
-1.648 -21.732 21.754 -0 -1.2 0
-1.606 -22.109 21.393 -0 -1.2 0
-1.563 -22.48 21.026 -0 -1.2 0
-1.622 -8.541 29.077 -0 -1.2 0
-1.603 -9.047 28.943 -0 -1.2 0
-1.583 -9.551 28.801 -0 -1.2 0
-1.563 -10.051 28.65 -0 -1.2 0
-1.543 -10.549 28.491 -0 -1.2 0
-1.522 -11.045 28.322 -0 -1.2 0
-1.5 -11.537 28.145 -0 -1.2 0
-1.478 -12.027 27.959 -0 -1.2 0
-1.455 -12.512 27.766 -0 -1.2 0
-1.432 -12.994 27.563 -0 -1.2 0
-1.409 -13.473 27.352 -0 -1.2 0
-1.385 -13.948 27.133 -0 -1.2 0
-1.361 -14.419 26.906 -0 -1.2 0
-1.311 -15.349 26.426 -0 -1.2 0
-1.26 -16.261 25.914 -0 -1.2 0
-1.233 -16.711 25.647 -0 -1.2 0
-1.207 -17.155 25.372 -0 -1.2 0
-1.179 -17.595 25.089 -0 -1.2 0
-1.152 -18.029 24.798 -0 -1.2 0
-1.125 -18.459 24.5 -0 -1.2 0
-1.097 -18.883 24.194 -0 -1.2 0
-1.068 -19.302 23.881 -0 -1.2 0
-1.039 -19.714 23.561 -0 -1.2 0
-1.011 -20.122 23.234 -0 -1.2 0
-0.98 -20.524 22.899 -0 -1.2 0
-0.951 -20.92 22.558 -0 -1.2 0
-0.921 -21.309 22.21 -0 -1.2 0
-0.89 -21.693 21.855 -0 -1.2 0
-0.861 -22.07 21.493 -0 -1.2 0
-0.829 -22.442 21.125 -0 -1.2 0
-0.521 -9.531 28.865 -0 -1.2 0
-0.506 -10.032 28.713 -0 -1.2 0
-0.491 -10.53 28.554 -0 -1.2 0
-0.476 -11.026 28.385 -0 -1.2 0
-0.461 -11.518 28.207 -0 -1.2 0
-0.446 -12.007 28.022 -0 -1.2 0
-0.431 -12.493 27.827 -0 -1.2 0
-0.415 -12.975 27.624 -0 -1.2 0
-0.4 -13.455 27.413 -0 -1.2 0
-0.384 -13.929 27.194 -0 -1.2 0
-0.368 -14.401 26.965 -0 -1.2 0
-0.353 -14.867 26.73 -0 -1.2 0
-0.337 -15.331 26.486 -0 -1.2 0
-0.32 -15.789 26.233 -0 -1.2 0
-0.303 -16.244 25.974 -0 -1.2 0
-0.288 -16.693 25.705 -0 -1.2 0
-0.271 -17.137 25.429 -0 -1.2 0
-0.254 -17.578 25.146 -0 -1.2 0
-0.237 -18.012 24.855 -0 -1.2 0
-0.221 -18.442 24.556 -0 -1.2 0
-0.205 -18.866 24.25 -0 -1.2 0
-0.187 -19.285 23.936 -0 -1.2 0
-0.17 -19.698 23.616 -0 -1.2 0
-0.153 -20.107 23.288 -0 -1.2 0
-0.136 -20.508 22.953 -0 -1.2 0
-0.119 -20.904 22.611 -0 -1.2 0
-0.103 -21.294 22.261 -0 -1.2 0
-0.085 -21.678 21.906 -0 -1.2 0
-0.068 -22.056 21.544 -0 -1.2 0
-0.05 -22.428 21.175 -0 -1.2 0
0.454 -10.517 28.575 -0 -1.2 0
0.463 -11.013 28.407 -0 -1.2 0
0.472 -11.505 28.229 -0 -1.2 0
0.481 -11.995 28.043 -0 -1.2 0
0.49 -12.481 27.848 -0 -1.2 0
0.499 -12.963 27.646 -0 -1.2 0
0.507 -13.443 27.434 -0 -1.2 0
0.515 -13.917 27.215 -0 -1.2 0
0.523 -14.389 26.986 -0 -1.2 0
0.531 -14.856 26.75 -0 -1.2 0
0.539 -15.319 26.506 -0 -1.2 0
0.547 -15.778 26.253 -0 -1.2 0
0.555 -16.232 25.993 -0 -1.2 0
0.562 -16.682 25.725 -0 -1.2 0
0.57 -17.126 25.449 -0 -1.2 0
0.577 -17.567 25.166 -0 -1.2 0
0.583 -18.001 24.874 -0 -1.2 0
0.591 -18.431 24.575 -0 -1.2 0
0.597 -18.856 24.268 -0 -1.2 0
0.604 -19.275 23.955 -0 -1.2 0
0.609 -19.688 23.634 -0 -1.2 0
0.615 -20.096 23.306 -0 -1.2 0
0.622 -20.498 22.97 -0 -1.2 0
0.627 -20.895 22.628 -0 -1.2 0
0.633 -21.285 22.279 -0 -1.2 0
0.638 -21.669 21.923 -0 -1.2 0
0.643 -22.047 21.561 -0 -1.2 0
0.648 -22.419 21.192 -0 -1.2 0
1.414 -12.951 27.636 -0 -1.2 0
1.416 -13.431 27.424 -0 -1.2 0
1.417 -13.906 27.204 -0 -1.2 0
1.418 -14.378 26.976 -0 -1.2 0
1.417 -14.844 26.74 -0 -1.2 0
1.417 -15.308 26.496 -0 -1.2 0
1.417 -15.767 26.243 -0 -1.2 0
1.416 -16.221 25.984 -0 -1.2 0
1.414 -16.671 25.715 -0 -1.2 0
1.412 -17.115 25.44 -0 -1.2 0
1.409 -17.556 25.156 -0 -1.2 0
1.406 -17.991 24.865 -0 -1.2 0
1.403 -18.421 24.566 -0 -1.2 0
1.4 -18.845 24.26 -0 -1.2 0
1.396 -19.265 23.946 -0 -1.2 0
1.391 -19.678 23.625 -0 -1.2 0
1.386 -20.086 23.297 -0 -1.2 0
1.381 -20.489 22.962 -0 -1.2 0
1.375 -20.885 22.62 -0 -1.2 0
1.369 -21.275 22.271 -0 -1.2 0
1.363 -21.659 21.916 -0 -1.2 0
1.355 -22.037 21.553 -0 -1.2 0
1.348 -22.41 21.184 -0 -1.2 0
2.34 -1.231 30.039 -0 -1.2 0
2.351 -1.754 30.032 -0 -1.2 0
2.361 -2.277 30.015 -0 -1.2 0
2.37 -2.801 29.989 -0 -1.2 0
2.378 -3.322 29.954 -0 -1.2 0
2.398 -4.885 29.794 -0 -1.2 0
2.404 -5.404 29.723 -0 -1.2 0
2.37 -14.832 26.697 -0 -1.2 0
2.36 -15.296 26.454 -0 -1.2 0
2.35 -15.755 26.202 -0 -1.2 0
2.34 -16.21 25.941 -0 -1.2 0
2.329 -16.66 25.673 -0 -1.2 0
2.317 -17.104 25.399 -0 -1.2 0
2.304 -17.545 25.115 -0 -1.2 0
2.291 -17.98 24.825 -0 -1.2 0
2.277 -18.41 24.526 -0 -1.2 0
2.262 -18.835 24.22 -0 -1.2 0
2.247 -19.254 23.908 -0 -1.2 0
2.231 -19.668 23.587 -0 -1.2 0
2.214 -20.076 23.26 -0 -1.2 0
2.197 -20.479 22.926 -0 -1.2 0
2.179 -20.875 22.584 -0 -1.2 0
2.16 -21.265 22.236 -0 -1.2 0
2.141 -21.65 21.881 -0 -1.2 0
2.121 -22.028 21.518 -0 -1.2 0
2.101 -22.4 21.151 -0 -1.2 0
3.222 -15.286 26.384 -0 -1.2 0
3.204 -15.745 26.134 -0 -1.2 0
3.186 -16.2 25.875 -0 -1.2 0
3.166 -16.65 25.607 -0 -1.2 0
3.145 -17.094 25.332 -0 -1.2 0
3.123 -17.535 25.05 -0 -1.2 0
3.1 -17.97 24.76 -0 -1.2 0
3.076 -18.401 24.463 -0 -1.2 0
3.051 -18.825 24.158 -0 -1.2 0
3.026 -19.245 23.846 -0 -1.2 0
3 -19.659 23.526 -0 -1.2 0
2.971 -20.067 23.2 -0 -1.2 0
2.944 -20.47 22.866 -0 -1.2 0
2.914 -20.866 22.526 -0 -1.2 0
2.885 -21.257 22.179 -0 -1.2 0
2.853 -21.641 21.824 -0 -1.2 0
2.822 -22.02 21.464 -0 -1.2 0
2.788 -22.392 21.097 -0 -1.2 0
4.278 -0.686 29.856 -0 -1.2 0
4.29 -1.208 29.858 -0 -1.2 0
4.308 -2.254 29.832 -0 -1.2 0
4.046 -15.735 26.038 -0 -1.2 0
4.019 -16.19 25.779 -0 -1.2 0
3.99 -16.64 25.513 -0 -1.2 0
3.96 -17.085 25.24 -0 -1.2 0
3.929 -17.526 24.959 -0 -1.2 0
3.897 -17.961 24.67 -0 -1.2 0
3.863 -18.392 24.373 -0 -1.2 0
3.829 -18.816 24.07 -0 -1.2 0
3.793 -19.236 23.758 -0 -1.2 0
3.756 -19.65 23.44 -0 -1.2 0
3.718 -20.059 23.115 -0 -1.2 0
3.679 -20.461 22.782 -0 -1.2 0
3.638 -20.858 22.443 -0 -1.2 0
3.597 -21.249 22.097 -0 -1.2 0
3.555 -21.633 21.745 -0 -1.2 0
3.512 -22.012 21.385 -0 -1.2 0
3.466 -22.384 21.019 -0 -1.2 0
5.017 -14.802 26.395 -0 -1.2 0
4.948 -15.725 25.905 -0 -1.2 0
4.912 -16.18 25.648 -0 -1.2 0
4.874 -16.631 25.383 -0 -1.2 0
4.834 -17.076 25.111 -0 -1.2 0
4.794 -17.516 24.831 -0 -1.2 0
4.751 -17.951 24.543 -0 -1.2 0
4.707 -18.382 24.249 -0 -1.2 0
4.662 -18.807 23.947 -0 -1.2 0
4.616 -19.227 23.637 -0 -1.2 0
4.568 -19.641 23.321 -0 -1.2 0
4.518 -20.05 22.997 -0 -1.2 0
4.467 -20.453 22.666 -0 -1.2 0
4.415 -20.849 22.329 -0 -1.2 0
4.362 -21.24 21.984 -0 -1.2 0
4.307 -21.625 21.634 -0 -1.2 0
4.25 -22.004 21.276 -0 -1.2 0
4.193 -22.376 20.913 -0 -1.2 0
5.928 -14.311 26.476 -0 -1.2 0
5.89 -14.778 26.245 -0 -1.2 0
5.848 -15.242 26.005 -0 -1.2 0
5.805 -15.702 25.758 -0 -1.2 0
5.761 -16.157 25.502 -0 -1.2 0
5.714 -16.607 25.239 -0 -1.2 0
5.666 -17.052 24.969 -0 -1.2 0
5.616 -17.494 24.691 -0 -1.2 0
5.564 -17.929 24.405 -0 -1.2 0
5.512 -18.36 24.113 -0 -1.2 0
5.456 -18.785 23.812 -0 -1.2 0
5.4 -19.205 23.505 -0 -1.2 0
5.342 -19.619 23.19 -0 -1.2 0
5.282 -20.029 22.869 -0 -1.2 0
5.22 -20.432 22.54 -0 -1.2 0
5.158 -20.829 22.205 -0 -1.2 0
5.093 -21.22 21.862 -0 -1.2 0
5.027 -21.605 21.514 -0 -1.2 0
4.959 -21.984 21.159 -0 -1.2 0
4.89 -22.357 20.798 -0 -1.2 0
6.857 -14.277 26.285 -0 -1.2 0
6.811 -14.745 26.055 -0 -1.2 0
6.761 -15.21 25.818 -0 -1.2 0
6.71 -15.669 25.573 -0 -1.2 0
6.657 -16.125 25.32 -0 -1.2 0
6.602 -16.575 25.059 -0 -1.2 0
6.545 -17.021 24.791 -0 -1.2 0
6.486 -17.462 24.515 -0 -1.2 0
6.424 -17.898 24.232 -0 -1.2 0
6.362 -18.33 23.941 -0 -1.2 0
6.297 -18.755 23.643 -0 -1.2 0
6.231 -19.176 23.339 -0 -1.2 0
6.161 -19.59 23.027 -0 -1.2 0
6.091 -20 22.708 -0 -1.2 0
6.018 -20.403 22.382 -0 -1.2 0
5.945 -20.801 22.05 -0 -1.2 0
5.868 -21.192 21.71 -0 -1.2 0
5.791 -21.578 21.365 -0 -1.2 0
5.71 -21.957 21.013 -0 -1.2 0
5.629 -22.331 20.655 -0 -1.2 0
7.814 -14.708 25.81 -0 -1.2 0
7.756 -15.173 25.576 -0 -1.2 0
7.696 -15.633 25.333 -0 -1.2 0
7.634 -16.088 25.082 -0 -1.2 0
7.57 -16.539 24.824 -0 -1.2 0
7.502 -16.985 24.559 -0 -1.2 0
7.434 -17.427 24.286 -0 -1.2 0
7.362 -17.863 24.006 -0 -1.2 0
7.288 -18.295 23.719 -0 -1.2 0
7.212 -18.721 23.424 -0 -1.2 0
7.135 -19.142 23.123 -0 -1.2 0
7.054 -19.557 22.814 -0 -1.2 0
6.972 -19.967 22.498 -0 -1.2 0
6.887 -20.371 22.177 -0 -1.2 0
6.801 -20.769 21.848 -0 -1.2 0
6.712 -21.161 21.512 -0 -1.2 0
6.622 -21.547 21.171 -0 -1.2 0
6.529 -21.927 20.822 -0 -1.2 0
6.435 -22.301 20.468 -0 -1.2 0
8.457 -16.505 24.574 -0 -1.2 0
8.381 -16.951 24.311 -0 -1.2 0
8.303 -17.394 24.042 -0 -1.2 0
8.222 -17.83 23.764 -0 -1.2 0
8.139 -18.262 23.481 -0 -1.2 0
8.053 -18.689 23.189 -0 -1.2 0
7.965 -19.11 22.892 -0 -1.2 0
7.874 -19.525 22.586 -0 -1.2 0
7.78 -19.936 22.275 -0 -1.2 0
7.686 -20.34 21.956 -0 -1.2 0
7.588 -20.739 21.631 -0 -1.2 0
7.487 -21.131 21.299 -0 -1.2 0
7.385 -21.517 20.96 -0 -1.2 0
7.28 -21.898 20.616 -0 -1.2 0
7.173 -22.272 20.266 -0 -1.2 0
9.073 -17.796 23.494 -0 -1.2 0
8.98 -18.228 23.213 -0 -1.2 0
8.884 -18.655 22.926 -0 -1.2 0
8.786 -19.077 22.632 -0 -1.2 0
8.685 -19.493 22.331 -0 -1.2 0
8.581 -19.903 22.023 -0 -1.2 0
8.475 -20.308 21.709 -0 -1.2 0
8.366 -20.707 21.387 -0 -1.2 0
8.255 -21.1 21.06 -0 -1.2 0
8.141 -21.487 20.726 -0 -1.2 0
8.024 -21.868 20.386 -0 -1.2 0
7.905 -22.243 20.039 -0 -1.2 0
9.598 -19.455 22.001 -0 -1.2 0
9.484 -19.866 21.698 -0 -1.2 0
9.364 -20.272 21.389 -0 -1.2 0
9.243 -20.671 21.073 -0 -1.2 0
9.119 -21.065 20.751 -0 -1.2 0
8.992 -21.452 20.423 -0 -1.2 0
8.862 -21.834 20.088 -0 -1.2 0
8.73 -22.209 19.747 -0 -1.2 0
10.311 -19.831 21.364 -0 -1.2 0
10.181 -20.237 21.06 -0 -1.2 0
10.048 -20.637 20.749 -0 -1.2 0
9.912 -21.031 20.432 -0 -1.2 0
9.773 -21.419 20.109 -0 -1.2 0
9.631 -21.801 19.78 -0 -1.2 0
9.486 -22.177 19.446 -0 -1.2 0
11.374 -18.975 21.579 -0 -1.2 0
11.241 -19.392 21.294 -0 -1.2 0
11.102 -19.804 21.001 -0 -1.2 0
10.961 -20.21 20.702 -0 -1.2 0
10.817 -20.611 20.397 -0 -1.2 0
10.67 -21.005 20.087 -0 -1.2 0
10.519 -21.393 19.769 -0 -1.2 0
10.365 -21.776 19.446 -0 -1.2 0
10.207 -22.152 19.118 -0 -1.2 0
12.344 -18.533 21.425 -0 -1.2 0
12.203 -18.956 21.151 -0 -1.2 0
12.058 -19.374 20.872 -0 -1.2 0
11.908 -19.786 20.585 -0 -1.2 0
11.755 -20.193 20.293 -0 -1.2 0
11.599 -20.593 19.994 -0 -1.2 0
11.439 -20.988 19.69 -0 -1.2 0
11.276 -21.377 19.379 -0 -1.2 0
11.109 -21.759 19.063 -0 -1.2 0
10.939 -22.136 18.741 -0 -1.2 0
13.091 -18.517 21.003 -0 -1.2 0
12.939 -18.941 20.735 -0 -1.2 0
12.784 -19.358 20.46 -0 -1.2 0
12.624 -19.771 20.18 -0 -1.2 0
12.461 -20.178 19.894 -0 -1.2 0
12.294 -20.579 19.602 -0 -1.2 0
12.123 -20.973 19.302 -0 -1.2 0
11.948 -21.362 18.998 -0 -1.2 0
11.771 -21.745 18.69 -0 -1.2 0
11.589 -22.122 18.374 -0 -1.2 0
13.978 -18.074 20.81 -0 -1.2 0
13.821 -18.502 20.554 -0 -1.2 0
13.66 -18.926 20.292 -0 -1.2 0
13.494 -19.344 20.024 -0 -1.2 0
13.325 -19.757 19.75 -0 -1.2 0
13.151 -20.164 19.47 -0 -1.2 0
12.974 -20.565 19.184 -0 -1.2 0
12.792 -20.96 18.893 -0 -1.2 0
12.607 -21.349 18.595 -0 -1.2 0
12.417 -21.732 18.292 -0 -1.2 0
12.224 -22.109 17.985 -0 -1.2 0
14.754 -18.058 20.291 -0 -1.2 0
14.587 -18.487 20.042 -0 -1.2 0
14.416 -18.911 19.786 -0 -1.2 0
14.24 -19.329 19.525 -0 -1.2 0
14.061 -19.742 19.258 -0 -1.2 0
13.876 -20.149 18.986 -0 -1.2 0
13.687 -20.551 18.707 -0 -1.2 0
13.495 -20.946 18.423 -0 -1.2 0
13.298 -21.335 18.134 -0 -1.2 0
13.097 -21.719 17.838 -0 -1.2 0
12.892 -22.096 17.538 -0 -1.2 0
15.637 -17.61 20.011 -0 -1.2 0
15.466 -18.045 19.775 -0 -1.2 0
15.29 -18.474 19.532 -0 -1.2 0
15.109 -18.898 19.283 -0 -1.2 0
14.923 -19.316 19.03 -0 -1.2 0
14.733 -19.73 18.769 -0 -1.2 0
14.539 -20.137 18.504 -0 -1.2 0
14.341 -20.538 18.233 -0 -1.2 0
14.138 -20.934 17.956 -0 -1.2 0
13.931 -21.323 17.675 -0 -1.2 0
13.72 -21.707 17.388 -0 -1.2 0
13.504 -22.085 17.096 -0 -1.2 0
16.351 -17.597 19.452 -0 -1.2 0
16.17 -18.032 19.222 -0 -1.2 0
15.986 -18.462 18.986 -0 -1.2 0
15.795 -18.886 18.746 -0 -1.2 0
15.602 -19.304 18.498 -0 -1.2 0
15.401 -19.718 18.246 -0 -1.2 0
15.198 -20.125 17.988 -0 -1.2 0
14.99 -20.527 17.725 -0 -1.2 0
14.776 -20.922 17.456 -0 -1.2 0
14.558 -21.312 17.183 -0 -1.2 0
14.337 -21.696 16.904 -0 -1.2 0
14.111 -22.074 16.621 -0 -1.2 0
17.204 -17.167 19.084 -0 -1.2 0
17.02 -17.606 18.867 -0 -1.2 0
16.831 -18.041 18.645 -0 -1.2 0
16.637 -18.471 18.416 -0 -1.2 0
16.437 -18.895 18.184 -0 -1.2 0
16.233 -19.313 17.944 -0 -1.2 0
16.024 -19.726 17.7 -0 -1.2 0
15.81 -20.134 17.451 -0 -1.2 0
15.59 -20.535 17.196 -0 -1.2 0
15.367 -20.931 16.936 -0 -1.2 0
15.139 -21.321 16.671 -0 -1.2 0
14.906 -21.704 16.401 -0 -1.2 0
14.668 -22.082 16.127 -0 -1.2 0
17.854 -16.782 18.818 -0 -1.2 0
17.666 -17.226 18.613 -0 -1.2 0
17.474 -17.664 18.402 -0 -1.2 0
17.277 -18.099 18.186 -0 -1.2 0
17.074 -18.527 17.964 -0 -1.2 0
16.866 -18.951 17.737 -0 -1.2 0
16.652 -19.368 17.504 -0 -1.2 0
16.434 -19.781 17.268 -0 -1.2 0
16.211 -20.188 17.025 -0 -1.2 0
15.982 -20.589 16.777 -0 -1.2 0
15.75 -20.983 16.525 -0 -1.2 0
15.512 -21.372 16.267 -0 -1.2 0
15.269 -21.755 16.004 -0 -1.2 0
15.022 -22.132 15.737 -0 -1.2 0
18.499 -16.76 18.208 -0 -1.2 0
18.304 -17.204 18.01 -0 -1.2 0
18.105 -17.643 17.807 -0 -1.2 0
17.9 -18.078 17.598 -0 -1.2 0
17.689 -18.506 17.384 -0 -1.2 0
17.474 -18.93 17.164 -0 -1.2 0
17.252 -19.348 16.94 -0 -1.2 0
17.026 -19.761 16.711 -0 -1.2 0
16.795 -20.168 16.477 -0 -1.2 0
16.559 -20.569 16.237 -0 -1.2 0
16.317 -20.964 15.994 -0 -1.2 0
16.071 -21.353 15.744 -0 -1.2 0
15.819 -21.737 15.491 -0 -1.2 0
15.563 -22.114 15.234 -0 -1.2 0
19.345 -16.288 17.733 -0 -1.2 0
19.15 -16.737 17.547 -0 -1.2 0
18.95 -17.182 17.357 -0 -1.2 0
18.742 -17.62 17.161 -0 -1.2 0
18.53 -18.055 16.961 -0 -1.2 0
17.86 -19.327 16.328 -0 -1.2 0
16.374 -21.717 14.936 -0 -1.2 0
16.108 -22.095 14.688 -0 -1.2 0
20.129 -15.813 17.264 -0 -1.2 0
19.934 -16.267 17.091 -0 -1.2 0
19.733 -16.716 16.913 -0 -1.2 0
19.525 -17.161 16.73 -0 -1.2 0
19.313 -17.6 16.542 -0 -1.2 0
19.093 -18.035 16.349 -0 -1.2 0
20.895 -15.333 16.757 -0 -1.2 0
20.7 -15.792 16.596 -0 -1.2 0
20.499 -16.246 16.43 -0 -1.2 0
20.078 -17.141 16.084 -0 -1.2 0
21.669 -14.848 16.173 -0 -1.2 0
21.476 -15.311 16.025 -0 -1.2 0
21.276 -15.77 15.871 -0 -1.2 0
21.07 -16.225 15.712 -0 -1.2 0
17.828 -21.664 13.255 -0 -1.2 0
20.418 -18.406 14.212 -0 -1.2 0
24.116 -12.416 14.518 -0 -1.2 0
25.197 -11.904 12.97 -0 -1.2 0
24.697 -14.289 11.606 -0 -1.2 0
28.867 0.473 9.056 -0 -1.2 0
28.02 -3.127 8.782 -0 -1.2 0
28.021 -3.638 8.779 -0 -1.2 0
28.033 -4.151 8.778 -0 -1.2 0
28.045 -4.667 8.778 -0 -1.2 0
28.057 -5.184 8.779 -0 -1.2 0
28.09 -5.709 8.784 -0 -1.2 0
28.067 -6.227 8.774 -0 -1.2 0
28.185 -7.842 8.796 -0 -1.2 0
29.144 0.484 8.055 -0 -1.2 0
29.168 -0.038 8.058 -0 -1.2 0
28.891 -0.566 7.984 -0 -1.2 0
28.935 -1.084 7.991 -0 -1.2 0
29.184 -1.607 8.051 -0 -1.2 0
29.172 -2.131 8.044 -0 -1.2 0
29.151 -2.654 8.036 -0 -1.2 0
29.121 -3.176 8.024 -0 -1.2 0
29.082 -3.698 8.012 -0 -1.2 0
29.035 -4.22 7.995 -0 -1.2 0
28.978 -4.74 7.978 -0 -1.2 0
28.913 -5.26 7.958 -0 -1.2 0
28.84 -5.777 7.936 -0 -1.2 0
28.565 -7.321 7.855 -0 -1.2 0
29.424 -0.023 6.987 -0 -1.2 0
29.438 -0.546 6.987 -0 -1.2 0
29.444 -1.069 6.984 -0 -1.2 0
29.44 -1.592 6.981 -0 -1.2 0
29.428 -2.116 6.974 -0 -1.2 0
29.407 -2.638 6.966 -0 -1.2 0
29.377 -3.161 6.956 -0 -1.2 0
29.338 -3.683 6.945 -0 -1.2 0
29.29 -4.205 6.931 -0 -1.2 0
29.234 -4.725 6.916 -0 -1.2 0
29.168 -5.244 6.899 -0 -1.2 0
29.01 -6.279 6.859 -0 -1.2 0
28.918 -6.793 6.836 -0 -1.2 0
28.707 -7.818 6.784 -0 -1.2 0
28.588 -8.327 6.755 -0 -1.2 0
28.181 -9.841 6.658 -0 -1.2 0
28.029 -10.341 6.622 -0 -1.2 0
27.868 -10.837 6.585 -0 -1.2 0
29.625 -0.009 5.984 -0 -1.2 0
29.64 -0.531 5.984 -0 -1.2 0
29.645 -1.054 5.982 -0 -1.2 0
29.643 -1.578 5.978 -0 -1.2 0
29.631 -2.102 5.973 -0 -1.2 0
29.609 -2.624 5.966 -0 -1.2 0
29.579 -3.147 5.957 -0 -1.2 0
29.539 -3.669 5.948 -0 -1.2 0
29.491 -4.191 5.936 -0 -1.2 0
29.368 -5.23 5.908 -0 -1.2 0
29.293 -5.748 5.891 -0 -1.2 0
29.016 -7.293 5.833 -0 -1.2 0
29.792 0.004 4.974 -0 -1.2 0
29.806 -0.517 4.974 -0 -1.2 0
29.813 -1.04 4.971 -0 -1.2 0
29.809 -1.564 4.968 -0 -1.2 0
29.796 -2.088 4.964 -0 -1.2 0
29.776 -2.61 4.958 -0 -1.2 0
29.745 -3.133 4.951 -0 -1.2 0
29.706 -3.655 4.943 -0 -1.2 0
29.657 -4.177 4.933 -0 -1.2 0
29.601 -4.697 4.922 -0 -1.2 0
29.534 -5.217 4.91 -0 -1.2 0
29.068 -7.79 4.829 -0 -1.2 0
27.679 -12.282 4.605 -0 -1.2 0
27.276 -13.247 4.542 -0 -1.2 0
29.932 0.019 3.871 -0 -1.2 0
29.946 -0.503 3.871 -0 -1.2 0
29.953 -1.026 3.869 -0 -1.2 0
29.95 -1.549 3.865 -0 -1.2 0
29.938 -2.073 3.862 -0 -1.2 0
29.917 -2.596 3.857 -0 -1.2 0
29.886 -3.118 3.851 -0 -1.2 0
29.847 -3.64 3.845 -0 -1.2 0
29.798 -4.162 3.837 -0 -1.2 0
29.675 -5.202 3.819 -0 -1.2 0
29.421 -6.751 3.785 -0 -1.2 0
29.087 -8.285 3.742 -0 -1.2 0
28.183 -11.291 3.632 -0 -1.2 0
29.616 -0.486 1.787 -0 -1.2 0
29.633 -1 1.785 -0 -1.2 0
30.1 -1.522 1.8 -0 -1.2 0
30.088 -2.046 1.797 -0 -1.2 0
28.502 -10.771 1.707 -0 -1.2 0
30.106 -2.04 0.691 -0 -1.2 0
30.063 0.114 -1.823 -0 -1.2 0
30.078 -0.408 -1.833 -0 -1.2 0
30.085 -0.931 -1.843 -0 -1.2 0
30.083 -1.454 -1.853 -0 -1.2 0
30.071 -1.978 -1.862 -0 -1.2 0
30.021 -3.023 -1.881 -0 -1.2 0
29.935 -4.067 -1.897 -0 -1.2 0
29.811 -5.107 -1.914 -0 -1.2 0
29.097 -8.699 -1.957 -0 -1.2 0
28.494 -10.704 -1.973 -0 -1.2 0
30.008 0.122 -2.837 -0 -1.2 0
30.024 -0.4 -2.847 -0 -1.2 0
30.03 -0.923 -2.857 -0 -1.2 0
30.028 -1.446 -2.866 -0 -1.2 0
29.996 -2.493 -2.881 -0 -1.2 0
29.966 -3.016 -2.888 -0 -1.2 0
29.879 -4.06 -2.901 -0 -1.2 0
29.822 -4.58 -2.907 -0 -1.2 0
29.042 -8.692 -2.924 -0 -1.2 0
28.905 -9.197 -2.923 -0 -1.2 0
29.909 0.127 -3.925 -0 -1.2 0
29.925 -0.394 -3.936 -0 -1.2 0
29.931 -0.917 -3.945 -0 -1.2 0
29.929 -1.44 -3.953 -0 -1.2 0
29.917 -1.965 -3.96 -0 -1.2 0
29.896 -2.487 -3.966 -0 -1.2 0
29.867 -3.01 -3.971 -0 -1.2 0
29.829 -3.532 -3.976 -0 -1.2 0
29.781 -4.054 -3.979 -0 -1.2 0
29.658 -5.094 -3.983 -0 -1.2 0
29.583 -5.612 -3.983 -0 -1.2 0
29.498 -6.129 -3.982 -0 -1.2 0
29.405 -6.644 -3.981 -0 -1.2 0
29.303 -7.157 -3.977 -0 -1.2 0
28.945 -8.687 -3.964 -0 -1.2 0
28.807 -9.192 -3.957 -0 -1.2 0
28.343 -10.692 -3.931 -0 -1.2 0
29.787 0.13 -4.901 -0 -1.2 0
29.802 -0.392 -4.911 -0 -1.2 0
29.808 -0.915 -4.919 -0 -1.2 0
29.806 -1.438 -4.926 -0 -1.2 0
29.794 -1.962 -4.932 -0 -1.2 0
29.773 -2.485 -4.937 -0 -1.2 0
29.705 -3.529 -4.943 -0 -1.2 0
29.657 -4.052 -4.944 -0 -1.2 0
29.599 -4.572 -4.944 -0 -1.2 0
29.534 -5.092 -4.942 -0 -1.2 0
29.459 -5.609 -4.939 -0 -1.2 0
29.375 -6.126 -4.935 -0 -1.2 0
29.283 -6.642 -4.929 -0 -1.2 0
29.181 -7.155 -4.923 -0 -1.2 0
29.071 -7.667 -4.915 -0 -1.2 0
28.952 -8.176 -4.905 -0 -1.2 0
28.823 -8.685 -4.894 -0 -1.2 0
28.687 -9.19 -4.882 -0 -1.2 0
28.542 -9.692 -4.869 -0 -1.2 0
28.224 -10.69 -4.84 -0 -1.2 0
27.873 -11.676 -4.804 -0 -1.2 0
29.632 0.129 -5.857 -0 -1.2 0
29.648 -0.393 -5.866 -0 -1.2 0
29.654 -0.916 -5.874 -0 -1.2 0
29.651 -1.439 -5.88 -0 -1.2 0
29.639 -1.963 -5.886 -0 -1.2 0
29.619 -2.486 -5.888 -0 -1.2 0
29.589 -3.008 -5.891 -0 -1.2 0
29.55 -3.53 -5.89 -0 -1.2 0
29.502 -4.053 -5.889 -0 -1.2 0
29.446 -4.573 -5.886 -0 -1.2 0
29.379 -5.093 -5.881 -0 -1.2 0
29.305 -5.61 -5.875 -0 -1.2 0
29.222 -6.127 -5.868 -0 -1.2 0
29.129 -6.643 -5.858 -0 -1.2 0
29.028 -7.156 -5.847 -0 -1.2 0
28.8 -8.177 -5.822 -0 -1.2 0
28.673 -8.686 -5.805 -0 -1.2 0
28.536 -9.191 -5.789 -0 -1.2 0
28.391 -9.693 -5.77 -0 -1.2 0
28.238 -10.194 -5.75 -0 -1.2 0
25.215 -16.837 -5.311 -0 -1.2 0
29.409 0.651 -6.867 -0 -1.2 0
29.433 0.128 -6.878 -0 -1.2 0
29.447 -0.394 -6.888 -0 -1.2 0
29.454 -0.917 -6.895 -0 -1.2 0
29.451 -1.44 -6.9 -0 -1.2 0
29.439 -1.964 -6.905 -0 -1.2 0
29.418 -2.487 -6.907 -0 -1.2 0
29.389 -3.009 -6.906 -0 -1.2 0
29.35 -3.531 -6.904 -0 -1.2 0
29.302 -4.054 -6.901 -0 -1.2 0
29.246 -4.574 -6.895 -0 -1.2 0
29.18 -5.094 -6.887 -0 -1.2 0
29.107 -5.611 -6.877 -0 -1.2 0
29.023 -6.129 -6.866 -0 -1.2 0
28.932 -6.644 -6.853 -0 -1.2 0
28.831 -7.157 -6.838 -0 -1.2 0
28.722 -7.669 -6.821 -0 -1.2 0
28.604 -8.179 -6.802 -0 -1.2 0
28.477 -8.687 -6.781 -0 -1.2 0
26.061 -15.019 -6.346 -0 -1.2 0
29.229 -0.399 -7.831 -0 -1.2 0
29.234 -0.922 -7.838 -0 -1.2 0
29.231 -1.445 -7.843 -0 -1.2 0
29.22 -1.969 -7.846 -0 -1.2 0
29.198 -2.492 -7.846 -0 -1.2 0
29.17 -3.015 -7.844 -0 -1.2 0
29.131 -3.537 -7.84 -0 -1.2 0
29.083 -4.059 -7.834 -0 -1.2 0
29.027 -4.579 -7.825 -0 -1.2 0
28.962 -5.099 -7.815 -0 -1.2 0
28.889 -5.617 -7.802 -0 -1.2 0
28.806 -6.134 -7.787 -0 -1.2 0
28.715 -6.649 -7.77 -0 -1.2 0
28.615 -7.162 -7.751 -0 -1.2 0
28.506 -7.674 -7.73 -0 -1.2 0
28.389 -8.184 -7.706 -0 -1.2 0
28.264 -8.692 -7.681 -0 -1.2 0
28.129 -9.197 -7.653 -0 -1.2 0
26.951 -12.656 -7.4 -0 -1.2 0
26.75 -13.137 -7.355 -0 -1.2 0
28.891 -1.449 -8.872 -0 -1.2 0
28.937 -1.974 -8.889 -0 -1.2 0
28.917 -2.497 -8.888 -0 -1.2 0
28.888 -3.02 -8.885 -0 -1.2 0
28.849 -3.542 -8.879 -0 -1.2 0
28.802 -4.064 -8.87 -0 -1.2 0
28.719 -4.581 -8.85 -0 -1.2 0
28.683 -5.104 -8.845 -0 -1.2 0
28.609 -5.622 -8.829 -0 -1.2 0
28.528 -6.139 -8.81 -0 -1.2 0
28.438 -6.654 -8.789 -0 -1.2 0
28.338 -7.167 -8.765 -0 -1.2 0
28.23 -7.679 -8.74 -0 -1.2 0
28.115 -8.189 -8.711 -0 -1.2 0
27.99 -8.697 -8.68 -0 -1.2 0
27.857 -9.202 -8.647 -0 -1.2 0
27.715 -9.705 -8.611 -0 -1.2 0
27.565 -10.205 -8.572 -0 -1.2 0
27.406 -10.702 -8.532 -0 -1.2 0
27.24 -11.197 -8.488 -0 -1.2 0
27.065 -11.688 -8.444 -0 -1.2 0
26.689 -12.661 -8.346 -0 -1.2 0
26.49 -13.142 -8.293 -0 -1.2 0
26.283 -13.62 -8.239 -0 -1.2 0
26.067 -14.093 -8.181 -0 -1.2 0
25.844 -14.564 -8.122 -0 -1.2 0
27.428 -9.698 -9.536 -0 -1.2 0
27.279 -10.199 -9.493 -0 -1.2 0
27.122 -10.696 -9.447 -0 -1.2 0
26.602 -12.169 -9.293 -0 -1.2 0
26.413 -12.655 -9.236 -0 -1.2 0
23.814 -17.724 -8.445 -0 -1.2 0
23.533 -18.156 -8.359 -0 -1.2 0
26.645 -11.18 -10.3 -0 -1.2 0
25.279 -14.548 -9.839 -0 -1.2 0
21.122 -21.027 -8.402 -0 -1.2 0
20.452 -21.797 -8.169 -0 -1.2 0
25.926 -12.147 -11.136 -0 -1.2 0
25.549 -13.114 -10.993 -0 -1.2 0
25.349 -13.592 -10.916 -0 -1.2 0
23.988 -16.373 -10.395 -0 -1.2 0
21.148 -20.623 -9.292 -0 -1.2 0
20.166 -21.788 -8.908 -0 -1.2 0
25.157 -13.101 -11.905 -0 -1.2 0
24.96 -13.579 -11.821 -0 -1.2 0
24.755 -14.053 -11.735 -0 -1.2 0
24.543 -14.524 -11.645 -0 -1.2 0
23.621 -16.361 -11.252 -0 -1.2 0
21.134 -20.212 -10.18 -0 -1.2 0
20.508 -21.006 -9.91 -0 -1.2 0
20.186 -21.395 -9.77 -0 -1.2 0
19.858 -21.778 -9.627 -0 -1.2 0
24.336 -14.039 -12.621 -0 -1.2 0
24.128 -14.51 -12.524 -0 -1.2 0
23.912 -14.976 -12.422 -0 -1.2 0
23.689 -15.438 -12.317 -0 -1.2 0
23.458 -15.896 -12.209 -0 -1.2 0
23.221 -16.348 -12.097 -0 -1.2 0
22.975 -16.797 -11.982 -0 -1.2 0
22.724 -17.24 -11.863 -0 -1.2 0
22.466 -17.679 -11.741 -0 -1.2 0
20.161 -20.995 -10.643 -0 -1.2 0
19.844 -21.384 -10.492 -0 -1.2 0
19.521 -21.767 -10.337 -0 -1.2 0
23.85 -14.024 -13.553 -0 -1.2 0
23.646 -14.495 -13.447 -0 -1.2 0
23.435 -14.961 -13.338 -0 -1.2 0
23.216 -15.424 -13.224 -0 -1.2 0
22.99 -15.881 -13.108 -0 -1.2 0
22.757 -16.334 -12.986 -0 -1.2 0
22.518 -16.783 -12.862 -0 -1.2 0
22.271 -17.226 -12.732 -0 -1.2 0
22.018 -17.665 -12.601 -0 -1.2 0
21.219 -18.95 -12.182 -0 -1.2 0
20.655 -19.781 -11.885 -0 -1.2 0
20.362 -20.187 -11.731 -0 -1.2 0
20.064 -20.588 -11.575 -0 -1.2 0
19.76 -20.983 -11.414 -0 -1.2 0
19.449 -21.371 -11.25 -0 -1.2 0
19.134 -21.755 -11.083 -0 -1.2 0
23.165 -14.48 -14.29 -0 -1.2 0
22.523 -15.867 -13.926 -0 -1.2 0
22.295 -16.32 -13.797 -0 -1.2 0
22.061 -16.769 -13.663 -0 -1.2 0
21.82 -17.212 -13.526 -0 -1.2 0
21.572 -17.651 -13.384 -0 -1.2 0
21.317 -18.085 -13.239 -0 -1.2 0
20.789 -18.937 -12.937 -0 -1.2 0
20.516 -19.355 -12.78 -0 -1.2 0
20.236 -19.768 -12.62 -0 -1.2 0
19.95 -20.174 -12.456 -0 -1.2 0
19.657 -20.575 -12.288 -0 -1.2 0
19.359 -20.97 -12.117 -0 -1.2 0
19.056 -21.359 -11.942 -0 -1.2 0
18.746 -21.742 -11.764 -0 -1.2 0
22.461 -14.932 -14.973 -0 -1.2 0
21.584 -16.755 -14.432 -0 -1.2 0
21.348 -17.198 -14.286 -0 -1.2 0
21.106 -17.638 -14.136 -0 -1.2 0
20.073 -19.343 -13.494 -0 -1.2 0
19.799 -19.755 -13.324 -0 -1.2 0
19.519 -20.162 -13.15 -0 -1.2 0
19.234 -20.563 -12.972 -0 -1.2 0
18.942 -20.958 -12.79 -0 -1.2 0
18.645 -21.347 -12.604 -0 -1.2 0
18.342 -21.731 -12.415 -0 -1.2 0
20.586 -17.624 -14.909 -0 -1.2 0
20.344 -18.058 -14.745 -0 -1.2 0
19.313 -19.742 -14.048 -0 -1.2 0
18.763 -20.551 -13.674 -0 -1.2 0
18.479 -20.946 -13.481 -0 -1.2 0
18.189 -21.335 -13.284 -0 -1.2 0
17.894 -21.719 -13.084 -0 -1.2 0
20.079 -17.611 -15.606 -0 -1.2 0
18.025 -20.934 -14.105 -0 -1.2 0
17.744 -21.324 -13.898 -0 -1.2 0
17.456 -21.708 -13.687 -0 -1.2 0
19.573 -17.6 -16.254 -0 -1.2 0
18.865 -18.887 -15.7 -0 -1.2 0
18.106 -20.127 -15.104 -0 -1.2 0
17.842 -20.528 -14.896 -0 -1.2 0
17.573 -20.924 -14.684 -0 -1.2 0
17.298 -21.314 -14.467 -0 -1.2 0
17.019 -21.698 -14.247 -0 -1.2 0
17.08 -20.913 -15.272 -0 -1.2 0
16.813 -21.303 -15.046 -0 -1.2 0
16.541 -21.687 -14.816 -0 -1.2 0
16.858 -20.506 -16.032 -0 -1.2 0
16.604 -20.902 -15.802 -0 -1.2 0
16.345 -21.292 -15.567 -0 -1.2 0
16.081 -21.677 -15.327 -0 -1.2 0
17.065 -19.272 -17.238 -0 -1.2 0
16.834 -19.686 -17.015 -0 -1.2 0
16.357 -20.495 -16.553 -0 -1.2 0
16.111 -20.892 -16.316 -0 -1.2 0
15.86 -21.282 -16.072 -0 -1.2 0
15.605 -21.667 -15.825 -0 -1.2 0
16.921 -18.433 -18.23 -0 -1.2 0
16.268 -19.69 -17.551 -0 -1.2 0
16.039 -20.097 -17.314 -0 -1.2 0
15.807 -20.499 -17.073 -0 -1.2 0
15.57 -20.895 -16.826 -0 -1.2 0
15.328 -21.286 -16.574 -0 -1.2 0
15.082 -21.67 -16.317 -0 -1.2 0
15.952 -19.299 -18.236 -0 -1.2 0
15.293 -20.521 -17.503 -0 -1.2 0
15.064 -20.917 -17.249 -0 -1.2 0
14.83 -21.307 -16.988 -0 -1.2 0
14.592 -21.691 -16.723 -0 -1.2 0
15.398 -19.321 -18.677 -0 -1.2 0
14.979 -20.141 -18.179 -0 -1.2 0
14.763 -20.543 -17.922 -0 -1.2 0
14.542 -20.938 -17.659 -0 -1.2 0
14.316 -21.328 -17.391 -0 -1.2 0
14.086 -21.712 -17.118 -0 -1.2 0
18.585 -0.82 -24.028 -0 -1.2 0
14.582 -19.758 -18.885 -0 -1.2 0
14.378 -20.165 -18.626 -0 -1.2 0
14.171 -20.566 -18.36 -0 -1.2 0
13.959 -20.961 -18.09 -0 -1.2 0
13.744 -21.35 -17.814 -0 -1.2 0
13.523 -21.734 -17.532 -0 -1.2 0
17.801 -0.853 -24.606 -0 -1.2 0
13.978 -19.784 -19.301 -0 -1.2 0
13.784 -20.191 -19.035 -0 -1.2 0
13.586 -20.592 -18.763 -0 -1.2 0
13.383 -20.986 -18.484 -0 -1.2 0
13.176 -21.375 -18.2 -0 -1.2 0
12.966 -21.758 -17.912 -0 -1.2 0
17.001 -0.89 -25.154 -0 -1.2 0
15.12 -14.997 -22.299 -0 -1.2 0
14.225 -17.7 -20.972 -0 -1.2 0
13.892 -18.561 -20.478 -0 -1.2 0
13.176 -20.219 -19.42 -0 -1.2 0
12.987 -20.62 -19.14 -0 -1.2 0
12.795 -21.014 -18.856 -0 -1.2 0
12.598 -21.403 -18.565 -0 -1.2 0
12.397 -21.785 -18.268 -0 -1.2 0
16.113 -0.927 -25.72 -0 -1.2 0
16.115 -1.45 -25.718 -0 -1.2 0
16.11 -1.975 -25.707 -0 -1.2 0
13.34 -18.163 -21.165 -0 -1.2 0
13.018 -19.013 -20.645 -0 -1.2 0
12.679 -19.842 -20.102 -0 -1.2 0
12.503 -20.248 -19.821 -0 -1.2 0
12.325 -20.648 -19.534 -0 -1.2 0
12.142 -21.042 -19.243 -0 -1.2 0
11.955 -21.43 -18.944 -0 -1.2 0
11.765 -21.812 -18.64 -0 -1.2 0
14.682 -9.737 -25.085 -0 -1.2 0
14.607 -10.238 -24.949 -0 -1.2 0
13.486 -15.521 -22.975 -0 -1.2 0
13.359 -15.978 -22.753 -0 -1.2 0
12.954 -17.32 -22.046 -0 -1.2 0
12.811 -17.758 -21.797 -0 -1.2 0
12.664 -18.191 -21.542 -0 -1.2 0
12.512 -18.618 -21.28 -0 -1.2 0
12.359 -19.04 -21.011 -0 -1.2 0
12.2 -19.457 -20.737 -0 -1.2 0
12.038 -19.868 -20.456 -0 -1.2 0
11.872 -20.274 -20.169 -0 -1.2 0
11.703 -20.673 -19.876 -0 -1.2 0
11.53 -21.067 -19.577 -0 -1.2 0
11.354 -21.454 -19.272 -0 -1.2 0
11.174 -21.836 -18.962 -0 -1.2 0
13.943 -9.246 -25.656 -0 -1.2 0
13.876 -9.748 -25.525 -0 -1.2 0
12.869 -15.07 -23.592 -0 -1.2 0
12.754 -15.531 -23.372 -0 -1.2 0
12.511 -16.44 -22.912 -0 -1.2 0
12.383 -16.887 -22.672 -0 -1.2 0
12.253 -17.33 -22.425 -0 -1.2 0
12.118 -17.768 -22.171 -0 -1.2 0
11.98 -18.2 -21.911 -0 -1.2 0
11.838 -18.628 -21.644 -0 -1.2 0
11.692 -19.049 -21.37 -0 -1.2 0
11.543 -19.466 -21.09 -0 -1.2 0
11.391 -19.877 -20.803 -0 -1.2 0
11.236 -20.282 -20.511 -0 -1.2 0
11.075 -20.682 -20.212 -0 -1.2 0
10.913 -21.075 -19.907 -0 -1.2 0
10.747 -21.463 -19.597 -0 -1.2 0
10.578 -21.845 -19.28 -0 -1.2 0
12.989 -9.761 -25.971 -0 -1.2 0
12.854 -10.758 -25.68 -0 -1.2 0
12.703 -11.744 -25.359 -0 -1.2 0
12.622 -12.231 -25.187 -0 -1.2 0
12.537 -12.716 -25.007 -0 -1.2 0
11.947 -15.543 -23.774 -0 -1.2 0
11.837 -16 -23.543 -0 -1.2 0
11.721 -16.451 -23.305 -0 -1.2 0
11.604 -16.899 -23.06 -0 -1.2 0
11.482 -17.341 -22.808 -0 -1.2 0
11.357 -17.779 -22.549 -0 -1.2 0
11.228 -18.211 -22.283 -0 -1.2 0
11.096 -18.639 -22.011 -0 -1.2 0
10.96 -19.06 -21.733 -0 -1.2 0
10.821 -19.477 -21.447 -0 -1.2 0
10.679 -19.888 -21.155 -0 -1.2 0
10.534 -20.293 -20.857 -0 -1.2 0
10.386 -20.692 -20.553 -0 -1.2 0
10.235 -21.085 -20.242 -0 -1.2 0
10.08 -21.473 -19.925 -0 -1.2 0
9.922 -21.854 -19.603 -0 -1.2 0
12.212 -9.274 -26.489 -0 -1.2 0
11.386 -14.63 -24.566 -0 -1.2 0
11.29 -15.095 -24.345 -0 -1.2 0
11.191 -15.556 -24.118 -0 -1.2 0
11.087 -16.013 -23.883 -0 -1.2 0
10.981 -16.464 -23.641 -0 -1.2 0
10.87 -16.912 -23.392 -0 -1.2 0
10.757 -17.354 -23.136 -0 -1.2 0
10.641 -17.792 -22.873 -0 -1.2 0
10.521 -18.224 -22.603 -0 -1.2 0
10.398 -18.651 -22.326 -0 -1.2 0
10.272 -19.072 -22.043 -0 -1.2 0
10.143 -19.489 -21.752 -0 -1.2 0
10.011 -19.9 -21.456 -0 -1.2 0
9.876 -20.304 -21.153 -0 -1.2 0
9.738 -20.703 -20.844 -0 -1.2 0
9.597 -21.096 -20.528 -0 -1.2 0
9.452 -21.484 -20.206 -0 -1.2 0
9.306 -21.865 -19.878 -0 -1.2 0
11.72 -1.017 -27.934 -0 -1.2 0
11.724 -1.54 -27.928 -0 -1.2 0
11.724 -2.065 -27.915 -0 -1.2 0
11.721 -2.587 -27.892 -0 -1.2 0
11.714 -3.11 -27.862 -0 -1.2 0
10.686 -14.175 -25.109 -0 -1.2 0
10.511 -15.109 -24.669 -0 -1.2 0
10.42 -15.57 -24.438 -0 -1.2 0
10.324 -16.027 -24.199 -0 -1.2 0
10.227 -16.478 -23.953 -0 -1.2 0
10.125 -16.925 -23.7 -0 -1.2 0
10.02 -17.367 -23.44 -0 -1.2 0
9.913 -17.805 -23.173 -0 -1.2 0
9.803 -18.237 -22.899 -0 -1.2 0
9.689 -18.664 -22.618 -0 -1.2 0
9.573 -19.085 -22.331 -0 -1.2 0
9.453 -19.501 -22.036 -0 -1.2 0
9.331 -19.912 -21.735 -0 -1.2 0
9.206 -20.317 -21.427 -0 -1.2 0
9.078 -20.715 -21.113 -0 -1.2 0
8.948 -21.108 -20.793 -0 -1.2 0
8.814 -21.495 -20.466 -0 -1.2 0
8.678 -21.877 -20.133 -0 -1.2 0
10.745 -1.036 -28.309 -0 -1.2 0
10.75 -1.559 -28.303 -0 -1.2 0
10.751 -2.083 -28.289 -0 -1.2 0
10.749 -2.606 -28.266 -0 -1.2 0
10.744 -3.128 -28.235 -0 -1.2 0
10.736 -3.65 -28.196 -0 -1.2 0
10.617 -6.761 -27.779 -0 -1.2 0
9.58 -15.586 -24.756 -0 -1.2 0
9.403 -16.493 -24.265 -0 -1.2 0
9.312 -16.941 -24.008 -0 -1.2 0
9.217 -17.382 -23.744 -0 -1.2 0
9.119 -17.82 -23.473 -0 -1.2 0
9.018 -18.252 -23.194 -0 -1.2 0
8.915 -18.679 -22.909 -0 -1.2 0
8.809 -19.1 -22.618 -0 -1.2 0
8.7 -19.516 -22.318 -0 -1.2 0
8.589 -19.926 -22.013 -0 -1.2 0
8.475 -20.331 -21.7 -0 -1.2 0
8.359 -20.729 -21.382 -0 -1.2 0
8.24 -21.122 -21.057 -0 -1.2 0
8.118 -21.509 -20.725 -0 -1.2 0
7.994 -21.89 -20.387 -0 -1.2 0
9.831 -1.055 -28.623 -0 -1.2 0
9.837 -1.578 -28.617 -0 -1.2 0
9.839 -2.102 -28.602 -0 -1.2 0
9.839 -2.625 -28.579 -0 -1.2 0
9.771 -5.748 -28.258 -0 -1.2 0
8.714 -16.059 -24.775 -0 -1.2 0
8.633 -16.51 -24.522 -0 -1.2 0
8.549 -16.957 -24.262 -0 -1.2 0
8.463 -17.398 -23.995 -0 -1.2 0
8.374 -17.836 -23.721 -0 -1.2 0
8.283 -18.267 -23.439 -0 -1.2 0
8.19 -18.694 -23.15 -0 -1.2 0
8.094 -19.115 -22.854 -0 -1.2 0
7.995 -19.531 -22.552 -0 -1.2 0
7.894 -19.941 -22.242 -0 -1.2 0
7.791 -20.345 -21.926 -0 -1.2 0
7.685 -20.744 -21.604 -0 -1.2 0
7.577 -21.136 -21.274 -0 -1.2 0
7.467 -21.523 -20.939 -0 -1.2 0
7.355 -21.903 -20.597 -0 -1.2 0
8.904 -1.078 -28.909 -0 -1.2 0
8.91 -1.601 -28.902 -0 -1.2 0
8.912 -2.125 -28.888 -0 -1.2 0
8.913 -2.648 -28.863 -0 -1.2 0
8.795 -7.315 -28.259 -0 -1.2 0
7.775 -16.976 -24.494 -0 -1.2 0
7.698 -17.418 -24.223 -0 -1.2 0
7.619 -17.855 -23.946 -0 -1.2 0
7.537 -18.286 -23.661 -0 -1.2 0
7.453 -18.713 -23.368 -0 -1.2 0
7.367 -19.133 -23.07 -0 -1.2 0
7.279 -19.549 -22.763 -0 -1.2 0
7.188 -19.959 -22.451 -0 -1.2 0
7.095 -20.363 -22.131 -0 -1.2 0
7 -20.761 -21.804 -0 -1.2 0
6.903 -21.153 -21.471 -0 -1.2 0
6.804 -21.539 -21.132 -0 -1.2 0
6.702 -21.92 -20.786 -0 -1.2 0
7.923 -1.645 -29.172 -0 -1.2 0
7.927 -2.169 -29.156 -0 -1.2 0
7.928 -2.691 -29.131 -0 -1.2 0
7.142 -15.661 -25.476 -0 -1.2 0
7.081 -16.116 -25.225 -0 -1.2 0
7.019 -16.567 -24.966 -0 -1.2 0
6.953 -17.013 -24.701 -0 -1.2 0
6.886 -17.454 -24.427 -0 -1.2 0
6.816 -17.891 -24.145 -0 -1.2 0
6.745 -18.322 -23.857 -0 -1.2 0
6.671 -18.748 -23.561 -0 -1.2 0
6.596 -19.168 -23.259 -0 -1.2 0
6.518 -19.583 -22.949 -0 -1.2 0
6.439 -19.992 -22.632 -0 -1.2 0
6.357 -20.396 -22.309 -0 -1.2 0
6.273 -20.794 -21.979 -0 -1.2 0
6.188 -21.185 -21.643 -0 -1.2 0
6.102 -21.571 -21.299 -0 -1.2 0
6.012 -21.951 -20.95 -0 -1.2 0
6.998 -0.645 -29.39 -0 -1.2 0
7.014 -1.691 -29.383 -0 -1.2 0
7.019 -2.215 -29.367 -0 -1.2 0
7.022 -2.738 -29.342 -0 -1.2 0
7.023 -3.26 -29.307 -0 -1.2 0
7.005 -5.342 -29.081 -0 -1.2 0
6.953 -7.403 -28.714 -0 -1.2 0
6.309 -16.156 -25.387 -0 -1.2 0
6.253 -16.606 -25.126 -0 -1.2 0
6.197 -17.052 -24.857 -0 -1.2 0
6.139 -17.493 -24.581 -0 -1.2 0
6.078 -17.929 -24.297 -0 -1.2 0
6.017 -18.359 -24.005 -0 -1.2 0
5.953 -18.785 -23.707 -0 -1.2 0
5.886 -19.205 -23.401 -0 -1.2 0
5.819 -19.619 -23.089 -0 -1.2 0
5.75 -20.028 -22.769 -0 -1.2 0
5.679 -20.431 -22.443 -0 -1.2 0
5.607 -20.828 -22.11 -0 -1.2 0
5.532 -21.219 -21.769 -0 -1.2 0
5.456 -21.605 -21.423 -0 -1.2 0
5.378 -21.984 -21.07 -0 -1.2 0
5.529 -16.196 -25.527 -0 -1.2 0
5.483 -16.645 -25.264 -0 -1.2 0
5.435 -17.091 -24.992 -0 -1.2 0
5.386 -17.531 -24.713 -0 -1.2 0
5.335 -17.967 -24.428 -0 -1.2 0
5.282 -18.397 -24.134 -0 -1.2 0
5.227 -18.822 -23.833 -0 -1.2 0
5.172 -19.241 -23.524 -0 -1.2 0
5.114 -19.655 -23.209 -0 -1.2 0
5.056 -20.064 -22.887 -0 -1.2 0
4.995 -20.466 -22.558 -0 -1.2 0
4.933 -20.863 -22.222 -0 -1.2 0
4.87 -21.253 -21.878 -0 -1.2 0
4.805 -21.638 -21.529 -0 -1.2 0
4.738 -22.017 -21.174 -0 -1.2 0
5.097 -1.263 -29.746 -0 -1.2 0
5.106 -1.786 -29.736 -0 -1.2 0
5.112 -2.31 -29.719 -0 -1.2 0
5.117 -2.832 -29.691 -0 -1.2 0
5.012 -10.524 -28.218 -0 -1.2 0
4.784 -14.862 -26.404 -0 -1.2 0
4.718 -15.784 -25.912 -0 -1.2 0
4.683 -16.238 -25.653 -0 -1.2 0
4.646 -16.687 -25.387 -0 -1.2 0
4.607 -17.132 -25.114 -0 -1.2 0
4.568 -17.571 -24.833 -0 -1.2 0
4.527 -18.007 -24.544 -0 -1.2 0
4.484 -18.436 -24.248 -0 -1.2 0
4.44 -18.861 -23.945 -0 -1.2 0
4.395 -19.28 -23.634 -0 -1.2 0
4.349 -19.693 -23.316 -0 -1.2 0
4.301 -20.101 -22.992 -0 -1.2 0
4.252 -20.503 -22.659 -0 -1.2 0
4.202 -20.899 -22.321 -0 -1.2 0
4.15 -21.289 -21.976 -0 -1.2 0
4.097 -21.673 -21.623 -0 -1.2 0
4.043 -22.052 -21.264 -0 -1.2 0
4.052 -11.069 -28.164 -0 -1.2 0
3.878 -15.371 -26.26 -0 -1.2 0
3.853 -15.83 -26.009 -0 -1.2 0
3.826 -16.283 -25.749 -0 -1.2 0
3.799 -16.732 -25.482 -0 -1.2 0
3.77 -17.177 -25.206 -0 -1.2 0
3.741 -17.615 -24.922 -0 -1.2 0
3.71 -18.05 -24.631 -0 -1.2 0
3.677 -18.479 -24.333 -0 -1.2 0
3.645 -18.903 -24.028 -0 -1.2 0
3.61 -19.321 -23.716 -0 -1.2 0
3.575 -19.735 -23.396 -0 -1.2 0
3.539 -20.142 -23.069 -0 -1.2 0
3.501 -20.543 -22.735 -0 -1.2 0
3.462 -20.939 -22.394 -0 -1.2 0
3.423 -21.328 -22.046 -0 -1.2 0
3.382 -21.712 -21.691 -0 -1.2 0
3.34 -22.089 -21.33 -0 -1.2 0
3.108 -3.459 -29.889 -0 -1.2 0
3.119 -4.502 -29.786 -0 -1.2 0
3.107 -10.623 -28.421 -0 -1.2 0
3.091 -11.61 -28.07 -0 -1.2 0
3.083 -12.099 -27.883 -0 -1.2 0
3.051 -13.543 -27.268 -0 -1.2 0
3.01 -14.955 -26.58 -0 -1.2 0
2.994 -15.417 -26.335 -0 -1.2 0
2.978 -15.875 -26.081 -0 -1.2 0
2.96 -16.328 -25.819 -0 -1.2 0
2.942 -16.776 -25.549 -0 -1.2 0
2.924 -17.22 -25.272 -0 -1.2 0
2.904 -17.659 -24.988 -0 -1.2 0
2.883 -18.093 -24.695 -0 -1.2 0
2.861 -18.522 -24.395 -0 -1.2 0
2.839 -18.945 -24.088 -0 -1.2 0
2.815 -19.363 -23.773 -0 -1.2 0
2.792 -19.775 -23.452 -0 -1.2 0
2.766 -20.182 -23.124 -0 -1.2 0
2.74 -20.583 -22.787 -0 -1.2 0
2.714 -20.977 -22.445 -0 -1.2 0
2.687 -21.366 -22.095 -0 -1.2 0
2.659 -21.749 -21.739 -0 -1.2 0
2.629 -22.126 -21.376 -0 -1.2 0
2.048 -6.111 -29.631 -0 -1.2 0
2.053 -6.627 -29.538 -0 -1.2 0
2.069 -9.175 -28.943 -0 -1.2 0
2.071 -10.676 -28.478 -0 -1.2 0
2.07 -11.17 -28.307 -0 -1.2 0
2.067 -12.15 -27.937 -0 -1.2 0
2.065 -12.634 -27.739 -0 -1.2 0
2.062 -13.116 -27.534 -0 -1.2 0
2.059 -13.594 -27.319 -0 -1.2 0
2.055 -14.068 -27.097 -0 -1.2 0
2.05 -14.537 -26.866 -0 -1.2 0
2.044 -15.004 -26.628 -0 -1.2 0
2.038 -15.465 -26.38 -0 -1.2 0
2.032 -15.923 -26.125 -0 -1.2 0
2.024 -16.375 -25.863 -0 -1.2 0
2.016 -16.823 -25.592 -0 -1.2 0
2.008 -17.267 -25.313 -0 -1.2 0
1.998 -17.705 -25.028 -0 -1.2 0
1.989 -18.138 -24.734 -0 -1.2 0
1.978 -18.566 -24.432 -0 -1.2 0
1.968 -18.989 -24.123 -0 -1.2 0
1.956 -19.406 -23.807 -0 -1.2 0
1.944 -19.818 -23.485 -0 -1.2 0
1.931 -20.224 -23.155 -0 -1.2 0
1.918 -20.624 -22.817 -0 -1.2 0
1.905 -21.019 -22.473 -0 -1.2 0
1.89 -21.407 -22.122 -0 -1.2 0
1.874 -21.789 -21.764 -0 -1.2 0
1.859 -22.165 -21.4 -0 -1.2 0
1.082 -10.198 -28.671 -0 -1.2 0
1.093 -11.189 -28.336 -0 -1.2 0
1.097 -11.681 -28.155 -0 -1.2 0
1.103 -12.169 -27.966 -0 -1.2 0
1.111 -13.136 -27.562 -0 -1.2 0
1.121 -14.556 -26.893 -0 -1.2 0
1.124 -15.022 -26.654 -0 -1.2 0
1.126 -15.484 -26.407 -0 -1.2 0
1.129 -15.941 -26.151 -0 -1.2 0
1.13 -16.394 -25.888 -0 -1.2 0
1.132 -16.841 -25.617 -0 -1.2 0
1.133 -17.285 -25.338 -0 -1.2 0
1.133 -17.722 -25.052 -0 -1.2 0
1.133 -18.156 -24.757 -0 -1.2 0
1.134 -18.584 -24.456 -0 -1.2 0
1.133 -19.006 -24.146 -0 -1.2 0
1.133 -19.423 -23.831 -0 -1.2 0
1.133 -19.835 -23.507 -0 -1.2 0
1.131 -20.241 -23.176 -0 -1.2 0
1.13 -20.641 -22.838 -0 -1.2 0
1.128 -21.035 -22.493 -0 -1.2 0
1.125 -21.423 -22.142 -0 -1.2 0
1.123 -21.805 -21.783 -0 -1.2 0
1.12 -22.181 -21.419 -0 -1.2 0
0.062 -7.174 -29.466 -0 -1.2 0
0.073 -7.685 -29.355 -0 -1.2 0
0.118 -9.71 -28.824 -0 -1.2 0
0.151 -11.202 -28.334 -0 -1.2 0
0.162 -11.694 -28.154 -0 -1.2 0
0.173 -12.182 -27.965 -0 -1.2 0
0.184 -12.666 -27.767 -0 -1.2 0
0.195 -13.148 -27.561 -0 -1.2 0
0.216 -14.099 -27.123 -0 -1.2 0
0.227 -14.568 -26.893 -0 -1.2 0
0.238 -15.034 -26.653 -0 -1.2 0
0.248 -15.495 -26.406 -0 -1.2 0
0.259 -15.953 -26.15 -0 -1.2 0
0.269 -16.405 -25.887 -0 -1.2 0
0.28 -16.852 -25.616 -0 -1.2 0
0.29 -17.296 -25.337 -0 -1.2 0
0.301 -17.733 -25.05 -0 -1.2 0
0.311 -18.167 -24.757 -0 -1.2 0
0.321 -18.594 -24.455 -0 -1.2 0
0.331 -19.017 -24.145 -0 -1.2 0
0.341 -19.434 -23.829 -0 -1.2 0
0.35 -19.845 -23.506 -0 -1.2 0
0.36 -20.251 -23.175 -0 -1.2 0
0.369 -20.651 -22.837 -0 -1.2 0
0.379 -21.044 -22.492 -0 -1.2 0
0.388 -21.432 -22.14 -0 -1.2 0
0.397 -21.814 -21.782 -0 -1.2 0
0.407 -22.19 -21.418 -0 -1.2 0
-1.005 -6.674 -29.532 -0 -1.2 0
-0.99 -7.188 -29.43 -0 -1.2 0
-0.975 -7.699 -29.32 -0 -1.2 0
-0.959 -8.209 -29.201 -0 -1.2 0
-0.944 -8.716 -29.072 -0 -1.2 0
-0.928 -9.222 -28.935 -0 -1.2 0
-0.911 -9.724 -28.79 -0 -1.2 0
-0.895 -10.224 -28.635 -0 -1.2 0
-0.877 -10.722 -28.472 -0 -1.2 0
-0.861 -11.215 -28.301 -0 -1.2 0
-0.844 -11.707 -28.12 -0 -1.2 0
-0.825 -12.195 -27.931 -0 -1.2 0
-0.808 -12.679 -27.733 -0 -1.2 0
-0.79 -13.161 -27.528 -0 -1.2 0
-0.771 -13.638 -27.314 -0 -1.2 0
-0.753 -14.112 -27.092 -0 -1.2 0
-0.734 -14.581 -26.86 -0 -1.2 0
-0.715 -15.047 -26.621 -0 -1.2 0
